ply
format ascii 1.0
element vertex 1321
property double x
property double y
property double z
property uchar red
property uchar green
property uchar blue
end_header
-0.072944 0.164306 2.206000 255 0 0
-0.066868 0.164234 2.205000 255 0 0
-0.060853 0.164311 2.206000 255 0 0
-0.054832 0.164388 2.207000 255 0 0
-0.048827 0.164539 2.209000 255 0 0
-0.042772 0.164540 2.209000 255 0 0
-0.036751 0.164691 2.211000 255 0 0
-0.030663 0.164543 2.209000 255 0 0
-0.024630 0.164693 2.211000 255 0 0
-0.018561 0.164619 2.210000 255 0 0
-0.012509 0.164695 2.211000 255 0 0
-0.006454 0.164844 2.213000 255 0 0
-0.000389 0.165291 2.219000 255 0 0
0.005715 0.165887 2.227000 255 0 0
0.011846 0.166259 2.232000 255 0 0
0.017996 0.166556 2.236000 255 0 0
0.024168 0.166853 2.240000 255 0 0
0.030376 0.167225 2.245000 255 0 0
0.036578 0.167447 2.248000 255 0 0
0.042816 0.167743 2.252000 255 0 0
0.049010 0.167816 2.253000 255 0 0
0.055308 0.168187 2.258000 255 0 0
0.061578 0.168408 2.261000 255 0 0
0.067894 0.168703 2.265000 255 0 0
0.074167 0.168850 2.267000 255 0 0
0.080627 0.169368 2.274000 255 0 0
0.087240 0.170110 2.284000 255 0 0
0.093785 0.170628 2.291000 255 0 0
0.100236 0.170922 2.295000 255 0 0
0.169149 0.170643 2.292000 255 0 0
0.173662 0.168924 2.269000 255 0 0
0.179079 0.168173 2.259000 255 0 0
0.184686 0.167646 2.252000 255 0 0
0.190339 0.167192 2.246000 255 0 0
0.196221 0.166962 2.243000 255 0 0
0.202086 0.166731 2.240000 255 0 0
0.208305 0.166798 2.241000 255 0 0
0.214529 0.166865 2.242000 255 0 0
0.220561 0.166783 2.241000 255 0 0
0.226688 0.166775 2.241000 255 0 0
-0.112857 0.010508 2.470436 255 255 0
-0.100583 0.010649 2.465578 255 255 0
-0.090879 0.010195 2.459088 255 255 0
-0.076091 0.010957 2.456016 255 255 0
-0.049446 0.014558 2.460934 255 255 0
-0.032176 0.015957 2.459735 255 255 0
-0.026790 0.014531 2.450625 255 255 0
-0.016333 0.014328 2.444967 255 255 0
0.008474 0.017594 2.449142 255 255 0
0.029860 0.020067 2.451128 255 255 0
0.017479 0.014376 2.429982 255 255 0
0.008501 0.009488 2.411075 255 255 0
0.028999 0.011778 2.412604 255 255 0
0.057864 0.016146 2.420119 255 255 0
0.082479 0.019509 2.424831 255 255 0
0.054209 0.009866 2.392277 255 255 0
0.051980 0.006614 2.378010 255 255 0
0.050600 0.003564 2.364306 255 255 0
0.055919 0.002174 2.355382 255 255 0
-0.286954 -0.061864 2.313993 0 255 0
-0.286551 -0.058952 2.325863 0 255 0
-0.281062 -0.057632 2.334095 0 255 0
-0.273021 -0.057101 2.340538 0 255 0
-0.257322 -0.058937 2.341623 0 255 0
-0.229717 -0.052212 2.383315 0 255 0
-0.223329 -0.051117 2.391112 0 255 0
-0.222922 -0.048198 2.402993 0 255 0
-0.199409 -0.052287 2.399250 0 255 0
-0.200704 -0.048842 2.412318 0 255 0
-0.194290 -0.047727 2.420203 0 255 0
-0.183579 -0.047897 2.425255 0 255 0
-0.178867 -0.046256 2.434329 0 255 0
-0.180170 -0.042815 2.447369 0 255 0
-0.164272 -0.044504 2.449126 0 255 0
-0.146630 -0.046688 2.449839 0 255 0
-0.123791 -0.050384 2.447291 0 255 0
-0.112132 -0.050746 2.452078 0 255 0
-0.044699 -0.064368 2.433746 0 255 0
-0.021714 -0.067958 2.431695 0 255 0
-0.016872 -0.066221 2.441209 0 255 0
-0.330171 0.162858 2.274000 255 0 0
-0.325394 0.163585 2.284000 255 0 0
-0.320003 0.164025 2.290000 255 0 0
-0.314030 0.164179 2.292000 255 0 0
-0.307911 0.164260 2.293000 255 0 0
-0.302048 0.164485 2.296000 255 0 0
-0.296297 0.164782 2.300000 255 0 0
-0.290649 0.165150 2.305000 255 0 0
-0.285096 0.165589 2.311000 255 0 0
-0.279750 0.166172 2.319000 255 0 0
-0.247967 0.166145 2.318000 255 0 0
-0.240797 0.165580 2.310000 255 0 0
-0.233975 0.165230 2.305000 255 0 0
-0.227179 0.164879 2.300000 255 0 0
-0.220410 0.164529 2.295000 255 0 0
-0.213668 0.164178 2.290000 255 0 0
-0.207133 0.163970 2.287000 255 0 0
-0.200350 0.163547 2.281000 255 0 0
-0.193514 0.163052 2.274000 255 0 0
-0.186551 0.162413 2.265000 255 0 0
-0.179955 0.162061 2.260000 255 0 0
-0.173232 0.161566 2.253000 255 0 0
-0.166620 0.161141 2.247000 255 0 0
-0.160184 0.160860 2.243000 255 0 0
-0.153906 0.160723 2.241000 255 0 0
-0.147639 0.160585 2.239000 255 0 0
-0.141192 0.160231 2.234000 255 0 0
-0.134832 0.159949 2.230000 255 0 0
-0.128494 0.159667 2.226000 255 0 0
-0.122178 0.159385 2.222000 255 0 0
-0.115987 0.159246 2.220000 255 0 0
-0.109807 0.159106 2.218000 255 0 0
-0.103684 0.159038 2.217000 255 0 0
-0.097566 0.158970 2.216000 255 0 0
-0.091370 0.158758 2.213000 255 0 0
-0.085383 0.158905 2.215000 255 0 0
-0.079278 0.158836 2.214000 255 0 0
-0.073145 0.158696 2.212000 255 0 0
-0.066992 0.158483 2.209000 255 0 0
-0.060965 0.158557 2.210000 255 0 0
-0.054933 0.158631 2.211000 255 0 0
-0.048873 0.158633 2.211000 255 0 0
-0.042774 0.158491 2.209000 255 0 0
-0.036736 0.158564 2.210000 255 0 0
-0.030664 0.158494 2.209000 255 0 0
-0.024631 0.158638 2.211000 255 0 0
-0.018587 0.158783 2.213000 255 0 0
-0.012526 0.158855 2.214000 255 0 0
-0.006466 0.159071 2.217000 255 0 0
-0.000389 0.159430 2.222000 255 0 0
0.005717 0.159860 2.228000 255 0 0
0.011841 0.160075 2.231000 255 0 0
0.017989 0.160361 2.235000 255 0 0
0.024148 0.160576 2.238000 255 0 0
0.030364 0.161005 2.244000 255 0 0
0.036547 0.161148 2.246000 255 0 0
0.042780 0.161433 2.250000 255 0 0
0.048990 0.161575 2.252000 255 0 0
0.055310 0.162003 2.258000 255 0 0
0.061607 0.162288 2.262000 255 0 0
0.067987 0.162716 2.268000 255 0 0
0.074300 0.162929 2.271000 255 0 0
0.080772 0.163428 2.278000 255 0 0
0.087282 0.163927 2.285000 255 0 0
0.093666 0.164139 2.288000 255 0 0
0.099978 0.164208 2.289000 255 0 0
0.167310 0.162577 2.267000 255 0 0
0.172750 0.161853 2.257000 255 0 0
0.178292 0.161273 2.249000 255 0 0
0.184037 0.160908 2.244000 255 0 0
0.189922 0.160687 2.241000 255 0 0
0.196053 0.160680 2.241000 255 0 0
0.202093 0.160601 2.240000 255 0 0
0.208312 0.160666 2.241000 255 0 0
0.214441 0.160658 2.241000 255 0 0
0.220470 0.160579 2.240000 255 0 0
0.226797 0.160715 2.242000 255 0 0
-0.128881 -0.004634 2.461336 255 255 0
-0.107233 -0.002242 2.462555 255 255 0
-0.099224 -0.003088 2.454916 255 255 0
-0.081034 -0.001480 2.454057 255 255 0
-0.062877 0.000143 2.453284 255 255 0
-0.039666 0.003011 2.456006 255 255 0
-0.028347 0.003025 2.450859 255 255 0
-0.014508 0.003665 2.447477 255 255 0
0.000153 0.004522 2.444732 255 255 0
0.013947 0.005184 2.441474 255 255 0
0.007492 0.000885 2.424350 255 255 0
0.013687 -0.000311 2.415909 255 255 0
0.044263 0.004532 2.424460 255 255 0
0.060501 0.005858 2.423180 255 255 0
0.052375 0.001138 2.404852 255 255 0
0.050143 -0.002129 2.390606 255 255 0
0.052110 -0.004352 2.379303 255 255 0
0.071645 -0.002160 2.380546 255 255 0
-0.286975 -0.069646 2.327390 0 255 0
-0.284030 -0.067531 2.337438 0 255 0
-0.278540 -0.066216 2.345682 0 255 0
-0.217355 -0.066956 2.376132 0 255 0
-0.189169 -0.069492 2.381399 0 255 0
-0.205841 -0.061305 2.404916 0 255 0
-0.196007 -0.061250 2.410494 0 255 0
-0.181021 -0.062751 2.412680 0 255 0
-0.178020 -0.060591 2.422912 0 255 0
-0.176736 -0.057911 2.434277 0 255 0
-0.170301 -0.056790 2.442245 0 255 0
-0.163859 -0.055663 2.450232 0 255 0
-0.139339 -0.059957 2.446486 0 255 0
-0.103119 -0.064604 2.447695 0 255 0
-0.017910 -0.080505 2.430758 0 255 0
-0.022580 -0.075964 2.446279 0 255 0
-0.330907 0.156985 2.279000 255 0 0
-0.326117 0.157684 2.289000 255 0 0
-0.320293 0.157901 2.292000 255 0 0
-0.314177 0.157980 2.293000 255 0 0
-0.307652 0.157852 2.291000 255 0 0
-0.301663 0.157999 2.293000 255 0 0
-0.295920 0.158285 2.297000 255 0 0
-0.290658 0.158845 2.305000 255 0 0
-0.285352 0.159406 2.313000 255 0 0
-0.246905 0.159113 2.308000 255 0 0
-0.240388 0.158984 2.306000 255 0 0
-0.233678 0.158716 2.302000 255 0 0
-0.226792 0.158310 2.296000 255 0 0
-0.219842 0.157834 2.289000 255 0 0
-0.213302 0.157635 2.286000 255 0 0
-0.206959 0.157573 2.285000 255 0 0
-0.200269 0.157235 2.280000 255 0 0
-0.193436 0.156759 2.273000 255 0 0
-0.186475 0.156145 2.264000 255 0 0
-0.179881 0.155806 2.259000 255 0 0
-0.173238 0.155398 2.253000 255 0 0
-0.166700 0.155059 2.248000 255 0 0
-0.160261 0.154789 2.244000 255 0 0
-0.153843 0.154519 2.240000 255 0 0
-0.147512 0.154317 2.237000 255 0 0
-0.141134 0.154046 2.233000 255 0 0
-0.134777 0.153775 2.229000 255 0 0
-0.128441 0.153503 2.225000 255 0 0
-0.122127 0.153232 2.221000 255 0 0
-0.115991 0.153167 2.220000 255 0 0
-0.109860 0.153102 2.219000 255 0 0
-0.103734 0.153037 2.218000 255 0 0
-0.097657 0.153040 2.218000 255 0 0
-0.091539 0.152974 2.217000 255 0 0
-0.085541 0.153116 2.219000 255 0 0
-0.079424 0.153049 2.218000 255 0 0
-0.073280 0.152914 2.216000 255 0 0
-0.067115 0.152710 2.213000 255 0 0
-0.061105 0.152850 2.215000 255 0 0
-0.055010 0.152783 2.214000 255 0 0
-0.048963 0.152854 2.215000 255 0 0
-0.042853 0.152717 2.213000 255 0 0
-0.036770 0.152650 2.212000 255 0 0
-0.030693 0.152582 2.211000 255 0 0
-0.024654 0.152721 2.213000 255 0 0
-0.018596 0.152791 2.214000 255 0 0
-0.012544 0.152998 2.217000 255 0 0
-0.006472 0.153137 2.219000 255 0 0
-0.000390 0.153482 2.224000 255 0 0
0.005715 0.153689 2.227000 255 0 0
0.011841 0.153965 2.231000 255 0 0
0.017989 0.154240 2.235000 255 0 0
0.024159 0.154515 2.239000 255 0 0
0.030351 0.154790 2.243000 255 0 0
0.036532 0.154927 2.245000 255 0 0
0.042781 0.155271 2.250000 255 0 0
0.049036 0.155545 2.254000 255 0 0
0.055385 0.156027 2.261000 255 0 0
0.061691 0.156301 2.265000 255 0 0
0.068049 0.156643 2.270000 255 0 0
0.074401 0.156917 2.274000 255 0 0
0.080881 0.157397 2.281000 255 0 0
0.087247 0.157601 2.284000 255 0 0
0.093505 0.157598 2.284000 255 0 0
0.157022 0.158520 2.298000 255 0 0
0.161466 0.156721 2.272000 255 0 0
0.166799 0.155888 2.260000 255 0 0
0.172220 0.155192 2.250000 255 0 0
0.177902 0.154772 2.244000 255 0 0
0.183715 0.154490 2.240000 255 0 0
0.189759 0.154415 2.239000 255 0 0
0.195885 0.154408 2.239000 255 0 0
0.201919 0.154333 2.238000 255 0 0
0.208134 0.154395 2.239000 255 0 0
0.214353 0.154457 2.240000 255 0 0
0.220675 0.154587 2.242000 255 0 0
0.227310 0.154925 2.247000 255 0 0
-0.151243 -0.018620 2.461157 255 255 0
-0.134671 -0.017424 2.458920 255 255 0
-0.112174 -0.014773 2.460660 255 255 0
-0.096514 -0.013753 2.458035 255 255 0
-0.083426 -0.013340 2.453794 255 255 0
-0.066119 -0.011881 2.452434 255 255 0
-0.042066 -0.008747 2.455694 255 255 0
-0.029055 -0.008295 2.451668 255 255 0
-0.027049 -0.010543 2.440259 255 255 0
-0.014067 -0.010076 2.436314 255 255 0
-0.007007 -0.011065 2.428384 255 255 0
-0.003324 -0.012890 2.418157 255 255 0
0.018028 -0.010298 2.420157 255 255 0
0.033458 -0.009163 2.418170 255 255 0
0.042985 -0.009492 2.412144 255 255 0
0.046629 -0.011297 2.402025 255 255 0
0.044407 -0.014585 2.387761 255 255 0
0.056425 -0.014267 2.383574 255 255 0
0.070097 -0.013514 2.380632 255 255 0
-0.208421 -0.080723 2.371311 0 255 0
-0.198602 -0.080697 2.376863 0 255 0
-0.187062 -0.081192 2.381295 0 255 0
-0.196025 -0.075325 2.399618 0 255 0
-0.188753 -0.074491 2.406960 0 255 0
-0.180617 -0.073915 2.413756 0 255 0
-0.173328 -0.073069 2.421149 0 255 0
-0.164317 -0.072743 2.427435 0 255 0
-0.152720 -0.073194 2.432064 0 255 0
-0.147124 -0.071805 2.440674 0 255 0
-0.147543 -0.068586 2.453211 0 255 0
-0.129891 -0.070839 2.454043 0 255 0
-0.109629 -0.073852 2.453300 0 255 0
-0.034843 -0.086892 2.442940 0 255 0
-0.330917 0.150754 2.279000 255 0 0
-0.326127 0.151425 2.289000 255 0 0
-0.320302 0.151633 2.292000 255 0 0
-0.314461 0.151841 2.295000 255 0 0
-0.307930 0.151719 2.293000 255 0 0
-0.301936 0.151860 2.295000 255 0 0
-0.296058 0.152068 2.298000 255 0 0
-0.290668 0.152540 2.305000 255 0 0
-0.285855 0.153343 2.317000 255 0 0
-0.255415 0.154114 2.328000 255 0 0
-0.247341 0.153063 2.312000 255 0 0
-0.240917 0.153004 2.311000 255 0 0
-0.233889 0.152548 2.304000 255 0 0
-0.226404 0.151761 2.292000 255 0 0
-0.219273 0.151172 2.283000 255 0 0
-0.212656 0.150915 2.279000 255 0 0
-0.206694 0.151120 2.282000 255 0 0
-0.200012 0.150795 2.277000 255 0 0
-0.193442 0.150537 2.273000 255 0 0
-0.186564 0.150013 2.265000 255 0 0
-0.179967 0.149688 2.260000 255 0 0
-0.173320 0.149297 2.254000 255 0 0
-0.166706 0.148905 2.248000 255 0 0
-0.160338 0.148712 2.245000 255 0 0
-0.153985 0.148518 2.242000 255 0 0
-0.147715 0.148391 2.240000 255 0 0
-0.141075 0.147865 2.232000 255 0 0
-0.134660 0.147539 2.227000 255 0 0
-0.128330 0.147278 2.223000 255 0 0
-0.121966 0.146951 2.218000 255 0 0
-0.115786 0.146823 2.216000 255 0 0
-0.109666 0.146760 2.215000 255 0 0
-0.103597 0.146764 2.215000 255 0 0
-0.097484 0.146701 2.214000 255 0 0
-0.091418 0.146704 2.214000 255 0 0
-0.085428 0.146840 2.216000 255 0 0
-0.079355 0.146842 2.216000 255 0 0
-0.073282 0.146845 2.216000 255 0 0
-0.067118 0.146649 2.213000 255 0 0
-0.061080 0.146717 2.214000 255 0 0
-0.054987 0.146653 2.213000 255 0 0
-0.048921 0.146655 2.213000 255 0 0
-0.042816 0.146524 2.211000 255 0 0
-0.036738 0.146459 2.210000 255 0 0
-0.030708 0.146592 2.212000 255 0 0
-0.024677 0.146792 2.215000 255 0 0
-0.018622 0.146925 2.217000 255 0 0
-0.012561 0.147125 2.220000 255 0 0
-0.006487 0.147390 2.224000 255 0 0
-0.000391 0.147722 2.229000 255 0 0
0.005723 0.147788 2.230000 255 0 0
0.011847 0.147920 2.232000 255 0 0
0.018006 0.148251 2.237000 255 0 0
0.024171 0.148449 2.240000 255 0 0
0.030379 0.148779 2.245000 255 0 0
0.036566 0.148911 2.247000 255 0 0
0.042802 0.149175 2.251000 255 0 0
0.049016 0.149305 2.253000 255 0 0
0.055387 0.149834 2.261000 255 0 0
0.061748 0.150229 2.267000 255 0 0
0.068141 0.150625 2.273000 255 0 0
0.074502 0.150888 2.277000 255 0 0
0.080849 0.151084 2.280000 255 0 0
0.087173 0.151213 2.282000 255 0 0
0.093426 0.151210 2.282000 255 0 0
0.149686 0.151174 2.282000 255 0 0
0.154772 0.150042 2.265000 255 0 0
0.160618 0.149706 2.260000 255 0 0
0.166288 0.149237 2.253000 255 0 0
0.171920 0.148767 2.246000 255 0 0
0.177670 0.148431 2.241000 255 0 0
0.183557 0.148226 2.238000 255 0 0
0.189681 0.148220 2.238000 255 0 0
0.195716 0.148147 2.237000 255 0 0
0.201746 0.148075 2.236000 255 0 0
0.207769 0.148002 2.235000 255 0 0
0.214073 0.148127 2.237000 255 0 0
0.220682 0.148451 2.242000 255 0 0
0.227925 0.149173 2.253000 255 0 0
-0.138751 -0.029845 2.457624 255 255 0
-0.123058 -0.028806 2.454880 255 255 0
-0.104844 -0.027129 2.453886 255 255 0
-0.078675 -0.026244 2.445388 255 255 0
-0.055465 -0.023264 2.448023 255 255 0
-0.040751 -0.022369 2.445083 255 255 0
-0.034507 -0.023573 2.436494 255 255 0
-0.027426 -0.024563 2.428495 255 255 0
-0.020352 -0.025549 2.420518 255 255 0
-0.005709 -0.024619 2.417774 255 255 0
0.014797 -0.022187 2.419167 255 255 0
0.026866 -0.021870 2.414820 255 255 0
0.030525 -0.023681 2.404658 255 255 0
0.039213 -0.024207 2.398031 255 255 0
0.044541 -0.025586 2.389069 255 255 0
0.049028 -0.027178 2.379522 255 255 0
0.060197 -0.027044 2.374756 255 255 0
-0.225064 -0.086493 2.384017 0 255 0
-0.227201 -0.082741 2.397666 0 255 0
-0.219105 -0.082208 2.404341 0 255 0
-0.195622 -0.086479 2.400677 0 255 0
-0.203741 -0.080856 2.418352 0 255 0
-0.193908 -0.080837 2.423971 0 255 0
-0.174641 -0.083729 2.423378 0 255 0
-0.158775 -0.085541 2.425145 0 255 0
-0.143744 -0.087073 2.427550 0 255 0
-0.152739 -0.081197 2.445728 0 255 0
-0.155738 -0.077181 2.459926 0 255 0
-0.132939 -0.081059 2.457418 0 255 0
-0.107522 -0.085699 2.453367 0 255 0
-0.060523 -0.096857 2.435683 0 255 0
-0.329475 0.143888 2.269000 255 0 0
-0.326136 0.145165 2.289000 255 0 0
-0.320452 0.145429 2.293000 255 0 0
-0.314470 0.145565 2.295000 255 0 0
-0.307939 0.145447 2.293000 255 0 0
-0.302208 0.145709 2.297000 255 0 0
-0.296325 0.145909 2.300000 255 0 0
-0.291055 0.146425 2.308000 255 0 0
-0.286110 0.147131 2.319000 255 0 0
-0.254545 0.147236 2.320000 255 0 0
-0.247670 0.146926 2.315000 255 0 0
-0.241238 0.146870 2.314000 255 0 0
-0.234303 0.146496 2.308000 255 0 0
-0.226313 0.145424 2.291000 255 0 0
-0.219087 0.144797 2.281000 255 0 0
-0.212289 0.144422 2.275000 255 0 0
-0.206157 0.144492 2.276000 255 0 0
-0.199667 0.144308 2.273000 255 0 0
-0.193278 0.144187 2.271000 255 0 0
-0.186734 0.143939 2.267000 255 0 0
-0.180132 0.143628 2.262000 255 0 0
-0.173480 0.143252 2.256000 255 0 0
-0.166860 0.142877 2.250000 255 0 0
-0.160343 0.142564 2.245000 255 0 0
-0.153922 0.142315 2.241000 255 0 0
-0.147522 0.142066 2.237000 255 0 0
-0.141017 0.141690 2.231000 255 0 0
-0.134725 0.141504 2.228000 255 0 0
-0.128392 0.141254 2.224000 255 0 0
-0.121970 0.140877 2.218000 255 0 0
-0.115790 0.140754 2.216000 255 0 0
-0.109620 0.140630 2.214000 255 0 0
-0.103554 0.140634 2.214000 255 0 0
-0.097400 0.140510 2.212000 255 0 0
-0.091338 0.140513 2.212000 255 0 0
-0.085315 0.140579 2.213000 255 0 0
-0.079250 0.140582 2.213000 255 0 0
-0.073219 0.140648 2.214000 255 0 0
-0.067120 0.140587 2.213000 255 0 0
-0.061110 0.140716 2.215000 255 0 0
-0.054988 0.140591 2.213000 255 0 0
-0.048967 0.140720 2.215000 255 0 0
-0.042856 0.140594 2.213000 255 0 0
-0.036806 0.140659 2.214000 255 0 0
-0.030764 0.140787 2.216000 255 0 0
-0.024712 0.140915 2.218000 255 0 0
-0.018664 0.141170 2.222000 255 0 0
-0.012595 0.141425 2.226000 255 0 0
-0.006504 0.141679 2.230000 255 0 0
-0.000391 0.141933 2.234000 255 0 0
0.005738 0.142060 2.236000 255 0 0
0.011874 0.142123 2.237000 255 0 0
0.018039 0.142377 2.241000 255 0 0
0.024193 0.142440 2.242000 255 0 0
0.030394 0.142693 2.246000 255 0 0
0.036584 0.142819 2.248000 255 0 0
0.042841 0.143136 2.253000 255 0 0
0.049061 0.143261 2.255000 255 0 0
0.055389 0.143641 2.261000 255 0 0
0.061723 0.143956 2.266000 255 0 0
0.068084 0.144272 2.271000 255 0 0
0.074439 0.144524 2.275000 255 0 0
0.080780 0.144712 2.278000 255 0 0
0.087100 0.144836 2.280000 255 0 0
0.093389 0.144896 2.281000 255 0 0
0.099945 0.145338 2.288000 255 0 0
0.142562 0.144040 2.268000 255 0 0
0.148313 0.143591 2.261000 255 0 0
0.154026 0.143142 2.254000 255 0 0
0.159984 0.142946 2.251000 255 0 0
0.165703 0.142560 2.245000 255 0 0
0.171542 0.142301 2.241000 255 0 0
0.177359 0.142041 2.237000 255 0 0
0.183399 0.141972 2.236000 255 0 0
0.189348 0.141839 2.234000 255 0 0
0.195373 0.141769 2.233000 255 0 0
0.201211 0.141573 2.230000 255 0 0
0.207218 0.141503 2.229000 255 0 0
0.213601 0.141687 2.232000 255 0 0
0.220787 0.142378 2.243000 255 0 0
-0.152585 -0.041892 2.463036 255 255 0
-0.143676 -0.042513 2.455784 255 255 0
-0.129681 -0.041863 2.451900 255 255 0
-0.117405 -0.041625 2.446960 255 255 0
-0.069693 -0.038088 2.439809 255 255 0
-0.047363 -0.035248 2.441931 255 255 0
-0.035203 -0.034952 2.437312 255 255 0
-0.027277 -0.035718 2.429876 255 255 0
-0.016835 -0.035835 2.424194 255 255 0
0.001166 -0.034009 2.423761 255 255 0
0.013253 -0.033676 2.419348 255 255 0
0.021122 -0.034414 2.412066 255 255 0
0.023112 -0.036661 2.400710 255 255 0
0.031808 -0.037175 2.394052 255 255 0
0.050534 -0.035077 2.394517 255 255 0
0.051672 -0.037534 2.382609 255 255 0
0.044465 -0.042175 2.364726 255 255 0
0.034778 -0.047483 2.344982 255 255 0
-0.219547 -0.093047 2.405958 0 255 0
-0.212298 -0.092252 2.413247 0 255 0
-0.213586 -0.088760 2.426287 0 255 0
-0.200343 -0.089841 2.429608 0 255 0
-0.177666 -0.093859 2.426744 0 255 0
-0.148502 -0.096745 2.432055 0 255 0
-0.148051 -0.093768 2.444055 0 255 0
-0.146745 -0.091059 2.455482 0 255 0
-0.128248 -0.093663 2.455797 0 255 0
-0.081328 -0.104990 2.437973 0 255 0
-0.018291 -0.117980 2.422808 0 255 0
-0.017756 -0.114941 2.435091 0 255 0
-0.018952 -0.111380 2.448443 0 255 0
-0.329484 0.137683 2.269000 255 0 0
-0.325861 0.138784 2.287000 255 0 0
-0.320601 0.139218 2.294000 255 0 0
-0.314479 0.139287 2.295000 255 0 0
-0.308351 0.139357 2.296000 255 0 0
-0.302611 0.139608 2.300000 255 0 0
-0.296849 0.139859 2.304000 255 0 0
-0.291946 0.140535 2.315000 255 0 0
-0.287352 0.141394 2.329000 255 0 0
-0.257186 0.142344 2.344000 255 0 0
-0.247998 0.140772 2.318000 255 0 0
-0.241453 0.140658 2.316000 255 0 0
-0.234513 0.140300 2.310000 255 0 0
-0.226814 0.139457 2.296000 255 0 0
-0.219286 0.138674 2.283000 255 0 0
-0.212109 0.138073 2.273000 255 0 0
-0.205620 0.137897 2.270000 255 0 0
-0.199234 0.137782 2.268000 255 0 0
-0.192944 0.137727 2.267000 255 0 0
-0.186658 0.137672 2.266000 255 0 0
-0.180058 0.137373 2.261000 255 0 0
-0.173331 0.136953 2.254000 255 0 0
-0.166642 0.136533 2.247000 255 0 0
-0.160205 0.136295 2.243000 255 0 0
-0.153720 0.135996 2.238000 255 0 0
-0.147197 0.135636 2.232000 255 0 0
-0.140768 0.135337 2.227000 255 0 0
-0.134488 0.135159 2.224000 255 0 0
-0.128338 0.135102 2.223000 255 0 0
-0.121974 0.134802 2.218000 255 0 0
-0.115794 0.134684 2.216000 255 0 0
-0.109524 0.134445 2.212000 255 0 0
-0.103417 0.134387 2.211000 255 0 0
-0.097227 0.134208 2.208000 255 0 0
-0.091259 0.134332 2.210000 255 0 0
-0.085202 0.134335 2.210000 255 0 0
-0.079217 0.134459 2.212000 255 0 0
-0.073188 0.134522 2.213000 255 0 0
-0.067092 0.134464 2.212000 255 0 0
-0.061056 0.134527 2.213000 255 0 0
-0.054990 0.134528 2.213000 255 0 0
-0.048968 0.134652 2.215000 255 0 0
-0.042896 0.134653 2.215000 255 0 0
-0.036840 0.134715 2.216000 255 0 0
-0.030807 0.134899 2.219000 255 0 0
-0.024779 0.135203 2.224000 255 0 0
-0.018716 0.135447 2.228000 255 0 0
-0.012630 0.135691 2.232000 255 0 0
-0.006519 0.135874 2.235000 255 0 0
-0.000392 0.135995 2.237000 255 0 0
0.005744 0.136056 2.238000 255 0 0
0.011880 0.136056 2.238000 255 0 0
0.018039 0.136238 2.241000 255 0 0
0.024227 0.136480 2.245000 255 0 0
0.030449 0.136783 2.250000 255 0 0
0.036634 0.136843 2.251000 255 0 0
0.042862 0.137024 2.254000 255 0 0
0.049062 0.137084 2.255000 255 0 0
0.055342 0.137325 2.259000 255 0 0
0.061616 0.137506 2.262000 255 0 0
0.067966 0.137807 2.267000 255 0 0
0.074310 0.138048 2.271000 255 0 0
0.080641 0.138228 2.274000 255 0 0
0.086988 0.138408 2.277000 255 0 0
0.093310 0.138527 2.279000 255 0 0
0.099861 0.138949 2.286000 255 0 0
0.136535 0.138016 2.271000 255 0 0
0.141937 0.137221 2.258000 255 0 0
0.147727 0.136852 2.252000 255 0 0
0.153689 0.136665 2.249000 255 0 0
0.159633 0.136478 2.246000 255 0 0
0.165413 0.136169 2.241000 255 0 0
0.171165 0.135860 2.236000 255 0 0
0.176968 0.135612 2.232000 255 0 0
0.183076 0.135607 2.232000 255 0 0
0.189099 0.135540 2.231000 255 0 0
0.195291 0.135595 2.232000 255 0 0
0.201127 0.135407 2.229000 255 0 0
0.207224 0.135401 2.229000 255 0 0
0.213320 0.135395 2.229000 255 0 0
0.220302 0.135935 2.238000 255 0 0
-0.171543 -0.055275 2.465250 255 255 0
-0.124407 -0.051982 2.456707 255 255 0
-0.086441 -0.053658 2.429924 255 255 0
-0.053967 -0.048179 2.438791 255 255 0
-0.037584 -0.046780 2.436992 255 255 0
-0.022071 -0.045583 2.434697 255 255 0
-0.009952 -0.045242 2.430171 255 255 0
0.012241 -0.042280 2.432632 255 255 0
0.022633 -0.042351 2.427079 255 255 0
0.037205 -0.041323 2.424481 255 255 0
0.024930 -0.047290 2.403215 255 255 0
0.048694 -0.043838 2.407136 255 255 0
0.056523 -0.044542 2.399961 255 255 0
0.061000 -0.046122 2.390438 255 255 0
0.037931 -0.054987 2.361272 255 255 0
0.029094 -0.060120 2.342111 255 255 0
-0.239156 -0.100843 2.408422 0 255 0
-0.219991 -0.103895 2.407578 0 255 0
-0.216157 -0.102023 2.417173 0 255 0
-0.206343 -0.102054 2.422769 0 255 0
-0.200790 -0.100719 2.431251 0 255 0
-0.179835 -0.104254 2.429543 0 255 0
-0.179398 -0.101281 2.441486 0 255 0
-0.164397 -0.102896 2.443863 0 255 0
-0.149375 -0.104495 2.446310 0 255 0
-0.130899 -0.107154 2.446600 0 255 0
-0.135595 -0.102556 2.461949 0 255 0
-0.034857 -0.127562 2.422205 0 255 0
-0.024853 -0.127453 2.428447 0 255 0
-0.330655 0.131940 2.277000 255 0 0
-0.325727 0.132471 2.286000 255 0 0
-0.320609 0.132943 2.294000 255 0 0
-0.314625 0.133067 2.296000 255 0 0
-0.308360 0.133076 2.296000 255 0 0
-0.302357 0.133200 2.298000 255 0 0
-0.296986 0.133614 2.305000 255 0 0
-0.292711 0.134549 2.321000 255 0 0
-0.248754 0.134833 2.325000 255 0 0
-0.241252 0.134202 2.314000 255 0 0
-0.234418 0.133919 2.309000 255 0 0
-0.227215 0.133404 2.300000 255 0 0
-0.219677 0.132656 2.287000 255 0 0
-0.212675 0.132198 2.279000 255 0 0
-0.205898 0.131856 2.273000 255 0 0
-0.199503 0.131746 2.271000 255 0 0
-0.192864 0.131461 2.266000 255 0 0
-0.186581 0.131409 2.265000 255 0 0
-0.179825 0.131008 2.258000 255 0 0
-0.173106 0.130607 2.251000 255 0 0
-0.166425 0.130206 2.244000 255 0 0
-0.159996 0.129978 2.240000 255 0 0
-0.153519 0.129693 2.235000 255 0 0
-0.146937 0.129291 2.228000 255 0 0
-0.140646 0.129121 2.225000 255 0 0
-0.134371 0.128951 2.222000 255 0 0
-0.128227 0.128897 2.221000 255 0 0
-0.121978 0.128727 2.218000 255 0 0
-0.115849 0.128672 2.217000 255 0 0
-0.109627 0.128501 2.214000 255 0 0
-0.103514 0.128446 2.213000 255 0 0
-0.097406 0.128391 2.212000 255 0 0
-0.091385 0.128452 2.213000 255 0 0
-0.085282 0.128397 2.212000 255 0 0
-0.079291 0.128515 2.214000 255 0 0
-0.073223 0.128518 2.214000 255 0 0
-0.067155 0.128520 2.214000 255 0 0
-0.061141 0.128638 2.216000 255 0 0
-0.055091 0.128698 2.217000 255 0 0
-0.049124 0.128989 2.222000 255 0 0
-0.043091 0.129165 2.225000 255 0 0
-0.037041 0.129340 2.228000 255 0 0
-0.030933 0.129341 2.228000 255 0 0
-0.024847 0.129458 2.230000 255 0 0
-0.018741 0.129517 2.231000 255 0 0
-0.012647 0.129750 2.235000 255 0 0
-0.006522 0.129808 2.236000 255 0 0
-0.000392 0.129982 2.239000 255 0 0
0.005746 0.129982 2.239000 255 0 0
0.011891 0.130040 2.240000 255 0 0
0.018032 0.130040 2.240000 255 0 0
0.024206 0.130213 2.243000 255 0 0
0.030409 0.130445 2.247000 255 0 0
0.036586 0.130502 2.248000 255 0 0
0.042787 0.130616 2.250000 255 0 0
0.048999 0.130731 2.252000 255 0 0
0.055246 0.130904 2.255000 255 0 0
0.061481 0.131018 2.257000 255 0 0
0.067758 0.131190 2.260000 255 0 0
0.074116 0.131478 2.265000 255 0 0
0.080466 0.131708 2.269000 255 0 0
0.086723 0.131764 2.270000 255 0 0
0.092944 0.131761 2.270000 255 0 0
0.099383 0.132049 2.275000 255 0 0
0.106406 0.133032 2.292000 255 0 0
0.130376 0.131857 2.272000 255 0 0
0.135938 0.131215 2.261000 255 0 0
0.141502 0.130631 2.251000 255 0 0
0.147273 0.130278 2.245000 255 0 0
0.153284 0.130158 2.243000 255 0 0
0.159212 0.129979 2.240000 255 0 0
0.164975 0.129684 2.235000 255 0 0
0.170787 0.129447 2.231000 255 0 0
0.176735 0.129326 2.229000 255 0 0
0.182918 0.129379 2.230000 255 0 0
0.188935 0.129316 2.229000 255 0 0
0.195122 0.129368 2.230000 255 0 0
0.201042 0.129246 2.228000 255 0 0
0.207137 0.129240 2.228000 255 0 0
0.213231 0.129234 2.228000 255 0 0
-0.123834 -0.066118 2.445434 255 255 0
-0.061405 -0.061382 2.435096 255 255 0
-0.039960 -0.058634 2.436680 255 255 0
-0.022764 -0.056963 2.435508 255 255 0
-0.003074 -0.054618 2.436142 255 255 0
0.006495 -0.054899 2.429945 255 255 0
0.026966 -0.052304 2.431322 255 255 0
0.027272 -0.054999 2.418824 255 255 0
0.039314 -0.054595 2.414494 255 255 0
0.043805 -0.056180 2.404930 255 255 0
0.055819 -0.055761 2.400680 255 255 0
0.056957 -0.058232 2.388780 255 255 0
0.053096 -0.062044 2.373297 255 255 0
0.005919 -0.077505 2.326708 255 255 0
-0.198339 -0.128167 2.369658 0 255 0
-0.234486 -0.113310 2.406553 0 255 0
-0.217030 -0.115855 2.406896 0 255 0
-0.209780 -0.115084 2.414211 0 255 0
-0.204231 -0.113758 2.422694 0 255 0
-0.196968 -0.112976 2.430054 0 255 0
-0.197393 -0.109729 2.442535 0 255 0
-0.182421 -0.111396 2.444848 0 255 0
-0.164859 -0.113865 2.445547 0 255 0
-0.160130 -0.112240 2.454713 0 255 0
-0.146818 -0.113324 2.458327 0 255 0
-0.113740 -0.120619 2.449269 0 255 0
-0.048286 -0.134828 2.432234 0 255 0
-0.028826 -0.137707 2.432443 0 255 0
-0.022263 -0.136537 2.440900 0 255 0
-0.330227 0.125547 2.274000 255 0 0
-0.325735 0.126218 2.286000 255 0 0
-0.320478 0.126612 2.293000 255 0 0
-0.314770 0.126841 2.297000 255 0 0
-0.308502 0.126849 2.297000 255 0 0
-0.302365 0.126912 2.298000 255 0 0
-0.296994 0.127307 2.305000 255 0 0
-0.292719 0.128198 2.321000 255 0 0
-0.240529 0.127481 2.307000 255 0 0
-0.233714 0.127211 2.302000 255 0 0
-0.227123 0.127052 2.299000 255 0 0
-0.220067 0.126615 2.291000 255 0 0
-0.213148 0.126235 2.284000 255 0 0
-0.206628 0.126074 2.281000 255 0 0
-0.200036 0.125859 2.277000 255 0 0
-0.193380 0.125588 2.272000 255 0 0
-0.186833 0.125372 2.268000 255 0 0
-0.180148 0.125045 2.262000 255 0 0
-0.173418 0.124663 2.255000 255 0 0
-0.166800 0.124336 2.249000 255 0 0
-0.160429 0.124175 2.246000 255 0 0
-0.153936 0.123903 2.241000 255 0 0
-0.147271 0.123465 2.233000 255 0 0
-0.140777 0.123137 2.227000 255 0 0
-0.134375 0.122865 2.222000 255 0 0
-0.128173 0.122758 2.220000 255 0 0
-0.121926 0.122595 2.217000 255 0 0
-0.115748 0.122488 2.215000 255 0 0
-0.109630 0.122436 2.214000 255 0 0
-0.103563 0.122439 2.214000 255 0 0
-0.097497 0.122442 2.214000 255 0 0
-0.091429 0.122445 2.214000 255 0 0
-0.085400 0.122502 2.215000 255 0 0
-0.079401 0.122615 2.217000 255 0 0
-0.073391 0.122728 2.219000 255 0 0
-0.067339 0.122786 2.220000 255 0 0
-0.061308 0.122898 2.222000 255 0 0
-0.055242 0.122955 2.223000 255 0 0
-0.049258 0.123233 2.228000 255 0 0
-0.043228 0.123456 2.232000 255 0 0
-0.037159 0.123623 2.235000 255 0 0
-0.031017 0.123568 2.234000 255 0 0
-0.024914 0.123680 2.236000 255 0 0
-0.018775 0.123625 2.235000 255 0 0
-0.012653 0.123681 2.236000 255 0 0
-0.006520 0.123626 2.235000 255 0 0
-0.000392 0.123681 2.236000 255 0 0
0.005736 0.123626 2.235000 255 0 0
0.011864 0.123626 2.235000 255 0 0
0.018008 0.123736 2.237000 255 0 0
0.024196 0.124012 2.242000 255 0 0
0.030370 0.124122 2.244000 255 0 0
0.036522 0.124121 2.244000 255 0 0
0.042655 0.124064 2.243000 255 0 0
0.048848 0.124174 2.245000 255 0 0
0.055100 0.124393 2.249000 255 0 0
0.061374 0.124613 2.253000 255 0 0
0.067700 0.124888 2.258000 255 0 0
0.073988 0.125051 2.261000 255 0 0
0.080256 0.125160 2.263000 255 0 0
0.086382 0.125047 2.261000 255 0 0
0.092619 0.125100 2.262000 255 0 0
0.099255 0.125650 2.272000 255 0 0
0.106270 0.126587 2.289000 255 0 0
0.119904 0.127742 2.310000 255 0 0
0.123555 0.125029 2.261000 255 0 0
0.129404 0.124694 2.255000 255 0 0
0.135340 0.124469 2.251000 255 0 0
0.141129 0.124133 2.245000 255 0 0
0.147014 0.123908 2.241000 255 0 0
0.152946 0.123738 2.238000 255 0 0
0.158932 0.123623 2.236000 255 0 0
0.164759 0.123397 2.232000 255 0 0
0.170562 0.123171 2.228000 255 0 0
0.176582 0.123111 2.227000 255 0 0
0.182677 0.123106 2.227000 255 0 0
0.188856 0.123156 2.228000 255 0 0
0.195127 0.123262 2.230000 255 0 0
0.201228 0.123256 2.230000 255 0 0
0.207236 0.123195 2.229000 255 0 0
0.213428 0.123245 2.230000 255 0 0
0.220216 0.123626 2.237000 255 0 0
-0.165202 -0.076775 2.472112 255 255 0
-0.117265 -0.073034 2.464092 255 255 0
-0.057022 -0.071548 2.439351 255 255 0
-0.038118 -0.069407 2.439221 255 255 0
-0.008302 -0.064363 2.446614 255 255 0
-0.003771 -0.065965 2.436938 255 255 0
0.003277 -0.066897 2.428999 255 255 0
0.002766 -0.069835 2.415869 255 255 0
0.027411 -0.066064 2.420165 255 255 0
0.031913 -0.067652 2.410566 255 255 0
0.050634 -0.065419 2.410947 255 255 0
0.057624 -0.066321 2.403171 255 255 0
0.057095 -0.069250 2.390090 255 255 0
0.054906 -0.072634 2.375796 255 255 0
0.032742 -0.081460 2.347146 255 255 0
-0.194557 -0.140518 2.368393 0 255 0
-0.218766 -0.129439 2.397178 0 255 0
-0.215777 -0.127291 2.407374 0 255 0
-0.211085 -0.125698 2.416422 0 255 0
-0.217477 -0.120502 2.432900 0 255 0
-0.216202 -0.117806 2.444207 0 255 0
-0.204678 -0.118423 2.448716 0 255 0
-0.162756 -0.125669 2.445553 0 255 0
-0.163164 -0.122401 2.458081 0 255 0
-0.140429 -0.126529 2.455591 0 255 0
-0.121091 -0.129539 2.455429 0 255 0
-0.112032 -0.129256 2.461968 0 255 0
-0.077175 -0.137129 2.452108 0 255 0
-0.030217 -0.148765 2.434801 0 255 0
-0.015044 -0.150317 2.437835 0 255 0
-0.008468 -0.149148 2.446343 0 255 0
-0.001886 -0.147975 2.454872 0 255 0
-0.329800 0.119169 2.271000 255 0 0
-0.326171 0.120122 2.289000 255 0 0
-0.320486 0.120339 2.293000 255 0 0
-0.314778 0.120557 2.297000 255 0 0
-0.308644 0.120617 2.298000 255 0 0
-0.302767 0.120782 2.301000 255 0 0
-0.297388 0.121157 2.308000 255 0 0
-0.293104 0.122004 2.324000 255 0 0
-0.246521 0.121001 2.304000 255 0 0
-0.239597 0.120692 2.298000 255 0 0
-0.233517 0.120804 2.300000 255 0 0
-0.227326 0.120862 2.301000 255 0 0
-0.220361 0.120500 2.294000 255 0 0
-0.213620 0.120243 2.289000 255 0 0
-0.207086 0.120091 2.286000 255 0 0
-0.200569 0.119939 2.283000 255 0 0
-0.193896 0.119681 2.278000 255 0 0
-0.187168 0.119371 2.272000 255 0 0
-0.180551 0.119113 2.267000 255 0 0
-0.173884 0.118802 2.261000 255 0 0
-0.167472 0.118649 2.258000 255 0 0
-0.160933 0.118391 2.253000 255 0 0
-0.154558 0.118238 2.250000 255 0 0
-0.147935 0.117874 2.243000 255 0 0
-0.141476 0.117615 2.238000 255 0 0
-0.134923 0.117251 2.231000 255 0 0
-0.128638 0.117096 2.228000 255 0 0
-0.122260 0.116837 2.223000 255 0 0
-0.116065 0.116735 2.221000 255 0 0
-0.109930 0.116686 2.220000 255 0 0
-0.103894 0.116741 2.221000 255 0 0
-0.097808 0.116744 2.221000 255 0 0
-0.091721 0.116746 2.221000 255 0 0
-0.085595 0.116696 2.220000 255 0 0
-0.079547 0.116751 2.221000 255 0 0
-0.073492 0.116806 2.222000 255 0 0
-0.067462 0.116913 2.224000 255 0 0
-0.061503 0.117177 2.229000 255 0 0
-0.055442 0.117284 2.231000 255 0 0
-0.049392 0.117443 2.234000 255 0 0
-0.043326 0.117602 2.237000 255 0 0
-0.037226 0.117708 2.239000 255 0 0
-0.031046 0.117552 2.236000 255 0 0
-0.024904 0.117500 2.235000 255 0 0
-0.018759 0.117395 2.233000 255 0 0
-0.012637 0.117396 2.233000 255 0 0
-0.006508 0.117291 2.231000 255 0 0
-0.000391 0.117344 2.232000 255 0 0
0.005731 0.117396 2.233000 255 0 0
0.011859 0.117448 2.234000 255 0 0
0.017993 0.117501 2.235000 255 0 0
0.024153 0.117658 2.238000 255 0 0
0.030303 0.117710 2.239000 255 0 0
0.036458 0.117761 2.240000 255 0 0
0.042656 0.117918 2.243000 255 0 0
0.048871 0.118074 2.246000 255 0 0
0.055175 0.118388 2.252000 255 0 0
0.061458 0.118597 2.256000 255 0 0
0.067792 0.118858 2.261000 255 0 0
0.074055 0.118961 2.263000 255 0 0
0.080258 0.118959 2.263000 255 0 0
0.086537 0.119062 2.265000 255 0 0
0.092827 0.119165 2.267000 255 0 0
0.099345 0.119530 2.274000 255 0 0
0.105902 0.119895 2.281000 255 0 0
0.112447 0.120208 2.287000 255 0 0
0.117934 0.119416 2.272000 255 0 0
0.123066 0.118362 2.252000 255 0 0
0.128891 0.118043 2.246000 255 0 0
0.134923 0.117934 2.244000 255 0 0
0.140944 0.117825 2.242000 255 0 0
0.146887 0.117664 2.239000 255 0 0
0.152609 0.117345 2.233000 255 0 0
0.158581 0.117235 2.231000 255 0 0
0.164468 0.117074 2.228000 255 0 0
0.170567 0.117069 2.228000 255 0 0
0.176587 0.117012 2.227000 255 0 0
0.182518 0.116902 2.225000 255 0 0
0.188691 0.116950 2.226000 255 0 0
0.194870 0.116997 2.227000 255 0 0
0.201144 0.117097 2.229000 255 0 0
0.207055 0.116987 2.227000 255 0 0
0.213625 0.117244 2.232000 255 0 0
-0.156939 -0.089072 2.465752 255 255 0
-0.136996 -0.086760 2.465612 255 255 0
-0.090529 -0.086029 2.444143 255 255 0
-0.071569 -0.083872 2.443827 255 255 0
-0.055173 -0.082369 2.441904 255 255 0
-0.023641 -0.076818 2.450291 255 255 0
-0.007316 -0.075279 2.448565 255 255 0
0.010664 -0.073277 2.448064 255 255 0
0.005942 -0.077348 2.432095 255 255 0
0.018851 -0.076683 2.428227 255 255 0
0.021686 -0.078724 2.417442 255 255 0
0.039587 -0.076683 2.417157 255 255 0
0.056621 -0.074854 2.416373 255 255 0
0.067780 -0.074604 2.411550 255 255 0
0.070581 -0.076628 2.400860 255 255 0
0.061716 -0.081853 2.381857 255 255 0
-0.198818 -0.147082 2.384944 0 255 0
-0.204319 -0.142115 2.400957 0 255 0
-0.211538 -0.136598 2.418064 0 255 0
-0.217923 -0.131373 2.434538 0 255 0
-0.213234 -0.129788 2.443579 0 255 0
-0.200003 -0.130984 2.446980 0 255 0
-0.154670 -0.139441 2.441647 0 255 0
-0.139657 -0.141141 2.444171 0 255 0
-0.129765 -0.141167 2.450095 0 255 0
-0.126721 -0.138978 2.460476 0 255 0
-0.119386 -0.138166 2.468110 0 255 0
-0.001812 -0.166069 2.430992 0 255 0
-0.330243 0.113106 2.274000 255 0 0
-0.326178 0.113859 2.289000 255 0 0
-0.320354 0.114016 2.292000 255 0 0
-0.314648 0.114222 2.296000 255 0 0
-0.308786 0.114379 2.299000 255 0 0
-0.303301 0.114684 2.305000 255 0 0
-0.298039 0.115090 2.313000 255 0 0
-0.245029 0.113997 2.290000 255 0 0
-0.238769 0.114002 2.290000 255 0 0
-0.233320 0.114406 2.298000 255 0 0
-0.227332 0.114561 2.301000 255 0 0
-0.220559 0.114318 2.296000 255 0 0
-0.213719 0.114025 2.290000 255 0 0
-0.207092 0.113831 2.286000 255 0 0
-0.200662 0.113736 2.284000 255 0 0
-0.193986 0.113492 2.279000 255 0 0
-0.187255 0.113198 2.273000 255 0 0
-0.180715 0.113003 2.269000 255 0 0
-0.174120 0.112759 2.264000 255 0 0
-0.167773 0.112663 2.262000 255 0 0
-0.161223 0.112419 2.257000 255 0 0
-0.154905 0.112323 2.255000 255 0 0
-0.148400 0.112078 2.250000 255 0 0
-0.141985 0.111882 2.246000 255 0 0
-0.135470 0.111587 2.240000 255 0 0
-0.129104 0.111391 2.236000 255 0 0
-0.122703 0.111145 2.231000 255 0 0
-0.116434 0.110999 2.228000 255 0 0
-0.110280 0.110952 2.227000 255 0 0
-0.104177 0.110954 2.227000 255 0 0
-0.097986 0.110857 2.225000 255 0 0
-0.091889 0.110860 2.225000 255 0 0
-0.085752 0.110812 2.224000 255 0 0
-0.079620 0.110765 2.223000 255 0 0
-0.073560 0.110816 2.224000 255 0 0
-0.067464 0.110818 2.224000 255 0 0
-0.061505 0.111069 2.229000 255 0 0
-0.055444 0.111170 2.231000 255 0 0
-0.049350 0.111221 2.232000 255 0 0
-0.043211 0.111173 2.231000 255 0 0
-0.037111 0.111224 2.232000 255 0 0
-0.031005 0.111274 2.233000 255 0 0
-0.024905 0.111375 2.235000 255 0 0
-0.018760 0.111276 2.233000 255 0 0
-0.012626 0.111176 2.231000 255 0 0
-0.006497 0.110977 2.227000 255 0 0
-0.000390 0.110977 2.227000 255 0 0
0.005721 0.111077 2.229000 255 0 0
0.011844 0.111176 2.231000 255 0 0
0.017993 0.111375 2.235000 255 0 0
0.024175 0.111624 2.240000 255 0 0
0.030344 0.111723 2.242000 255 0 0
0.036524 0.111822 2.244000 255 0 0
0.042733 0.111970 2.247000 255 0 0
0.048959 0.112119 2.250000 255 0 0
0.055226 0.112317 2.254000 255 0 0
0.061487 0.112465 2.257000 255 0 0
0.067824 0.112712 2.262000 255 0 0
0.074057 0.112760 2.263000 255 0 0
0.080331 0.112858 2.265000 255 0 0
0.086616 0.112955 2.267000 255 0 0
0.092911 0.113052 2.269000 255 0 0
0.099129 0.113050 2.269000 255 0 0
0.105347 0.113047 2.269000 255 0 0
0.111466 0.112945 2.267000 255 0 0
0.117263 0.112543 2.259000 255 0 0
0.122796 0.111943 2.247000 255 0 0
0.128665 0.111690 2.242000 255 0 0
0.134686 0.111587 2.240000 255 0 0
0.140885 0.111634 2.241000 255 0 0
0.146957 0.111580 2.240000 255 0 0
0.152681 0.111277 2.234000 255 0 0
0.158656 0.111174 2.232000 255 0 0
0.164398 0.110921 2.227000 255 0 0
0.170418 0.110867 2.226000 255 0 0
0.176353 0.110763 2.224000 255 0 0
0.182358 0.110708 2.223000 255 0 0
0.188696 0.110853 2.226000 255 0 0
0.194788 0.110848 2.226000 255 0 0
0.201149 0.110993 2.229000 255 0 0
0.206968 0.110839 2.226000 255 0 0
0.213343 0.110983 2.229000 255 0 0
-0.175427 -0.105489 2.455213 255 255 0
-0.151230 -0.102019 2.457753 255 255 0
-0.144023 -0.103009 2.449358 255 255 0
-0.146134 -0.106466 2.434875 255 255 0
-0.097955 -0.099419 2.440554 255 255 0
-0.072244 -0.095411 2.444701 255 255 0
-0.048266 -0.091833 2.447849 255 255 0
0.007968 -0.082338 2.460216 255 255 0
0.009124 -0.084837 2.448285 255 255 0
0.011962 -0.086882 2.437491 255 255 0
0.024024 -0.086413 2.433051 255 255 0
0.033555 -0.086623 2.426920 255 255 0
0.054783 -0.083613 2.428988 255 255 0
0.072630 -0.081504 2.428818 255 255 0
0.077927 -0.082835 2.419916 255 255 0
0.076550 -0.086010 2.406301 255 255 0
0.079348 -0.088034 2.395621 255 255 0
-0.243042 -0.146567 2.404141 0 255 0
-0.223076 -0.150105 2.402748 0 255 0
-0.209884 -0.151357 2.406051 0 255 0
-0.205184 -0.149769 2.415133 0 255 0
-0.199631 -0.148461 2.423655 0 255 0
-0.206008 -0.143208 2.440126 0 255 0
-0.199603 -0.142182 2.448077 0 255 0
-0.178672 -0.145920 2.446500 0 255 0
-0.153436 -0.151035 2.442232 0 255 0
-0.140139 -0.152210 2.445889 0 255 0
-0.131106 -0.151978 2.452377 0 255 0
-0.134918 -0.147563 2.467174 0 255 0
-0.118155 -0.149824 2.468754 0 255 0
-0.068743 -0.162604 2.449650 0 255 0
-0.329815 0.106744 2.271000 255 0 0
-0.325901 0.107503 2.287000 255 0 0
-0.320221 0.107698 2.291000 255 0 0
-0.314518 0.107893 2.295000 255 0 0
-0.308927 0.108135 2.300000 255 0 0
-0.303439 0.108424 2.306000 255 0 0
-0.298433 0.108900 2.316000 255 0 0
-0.244713 0.107585 2.287000 255 0 0
-0.239191 0.107920 2.294000 255 0 0
-0.233427 0.108161 2.299000 255 0 0
-0.227338 0.108260 2.301000 255 0 0
-0.220660 0.108077 2.297000 255 0 0
-0.213910 0.107847 2.292000 255 0 0
-0.207097 0.107570 2.286000 255 0 0
-0.200579 0.107433 2.283000 255 0 0
-0.193736 0.107109 2.276000 255 0 0
-0.187177 0.106925 2.272000 255 0 0
-0.180560 0.106694 2.267000 255 0 0
-0.174047 0.106510 2.263000 255 0 0
-0.167703 0.106420 2.261000 255 0 0
-0.161227 0.106235 2.257000 255 0 0
-0.155047 0.106239 2.257000 255 0 0
-0.148602 0.106055 2.253000 255 0 0
-0.142368 0.106011 2.252000 255 0 0
-0.135958 0.105826 2.248000 255 0 0
-0.129626 0.105688 2.245000 255 0 0
-0.123256 0.105503 2.241000 255 0 0
-0.116907 0.105317 2.237000 255 0 0
-0.110629 0.105179 2.234000 255 0 0
-0.104554 0.105229 2.235000 255 0 0
-0.098429 0.105231 2.235000 255 0 0
-0.092304 0.105233 2.235000 255 0 0
-0.086062 0.105094 2.232000 255 0 0
-0.079766 0.104861 2.227000 255 0 0
-0.073628 0.104816 2.226000 255 0 0
-0.067526 0.104817 2.226000 255 0 0
-0.061589 0.105102 2.232000 255 0 0
-0.055495 0.105150 2.233000 255 0 0
-0.049351 0.105104 2.232000 255 0 0
-0.043173 0.104964 2.229000 255 0 0
-0.037062 0.104965 2.229000 255 0 0
-0.030950 0.104966 2.229000 255 0 0
-0.024861 0.105061 2.231000 255 0 0
-0.018735 0.105014 2.230000 255 0 0
-0.012615 0.104968 2.229000 255 0 0
-0.006494 0.104827 2.226000 255 0 0
-0.000390 0.104874 2.227000 255 0 0
0.005724 0.105015 2.230000 255 0 0
0.011865 0.105250 2.235000 255 0 0
0.018034 0.105485 2.240000 255 0 0
0.024230 0.105720 2.245000 255 0 0
0.030399 0.105767 2.246000 255 0 0
0.036590 0.105860 2.248000 255 0 0
0.042849 0.106094 2.253000 255 0 0
0.049091 0.106235 2.256000 255 0 0
0.055325 0.106327 2.258000 255 0 0
0.061624 0.106514 2.262000 255 0 0
0.067885 0.106607 2.264000 255 0 0
0.074124 0.106652 2.265000 255 0 0
0.080404 0.106745 2.267000 255 0 0
0.086732 0.106884 2.270000 255 0 0
0.092913 0.106835 2.269000 255 0 0
0.098782 0.106456 2.261000 255 0 0
0.104886 0.106359 2.259000 255 0 0
0.110928 0.106215 2.256000 255 0 0
0.116902 0.106024 2.252000 255 0 0
0.122690 0.105691 2.245000 255 0 0
0.128726 0.105594 2.243000 255 0 0
0.134930 0.105638 2.244000 255 0 0
0.141265 0.105776 2.247000 255 0 0
0.147223 0.105631 2.244000 255 0 0
0.152753 0.105204 2.235000 255 0 0
0.158518 0.104965 2.230000 255 0 0
0.164328 0.104773 2.226000 255 0 0
0.170346 0.104722 2.225000 255 0 0
0.176516 0.104765 2.226000 255 0 0
0.182691 0.104808 2.227000 255 0 0
0.188870 0.104850 2.228000 255 0 0
0.194705 0.104705 2.225000 255 0 0
0.200883 0.104747 2.226000 255 0 0
0.206880 0.104695 2.225000 255 0 0
-0.181164 -0.118645 2.452913 255 255 0
-0.161208 -0.116247 2.452667 255 255 0
-0.156531 -0.117912 2.442578 255 255 0
-0.094397 -0.109902 2.444255 255 255 0
-0.067856 -0.105595 2.448954 255 255 0
-0.053158 -0.104470 2.445882 255 255 0
-0.022496 -0.098975 2.453656 255 255 0
-0.004500 -0.096898 2.453044 255 255 0
0.002549 -0.097800 2.445078 255 255 0
0.010429 -0.098467 2.437709 255 255 0
0.025003 -0.097279 2.434985 255 255 0
0.045411 -0.094459 2.436385 255 255 0
0.052407 -0.095333 2.428569 255 255 0
0.057725 -0.096669 2.419604 255 255 0
0.061682 -0.101201 2.396988 255 255 0
0.061168 -0.104171 2.383889 255 255 0
-0.243062 -0.154427 2.417635 0 255 0
-0.240939 -0.152006 2.428351 0 255 0
-0.200543 -0.162422 2.413359 0 255 0
-0.197539 -0.160264 2.423609 0 255 0
-0.208167 -0.153559 2.442915 0 255 0
-0.195794 -0.154529 2.446925 0 255 0
-0.172310 -0.159168 2.443696 0 255 0
-0.155623 -0.161520 2.445057 0 255 0
-0.134637 -0.165265 2.443719 0 255 0
-0.128169 -0.164202 2.451895 0 255 0
-0.137968 -0.157797 2.470557 0 255 0
-0.115214 -0.162063 2.468308 0 255 0
-0.039546 -0.180298 2.445147 0 255 0
-0.014391 -0.181940 2.454559 0 255 0
-0.325480 0.101113 2.284000 255 0 0
-0.320088 0.101385 2.290000 255 0 0
-0.314114 0.101480 2.292000 255 0 0
-0.308531 0.101708 2.297000 255 0 0
-0.302919 0.101935 2.302000 255 0 0
-0.298310 0.102517 2.315000 255 0 0
-0.245896 0.101811 2.298000 255 0 0
-0.239509 0.101772 2.297000 255 0 0
-0.233432 0.101865 2.299000 255 0 0
-0.227244 0.101915 2.300000 255 0 0
-0.220761 0.101831 2.298000 255 0 0
-0.213729 0.101481 2.290000 255 0 0
-0.206920 0.101220 2.284000 255 0 0
-0.200320 0.101047 2.280000 255 0 0
-0.193740 0.100874 2.276000 255 0 0
-0.187181 0.100701 2.272000 255 0 0
-0.180565 0.100484 2.267000 255 0 0
-0.173974 0.100266 2.262000 255 0 0
-0.167559 0.100137 2.259000 255 0 0
-0.161231 0.100052 2.257000 255 0 0
-0.154982 0.100011 2.256000 255 0 0
-0.148605 0.099882 2.253000 255 0 0
-0.142308 0.099796 2.251000 255 0 0
-0.135961 0.099666 2.248000 255 0 0
-0.129745 0.099625 2.247000 255 0 0
-0.123479 0.099539 2.245000 255 0 0
-0.117276 0.099498 2.244000 255 0 0
-0.110978 0.099367 2.241000 255 0 0
-0.104744 0.099281 2.239000 255 0 0
-0.098564 0.099239 2.238000 255 0 0
-0.092347 0.099153 2.236000 255 0 0
-0.086142 0.099066 2.234000 255 0 0
-0.079839 0.098846 2.229000 255 0 0
-0.073762 0.098892 2.230000 255 0 0
-0.067619 0.098850 2.229000 255 0 0
-0.061591 0.098984 2.232000 255 0 0
-0.055447 0.098941 2.231000 255 0 0
-0.049286 0.098854 2.229000 255 0 0
-0.043136 0.098766 2.227000 255 0 0
-0.037063 0.098856 2.229000 255 0 0
-0.030965 0.098901 2.230000 255 0 0
-0.024872 0.098990 2.232000 255 0 0
-0.018744 0.098946 2.231000 255 0 0
-0.012626 0.098947 2.231000 255 0 0
-0.006506 0.098903 2.230000 255 0 0
-0.000391 0.099036 2.233000 255 0 0
0.005740 0.099169 2.236000 255 0 0
0.011892 0.099346 2.240000 255 0 0
0.018083 0.099612 2.246000 255 0 0
0.024274 0.099744 2.249000 255 0 0
0.030454 0.099788 2.250000 255 0 0
0.036607 0.099743 2.249000 255 0 0
0.042812 0.099831 2.251000 255 0 0
0.049027 0.099918 2.253000 255 0 0
0.055277 0.100050 2.256000 255 0 0
0.061517 0.100137 2.258000 255 0 0
0.067797 0.100269 2.261000 255 0 0
0.074061 0.100356 2.263000 255 0 0
0.080370 0.100487 2.266000 255 0 0
0.086582 0.100485 2.266000 255 0 0
0.092752 0.100439 2.265000 255 0 0
0.098610 0.100082 2.257000 255 0 0
0.104656 0.099947 2.254000 255 0 0
0.110636 0.099767 2.250000 255 0 0
0.116646 0.099631 2.247000 255 0 0
0.122529 0.099407 2.242000 255 0 0
0.128786 0.099492 2.244000 255 0 0
0.135234 0.099711 2.249000 255 0 0
0.141457 0.099752 2.250000 255 0 0
0.147161 0.099439 2.243000 255 0 0
0.152620 0.098992 2.233000 255 0 0
0.158237 0.098678 2.226000 255 0 0
0.164111 0.098542 2.223000 255 0 0
0.170044 0.098449 2.221000 255 0 0
0.176203 0.098490 2.222000 255 0 0
0.182613 0.098663 2.226000 255 0 0
0.188960 0.098792 2.229000 255 0 0
0.194972 0.098743 2.228000 255 0 0
0.200797 0.098606 2.225000 255 0 0
0.207442 0.098867 2.231000 255 0 0
-0.182651 -0.130707 2.453359 255 255 0
-0.169480 -0.130091 2.448698 255 255 0
-0.144478 -0.126254 2.451817 255 255 0
-0.086623 -0.119221 2.450751 255 255 0
-0.061787 -0.115302 2.454327 255 255 0
-0.046256 -0.113908 2.451824 255 255 0
-0.035798 -0.113894 2.445993 255 255 0
-0.014087 -0.113610 2.435025 255 255 0
-0.009542 -0.115206 2.425300 255 255 0
0.013423 -0.111657 2.428269 255 255 0
0.035509 -0.108322 2.430775 255 255 0
0.040845 -0.109661 2.421759 255 255 0
0.021970 -0.117817 2.395810 255 255 0
0.046500 -0.113746 2.400237 255 255 0
0.052662 -0.114845 2.391827 255 255 0
0.024707 -0.125637 2.359170 255 255 0
-0.230781 -0.169617 2.410623 0 255 0
-0.237986 -0.164014 2.427684 0 255 0
-0.241811 -0.159575 2.442402 0 255 0
-0.218423 -0.164336 2.438905 0 255 0
-0.208623 -0.164484 2.444575 0 255 0
-0.194550 -0.166055 2.447472 0 255 0
-0.178752 -0.168182 2.449312 0 255 0
-0.160371 -0.171149 2.449556 0 255 0
-0.132935 -0.173900 2.456396 0 255 0
-0.131601 -0.171145 2.467888 0 255 0
-0.123416 -0.170655 2.474990 0 255 0
-0.024938 -0.193344 2.450037 0 255 0
0.008557 -0.194434 2.467132 0 255 0
-0.325201 0.094780 2.282000 255 0 0
-0.319675 0.094994 2.287000 255 0 0
-0.313572 0.095041 2.288000 255 0 0
-0.307865 0.095214 2.292000 255 0 0
-0.302530 0.095510 2.299000 255 0 0
-0.298058 0.096098 2.313000 255 0 0
-0.246864 0.095892 2.307000 255 0 0
-0.239827 0.095606 2.300000 255 0 0
-0.233741 0.095694 2.302000 255 0 0
-0.227347 0.095657 2.301000 255 0 0
-0.220766 0.095537 2.298000 255 0 0
-0.213827 0.095250 2.291000 255 0 0
-0.207015 0.095005 2.285000 255 0 0
-0.200236 0.094760 2.279000 255 0 0
-0.193659 0.094598 2.275000 255 0 0
-0.187186 0.094477 2.272000 255 0 0
-0.180728 0.094356 2.269000 255 0 0
-0.174132 0.094152 2.264000 255 0 0
-0.167785 0.094073 2.262000 255 0 0
-0.161449 0.093993 2.260000 255 0 0
-0.155122 0.093913 2.258000 255 0 0
-0.148741 0.093791 2.255000 255 0 0
