ply
format ascii 1.0
element vertex 1329
property double x
property double y
property double z
property uchar red
property uchar green
property uchar blue
end_header
-0.213590 0.464128 2.261514 0 255 0
-0.207161 0.465684 2.268953 0 255 0
-0.198968 0.466978 2.275159 0 255 0
-0.188127 0.467881 2.279525 0 255 0
-0.177273 0.468794 2.283934 0 255 0
-0.175219 0.471037 2.294564 0 255 0
-0.166110 0.472229 2.300265 0 255 0
-0.149046 0.472252 2.300486 0 255 0
-0.125774 0.471380 2.296516 0 255 0
-0.111310 0.471832 2.298738 0 255 0
-0.104792 0.473462 2.306468 0 255 0
-0.090297 0.473938 2.308795 0 255 0
-0.074895 0.474301 2.310587 0 255 0
-0.367926 0.458968 2.209000 255 0 0
-0.359462 0.455876 2.194000 255 0 0
-0.352690 0.454861 2.189000 255 0 0
-0.347054 0.455300 2.191000 255 0 0
-0.340783 0.454908 2.189000 255 0 0
-0.333451 0.453060 2.180000 255 0 0
-0.326318 0.451420 2.172000 255 0 0
-0.319965 0.450819 2.169000 255 0 0
-0.314642 0.451673 2.173000 255 0 0
-0.309153 0.452318 2.176000 255 0 0
-0.304066 0.453587 2.182000 255 0 0
-0.297716 0.452985 2.179000 255 0 0
-0.290444 0.450927 2.169000 255 0 0
-0.283356 0.449077 2.160000 255 0 0
-0.276960 0.448265 2.156000 255 0 0
-0.270961 0.448078 2.155000 255 0 0
-0.264476 0.447058 2.150000 255 0 0
-0.258257 0.446453 2.147000 255 0 0
-0.251701 0.445224 2.141000 255 0 0
-0.245407 0.444411 2.137000 255 0 0
-0.239247 0.443805 2.134000 255 0 0
-0.232992 0.442991 2.130000 255 0 0
-0.227079 0.442801 2.129000 255 0 0
-0.221275 0.442818 2.129000 255 0 0
-0.215571 0.443042 2.130000 255 0 0
-0.209467 0.442435 2.127000 255 0 0
-0.203570 0.442242 2.126000 255 0 0
-0.197678 0.442050 2.125000 255 0 0
-0.191972 0.442273 2.126000 255 0 0
-0.185997 0.441872 2.124000 255 0 0
-0.180287 0.442094 2.125000 255 0 0
-0.174406 0.441900 2.124000 255 0 0
-0.168531 0.441705 2.123000 255 0 0
-0.162737 0.441718 2.123000 255 0 0
-0.156721 0.441107 2.120000 255 0 0
-0.151006 0.441327 2.121000 255 0 0
-0.145216 0.441339 2.121000 255 0 0
-0.139426 0.441350 2.121000 255 0 0
-0.133572 0.441153 2.120000 255 0 0
-0.127663 0.440748 2.118000 255 0 0
-0.121765 0.440342 2.116000 255 0 0
-0.115822 0.439727 2.113000 255 0 0
-0.110052 0.439736 2.113000 255 0 0
-0.104182 0.439328 2.111000 255 0 0
-0.098510 0.439753 2.113000 255 0 0
-0.092607 0.439136 2.110000 255 0 0
-0.086885 0.439352 2.111000 255 0 0
-0.081118 0.439359 2.111000 255 0 0
-0.075316 0.439157 2.110000 255 0 0
-0.069486 0.438747 2.108000 255 0 0
-0.063787 0.439168 2.110000 255 0 0
-0.058105 0.439798 2.113000 255 0 0
-0.052381 0.440219 2.115000 255 0 0
-0.046581 0.440015 2.114000 255 0 0
-0.040824 0.440226 2.115000 255 0 0
-0.035061 0.440438 2.116000 255 0 0
-0.029293 0.440648 2.117000 255 0 0
-0.023509 0.440651 2.117000 255 0 0
-0.017741 0.441069 2.119000 255 0 0
-0.011956 0.441278 2.120000 255 0 0
-0.006175 0.442111 2.124000 255 0 0
-0.000371 0.442528 2.126000 255 0 0
0.005446 0.443152 2.129000 255 0 0
0.011274 0.443568 2.131000 255 0 0
0.017121 0.444191 2.134000 255 0 0
0.023006 0.445230 2.139000 255 0 0
0.028959 0.446893 2.147000 255 0 0
0.034906 0.447931 2.152000 255 0 0
0.040862 0.448761 2.156000 255 0 0
0.046883 0.450006 2.162000 255 0 0
0.053059 0.452291 2.173000 255 0 0
0.059132 0.453327 2.178000 255 0 0
0.065262 0.454571 2.184000 255 0 0
0.071359 0.455398 2.188000 255 0 0
0.077371 0.455600 2.189000 255 0 0
0.083313 0.455385 2.188000 255 0 0
0.089535 0.456627 2.194000 255 0 0
0.095615 0.457036 2.196000 255 0 0
0.101659 0.457236 2.197000 255 0 0
0.107415 0.456187 2.192000 255 0 0
0.113453 0.456386 2.193000 255 0 0
0.119387 0.456168 2.192000 255 0 0
0.125316 0.455950 2.191000 255 0 0
0.131359 0.456148 2.192000 255 0 0
0.137782 0.457594 2.199000 255 0 0
0.144113 0.458623 2.204000 255 0 0
0.150470 0.459652 2.209000 255 0 0
0.156642 0.460056 2.211000 255 0 0
0.162898 0.460667 2.214000 255 0 0
0.168864 0.460446 2.213000 255 0 0
0.174825 0.460224 2.212000 255 0 0
-0.159004 0.533513 2.298812 255 255 0
-0.148319 0.532243 2.293261 255 255 0
-0.132446 0.531435 2.291386 255 255 0
-0.112270 0.531021 2.292624 255 255 0
-0.094723 0.530396 2.292125 255 255 0
-0.084119 0.529168 2.286798 255 255 0
-0.073530 0.527949 2.281511 255 255 0
-0.056056 0.527361 2.281212 255 255 0
-0.041196 0.526553 2.279130 255 255 0
-0.035826 0.524890 2.270255 255 255 0
-0.034758 0.522832 2.258260 255 255 0
-0.023380 0.521730 2.253791 255 255 0
-0.014591 0.520396 2.247475 255 255 0
0.002756 0.519875 2.247523 255 255 0
0.006378 0.518071 2.237474 255 255 0
0.050354 0.517994 2.244941 255 255 0
0.092470 0.517831 2.251544 255 255 0
0.102828 0.516735 2.246892 255 255 0
0.103815 0.514726 2.235116 255 255 0
-0.313554 0.444486 2.216336 0 255 0
-0.314173 0.447096 2.228725 0 255 0
-0.309573 0.448853 2.237190 0 255 0
-0.308458 0.451178 2.248251 0 255 0
-0.305601 0.453220 2.258010 0 255 0
-0.297505 0.454424 2.263908 0 255 0
-0.281535 0.454382 2.264075 0 255 0
-0.259419 0.453384 2.259853 0 255 0
-0.237271 0.452412 2.255740 0 255 0
-0.218595 0.452014 2.254267 0 255 0
-0.215679 0.454106 2.264219 0 255 0
-0.207497 0.455379 2.270404 0 255 0
-0.198428 0.456524 2.275993 0 255 0
-0.187590 0.457405 2.280371 0 255 0
-0.183779 0.459378 2.289749 0 255 0
-0.183489 0.461890 2.301599 0 255 0
-0.171745 0.462658 2.305442 0 255 0
-0.152928 0.462371 2.304439 0 255 0
-0.134085 0.462104 2.303526 0 255 0
-0.120518 0.462651 2.306343 0 255 0
-0.109586 0.463607 2.311033 0 255 0
-0.094214 0.463918 2.312759 0 255 0
-0.076164 0.463852 2.312756 0 255 0
0.137001 0.459863 2.297345 0 255 0
0.141943 0.461898 2.306940 0 255 0
-0.367451 0.452358 2.206000 255 0 0
-0.359978 0.450536 2.197000 255 0 0
-0.353197 0.449535 2.192000 255 0 0
-0.347236 0.449558 2.192000 255 0 0
-0.340962 0.449171 2.190000 255 0 0
-0.333933 0.447758 2.183000 255 0 0
-0.327092 0.446550 2.177000 255 0 0
-0.320578 0.445752 2.173000 255 0 0
-0.315098 0.446390 2.176000 255 0 0
-0.309602 0.447027 2.179000 255 0 0
-0.304506 0.448280 2.185000 255 0 0
-0.298420 0.448096 2.184000 255 0 0
-0.291402 0.446476 2.176000 255 0 0
-0.283902 0.444034 2.164000 255 0 0
-0.277365 0.443028 2.159000 255 0 0
-0.271233 0.442638 2.157000 255 0 0
-0.264741 0.441632 2.152000 255 0 0
-0.258396 0.440830 2.148000 255 0 0
-0.251955 0.439823 2.143000 255 0 0
-0.245541 0.438815 2.138000 255 0 0
-0.239153 0.437807 2.133000 255 0 0
-0.232900 0.437003 2.129000 255 0 0
-0.227096 0.437021 2.129000 255 0 0
-0.221395 0.437243 2.130000 255 0 0
-0.215688 0.437465 2.131000 255 0 0
-0.209581 0.436865 2.128000 255 0 0
-0.203586 0.436470 2.126000 255 0 0
-0.197601 0.436075 2.124000 255 0 0
-0.191806 0.436090 2.124000 255 0 0
-0.186011 0.436105 2.124000 255 0 0
-0.180386 0.436530 2.126000 255 0 0
-0.174502 0.436338 2.125000 255 0 0
-0.168624 0.436146 2.124000 255 0 0
-0.162673 0.435749 2.122000 255 0 0
-0.156881 0.435761 2.122000 255 0 0
-0.151160 0.435979 2.123000 255 0 0
-0.145433 0.436196 2.124000 255 0 0
-0.139568 0.436002 2.123000 255 0 0
-0.133520 0.435191 2.119000 255 0 0
-0.127613 0.434791 2.117000 255 0 0
-0.121775 0.434596 2.116000 255 0 0
-0.115886 0.434195 2.114000 255 0 0
-0.110061 0.433998 2.113000 255 0 0
-0.104191 0.433596 2.111000 255 0 0
-0.098565 0.434221 2.114000 255 0 0
-0.092702 0.433818 2.112000 255 0 0
-0.087015 0.434236 2.114000 255 0 0
-0.081163 0.433832 2.112000 255 0 0
-0.075358 0.433633 2.111000 255 0 0
-0.069491 0.433022 2.108000 255 0 0
-0.063823 0.433644 2.111000 255 0 0
-0.058110 0.434060 2.113000 255 0 0
-0.052386 0.434475 2.115000 255 0 0
-0.046607 0.434479 2.115000 255 0 0
-0.040847 0.434688 2.116000 255 0 0
-0.035064 0.434691 2.116000 255 0 0
-0.029296 0.434899 2.117000 255 0 0
-0.023533 0.435313 2.119000 255 0 0
-0.017751 0.435520 2.120000 255 0 0
-0.011963 0.435726 2.121000 255 0 0
-0.006172 0.436138 2.123000 255 0 0
-0.000371 0.436960 2.127000 255 0 0
0.005449 0.437576 2.130000 255 0 0
0.011286 0.438192 2.133000 255 0 0
0.017139 0.438807 2.136000 255 0 0
0.023051 0.440243 2.143000 255 0 0
0.028988 0.441474 2.149000 255 0 0
0.034942 0.442498 2.154000 255 0 0
0.040904 0.443317 2.158000 255 0 0
0.047039 0.445573 2.169000 255 0 0
0.053234 0.447828 2.180000 255 0 0
0.059327 0.448851 2.185000 255 0 0
0.065416 0.449668 2.189000 255 0 0
0.071528 0.450484 2.193000 255 0 0
0.077590 0.450888 2.195000 255 0 0
0.083548 0.450676 2.194000 255 0 0
0.089705 0.451491 2.198000 255 0 0
0.095884 0.452305 2.202000 255 0 0
0.101899 0.452297 2.202000 255 0 0
0.107717 0.451467 2.198000 255 0 0
0.113669 0.451253 2.197000 255 0 0
0.119560 0.450832 2.195000 255 0 0
0.125555 0.450823 2.195000 255 0 0
0.131549 0.450812 2.195000 255 0 0
0.137981 0.452239 2.202000 255 0 0
0.144124 0.452639 2.204000 255 0 0
0.150618 0.454064 2.211000 255 0 0
0.156654 0.454052 2.211000 255 0 0
0.162984 0.454861 2.215000 255 0 0
0.169030 0.454848 2.215000 255 0 0
0.175076 0.454834 2.215000 255 0 0
0.180712 0.453794 2.210000 255 0 0
-0.151076 0.523281 2.305531 255 255 0
-0.143003 0.521801 2.298185 255 255 0
-0.129740 0.520797 2.294496 255 255 0
-0.113036 0.520118 2.293293 255 255 0
-0.095493 0.519532 2.292778 255 255 0
-0.084027 0.518404 2.288052 255 255 0
-0.068262 0.517685 2.286448 255 255 0
-0.055109 0.516738 2.283061 255 255 0
-0.038532 0.516125 2.282210 255 255 0
-0.035745 0.514223 2.271468 255 255 0
-0.030378 0.512566 2.262597 255 255 0
-0.026731 0.510747 2.252481 255 255 0
-0.017082 0.509509 2.246777 255 255 0
-0.004877 0.508527 2.243006 255 255 0
0.008166 0.507640 2.239919 255 255 0
0.029736 0.507605 2.243268 255 255 0
0.058953 0.508351 2.252486 255 255 0
0.092381 0.509552 2.265068 255 255 0
0.112964 0.509501 2.268143 255 255 0
0.121596 0.508264 2.262246 255 255 0
-0.320565 0.438007 2.234647 0 255 0
-0.315099 0.439613 2.242448 0 255 0
-0.307887 0.440937 2.248967 0 255 0
-0.300669 0.442266 2.255509 0 255 0
-0.298680 0.444457 2.265924 0 255 0
-0.293198 0.446079 2.273774 0 255 0
-0.244600 0.443281 2.262239 0 255 0
-0.223312 0.442413 2.258866 0 255 0
-0.216892 0.443945 2.266292 0 255 0
-0.210467 0.445482 2.273736 0 255 0
-0.197891 0.446054 2.276830 0 255 0
-0.190570 0.447466 2.283707 0 255 0
-0.189399 0.449849 2.294938 0 255 0
-0.188231 0.452230 2.306157 0 255 0
-0.170328 0.452016 2.305703 0 255 0
-0.150637 0.451549 2.304109 0 255 0
-0.140625 0.452593 2.309307 0 255 0
-0.128834 0.453377 2.313332 0 255 0
-0.113492 0.453634 2.314990 0 255 0
-0.092822 0.453105 2.313113 0 255 0
-0.077434 0.453398 2.314927 0 255 0
0.130687 0.446860 2.290083 0 255 0
0.149019 0.446970 2.291076 0 255 0
0.157547 0.448500 2.298429 0 255 0
0.157140 0.451305 2.311493 0 255 0
-0.378721 0.452618 2.237000 255 0 0
-0.367808 0.446774 2.208000 255 0 0
-0.360821 0.445584 2.202000 255 0 0
-0.353866 0.444394 2.196000 255 0 0
-0.347418 0.443810 2.193000 255 0 0
-0.341296 0.443631 2.192000 255 0 0
-0.334568 0.442642 2.187000 255 0 0
-0.327716 0.441450 2.181000 255 0 0
-0.320895 0.440258 2.175000 255 0 0
-0.315410 0.440887 2.178000 255 0 0
-0.309765 0.441314 2.180000 255 0 0
-0.304945 0.442955 2.188000 255 0 0
-0.299125 0.443179 2.189000 255 0 0
-0.292226 0.441783 2.182000 255 0 0
-0.284709 0.439374 2.170000 255 0 0
-0.277899 0.437977 2.163000 255 0 0
-0.271630 0.437389 2.160000 255 0 0
-0.265006 0.436194 2.154000 255 0 0
-0.258536 0.435200 2.149000 255 0 0
-0.252209 0.434409 2.145000 255 0 0
-0.245674 0.433212 2.139000 255 0 0
-0.239282 0.432217 2.134000 255 0 0
-0.233027 0.431425 2.130000 255 0 0
-0.227113 0.431240 2.129000 255 0 0
-0.221308 0.431257 2.129000 255 0 0
-0.215502 0.431273 2.129000 255 0 0
-0.209597 0.431087 2.128000 255 0 0
-0.203601 0.430697 2.126000 255 0 0
-0.197709 0.430510 2.125000 255 0 0
-0.191911 0.430525 2.125000 255 0 0
-0.186113 0.430540 2.125000 255 0 0
-0.180400 0.430756 2.126000 255 0 0
-0.174434 0.430365 2.124000 255 0 0
-0.168558 0.430176 2.123000 255 0 0
-0.162840 0.430391 2.124000 255 0 0
-0.157190 0.430809 2.126000 255 0 0
-0.151528 0.431227 2.128000 255 0 0
-0.145650 0.431036 2.127000 255 0 0
-0.139711 0.430642 2.125000 255 0 0
-0.133656 0.429842 2.121000 255 0 0
-0.127684 0.429244 2.118000 255 0 0
-0.121842 0.429052 2.117000 255 0 0
-0.115896 0.428453 2.114000 255 0 0
-0.110122 0.428462 2.114000 255 0 0
-0.104249 0.428065 2.112000 255 0 0
-0.098619 0.428682 2.115000 255 0 0
-0.092841 0.428689 2.115000 255 0 0
-0.087063 0.428697 2.115000 255 0 0
-0.081208 0.428298 2.113000 255 0 0
-0.075399 0.428102 2.112000 255 0 0
-0.069563 0.427702 2.110000 255 0 0
-0.063858 0.428113 2.112000 255 0 0
-0.058114 0.428321 2.113000 255 0 0
-0.052365 0.428528 2.114000 255 0 0
-0.046566 0.428329 2.113000 255 0 0
-0.040792 0.428333 2.113000 255 0 0
-0.035034 0.428539 2.114000 255 0 0
-0.029284 0.428947 2.116000 255 0 0
-0.023524 0.429354 2.118000 255 0 0
-0.017752 0.429761 2.120000 255 0 0
-0.011958 0.429763 2.120000 255 0 0
-0.006173 0.430371 2.123000 255 0 0
-0.000371 0.431183 2.127000 255 0 0
0.005452 0.431993 2.131000 255 0 0
0.011302 0.433006 2.136000 255 0 0
0.017172 0.433816 2.140000 255 0 0
0.023096 0.435233 2.147000 255 0 0
0.029018 0.436042 2.151000 255 0 0
0.034977 0.437053 2.156000 255 0 0
0.040983 0.438266 2.162000 255 0 0
0.047151 0.440695 2.174000 255 0 0
0.053385 0.443124 2.186000 255 0 0
0.059576 0.444741 2.194000 255 0 0
0.065631 0.445141 2.196000 255 0 0
0.071827 0.446352 2.202000 255 0 0
0.077808 0.446143 2.201000 255 0 0
0.083822 0.446136 2.201000 255 0 0
0.089958 0.446737 2.204000 255 0 0
0.096109 0.447338 2.207000 255 0 0
0.102185 0.447533 2.208000 255 0 0
0.107971 0.446511 2.203000 255 0 0
0.113885 0.446096 2.201000 255 0 0
0.119788 0.445682 2.199000 255 0 0
0.125851 0.445874 2.200000 255 0 0
0.131799 0.445662 2.199000 255 0 0
0.138180 0.446867 2.205000 255 0 0
0.144332 0.447261 2.207000 255 0 0
0.150630 0.448060 2.211000 255 0 0
0.156667 0.448048 2.211000 255 0 0
0.162997 0.448846 2.215000 255 0 0
0.169196 0.449238 2.217000 255 0 0
0.175405 0.449630 2.219000 255 0 0
0.181216 0.449008 2.216000 255 0 0
-0.150097 0.512445 2.307444 255 255 0
-0.140291 0.511138 2.301297 255 255 0
-0.123571 0.510487 2.300023 255 255 0
-0.108608 0.509686 2.297610 255 255 0
-0.092803 0.508980 2.295873 255 255 0
-0.079616 0.508040 2.292369 255 255 0
-0.062998 0.507442 2.291379 255 255 0
-0.048992 0.506608 2.288614 255 255 0
-0.036729 0.505619 2.284668 255 255 0
-0.033082 0.503798 2.274550 255 255 0
-0.028576 0.502062 2.265057 255 255 0
-0.025788 0.500158 2.254313 255 255 0
-0.021284 0.498424 2.244824 255 255 0
-0.014213 0.496950 2.237237 255 255 0
0.002257 0.496431 2.236652 255 255 0
0.028952 0.496967 2.243790 255 255 0
0.061571 0.498140 2.255541 255 255 0
0.100950 0.500046 2.272603 255 255 0
0.120665 0.499962 2.275041 255 255 0
0.130989 0.498921 2.270454 255 255 0
-0.311564 0.423807 2.217087 0 255 0
-0.315651 0.427031 2.232091 0 255 0
-0.317141 0.429807 2.245105 0 255 0
-0.311674 0.431410 2.252918 0 255 0
-0.304460 0.432727 2.259457 0 255 0
-0.302472 0.434919 2.269864 0 255 0
-0.294375 0.436100 2.275794 0 255 0
-0.281028 0.436424 2.277934 0 255 0
-0.250174 0.433894 2.267462 0 255 0
-0.215479 0.433352 2.266482 0 255 0
-0.211683 0.435307 2.275815 0 255 0
-0.204377 0.436698 2.282658 0 255 0
-0.190916 0.437111 2.285178 0 255 0
-0.190621 0.439640 2.297030 0 255 0
-0.185053 0.441329 2.305171 0 255 0
-0.168036 0.441214 2.305355 0 255 0
-0.148351 0.440701 2.303787 0 255 0
-0.137457 0.441589 2.308393 0 255 0
-0.128316 0.442763 2.314254 0 255 0
-0.113863 0.443123 2.316533 0 255 0
-0.094970 0.442817 2.315874 0 255 0
-0.083131 0.443617 2.320087 0 255 0
0.153882 0.435038 2.289408 0 255 0
-0.376036 0.443351 2.221000 255 0 0
-0.367999 0.440979 2.209000 255 0 0
-0.361336 0.440205 2.205000 255 0 0
-0.354373 0.439031 2.199000 255 0 0
-0.347758 0.438255 2.195000 255 0 0
-0.341475 0.437879 2.193000 255 0 0
-0.335203 0.437503 2.191000 255 0 0
-0.328339 0.436327 2.185000 255 0 0
-0.321507 0.435151 2.179000 255 0 0
-0.315432 0.434974 2.178000 255 0 0
-0.309929 0.435594 2.181000 255 0 0
-0.305106 0.437214 2.189000 255 0 0
-0.299692 0.438034 2.193000 255 0 0
-0.293586 0.437855 2.192000 255 0 0
-0.286173 0.435679 2.181000 255 0 0
-0.279076 0.433901 2.172000 255 0 0
-0.272655 0.433122 2.168000 255 0 0
-0.266256 0.432342 2.164000 255 0 0
-0.259637 0.431162 2.158000 255 0 0
-0.252815 0.429583 2.150000 255 0 0
-0.246151 0.428203 2.143000 255 0 0
-0.239861 0.427421 2.139000 255 0 0
-0.233701 0.426839 2.136000 255 0 0
-0.227450 0.426057 2.132000 255 0 0
-0.221429 0.425674 2.130000 255 0 0
-0.215519 0.425491 2.129000 255 0 0
-0.209613 0.425307 2.128000 255 0 0
-0.203617 0.424923 2.126000 255 0 0
-0.197817 0.424938 2.126000 255 0 0
-0.192107 0.425153 2.127000 255 0 0
-0.186303 0.425168 2.127000 255 0 0
-0.180499 0.425182 2.127000 255 0 0
-0.174612 0.424996 2.126000 255 0 0
-0.168729 0.424809 2.125000 255 0 0
-0.163006 0.425022 2.126000 255 0 0
-0.157424 0.425634 2.129000 255 0 0
-0.151754 0.426046 2.131000 255 0 0
-0.145798 0.425658 2.129000 255 0 0
-0.139788 0.425069 2.126000 255 0 0
-0.133856 0.424680 2.124000 255 0 0
-0.127875 0.424091 2.121000 255 0 0
-0.122024 0.423901 2.120000 255 0 0
-0.115960 0.422911 2.115000 255 0 0
-0.110130 0.422720 2.114000 255 0 0
-0.104356 0.422728 2.114000 255 0 0
-0.098627 0.422936 2.115000 255 0 0
-0.092849 0.422944 2.115000 255 0 0
-0.087070 0.422951 2.115000 255 0 0
-0.081253 0.422758 2.114000 255 0 0
-0.075477 0.422764 2.114000 255 0 0
-0.069667 0.422570 2.113000 255 0 0
-0.063924 0.422776 2.114000 255 0 0
-0.058147 0.422780 2.114000 255 0 0
-0.052345 0.422585 2.113000 255 0 0
-0.046548 0.422389 2.112000 255 0 0
-0.040776 0.422393 2.112000 255 0 0
-0.035037 0.422796 2.114000 255 0 0
-0.029287 0.423198 2.116000 255 0 0
-0.023537 0.423800 2.119000 255 0 0
-0.017754 0.424002 2.120000 255 0 0
-0.011976 0.424603 2.123000 255 0 0
-0.006182 0.425204 2.126000 255 0 0
-0.000372 0.426204 2.131000 255 0 0
0.005463 0.427004 2.135000 255 0 0
0.011330 0.428203 2.141000 255 0 0
0.017214 0.429002 2.145000 255 0 0
0.023119 0.429801 2.149000 255 0 0
0.029047 0.430598 2.153000 255 0 0
0.035012 0.431596 2.158000 255 0 0
0.041081 0.433393 2.167000 255 0 0
0.047285 0.435989 2.180000 255 0 0
0.053658 0.439385 2.197000 255 0 0
0.059961 0.441580 2.208000 255 0 0
0.065965 0.441375 2.207000 255 0 0
0.072061 0.441770 2.209000 255 0 0
0.077991 0.441164 2.206000 255 0 0
0.084057 0.441357 2.207000 255 0 0
0.090169 0.441750 2.209000 255 0 0
0.096378 0.442542 2.213000 255 0 0
0.102332 0.442134 2.211000 255 0 0
0.108127 0.441126 2.206000 255 0 0
0.113946 0.440317 2.202000 255 0 0
0.119906 0.440108 2.201000 255 0 0
0.125975 0.440298 2.202000 255 0 0
0.132109 0.440688 2.204000 255 0 0
0.138442 0.441677 2.209000 255 0 0
0.144540 0.441866 2.210000 255 0 0
0.150847 0.442654 2.214000 255 0 0
0.156750 0.442242 2.212000 255 0 0
0.163010 0.442829 2.215000 255 0 0
0.169286 0.443416 2.218000 255 0 0
0.175735 0.444402 2.223000 255 0 0
0.182048 0.444988 2.226000 255 0 0
0.188461 0.445773 2.230000 255 0 0
-0.143912 0.502098 2.312952 255 255 0
-0.114808 0.500453 2.307357 255 255 0
-0.100723 0.499606 2.304350 255 255 0
-0.087524 0.498686 2.300795 255 255 0
-0.075207 0.497691 2.296684 255 255 0
-0.060323 0.496963 2.294465 255 255 0
-0.048046 0.495989 2.290461 255 255 0
-0.040948 0.494508 2.282793 255 255 0
-0.042450 0.492163 2.268928 255 255 0
-0.037074 0.490511 2.260026 255 255 0
-0.031703 0.488862 2.251134 255 255 0
-0.017769 0.488096 2.248543 255 255 0
-0.014125 0.486278 2.238432 255 255 0
0.000631 0.485619 2.236566 255 255 0
0.023048 0.485777 2.240494 255 255 0
0.065895 0.488113 2.259875 255 255 0
0.096731 0.489226 2.270501 255 255 0
0.116444 0.489188 2.272911 255 255 0
0.115718 0.486979 2.259894 255 255 0
-0.308405 0.413066 2.215835 0 255 0
-0.314221 0.416613 2.232149 0 255 0
-0.318314 0.419853 2.247112 0 255 0
-0.315458 0.421895 2.256865 0 255 0
-0.307377 0.423049 2.262757 0 255 0
-0.300160 0.424359 2.269318 0 255 0
-0.289446 0.425086 2.273348 0 255 0
-0.280465 0.426117 2.278693 0 255 0
-0.230111 0.422822 2.266160 0 255 0
-0.214070 0.422739 2.266677 0 255 0
-0.212900 0.425126 2.277894 0 255 0
-0.206473 0.426650 2.285364 0 255 0
-0.197407 0.427748 2.290992 0 255 0
-0.188331 0.428855 2.296653 0 255 0
-0.181882 0.430397 2.304192 0 255 0
-0.169268 0.430952 2.307463 0 255 0
-0.152235 0.430815 2.307739 0 255 0
-0.139585 0.431398 2.311130 0 255 0
-0.128683 0.432274 2.315787 0 255 0
-0.117768 0.433160 2.320486 0 255 0
-0.100654 0.433084 2.321033 0 255 0
-0.087938 0.433719 2.324645 0 255 0
0.145756 0.422232 2.283249 0 255 0
-0.376399 0.437714 2.223000 255 0 0
-0.367356 0.434194 2.205000 255 0 0
-0.361032 0.433824 2.203000 255 0 0
-0.354719 0.433453 2.201000 255 0 0
-0.348256 0.432886 2.198000 255 0 0
-0.342121 0.432712 2.197000 255 0 0
-0.335837 0.432341 2.195000 255 0 0
-0.328963 0.431182 2.189000 255 0 0
-0.321972 0.429825 2.182000 255 0 0
-0.315598 0.429256 2.179000 255 0 0
-0.309951 0.429671 2.181000 255 0 0
-0.305406 0.431663 2.191000 255 0 0
-0.300260 0.432866 2.197000 255 0 0
-0.294411 0.433084 2.198000 255 0 0
-0.287637 0.431923 2.192000 255 0 0
-0.280894 0.430761 2.186000 255 0 0
-0.274310 0.429795 2.181000 255 0 0
-0.267752 0.428829 2.176000 255 0 0
-0.260859 0.427272 2.168000 255 0 0
-0.253657 0.425123 2.157000 255 0 0
-0.246744 0.423367 2.148000 255 0 0
-0.240215 0.422203 2.142000 255 0 0
-0.233937 0.421432 2.138000 255 0 0
-0.227467 0.420266 2.132000 255 0 0
-0.221237 0.419494 2.128000 255 0 0
-0.215332 0.419313 2.127000 255 0 0
-0.209629 0.419526 2.128000 255 0 0
-0.203824 0.419542 2.128000 255 0 0
-0.198018 0.419557 2.128000 255 0 0
-0.192302 0.419769 2.129000 255 0 0
-0.186580 0.419981 2.130000 255 0 0
-0.180767 0.419995 2.130000 255 0 0
-0.174707 0.419417 2.127000 255 0 0
-0.168822 0.419233 2.126000 255 0 0
-0.163172 0.419640 2.128000 255 0 0
-0.157510 0.420047 2.130000 255 0 0
-0.151766 0.420257 2.131000 255 0 0
-0.145741 0.419677 2.128000 255 0 0
-0.139799 0.419293 2.126000 255 0 0
-0.133930 0.419107 2.125000 255 0 0
-0.127945 0.418526 2.122000 255 0 0
-0.122092 0.418338 2.121000 255 0 0
-0.116024 0.417361 2.116000 255 0 0
-0.110191 0.417173 2.115000 255 0 0
-0.104364 0.416984 2.114000 255 0 0
-0.098635 0.417190 2.115000 255 0 0
-0.092856 0.417197 2.115000 255 0 0
-0.087077 0.417205 2.115000 255 0 0
-0.081298 0.417211 2.115000 255 0 0
-0.075519 0.417218 2.115000 255 0 0
-0.069739 0.417223 2.115000 255 0 0
-0.063929 0.417032 2.114000 255 0 0
-0.058124 0.416839 2.113000 255 0 0
-0.052349 0.416844 2.113000 255 0 0
-0.046552 0.416650 2.112000 255 0 0
-0.040799 0.416851 2.113000 255 0 0
-0.035040 0.417051 2.114000 255 0 0
-0.029289 0.417449 2.116000 255 0 0
-0.023539 0.418043 2.119000 255 0 0
-0.017772 0.418636 2.122000 255 0 0
-0.012005 0.419821 2.128000 255 0 0
-0.006200 0.420611 2.132000 255 0 0
-0.000373 0.421598 2.137000 255 0 0
0.005476 0.422189 2.140000 255 0 0
0.011357 0.423372 2.146000 255 0 0
0.017255 0.424160 2.150000 255 0 0
0.023175 0.424948 2.154000 255 0 0
0.029117 0.425735 2.158000 255 0 0
0.035096 0.426719 2.163000 255 0 0
0.041179 0.428491 2.172000 255 0 0
0.047419 0.431249 2.186000 255 0 0
0.053882 0.435191 2.206000 255 0 0
0.060292 0.437948 2.220000 255 0 0
0.066269 0.437351 2.217000 255 0 0
0.072361 0.437543 2.218000 255 0 0
0.078351 0.437142 2.216000 255 0 0
0.084445 0.437333 2.217000 255 0 0
0.090544 0.437523 2.218000 255 0 0
0.096691 0.437910 2.220000 255 0 0
0.102525 0.436916 2.215000 255 0 0
0.108332 0.435921 2.210000 255 0 0
0.114110 0.434926 2.205000 255 0 0
0.120243 0.435311 2.207000 255 0 0
0.126329 0.435499 2.208000 255 0 0
0.132539 0.436081 2.211000 255 0 0
0.138704 0.436464 2.213000 255 0 0
0.144943 0.437045 2.216000 255 0 0
0.150927 0.436836 2.215000 255 0 0
0.156904 0.436627 2.214000 255 0 0
0.163170 0.437206 2.217000 255 0 0
0.169604 0.438179 2.222000 255 0 0
0.176223 0.439546 2.229000 255 0 0
0.182635 0.440321 2.233000 255 0 0
0.189068 0.441095 2.237000 255 0 0
0.194649 0.439898 2.231000 255 0 0
-0.109514 0.490115 2.312267 255 255 0
-0.091116 0.489734 2.312294 255 255 0
-0.084837 0.488150 2.303887 255 255 0
-0.080289 0.486395 2.294272 255 255 0
-0.069711 0.485257 2.288959 255 255 0
-0.053984 0.484657 2.287382 255 255 0
-0.046880 0.483182 2.279688 255 255 0
-0.046653 0.480996 2.267047 255 255 0
-0.040415 0.479436 2.258750 255 255 0
-0.030754 0.478240 2.252974 255 255 0
-0.016825 0.477505 2.250374 255 255 0
-0.016600 0.475323 2.237737 255 255 0
-0.004409 0.474420 2.233950 255 255 0
0.019712 0.474816 2.239118 255 255 0
0.071921 0.478286 2.265481 255 255 0
0.118185 0.479032 2.275295 255 255 0
0.124258 0.477560 2.267451 255 255 0
-0.309589 0.403058 2.217854 0 255 0
-0.313664 0.406328 2.232861 0 255 0
-0.312537 0.408679 2.243940 0 255 0
-0.311414 0.411029 2.255004 0 255 0
-0.308554 0.413076 2.264771 0 255 0
-0.301338 0.414374 2.271336 0 255 0
-0.287141 0.414480 2.272825 0 255 0
-0.274670 0.414900 2.275647 0 255 0
-0.249083 0.413104 2.269040 0 255 0
-0.228702 0.412224 2.266341 0 255 0
-0.210915 0.411810 2.265622 0 255 0
-0.207114 0.413765 2.274979 0 255 0
-0.205940 0.416162 2.286205 0 255 0
-0.198630 0.417536 2.293082 0 255 0
-0.190435 0.418771 2.299366 0 255 0
-0.180474 0.419723 2.304450 0 255 0
-0.170502 0.420686 2.309573 0 255 0
-0.152597 0.420364 2.309252 0 255 0
-0.139070 0.420777 2.312048 0 255 0
-0.129934 0.421917 2.317924 0 255 0
-0.120788 0.423065 2.323835 0 255 0
-0.105450 0.423231 2.325587 0 255 0
-0.090975 0.423553 2.328005 0 255 0
-0.376254 0.431483 2.222000 255 0 0
-0.366714 0.427429 2.201000 255 0 0
-0.360892 0.427647 2.202000 255 0 0
-0.354742 0.427476 2.201000 255 0 0
-0.348596 0.427305 2.200000 255 0 0
-0.342300 0.426939 2.198000 255 0 0
-0.336319 0.426962 2.198000 255 0 0
-0.329436 0.425819 2.192000 255 0 0
-0.322437 0.424481 2.185000 255 0 0
-0.315910 0.423726 2.181000 255 0 0
-0.310398 0.424330 2.184000 255 0 0
-0.305567 0.425906 2.192000 255 0 0
-0.300555 0.427287 2.199000 255 0 0
-0.295101 0.428085 2.203000 255 0 0
-0.288969 0.427912 2.202000 255 0 0
-0.283356 0.428515 2.205000 255 0 0
-0.276719 0.427563 2.200000 255 0 0
-0.269617 0.425834 2.191000 255 0 0
-0.261841 0.422937 2.176000 255 0 0
-0.254264 0.420235 2.162000 255 0 0
-0.247106 0.418115 2.151000 255 0 0
-0.240457 0.416772 2.144000 255 0 0
-0.233955 0.415623 2.138000 255 0 0
-0.227698 0.414863 2.134000 255 0 0
-0.221566 0.414296 2.131000 255 0 0
-0.215652 0.414118 2.130000 255 0 0
-0.209743 0.413939 2.129000 255 0 0
-0.203839 0.413760 2.128000 255 0 0
-0.198033 0.413776 2.128000 255 0 0
-0.192407 0.414179 2.130000 255 0 0
-0.186770 0.414583 2.132000 255 0 0
-0.180866 0.414402 2.131000 255 0 0
-0.174885 0.414027 2.129000 255 0 0
-0.168994 0.413845 2.128000 255 0 0
-0.163338 0.414247 2.130000 255 0 0
-0.157670 0.414649 2.132000 255 0 0
-0.151849 0.414661 2.132000 255 0 0
-0.145890 0.414283 2.130000 255 0 0
-0.139810 0.413516 2.126000 255 0 0
-0.133940 0.413332 2.125000 255 0 0
-0.128015 0.412954 2.123000 255 0 0
-0.122101 0.412574 2.121000 255 0 0
-0.116143 0.412000 2.118000 255 0 0
-0.110148 0.411231 2.114000 255 0 0
-0.104323 0.411045 2.113000 255 0 0
-0.098550 0.411053 2.113000 255 0 0
-0.092820 0.411255 2.114000 255 0 0
-0.087084 0.411457 2.115000 255 0 0
-0.081305 0.411463 2.115000 255 0 0
-0.075596 0.411859 2.117000 255 0 0
-0.069811 0.411865 2.117000 255 0 0
-0.063994 0.411675 2.116000 255 0 0
-0.058129 0.411097 2.113000 255 0 0
-0.052353 0.411101 2.113000 255 0 0
-0.046600 0.411300 2.114000 255 0 0
-0.040860 0.411692 2.116000 255 0 0
-0.035109 0.412084 2.118000 255 0 0
-0.029333 0.412282 2.119000 255 0 0
-0.023574 0.412867 2.122000 255 0 0
-0.017798 0.413453 2.125000 255 0 0
-0.012029 0.414816 2.132000 255 0 0
-0.006212 0.415595 2.136000 255 0 0
-0.000374 0.416568 2.141000 255 0 0
0.005486 0.417152 2.144000 255 0 0
0.011363 0.417735 2.147000 255 0 0
0.017265 0.418512 2.151000 255 0 0
0.023166 0.418899 2.153000 255 0 0
0.029146 0.420259 2.160000 255 0 0
0.035132 0.421229 2.165000 255 0 0
0.041258 0.423366 2.176000 255 0 0
0.047618 0.427060 2.195000 255 0 0
0.054155 0.431336 2.217000 255 0 0
0.060514 0.433471 2.228000 255 0 0
0.066484 0.432688 2.224000 255 0 0
0.072627 0.433071 2.226000 255 0 0
0.078711 0.433065 2.226000 255 0 0
0.084832 0.433253 2.227000 255 0 0
0.090959 0.433441 2.228000 255 0 0
0.097134 0.433823 2.230000 255 0 0
0.102857 0.432258 2.222000 255 0 0
0.108585 0.430888 2.215000 255 0 0
0.114327 0.429712 2.209000 255 0 0
0.120361 0.429703 2.209000 255 0 0
0.126453 0.429888 2.210000 255 0 0
0.132670 0.430461 2.213000 255 0 0
0.138840 0.430840 2.215000 255 0 0
0.144955 0.431023 2.216000 255 0 0
0.150938 0.430817 2.215000 255 0 0
0.157058 0.431000 2.216000 255 0 0
0.163403 0.431765 2.220000 255 0 0
0.169923 0.432919 2.226000 255 0 0
0.176632 0.434462 2.234000 255 0 0
0.183221 0.435615 2.240000 255 0 0
0.189589 0.436184 2.243000 255 0 0
0.195798 0.436364 2.244000 255 0 0
0.203812 0.440432 2.265000 255 0 0
-0.107682 0.479442 2.314760 255 255 0
-0.091884 0.478838 2.312961 255 255 0
-0.088192 0.476992 2.302722 255 255 0
-0.083638 0.475236 2.293093 255 255 0
-0.076503 0.473754 2.285308 255 255 0
-0.057333 0.473550 2.286159 255 255 0
-0.050225 0.472083 2.278450 255 255 0
-0.048275 0.470068 2.267037 255 255 0
-0.041177 0.468606 2.259352 255 255 0
-0.030660 0.467520 2.254189 255 255 0
-0.017590 0.466722 2.250950 255 255 0
-0.015653 0.464715 2.239570 255 255 0
-0.004319 0.463744 2.235142 255 255 0
0.024058 0.464674 2.243468 255 255 0
0.073682 0.468009 2.267891 255 255 0
0.114698 0.470438 2.286179 255 255 0
0.130128 0.470027 2.285395 255 255 0
0.125148 0.467315 2.269188 255 255 0
-0.317710 0.394288 2.225088 0 255 0
-0.319182 0.397111 2.238122 0 255 0
-0.312848 0.398539 2.245307 0 255 0
-0.309115 0.400435 2.254441 0 255 0
-0.307991 0.402791 2.265503 0 255 0
-0.300777 0.404078 2.272077 0 255 0
-0.283971 0.403696 2.271672 0 255 0
-0.266269 0.403181 2.270711 0 255 0
-0.225549 0.401305 2.265268 0 255 0
-0.205144 0.400400 2.262696 0 255 0
-0.203962 0.402806 2.273947 0 255 0
-0.200156 0.404765 2.283321 0 255 0
-0.198101 0.407021 2.293936 0 255 0
-0.187276 0.407799 2.298383 0 255 0
-0.179949 0.409177 2.305326 0 255 0
-0.167342 0.409680 2.308628 0 255 0
-0.152960 0.409903 2.310766 0 255 0
-0.143841 0.411015 2.316605 0 255 0
-0.143522 0.413587 2.328511 0 255 0
-0.129980 0.413987 2.331388 0 255 0
-0.113773 0.413969 2.332530 0 255 0
-0.093127 0.413249 2.330768 0 255 0
-0.080408 0.413839 2.334445 0 255 0
0.184234 0.404973 2.313093 0 255 0
-0.366071 0.420685 2.197000 255 0 0
-0.360752 0.421474 2.201000 255 0 0
-0.354926 0.421689 2.202000 255 0 0
-0.348778 0.421521 2.201000 255 0 0
-0.342634 0.421352 2.200000 255 0 0
-0.336648 0.421375 2.200000 255 0 0
-0.329759 0.420248 2.194000 255 0 0
-0.322606 0.418737 2.186000 255 0 0
-0.315931 0.417801 2.181000 255 0 0
-0.310704 0.418781 2.186000 255 0 0
-0.305867 0.420334 2.194000 255 0 0
-0.300712 0.421505 2.200000 255 0 0
-0.295256 0.422292 2.204000 255 0 0
-0.289777 0.423079 2.208000 255 0 0
-0.284661 0.424440 2.215000 255 0 0
-0.278374 0.424077 2.213000 255 0 0
-0.270621 0.421414 2.199000 255 0 0
-0.262101 0.417408 2.178000 255 0 0
-0.254635 0.414935 2.165000 255 0 0
-0.247354 0.412654 2.153000 255 0 0
-0.240699 0.411330 2.146000 255 0 0
-0.233972 0.409814 2.138000 255 0 0
-0.227714 0.409064 2.134000 255 0 0
-0.221686 0.408697 2.132000 255 0 0
-0.215769 0.408522 2.131000 255 0 0
-0.210055 0.408729 2.132000 255 0 0
-0.204142 0.408553 2.131000 255 0 0
-0.198234 0.408376 2.130000 255 0 0
-0.192512 0.408583 2.131000 255 0 0
-0.186784 0.408789 2.132000 255 0 0
-0.181049 0.408994 2.133000 255 0 0
-0.175145 0.408816 2.132000 255 0 0
-0.169245 0.408637 2.131000 255 0 0
-0.163427 0.408650 2.131000 255 0 0
-0.157682 0.408854 2.132000 255 0 0
-0.151860 0.408866 2.132000 255 0 0
-0.145969 0.408686 2.131000 255 0 0
-0.139952 0.408122 2.128000 255 0 0
-0.133888 0.407365 2.124000 255 0 0
-0.127965 0.406992 2.122000 255 0 0
-0.122053 0.406618 2.120000 255 0 0
-0.116261 0.406627 2.120000 255 0 0
-0.110261 0.405869 2.116000 255 0 0
-0.104430 0.405685 2.115000 255 0 0
-0.098604 0.405502 2.114000 255 0 0
-0.092915 0.405893 2.116000 255 0 0
-0.087174 0.406092 2.117000 255 0 0
-0.081388 0.406098 2.117000 255 0 0
-0.075638 0.406296 2.118000 255 0 0
-0.069816 0.406110 2.117000 255 0 0
-0.064000 0.405924 2.116000 255 0 0
-0.058133 0.405353 2.113000 255 0 0
-0.052382 0.405549 2.114000 255 0 0
-0.046647 0.405937 2.116000 255 0 0
-0.040902 0.406324 2.118000 255 0 0
-0.035145 0.406711 2.120000 255 0 0
-0.029377 0.407097 2.122000 255 0 0
-0.023620 0.407867 2.126000 255 0 0
-0.017842 0.408636 2.130000 255 0 0
-0.012052 0.409788 2.136000 255 0 0
-0.006230 0.410940 2.142000 255 0 0
-0.000375 0.411324 2.144000 255 0 0
0.005497 0.412091 2.148000 255 0 0
0.011375 0.412282 2.149000 255 0 0
0.017290 0.413240 2.154000 255 0 0
0.023211 0.413814 2.157000 255 0 0
0.029202 0.415155 2.164000 255 0 0
0.035183 0.415920 2.168000 255 0 0
0.041356 0.418411 2.181000 255 0 0
0.047752 0.422244 2.201000 255 0 0
0.054355 0.426844 2.225000 255 0 0
0.060736 0.428950 2.236000 255 0 0
0.066758 0.428369 2.233000 255 0 0
0.072927 0.428747 2.235000 255 0 0
0.079000 0.428549 2.234000 255 0 0
0.085182 0.428927 2.236000 255 0 0
0.091375 0.429303 2.238000 255 0 0
0.097665 0.430063 2.242000 255 0 0
0.103282 0.427945 2.231000 255 0 0
0.108888 0.426019 2.221000 255 0 0
0.114543 0.424475 2.213000 255 0 0
0.120480 0.424083 2.211000 255 0 0
0.126577 0.424265 2.212000 255 0 0
0.132800 0.424830 2.215000 255 0 0
0.138976 0.425203 2.217000 255 0 0
0.144966 0.425000 2.216000 255 0 0
0.150814 0.424413 2.213000 255 0 0
0.156999 0.424785 2.215000 255 0 0
0.163490 0.425923 2.221000 255 0 0
0.170165 0.427445 2.229000 255 0 0
0.176725 0.428582 2.235000 255 0 0
0.183235 0.429527 2.240000 255 0 0
0.189857 0.430663 2.246000 255 0 0
0.196162 0.431032 2.248000 255 0 0
0.203287 0.433126 2.259000 255 0 0
-0.105849 0.468768 2.317254 255 255 0
-0.091785 0.468017 2.314237 255 255 0
-0.085503 0.466447 2.305815 255 255 0
-0.077262 0.462850 2.285955 255 255 0
-0.058957 0.462599 2.286173 255 255 0
-0.044977 0.461893 2.283391 255 255 0
-0.041314 0.460063 2.273230 255 255 0
-0.037652 0.458235 2.263069 255 255 0
-0.034845 0.456311 2.252283 255 255 0
-0.029471 0.454676 2.243374 255 255 0
-0.024101 0.453042 2.234475 255 255 0
-0.007640 0.452670 2.233806 255 255 0
0.032663 0.455035 2.250990 255 255 0
0.088218 0.459198 2.279862 255 255 0
0.142060 0.461085 2.295480 255 255 0
0.149807 0.459837 2.288985 255 255 0
-0.283675 0.375269 2.188545 0 255 0
-0.322358 0.384923 2.229707 0 255 0
-0.326431 0.388229 2.244674 0 255 0
-0.318368 0.389331 2.250553 0 255 0
-0.312902 0.390909 2.258389 0 255 0
-0.310910 0.393115 2.268801 0 255 0
-0.305439 0.394699 2.276651 0 255 0
-0.289515 0.394430 2.276884 0 255 0
-0.236665 0.390253 2.262432 0 255 0
-0.220657 0.390048 2.262947 0 255 0
-0.204626 0.389859 2.263536 0 255 0
-0.204315 0.392425 2.275415 0 255 0
-0.196132 0.393624 2.281691 0 255 0
-0.194072 0.395887 2.292322 0 255 0
-0.185876 0.397097 2.298636 0 255 0
-0.178550 0.398465 2.305593 0 255 0
-0.161555 0.398194 2.305860 0 255 0
-0.146294 0.398240 2.307421 0 255 0
-0.139810 0.399785 2.315104 0 255 0
-0.142126 0.402812 2.328834 0 255 0
-0.131232 0.403625 2.333528 0 255 0
-0.109740 0.402689 2.331096 0 255 0
-0.091748 0.402360 2.331150 0 255 0
-0.078149 0.402779 2.334251 0 255 0
-0.366261 0.414905 2.198000 255 0 0
-0.360775 0.415495 2.201000 255 0 0
-0.354788 0.415518 2.201000 255 0 0
-0.348801 0.415541 2.201000 255 0 0
-0.342812 0.415564 2.201000 255 0 0
-0.336976 0.415775 2.202000 255 0 0
-0.330081 0.414664 2.196000 255 0 0
-0.323071 0.413365 2.189000 255 0 0
-0.316387 0.412442 2.184000 255 0 0
-0.311152 0.413408 2.189000 255 0 0
-0.306028 0.414562 2.195000 255 0 0
-0.300870 0.415716 2.201000 255 0 0
-0.295411 0.416492 2.205000 255 0 0
-0.290323 0.417835 2.212000 255 0 0
-0.285710 0.419933 2.223000 255 0 0
-0.279778 0.420142 2.224000 255 0 0
-0.271625 0.416949 2.207000 255 0 0
-0.262601 0.412245 2.182000 255 0 0
-0.254653 0.409052 2.165000 255 0 0
-0.247602 0.407181 2.155000 255 0 0
-0.241053 0.406065 2.149000 255 0 0
-0.234427 0.404759 2.142000 255 0 0
-0.228051 0.403831 2.137000 255 0 0
-0.221910 0.403281 2.134000 255 0 0
-0.215988 0.403108 2.133000 255 0 0
-0.210366 0.403501 2.135000 255 0 0
-0.204540 0.403517 2.135000 255 0 0
-0.198621 0.403343 2.134000 255 0 0
-0.192707 0.403168 2.133000 255 0 0
-0.186885 0.403183 2.133000 255 0 0
-0.181063 0.403196 2.133000 255 0 0
-0.175240 0.403210 2.133000 255 0 0
-0.169417 0.403223 2.133000 255 0 0
-0.163593 0.403236 2.133000 255 0 0
-0.157768 0.403248 2.133000 255 0 0
-0.151943 0.403260 2.133000 255 0 0
-0.146118 0.403271 2.133000 255 0 0
-0.140094 0.402715 2.130000 255 0 0
-0.134087 0.402158 2.127000 255 0 0
-0.128096 0.401601 2.124000 255 0 0
-0.122063 0.400855 2.120000 255 0 0
-0.116216 0.400675 2.119000 255 0 0
-0.110322 0.400305 2.117000 255 0 0
-0.104487 0.400125 2.116000 255 0 0
-0.098658 0.399943 2.115000 255 0 0
-0.092922 0.400140 2.116000 255 0 0
-0.087222 0.400525 2.118000 255 0 0
-0.081433 0.400532 2.118000 255 0 0
-0.075644 0.400538 2.118000 255 0 0
-0.069789 0.400166 2.116000 255 0 0
-0.064005 0.400171 2.116000 255 0 0
-0.058193 0.399987 2.115000 255 0 0
-0.052411 0.399991 2.115000 255 0 0
-0.046695 0.400562 2.118000 255 0 0
-0.040944 0.400944 2.120000 255 0 0
-0.035214 0.401703 2.124000 255 0 0
-0.029435 0.402084 2.126000 255 0 0
-0.023644 0.402465 2.128000 255 0 0
-0.017860 0.403223 2.132000 255 0 0
-0.012059 0.404170 2.137000 255 0 0
-0.006237 0.405494 2.144000 255 0 0
-0.000375 0.405873 2.146000 255 0 0
0.005500 0.406440 2.149000 255 0 0
0.011386 0.406818 2.151000 255 0 0
0.017307 0.407762 2.156000 255 0 0
0.023256 0.408706 2.161000 255 0 0
0.029272 0.410217 2.169000 255 0 0
0.035316 0.411538 2.176000 255 0 0
0.041549 0.414372 2.191000 255 0 0
0.047995 0.418340 2.212000 255 0 0
0.054579 0.422497 2.234000 255 0 0
0.061067 0.425140 2.248000 255 0 0
0.067212 0.425135 2.248000 255 0 0
0.073226 0.424373 2.244000 255 0 0
0.079325 0.424178 2.243000 255 0 0
0.085532 0.424550 2.245000 255 0 0
0.091872 0.425488 2.250000 255 0 0
0.098282 0.426615 2.256000 255 0 0
0.103707 0.423582 2.240000 255 0 0
0.109142 0.420926 2.226000 255 0 0
0.114655 0.418837 2.215000 255 0 0
0.120489 0.418072 2.211000 255 0 0
0.126530 0.418062 2.211000 255 0 0
0.132750 0.418619 2.214000 255 0 0
0.138861 0.418798 2.215000 255 0 0
0.144912 0.418787 2.215000 255 0 0
0.150826 0.418398 2.213000 255 0 0
0.157082 0.418953 2.216000 255 0 0
0.163723 0.420453 2.224000 255 0 0
0.170407 0.421953 2.232000 255 0 0
0.176817 0.422696 2.236000 255 0 0
0.183249 0.423438 2.240000 255 0 0
0.189787 0.424369 2.245000 255 0 0
0.196526 0.425678 2.252000 255 0 0
0.203033 0.426419 2.256000 255 0 0
-0.121557 0.458451 2.320436 255 255 0
-0.099698 0.458564 2.322756 255 255 0
-0.089095 0.457469 2.317328 255 255 0
-0.086264 0.455527 2.306481 255 255 0
-0.086015 0.453299 2.293801 255 255 0
-0.072856 0.452505 2.290277 255 255 0
-0.054562 0.452300 2.290493 255 255 0
-0.038015 0.451916 2.289560 255 255 0
-0.041218 0.449313 2.274461 255 255 0
-0.038410 0.447386 2.263675 255 255 0
-0.038168 0.445164 2.251009 255 255 0
-0.032790 0.443531 2.242085 255 255 0
-0.029977 0.441603 2.231282 255 255 0
-0.010956 0.441564 2.232478 255 255 0
0.101038 0.450264 2.290541 255 255 0
0.140288 0.452733 2.307568 255 255 0
0.151434 0.451900 2.303625 255 255 0
-0.320942 0.374450 2.229767 0 255 0
-0.326742 0.378099 2.246034 0 255 0
-0.323884 0.380144 2.255792 0 255 0
-0.318423 0.381712 2.263618 0 255 0
-0.313827 0.383443 2.272098 0 255 0
-0.304881 0.384388 2.277395 0 255 0
-0.292444 0.384712 2.280185 0 255 0
-0.214028 0.378439 2.259382 0 255 0
-0.204111 0.379303 2.264380 0 255 0
-0.205545 0.382188 2.277507 0 255 0
-0.199988 0.383835 2.285649 0 255 0
-0.195303 0.385639 2.294420 0 255 0
-0.187110 0.386834 2.300741 0 255 0
-0.182416 0.388647 2.309538 0 255 0
-0.168065 0.388790 2.311639 0 255 0
-0.158087 0.389706 2.316839 0 255 0
-0.146339 0.390329 2.320868 0 255 0
-0.142495 0.392317 2.330365 0 255 0
-0.122797 0.391610 2.329076 0 255 0
-0.110123 0.392119 2.332657 0 255 0
-0.092139 0.391748 2.332726 0 255 0
-0.078545 0.392136 2.335840 0 255 0
-0.375310 0.412259 2.216000 255 0 0
-0.367118 0.409864 2.203000 255 0 0
-0.360798 0.409515 2.201000 255 0 0
-0.354811 0.409538 2.201000 255 0 0
-0.348665 0.409375 2.200000 255 0 0
-0.342835 0.409583 2.201000 255 0 0
-0.336998 0.409792 2.202000 255 0 0
-0.330554 0.409256 2.199000 255 0 0
-0.323683 0.408161 2.193000 255 0 0
-0.316843 0.407065 2.187000 255 0 0
-0.311457 0.407831 2.191000 255 0 0
-0.306327 0.408969 2.197000 255 0 0
-0.301164 0.410107 2.203000 255 0 0
-0.295431 0.410500 2.205000 255 0 0
-0.290474 0.412009 2.213000 255 0 0
-0.285858 0.414077 2.224000 255 0 0
-0.280301 0.414842 2.228000 255 0 0
-0.272259 0.411882 2.212000 255 0 0
-0.263221 0.407246 2.187000 255 0 0
-0.255142 0.403912 2.169000 255 0 0
-0.248309 0.402440 2.161000 255 0 0
-0.241743 0.401341 2.155000 255 0 0
-0.234991 0.399868 2.147000 255 0 0
-0.228495 0.398767 2.141000 255 0 0
-0.222343 0.398225 2.138000 255 0 0
-0.216308 0.397868 2.136000 255 0 0
-0.210677 0.398256 2.138000 255 0 0
-0.204747 0.398085 2.137000 255 0 0
-0.198822 0.397914 2.136000 255 0 0
-0.192812 0.397556 2.134000 255 0 0
-0.186987 0.397570 2.134000 255 0 0
-0.181162 0.397584 2.134000 255 0 0
-0.175336 0.397597 2.134000 255 0 0
-0.169350 0.397238 2.132000 255 0 0
-0.163528 0.397250 2.132000 255 0 0
-0.157706 0.397262 2.132000 255 0 0
-0.152026 0.397647 2.134000 255 0 0
-0.146060 0.397285 2.132000 255 0 0
-0.140171 0.397110 2.131000 255 0 0
-0.134160 0.396561 2.128000 255 0 0
-0.128226 0.396199 2.126000 255 0 0
-0.122187 0.395463 2.122000 255 0 0
-0.116225 0.394913 2.119000 255 0 0
-0.110330 0.394549 2.117000 255 0 0
-0.104496 0.394371 2.116000 255 0 0
-0.098759 0.394565 2.117000 255 0 0
-0.093061 0.394946 2.119000 255 0 0
-0.087352 0.395325 2.121000 255 0 0
-0.081555 0.395332 2.121000 255 0 0
-0.075721 0.395152 2.120000 255 0 0
-0.069860 0.394784 2.118000 255 0 0
-0.064040 0.394603 2.117000 255 0 0
-0.058280 0.394794 2.118000 255 0 0
-0.052490 0.394799 2.118000 255 0 0
-0.046743 0.395176 2.120000 255 0 0
-0.041005 0.395738 2.123000 255 0 0
-0.035283 0.396673 2.128000 255 0 0
-0.029506 0.397235 2.131000 255 0 0
-0.023713 0.397796 2.134000 255 0 0
-0.017895 0.398171 2.136000 255 0 0
-0.012077 0.398918 2.140000 255 0 0
-0.006243 0.400037 2.146000 255 0 0
-0.000375 0.400410 2.148000 255 0 0
0.005506 0.400969 2.151000 255 0 0
0.011408 0.401714 2.155000 255 0 0
0.017373 0.403390 2.164000 255 0 0
0.023355 0.404507 2.170000 255 0 0
0.029396 0.405997 2.178000 255 0 0
0.035513 0.407858 2.188000 255 0 0
0.041799 0.410837 2.204000 255 0 0
0.048324 0.415121 2.227000 255 0 0
0.054877 0.418659 2.246000 255 0 0
0.086148 0.421427 2.261000 255 0 0
0.092410 0.421793 2.263000 255 0 0
0.098856 0.422904 2.269000 255 0 0
0.103993 0.418609 2.246000 255 0 0
0.109346 0.415619 2.230000 255 0 0
0.114871 0.413560 2.219000 255 0 0
0.120662 0.412619 2.214000 255 0 0
0.126597 0.412237 2.212000 255 0 0
0.132821 0.412786 2.215000 255 0 0
0.138997 0.413148 2.217000 255 0 0
0.145119 0.413324 2.218000 255 0 0
0.151042 0.412940 2.216000 255 0 0
0.157307 0.413487 2.219000 255 0 0
0.163956 0.414965 2.227000 255 0 0
0.170572 0.416257 2.234000 255 0 0
0.176910 0.416803 2.237000 255 0 0
0.183100 0.416976 2.238000 255 0 0
0.189717 0.418080 2.244000 255 0 0
0.196366 0.419183 2.250000 255 0 0
0.203318 0.420845 2.259000 255 0 0
0.209298 0.420457 2.257000 255 0 0
-0.151406 0.448790 2.326950 255 255 0
-0.138145 0.447968 2.323121 255 255 0
-0.121445 0.447542 2.321743 255 255 0
-0.100457 0.447612 2.323445 255 255 0
-0.094167 0.446051 2.314987 255 255 0
-0.084187 0.442645 2.296291 255 255 0
-0.067594 0.442274 2.295205 255 255 0
-0.054464 0.441521 2.291740 255 255 0
-0.043928 0.440481 2.286482 255 255 0
-0.044548 0.438152 2.273222 255 255 0
-0.038310 0.436620 2.264905 255 255 0
-0.037209 0.434488 2.252862 255 255 0
-0.034394 0.432556 2.242056 255 255 0
-0.029870 0.430827 2.232502 255 255 0
-0.000626 0.432058 2.241256 255 255 0
0.049854 0.435879 2.266003 255 255 0
0.112996 0.441294 2.300568 255 255 0
0.147967 0.443361 2.314407 255 255 0
0.154858 0.442036 2.307271 255 255 0
0.141390 0.438213 2.284705 255 255 0
-0.322725 0.367146 2.244159 0 255 0
-0.325062 0.370167 2.257801 0 255 0
-0.321338 0.372052 2.266916 0 255 0
-0.311534 0.372812 2.271554 0 255 0
-0.302588 0.373741 2.276868 0 255 0
-0.291892 0.374359 2.280946 0 255 0
-0.236485 0.369432 2.264686 0 255 0
-0.209154 0.367094 2.257083 0 255 0
-0.200981 0.368258 2.263354 0 255 0
-0.206775 0.371945 2.279601 0 255 0
-0.201220 0.373585 2.287745 0 255 0
-0.196535 0.375385 2.296520 0 255 0
-0.190096 0.376877 2.304074 0 255 0
-0.181899 0.378063 2.310423 0 255 0
-0.167553 0.378175 2.312538 0 255 0
-0.154943 0.378610 2.315932 0 255 0
-0.144953 0.379518 2.321190 0 255 0
-0.135831 0.380588 2.327089 0 255 0
-0.118777 0.380295 2.327634 0 255 0
-0.108746 0.381235 2.333027 0 255 0
-0.094295 0.381427 2.335493 0 255 0
-0.080708 0.381785 2.338614 0 255 0
-0.375164 0.406054 2.215000 255 0 0
-0.367474 0.404244 2.205000 255 0 0
-0.360985 0.403717 2.202000 255 0 0
-0.354995 0.403740 2.202000 255 0 0
-0.349163 0.403946 2.203000 255 0 0
-0.343480 0.404335 2.205000 255 0 0
-0.337480 0.404357 2.205000 255 0 0
-0.331178 0.404013 2.203000 255 0 0
-0.324295 0.402934 2.197000 255 0 0
-0.317589 0.402038 2.192000 255 0 0
-0.312047 0.402610 2.195000 255 0 0
-0.306766 0.403548 2.200000 255 0 0
-0.301458 0.404486 2.205000 255 0 0
-0.295719 0.404873 2.207000 255 0 0
-0.290757 0.406361 2.215000 255 0 0
-0.286264 0.408582 2.227000 255 0 0
-0.280698 0.409336 2.231000 255 0 0
-0.272525 0.406236 2.214000 255 0 0
-0.263601 0.401851 2.190000 255 0 0
-0.255866 0.399117 2.175000 255 0 0
-0.249016 0.397667 2.167000 255 0 0
-0.242209 0.396216 2.159000 255 0 0
-0.235555 0.394948 2.152000 255 0 0
-0.229045 0.393864 2.146000 255 0 0
-0.222879 0.393330 2.143000 255 0 0
-0.216627 0.392611 2.139000 255 0 0
-0.210692 0.392443 2.138000 255 0 0
-0.204762 0.392275 2.137000 255 0 0
-0.198930 0.392290 2.137000 255 0 0
-0.193007 0.392121 2.136000 255 0 0
-0.187264 0.392318 2.137000 255 0 0
-0.181430 0.392332 2.137000 255 0 0
-0.175595 0.392345 2.137000 255 0 0
-0.169601 0.391991 2.135000 255 0 0
-0.163618 0.391636 2.133000 255 0 0
-0.157792 0.391648 2.133000 255 0 0
-0.151966 0.391660 2.133000 255 0 0
-0.146209 0.391855 2.134000 255 0 0
-0.140182 0.391315 2.131000 255 0 0
-0.134297 0.391142 2.130000 255 0 0
-0.128357 0.390784 2.128000 255 0 0
-0.122427 0.390427 2.126000 255 0 0
-0.116398 0.389701 2.122000 255 0 0
-0.110443 0.389159 2.119000 255 0 0
-0.104553 0.388800 2.117000 255 0 0
-0.098814 0.388991 2.118000 255 0 0
-0.093113 0.389366 2.120000 255 0 0
-0.087441 0.389924 2.123000 255 0 0
-0.081676 0.390114 2.124000 255 0 0
-0.075870 0.390120 2.124000 255 0 0
-0.069997 0.389759 2.122000 255 0 0
-0.064105 0.389213 2.119000 255 0 0
-0.058340 0.389401 2.120000 255 0 0
-0.052543 0.389406 2.120000 255 0 0
-0.046835 0.390144 2.124000 255 0 0
-0.041085 0.390699 2.127000 255 0 0
-0.035302 0.391069 2.129000 255 0 0
-0.029522 0.391623 2.132000 255 0 0
-0.023726 0.392176 2.135000 255 0 0
-0.017921 0.392912 2.139000 255 0 0
-0.012095 0.393648 2.143000 255 0 0
-0.006249 0.394567 2.148000 255 0 0
-0.000376 0.395119 2.151000 255 0 0
0.005516 0.395853 2.155000 255 0 0
0.011430 0.396587 2.159000 255 0 0
0.017407 0.398239 2.168000 255 0 0
0.023410 0.399524 2.175000 255 0 0
0.029493 0.401358 2.185000 255 0 0
0.035695 0.403927 2.199000 255 0 0
0.042087 0.407598 2.219000 255 0 0
0.048718 0.412370 2.245000 255 0 0
0.055199 0.414938 2.259000 255 0 0
0.104603 0.414888 2.259000 255 0 0
0.109600 0.410472 2.235000 255 0 0
0.115190 0.408627 2.225000 255 0 0
0.120998 0.407700 2.220000 255 0 0
0.126836 0.406956 2.216000 255 0 0
0.132831 0.406762 2.215000 255 0 0
0.139071 0.407303 2.218000 255 0 0
0.145261 0.407659 2.220000 255 0 0
0.151258 0.407464 2.219000 255 0 0
0.157531 0.408004 2.222000 255 0 0
0.164116 0.409277 2.229000 255 0 0
0.170662 0.410366 2.235000 255 0 0
0.177002 0.410904 2.238000 255 0 0
0.183113 0.410890 2.238000 255 0 0
0.189562 0.411611 2.242000 255 0 0
0.196206 0.412698 2.248000 255 0 0
0.203153 0.414335 2.257000 255 0 0
0.209777 0.415238 2.262000 255 0 0
-0.134567 0.437403 2.326826 255 255 0
-0.120468 0.436720 2.323650 255 255 0
-0.104666 0.436247 2.321734 255 255 0
-0.099233 0.434591 2.312655 255 255 0
-0.078917 0.432393 2.301214 255 255 0
