ply
format ascii 1.0
element vertex 1290
property double x
property double y
property double z
property uchar red
property uchar green
property uchar blue
end_header
0.086101 0.001075 2.253000 255 0 0
0.094080 0.001096 2.297000 255 0 0
0.100595 0.001098 2.302000 255 0 0
0.105651 0.001085 2.275000 255 0 0
0.110952 0.001076 2.256000 255 0 0
0.116771 0.001073 2.249000 255 0 0
-0.147784 -0.286158 2.589830 255 255 0
-0.099477 -0.307789 2.464107 255 255 0
-0.080625 -0.304742 2.463442 255 255 0
-0.056798 -0.300040 2.466194 255 255 0
-0.030514 -0.294494 2.470738 255 255 0
0.000720 -0.287277 2.478775 255 255 0
0.032725 -0.279757 2.487540 255 255 0
-0.030080 -0.303580 2.432148 255 255 0
-0.003908 -0.297979 2.437003 255 255 0
0.019729 -0.293182 2.440288 255 255 0
0.049120 -0.286428 2.447696 255 255 0
-0.212506 -0.322226 2.542528 0 255 0
-0.215441 -0.317809 2.556535 0 255 0
-0.209898 -0.316636 2.565166 0 255 0
-0.216245 -0.310936 2.581254 0 255 0
-0.209002 -0.310410 2.588823 0 255 0
-0.189837 -0.314387 2.589051 0 255 0
-0.172347 -0.317701 2.590422 0 255 0
-0.164209 -0.317465 2.597613 0 255 0
-0.153503 -0.318184 2.603280 0 255 0
-0.152178 -0.315375 2.614671 0 255 0
-0.138888 -0.317039 2.618861 0 255 0
-0.116170 -0.322198 2.617492 0 255 0
-0.352770 -0.005106 2.259000 255 0 0
-0.349221 -0.005145 2.276000 255 0 0
-0.343769 -0.005157 2.281000 255 0 0
-0.337550 -0.005157 2.281000 255 0 0
-0.331183 -0.005155 2.280000 255 0 0
-0.325249 -0.005160 2.282000 255 0 0
-0.319862 -0.005174 2.288000 255 0 0
-0.313892 -0.005179 2.290000 255 0 0
-0.307374 -0.005175 2.288000 255 0 0
-0.300864 -0.005171 2.286000 255 0 0
-0.295783 -0.005191 2.295000 255 0 0
-0.254965 -0.005257 2.323000 255 0 0
-0.247437 -0.005232 2.312000 255 0 0
-0.240177 -0.005212 2.303000 255 0 0
-0.233372 -0.005201 2.298000 255 0 0
-0.227581 -0.005212 2.303000 255 0 0
-0.221473 -0.005217 2.305000 255 0 0
-0.214794 -0.005208 2.301000 255 0 0
-0.208045 -0.005197 2.296000 255 0 0
-0.201322 -0.005186 2.291000 255 0 0
-0.194626 -0.005175 2.286000 255 0 0
-0.188204 -0.005171 2.284000 255 0 0
-0.181553 -0.005160 2.279000 255 0 0
-0.175083 -0.005153 2.276000 255 0 0
-0.168183 -0.005133 2.267000 255 0 0
-0.162189 -0.005140 2.270000 255 0 0
-0.156178 -0.005147 2.273000 255 0 0
-0.149820 -0.005143 2.271000 255 0 0
-0.143093 -0.005125 2.263000 255 0 0
-0.136046 -0.005093 2.249000 255 0 0
-0.129827 -0.005091 2.248000 255 0 0
-0.123282 -0.005075 2.241000 255 0 0
-0.117245 -0.005080 2.243000 255 0 0
-0.110999 -0.005076 2.241000 255 0 0
-0.105137 -0.005089 2.247000 255 0 0
-0.099111 -0.005096 2.250000 255 0 0
-0.092984 -0.005099 2.251000 255 0 0
-0.086543 -0.005083 2.244000 255 0 0
-0.080356 -0.005081 2.243000 255 0 0
-0.074107 -0.005074 2.240000 255 0 0
-0.067874 -0.005067 2.237000 255 0 0
-0.061547 -0.005052 2.230000 255 0 0
-0.055407 -0.005049 2.229000 255 0 0
-0.049229 -0.005043 2.226000 255 0 0
-0.043105 -0.005040 2.225000 255 0 0
-0.036970 -0.005036 2.223000 255 0 0
-0.030860 -0.005034 2.222000 255 0 0
-0.024710 -0.005022 2.217000 255 0 0
-0.018604 -0.005016 2.214000 255 0 0
-0.012532 -0.005016 2.214000 255 0 0
-0.006463 -0.005018 2.215000 255 0 0
-0.000388 -0.005016 2.214000 255 0 0
0.005684 -0.005016 2.214000 255 0 0
0.011772 -0.005022 2.217000 255 0 0
0.017877 -0.005029 2.220000 255 0 0
0.023998 -0.005036 2.223000 255 0 0
0.030121 -0.005040 2.225000 255 0 0
0.036223 -0.005040 2.225000 255 0 0
0.042306 -0.005038 2.224000 255 0 0
0.048340 -0.005031 2.221000 255 0 0
0.054455 -0.005033 2.222000 255 0 0
0.060629 -0.005040 2.225000 255 0 0
0.066850 -0.005049 2.229000 255 0 0
0.072962 -0.005049 2.229000 255 0 0
0.079250 -0.005060 2.234000 255 0 0
0.086178 -0.005108 2.255000 255 0 0
0.105651 -0.005153 2.275000 255 0 0
0.110902 -0.005107 2.255000 255 0 0
0.117031 -0.005105 2.254000 255 0 0
-0.153113 -0.290268 2.626898 255 255 0
-0.151842 -0.292945 2.614740 255 255 0
-0.140392 -0.292392 2.608762 255 255 0
-0.080036 -0.313060 2.478252 255 255 0
-0.062882 -0.310508 2.476526 255 255 0
-0.042419 -0.306837 2.477098 255 255 0
-0.018661 -0.302042 2.479993 255 255 0
-0.003271 -0.299996 2.477425 255 255 0
0.035740 -0.293086 2.478139 255 255 0
-0.005381 -0.309918 2.437311 255 255 0
0.033996 -0.299764 2.451374 255 255 0
-0.210438 -0.334261 2.542651 0 255 0
-0.226080 -0.324923 2.564703 0 255 0
-0.232422 -0.319196 2.580777 0 255 0
-0.217554 -0.321624 2.583528 0 255 0
-0.214563 -0.319485 2.593744 0 255 0
-0.203066 -0.320592 2.598705 0 255 0
-0.189000 -0.322661 2.602148 0 255 0
-0.176619 -0.324068 2.606698 0 255 0
-0.169337 -0.323526 2.614413 0 255 0
-0.150099 -0.327493 2.614937 0 255 0
-0.135103 -0.329831 2.618123 0 255 0
-0.356674 -0.011413 2.284000 255 0 0
-0.350294 -0.011409 2.283000 255 0 0
-0.343920 -0.011405 2.282000 255 0 0
-0.337697 -0.011406 2.282000 255 0 0
-0.331618 -0.011411 2.283000 255 0 0
-0.325676 -0.011422 2.285000 255 0 0
-0.320420 -0.011458 2.292000 255 0 0
-0.314440 -0.011469 2.294000 255 0 0
-0.307910 -0.011459 2.292000 255 0 0
-0.301390 -0.011450 2.290000 255 0 0
-0.296040 -0.011486 2.297000 255 0 0
-0.254636 -0.011606 2.320000 255 0 0
-0.247437 -0.011566 2.312000 255 0 0
-0.240803 -0.011552 2.309000 255 0 0
-0.233981 -0.011527 2.304000 255 0 0
-0.227778 -0.011533 2.305000 255 0 0
-0.221377 -0.011529 2.304000 255 0 0
-0.214980 -0.011524 2.303000 255 0 0
-0.208316 -0.011505 2.299000 255 0 0
-0.201410 -0.011470 2.292000 255 0 0
-0.194711 -0.011446 2.287000 255 0 0
-0.188286 -0.011436 2.285000 255 0 0
-0.182190 -0.011447 2.287000 255 0 0
-0.175852 -0.011442 2.286000 255 0 0
-0.169073 -0.011407 2.279000 255 0 0
-0.162689 -0.011398 2.277000 255 0 0
-0.156453 -0.011398 2.277000 255 0 0
-0.150084 -0.011389 2.275000 255 0 0
-0.143409 -0.011354 2.268000 255 0 0
-0.136470 -0.011294 2.256000 255 0 0
-0.130000 -0.011270 2.251000 255 0 0
-0.123557 -0.011245 2.246000 255 0 0
-0.117663 -0.011270 2.251000 255 0 0
-0.111444 -0.011265 2.250000 255 0 0
-0.105512 -0.011291 2.255000 255 0 0
-0.099463 -0.011306 2.258000 255 0 0
-0.093314 -0.011311 2.259000 255 0 0
-0.086852 -0.011277 2.252000 255 0 0
-0.080714 -0.011282 2.253000 255 0 0
-0.074437 -0.011267 2.250000 255 0 0
-0.068329 -0.011277 2.252000 255 0 0
-0.061961 -0.011242 2.245000 255 0 0
-0.055705 -0.011222 2.241000 255 0 0
-0.049428 -0.011192 2.235000 255 0 0
-0.043240 -0.011178 2.232000 255 0 0
-0.037070 -0.011163 2.229000 255 0 0
-0.030901 -0.011143 2.225000 255 0 0
-0.024732 -0.011113 2.219000 255 0 0
-0.018613 -0.011093 2.215000 255 0 0
-0.012527 -0.011083 2.213000 255 0 0
-0.006457 -0.011083 2.213000 255 0 0
-0.000388 -0.011083 2.213000 255 0 0
0.005689 -0.011098 2.216000 255 0 0
0.011778 -0.011108 2.218000 255 0 0
0.017885 -0.011123 2.221000 255 0 0
0.023987 -0.011128 2.222000 255 0 0
0.030108 -0.011138 2.224000 255 0 0
0.036174 -0.011128 2.222000 255 0 0
0.042268 -0.011127 2.222000 255 0 0
0.048318 -0.011117 2.220000 255 0 0
0.054528 -0.011142 2.225000 255 0 0
0.060820 -0.011177 2.232000 255 0 0
0.067090 -0.011202 2.237000 255 0 0
0.073125 -0.011187 2.234000 255 0 0
0.079144 -0.011172 2.231000 255 0 0
0.111345 -0.011336 2.264000 255 0 0
-0.139779 -0.306934 2.597680 255 255 0
-0.069805 -0.321278 2.486345 255 255 0
-0.055171 -0.319513 2.482983 255 255 0
-0.033891 -0.315507 2.484110 255 255 0
-0.010983 -0.310924 2.486456 255 255 0
0.002730 -0.309396 2.482781 255 255 0
0.011435 -0.309536 2.475803 255 255 0
0.031682 -0.311895 2.451083 255 255 0
0.027934 -0.316243 2.435654 255 255 0
-0.171643 -0.364003 2.507116 0 255 0
-0.220224 -0.341704 2.550308 0 255 0
-0.256189 -0.324410 2.585163 0 255 0
-0.245595 -0.325250 2.590496 0 255 0
-0.237532 -0.325095 2.597464 0 255 0
-0.232009 -0.323951 2.606045 0 255 0
-0.203530 -0.331639 2.600469 0 255 0
-0.187768 -0.334394 2.602881 0 255 0
-0.176241 -0.335502 2.607969 0 255 0
-0.165552 -0.336274 2.613626 0 255 0
-0.157408 -0.336062 2.620874 0 255 0
-0.359483 -0.017803 2.302000 255 0 0
-0.351674 -0.017727 2.292000 255 0 0
-0.344371 -0.017674 2.285000 255 0 0
-0.337844 -0.017660 2.283000 255 0 0
-0.332053 -0.017684 2.286000 255 0 0
-0.326103 -0.017701 2.288000 255 0 0
-0.320699 -0.017748 2.294000 255 0 0
-0.315810 -0.017827 2.304000 255 0 0
-0.308715 -0.017782 2.298000 255 0 0
-0.301784 -0.017744 2.293000 255 0 0
-0.296168 -0.017784 2.298000 255 0 0
-0.254415 -0.017946 2.318000 255 0 0
-0.247650 -0.017916 2.314000 255 0 0
-0.241323 -0.017917 2.314000 255 0 0
-0.234792 -0.017902 2.312000 255 0 0
-0.228271 -0.017888 2.310000 255 0 0
-0.221568 -0.017857 2.306000 255 0 0
-0.215073 -0.017843 2.304000 255 0 0
-0.208769 -0.017844 2.304000 255 0 0
-0.202112 -0.017813 2.300000 255 0 0
-0.195221 -0.017760 2.293000 255 0 0
-0.188533 -0.017722 2.288000 255 0 0
-0.182190 -0.017715 2.287000 255 0 0
-0.175928 -0.017716 2.287000 255 0 0
-0.169295 -0.017678 2.282000 255 0 0
-0.162903 -0.017663 2.280000 255 0 0
-0.156589 -0.017656 2.279000 255 0 0
-0.150017 -0.017618 2.274000 255 0 0
-0.143725 -0.017610 2.273000 255 0 0
-0.136893 -0.017534 2.263000 255 0 0
-0.130635 -0.017526 2.262000 255 0 0
-0.123996 -0.017465 2.254000 255 0 0
-0.117767 -0.017458 2.253000 255 0 0
-0.111642 -0.017466 2.254000 255 0 0
-0.105792 -0.017521 2.261000 255 0 0
-0.100123 -0.017614 2.273000 255 0 0
-0.094016 -0.017638 2.276000 255 0 0
-0.087546 -0.017591 2.270000 255 0 0
-0.081107 -0.017545 2.264000 255 0 0
-0.074702 -0.017499 2.258000 255 0 0
-0.068662 -0.017538 2.263000 255 0 0
-0.062264 -0.017484 2.256000 255 0 0
-0.056053 -0.017477 2.255000 255 0 0
-0.049604 -0.017384 2.243000 255 0 0
-0.043357 -0.017345 2.238000 255 0 0
-0.037119 -0.017299 2.232000 255 0 0
-0.030957 -0.017276 2.229000 255 0 0
-0.024766 -0.017222 2.222000 255 0 0
-0.018630 -0.017183 2.217000 255 0 0
-0.012538 -0.017168 2.215000 255 0 0
-0.006463 -0.017168 2.215000 255 0 0
-0.000388 -0.017175 2.216000 255 0 0
0.005689 -0.017175 2.216000 255 0 0
0.011793 -0.017214 2.221000 255 0 0
0.017877 -0.017206 2.220000 255 0 0
0.023976 -0.017214 2.221000 255 0 0
0.030053 -0.017206 2.220000 255 0 0
0.036190 -0.017229 2.223000 255 0 0
0.042268 -0.017221 2.222000 255 0 0
0.048318 -0.017206 2.220000 255 0 0
0.054528 -0.017244 2.225000 255 0 0
0.060847 -0.017306 2.233000 255 0 0
0.067150 -0.017352 2.239000 255 0 0
0.073190 -0.017329 2.236000 255 0 0
0.079321 -0.017328 2.236000 255 0 0
-0.182446 -0.323062 2.612278 255 255 0
-0.156549 -0.317819 2.614879 255 255 0
-0.142558 -0.316396 2.610407 255 255 0
-0.063761 -0.330844 2.491689 255 255 0
-0.050806 -0.329604 2.487231 255 255 0
0.006299 -0.313446 2.512107 255 255 0
-0.006643 -0.320895 2.490692 255 255 0
-0.007075 -0.324130 2.477540 255 255 0
-0.014144 -0.329630 2.459886 255 255 0
0.017811 -0.321838 2.468601 255 255 0
0.017377 -0.325072 2.455455 255 255 0
0.008671 -0.331149 2.436611 255 255 0
-0.253680 -0.339791 2.572987 0 255 0
-0.267640 -0.331029 2.593823 0 255 0
-0.267226 -0.327922 2.605516 0 255 0
-0.248160 -0.332097 2.605549 0 255 0
-0.236704 -0.333279 2.610419 0 255 0
-0.190792 -0.344501 2.606228 0 255 0
-0.174165 -0.347609 2.608207 0 255 0
-0.171143 -0.345448 2.618532 0 255 0
-0.157890 -0.347220 2.622690 0 255 0
-0.139500 -0.350942 2.623839 0 255 0
-0.359794 -0.024123 2.304000 255 0 0
-0.352287 -0.024041 2.296000 255 0 0
-0.344821 -0.023959 2.288000 255 0 0
-0.338286 -0.023940 2.286000 255 0 0
-0.332052 -0.023942 2.286000 255 0 0
-0.326244 -0.023975 2.289000 255 0 0
-0.321257 -0.024070 2.298000 255 0 0
-0.310326 -0.024199 2.310000 255 0 0
-0.302310 -0.024065 2.297000 255 0 0
-0.296167 -0.024077 2.298000 255 0 0
-0.255073 -0.024359 2.324000 255 0 0
-0.248077 -0.024297 2.318000 255 0 0
-0.241739 -0.024299 2.318000 255 0 0
-0.234994 -0.024258 2.314000 255 0 0
-0.228369 -0.024228 2.311000 255 0 0
-0.221855 -0.024208 2.309000 255 0 0
-0.215445 -0.024198 2.308000 255 0 0
-0.209039 -0.024189 2.307000 255 0 0
-0.202199 -0.024127 2.301000 255 0 0
-0.195731 -0.024107 2.299000 255 0 0
-0.189109 -0.024066 2.295000 255 0 0
-0.182906 -0.024078 2.296000 255 0 0
-0.176235 -0.024026 2.291000 255 0 0
-0.169517 -0.023964 2.285000 255 0 0
-0.162902 -0.023913 2.280000 255 0 0
-0.156657 -0.023914 2.280000 255 0 0
-0.150346 -0.023904 2.279000 255 0 0
-0.143914 -0.023873 2.276000 255 0 0
-0.137013 -0.023759 2.265000 255 0 0
-0.130518 -0.023707 2.260000 255 0 0
-0.123941 -0.023634 2.253000 255 0 0
-0.117871 -0.023656 2.255000 255 0 0
-0.111988 -0.023720 2.261000 255 0 0
-0.106447 -0.023867 2.275000 255 0 0
-0.101048 -0.024067 2.294000 255 0 0
-0.095007 -0.024130 2.300000 255 0 0
-0.088278 -0.024016 2.289000 255 0 0
-0.081573 -0.023890 2.277000 255 0 0
-0.074999 -0.023786 2.267000 255 0 0
-0.068784 -0.023786 2.267000 255 0 0
-0.062347 -0.023702 2.259000 255 0 0
-0.056078 -0.023671 2.256000 255 0 0
-0.049648 -0.023556 2.245000 255 0 0
-0.043337 -0.023472 2.237000 255 0 0
-0.037136 -0.023431 2.233000 255 0 0
-0.030984 -0.023410 2.231000 255 0 0
-0.024810 -0.023358 2.226000 255 0 0
-0.018672 -0.023316 2.222000 255 0 0
-0.012549 -0.023263 2.217000 255 0 0
-0.006466 -0.023253 2.216000 255 0 0
-0.000388 -0.023253 2.216000 255 0 0
0.005694 -0.023274 2.218000 255 0 0
0.011799 -0.023316 2.222000 255 0 0
0.017852 -0.023263 2.217000 255 0 0
0.023933 -0.023263 2.217000 255 0 0
0.030040 -0.023284 2.219000 255 0 0
0.036207 -0.023336 2.224000 255 0 0
0.042344 -0.023357 2.226000 255 0 0
0.048404 -0.023336 2.224000 255 0 0
0.054552 -0.023357 2.226000 255 0 0
0.060874 -0.023440 2.234000 255 0 0
0.067149 -0.023492 2.239000 255 0 0
0.073419 -0.023534 2.243000 255 0 0
0.079569 -0.023533 2.243000 255 0 0
0.087056 -0.023900 2.278000 255 0 0
-0.157640 -0.326760 2.628676 255 255 0
-0.145338 -0.325865 2.623143 255 255 0
-0.161837 -0.334387 2.600184 255 255 0
-0.092413 -0.348994 2.487387 255 255 0
-0.055216 -0.339535 2.498668 255 255 0
-0.041440 -0.337978 2.494772 255 255 0
-0.016858 -0.332720 2.498111 255 255 0
0.011008 -0.326302 2.503794 255 255 0
0.001418 -0.332673 2.484568 255 255 0
-0.006483 -0.338487 2.466382 255 255 0
0.007204 -0.336887 2.462733 255 255 0
0.039095 -0.328982 2.471561 255 255 0
0.008858 -0.342537 2.438049 255 255 0
-0.000638 -0.348953 2.418566 255 255 0
-0.246127 -0.357240 2.557545 0 255 0
-0.278233 -0.337925 2.601934 0 255 0
-0.262583 -0.340828 2.604038 0 255 0
-0.246064 -0.344048 2.605691 0 255 0
-0.210860 -0.354576 2.595852 0 255 0
-0.202767 -0.354426 2.602959 0 255 0
-0.194664 -0.354271 2.610097 0 255 0
-0.193356 -0.351458 2.621413 0 255 0
-0.187794 -0.350301 2.630140 0 255 0
-0.169450 -0.354095 2.631184 0 255 0
-0.154489 -0.356551 2.634362 0 255 0
-0.130972 -0.362284 2.632529 0 255 0
-0.353512 -0.030430 2.304000 255 0 0
-0.345724 -0.030301 2.294000 255 0 0
-0.338729 -0.030237 2.289000 255 0 0
-0.331905 -0.030186 2.285000 255 0 0
-0.326242 -0.030241 2.289000 255 0 0
-0.321674 -0.030401 2.301000 255 0 0
-0.310996 -0.030590 2.315000 255 0 0
-0.302308 -0.030354 2.297000 255 0 0
-0.295908 -0.030343 2.296000 255 0 0
-0.255291 -0.030752 2.326000 255 0 0
-0.248290 -0.030674 2.320000 255 0 0
-0.241842 -0.030662 2.319000 255 0 0
-0.235501 -0.030664 2.319000 255 0 0
-0.228664 -0.030599 2.314000 255 0 0
-0.222238 -0.030588 2.313000 255 0 0
-0.215537 -0.030536 2.309000 255 0 0
-0.209129 -0.030524 2.308000 255 0 0
-0.202374 -0.030460 2.303000 255 0 0
-0.195985 -0.030448 2.302000 255 0 0
-0.189437 -0.030409 2.299000 255 0 0
-0.183144 -0.030411 2.299000 255 0 0
-0.176465 -0.030346 2.294000 255 0 0
-0.169812 -0.030281 2.289000 255 0 0
-0.163330 -0.030242 2.286000 255 0 0
-0.157275 -0.030283 2.289000 255 0 0
-0.151005 -0.030284 2.289000 255 0 0
-0.144545 -0.030245 2.286000 255 0 0
-0.137617 -0.030101 2.275000 255 0 0
-0.131095 -0.030036 2.270000 255 0 0
-0.124600 -0.029970 2.265000 255 0 0
-0.118393 -0.029971 2.265000 255 0 0
-0.112582 -0.030078 2.273000 255 0 0
-0.107007 -0.030264 2.287000 255 0 0
-0.101884 -0.030609 2.313000 255 0 0
-0.095750 -0.030675 2.318000 255 0 0
-0.088895 -0.030504 2.305000 255 0 0
-0.081859 -0.030240 2.285000 255 0 0
-0.075197 -0.030082 2.273000 255 0 0
-0.068813 -0.030016 2.268000 255 0 0
-0.062291 -0.029871 2.257000 255 0 0
-0.056003 -0.029818 2.253000 255 0 0
-0.049692 -0.029739 2.247000 255 0 0
-0.043492 -0.029713 2.245000 255 0 0
-0.037269 -0.029660 2.241000 255 0 0
-0.031095 -0.029634 2.239000 255 0 0
-0.024877 -0.029542 2.232000 255 0 0
-0.018713 -0.029476 2.227000 255 0 0
-0.012555 -0.029357 2.218000 255 0 0
-0.006469 -0.029344 2.217000 255 0 0
-0.000389 -0.029357 2.218000 255 0 0
0.005699 -0.029383 2.220000 255 0 0
0.011809 -0.029436 2.224000 255 0 0
0.017860 -0.029357 2.218000 255 0 0
0.023954 -0.029370 2.219000 255 0 0
0.030067 -0.029396 2.221000 255 0 0
0.036271 -0.029488 2.228000 255 0 0
0.042381 -0.029488 2.228000 255 0 0
0.048513 -0.029501 2.229000 255 0 0
0.054625 -0.029501 2.229000 255 0 0
0.060955 -0.029606 2.237000 255 0 0
0.067089 -0.029606 2.237000 255 0 0
0.073452 -0.029698 2.244000 255 0 0
0.079533 -0.029671 2.242000 255 0 0
0.087170 -0.030186 2.281000 255 0 0
-0.143454 -0.336927 2.625775 255 255 0
-0.152327 -0.342993 2.607452 255 255 0
-0.073828 -0.354330 2.500885 255 255 0
-0.057525 -0.351898 2.498539 255 255 0
-0.039583 -0.348880 2.497365 255 255 0
-0.016677 -0.344128 2.499587 255 255 0
0.002029 -0.340791 2.499156 255 255 0
0.021533 -0.337150 2.499373 255 255 0
0.023576 -0.339536 2.487954 255 255 0
0.039714 -0.337024 2.486067 255 255 0
0.045060 -0.338251 2.476928 255 255 0
0.032206 -0.345838 2.455344 255 255 0
0.027650 -0.350547 2.439347 255 255 0
0.027238 -0.353814 2.426158 255 255 0
-0.257562 -0.363851 2.566262 0 255 0
-0.254589 -0.361726 2.576421 0 255 0
-0.260915 -0.355894 2.592443 0 255 0
-0.246102 -0.358487 2.595147 0 255 0
-0.226188 -0.363082 2.594756 0 255 0
-0.227435 -0.359268 2.607600 0 255 0
-0.223600 -0.357469 2.617282 0 255 0
-0.203629 -0.362023 2.617085 0 255 0
-0.198076 -0.360880 2.625792 0 255 0
-0.193369 -0.359400 2.635028 0 255 0
-0.177592 -0.362245 2.637612 0 255 0
-0.149861 -0.369726 2.633130 0 255 0
-0.134881 -0.372199 2.636410 0 255 0
-0.353663 -0.036752 2.305000 255 0 0
-0.346324 -0.036643 2.298000 255 0 0
-0.338874 -0.036518 2.290000 255 0 0
-0.332048 -0.036456 2.286000 255 0 0
-0.326382 -0.036523 2.290000 255 0 0
-0.321952 -0.036732 2.303000 255 0 0
-0.321150 -0.037373 2.343000 255 0 0
-0.312472 -0.037104 2.326000 255 0 0
-0.302832 -0.036707 2.301000 255 0 0
-0.296292 -0.036678 2.299000 255 0 0
-0.255947 -0.037219 2.332000 255 0 0
-0.248609 -0.037078 2.323000 255 0 0
-0.241945 -0.037032 2.320000 255 0 0
-0.235601 -0.037034 2.320000 255 0 0
-0.228959 -0.036988 2.317000 255 0 0
-0.222525 -0.036973 2.316000 255 0 0
-0.215722 -0.036895 2.311000 255 0 0
-0.209218 -0.036865 2.309000 255 0 0
-0.202460 -0.036787 2.304000 255 0 0
-0.196239 -0.036804 2.305000 255 0 0
-0.189765 -0.036774 2.303000 255 0 0
-0.183541 -0.036792 2.304000 255 0 0
-0.177002 -0.036745 2.301000 255 0 0
-0.170701 -0.036747 2.301000 255 0 0
-0.164186 -0.036700 2.298000 255 0 0
-0.158098 -0.036749 2.301000 255 0 0
-0.151730 -0.036735 2.300000 255 0 0
-0.145303 -0.036704 2.298000 255 0 0
-0.138402 -0.036545 2.288000 255 0 0
-0.131614 -0.036403 2.279000 255 0 0
-0.125094 -0.036324 2.274000 255 0 0
-0.119176 -0.036421 2.280000 255 0 0
-0.113176 -0.036502 2.285000 255 0 0
-0.107568 -0.036726 2.299000 255 0 0
-0.102103 -0.037031 2.318000 255 0 0
-0.096121 -0.037175 2.327000 255 0 0
-0.089202 -0.036952 2.313000 255 0 0
-0.082073 -0.036602 2.291000 255 0 0
-0.075362 -0.036394 2.278000 255 0 0
-0.068874 -0.036267 2.270000 255 0 0
-0.062346 -0.036092 2.259000 255 0 0
-0.055953 -0.035965 2.251000 255 0 0
-0.049714 -0.035917 2.248000 255 0 0
-0.043511 -0.035886 2.246000 255 0 0
-0.037318 -0.035854 2.244000 255 0 0
-0.031150 -0.035838 2.243000 255 0 0
-0.024921 -0.035727 2.236000 255 0 0
-0.018747 -0.035647 2.231000 255 0 0
-0.012560 -0.035456 2.219000 255 0 0
-0.006478 -0.035472 2.220000 255 0 0
-0.000390 -0.035520 2.223000 255 0 0
0.005712 -0.035551 2.225000 255 0 0
0.011814 -0.035551 2.225000 255 0 0
0.017892 -0.035503 2.222000 255 0 0
0.023997 -0.035519 2.223000 255 0 0
0.030161 -0.035599 2.228000 255 0 0
0.036353 -0.035678 2.233000 255 0 0
0.042495 -0.035694 2.234000 255 0 0
0.048708 -0.035758 2.238000 255 0 0
0.054870 -0.035773 2.239000 255 0 0
0.061173 -0.035868 2.245000 255 0 0
0.067208 -0.035804 2.241000 255 0 0
0.073549 -0.035899 2.247000 255 0 0
0.079639 -0.035867 2.245000 255 0 0
-0.182750 -0.352215 2.642686 255 255 0
-0.183988 -0.355784 2.628940 255 255 0
-0.159795 -0.350910 2.630398 255 255 0
-0.144956 -0.349118 2.626366 255 255 0
-0.067389 -0.360591 2.519445 255 255 0
-0.075296 -0.366468 2.501328 255 255 0
-0.050657 -0.361115 2.504417 255 255 0
-0.026898 -0.356029 2.507084 255 255 0
0.000147 -0.349764 2.512075 255 255 0
-0.002782 -0.353900 2.497300 255 255 0
0.010078 -0.352532 2.493041 255 255 0
0.045679 -0.346276 2.491417 255 255 0
0.035297 -0.353030 2.471591 255 255 0
0.048090 -0.351630 2.467517 255 255 0
0.022879 -0.363661 2.437367 255 255 0
0.029900 -0.364310 2.429296 255 255 0
-0.213578 -0.382703 2.576222 0 255 0
-0.229147 -0.366474 2.622177 0 255 0
-0.215130 -0.368724 2.625621 0 255 0
-0.190902 -0.374997 2.622927 0 255 0
-0.184488 -0.374189 2.631165 0 255 0
-0.166156 -0.378072 2.632256 0 255 0
-0.152055 -0.380262 2.635986 0 255 0
-0.346623 -0.042969 2.300000 255 0 0
-0.339316 -0.042841 2.293000 255 0 0
-0.332626 -0.042788 2.290000 255 0 0
-0.326807 -0.042847 2.293000 255 0 0
-0.322508 -0.043112 2.307000 255 0 0
-0.304014 -0.043176 2.310000 255 0 0
-0.296805 -0.043048 2.303000 255 0 0
-0.256165 -0.043645 2.334000 255 0 0
-0.248714 -0.043460 2.324000 255 0 0
-0.242256 -0.043444 2.323000 255 0 0
-0.236411 -0.043539 2.328000 255 0 0
-0.229649 -0.043467 2.324000 255 0 0
-0.223003 -0.043413 2.321000 255 0 0
-0.215907 -0.043265 2.313000 255 0 0
-0.209488 -0.043249 2.312000 255 0 0
-0.202810 -0.043176 2.308000 255 0 0
-0.196578 -0.043196 2.309000 255 0 0
-0.190176 -0.043179 2.308000 255 0 0
-0.183858 -0.043181 2.308000 255 0 0
-0.177077 -0.043071 2.302000 255 0 0
-0.170848 -0.043091 2.303000 255 0 0
-0.164542 -0.043093 2.303000 255 0 0
-0.158578 -0.043188 2.308000 255 0 0
-0.152388 -0.043227 2.310000 255 0 0
-0.146060 -0.043228 2.310000 255 0 0
-0.139369 -0.043117 2.304000 255 0 0
-0.132479 -0.042931 2.294000 255 0 0
-0.125698 -0.042764 2.285000 255 0 0
-0.119437 -0.042765 2.285000 255 0 0
-0.113373 -0.042841 2.289000 255 0 0
-0.107614 -0.043048 2.300000 255 0 0
-0.102147 -0.043405 2.319000 255 0 0
-0.096120 -0.043556 2.327000 255 0 0
-0.089587 -0.043482 2.323000 255 0 0
-0.082395 -0.043052 2.300000 255 0 0
-0.075659 -0.042809 2.287000 255 0 0
-0.069025 -0.042586 2.275000 255 0 0
-0.062566 -0.042436 2.267000 255 0 0
-0.056176 -0.042306 2.260000 255 0 0
-0.049890 -0.042232 2.256000 255 0 0
-0.043607 -0.042139 2.251000 255 0 0
-0.037334 -0.042027 2.245000 255 0 0
-0.031136 -0.041971 2.242000 255 0 0
-0.024932 -0.041877 2.237000 255 0 0
-0.018755 -0.041784 2.232000 255 0 0
-0.012583 -0.041616 2.223000 255 0 0
-0.006480 -0.041578 2.221000 255 0 0
-0.000389 -0.041597 2.222000 255 0 0
0.005707 -0.041616 2.223000 255 0 0
0.011820 -0.041672 2.226000 255 0 0
0.017932 -0.041690 2.227000 255 0 0
0.024083 -0.041765 2.231000 255 0 0
0.030202 -0.041765 2.231000 255 0 0
0.036352 -0.041802 2.233000 255 0 0
0.042457 -0.041783 2.232000 255 0 0
0.048730 -0.041913 2.239000 255 0 0
0.054992 -0.042007 2.244000 255 0 0
0.061336 -0.042137 2.251000 255 0 0
0.067418 -0.042080 2.248000 255 0 0
0.073614 -0.042098 2.249000 255 0 0
0.079851 -0.042135 2.251000 255 0 0
0.087512 -0.042864 2.290000 255 0 0
-0.181699 -0.363654 2.644840 255 255 0
-0.195653 -0.371496 2.623524 255 255 0
-0.162985 -0.363723 2.629999 255 255 0
-0.092250 -0.380832 2.504779 255 255 0
-0.052963 -0.373500 2.504294 255 255 0
0.000761 -0.357865 2.526640 255 255 0
0.002816 -0.360266 2.515194 255 255 0
-0.003433 -0.365589 2.498217 255 255 0
0.005276 -0.365656 2.491167 255 255 0
0.011068 -0.369883 2.469326 255 255 0
0.021410 -0.369351 2.463460 255 255 0
0.002820 -0.379116 2.437863 255 255 0
0.013164 -0.378586 2.431993 255 255 0
0.027615 -0.376573 2.429013 255 255 0
-0.161336 -0.418538 2.532626 0 255 0
-0.206820 -0.393362 2.585631 0 255 0
-0.238519 -0.377246 2.617404 0 255 0
-0.238080 -0.374097 2.629153 0 255 0
-0.210506 -0.381819 2.624284 0 255 0
-0.193925 -0.385101 2.626275 0 255 0
-0.173921 -0.389721 2.626292 0 255 0
-0.157288 -0.392968 2.628457 0 255 0
-0.145738 -0.394173 2.633756 0 255 0
-0.141839 -0.392335 2.643662 0 255 0
-0.138791 -0.390159 2.654078 0 255 0
-0.347524 -0.049392 2.306000 255 0 0
-0.339756 -0.049181 2.296000 255 0 0
-0.332914 -0.049099 2.292000 255 0 0
-0.326662 -0.049102 2.292000 255 0 0
-0.322366 -0.049405 2.306000 255 0 0
-0.320596 -0.050116 2.339000 255 0 0
-0.315422 -0.050312 2.348000 255 0 0
-0.305327 -0.049715 2.320000 255 0 0
-0.297576 -0.049482 2.309000 255 0 0
-0.256601 -0.050124 2.338000 255 0 0
-0.249247 -0.049934 2.329000 255 0 0
-0.242462 -0.049851 2.325000 255 0 0
-0.236409 -0.049917 2.328000 255 0 0
-0.229646 -0.049834 2.324000 255 0 0
-0.222809 -0.049729 2.319000 255 0 0
-0.216092 -0.049646 2.315000 255 0 0
-0.209667 -0.049627 2.314000 255 0 0
-0.203071 -0.049565 2.311000 255 0 0
-0.196661 -0.049545 2.310000 255 0 0
-0.190339 -0.049547 2.310000 255 0 0
-0.183776 -0.049485 2.307000 255 0 0
-0.177229 -0.049423 2.304000 255 0 0
-0.170921 -0.049425 2.304000 255 0 0
-0.164754 -0.049469 2.306000 255 0 0
-0.158714 -0.049557 2.310000 255 0 0
-0.152584 -0.049623 2.313000 255 0 0
-0.146312 -0.049646 2.314000 255 0 0
-0.139609 -0.049519 2.308000 255 0 0
-0.132824 -0.049349 2.300000 255 0 0
-0.126137 -0.049200 2.293000 255 0 0
-0.119697 -0.049137 2.290000 255 0 0
-0.113570 -0.049203 2.293000 255 0 0
-0.107753 -0.049419 2.303000 255 0 0
-0.102190 -0.049785 2.320000 255 0 0
-0.096202 -0.049979 2.329000 255 0 0
-0.089741 -0.049937 2.327000 255 0 0
-0.082716 -0.049552 2.309000 255 0 0
-0.075758 -0.049145 2.290000 255 0 0
-0.068994 -0.048802 2.274000 255 0 0
-0.062648 -0.048717 2.270000 255 0 0
-0.056275 -0.048589 2.264000 255 0 0
-0.050023 -0.048547 2.262000 255 0 0
-0.043665 -0.048376 2.254000 255 0 0
-0.037401 -0.048269 2.249000 255 0 0
-0.031150 -0.048140 2.243000 255 0 0
-0.024965 -0.048076 2.240000 255 0 0
-0.018789 -0.047991 2.236000 255 0 0
-0.012617 -0.047841 2.229000 255 0 0
-0.006492 -0.047755 2.225000 255 0 0
-0.000390 -0.047734 2.224000 255 0 0
0.005717 -0.047798 2.227000 255 0 0
0.011841 -0.047862 2.230000 255 0 0
0.017973 -0.047905 2.232000 255 0 0
0.024115 -0.047948 2.234000 255 0 0
0.030228 -0.047926 2.233000 255 0 0
0.036352 -0.047925 2.233000 255 0 0
0.042494 -0.047946 2.234000 255 0 0
0.048773 -0.048096 2.241000 255 0 0
0.055040 -0.048203 2.246000 255 0 0
0.061335 -0.048310 2.251000 255 0 0
0.067507 -0.048309 2.251000 255 0 0
0.073842 -0.048415 2.256000 255 0 0
0.080134 -0.048479 2.259000 255 0 0
-0.182727 -0.378985 2.632746 255 255 0
-0.161938 -0.375132 2.632142 255 255 0
-0.088700 -0.391292 2.508488 255 255 0
-0.065714 -0.386410 2.510357 255 255 0
-0.040271 -0.380629 2.513976 255 255 0
-0.007388 -0.372178 2.522647 255 255 0
0.001328 -0.372233 2.515567 255 255 0
0.010033 -0.372283 2.508518 255 255 0
0.013750 -0.374098 2.498175 255 255 0
0.014982 -0.376801 2.486162 255 255 0
-0.006126 -0.387501 2.459034 255 255 0
-0.004860 -0.390220 2.446927 255 255 0
0.012925 -0.387002 2.446091 255 255 0
0.024907 -0.385851 2.441374 255 255 0
-0.241632 -0.400576 2.572530 0 255 0
-0.227526 -0.389561 2.624142 0 255 0
-0.193553 -0.396567 2.627559 0 255 0
-0.191387 -0.394075 2.638373 0 255 0
-0.174777 -0.397373 2.640504 0 255 0
-0.161545 -0.399294 2.644748 0 255 0
-0.149997 -0.400523 2.650065 0 255 0
-0.144398 -0.399369 2.658955 0 255 0
-0.120887 -0.405319 2.657352 0 255 0
-0.340197 -0.055538 2.299000 255 0 0
-0.333346 -0.055445 2.295000 255 0 0
-0.327228 -0.055473 2.296000 255 0 0
-0.322502 -0.055742 2.307000 255 0 0
-0.319222 -0.056277 2.329000 255 0 0
-0.314881 -0.056643 2.344000 255 0 0
-0.306772 -0.056333 2.331000 255 0 0
-0.299248 -0.056119 2.322000 255 0 0
-0.256818 -0.056577 2.340000 255 0 0
-0.249351 -0.056338 2.330000 255 0 0
-0.242772 -0.056292 2.328000 255 0 0
-0.236203 -0.056247 2.326000 255 0 0
-0.229743 -0.056225 2.325000 255 0 0
-0.223095 -0.056156 2.322000 255 0 0
-0.216462 -0.056086 2.319000 255 0 0
-0.210118 -0.056088 2.319000 255 0 0
-0.203420 -0.055994 2.315000 255 0 0
-0.197170 -0.056021 2.316000 255 0 0
-0.190748 -0.055999 2.315000 255 0 0
-0.184172 -0.055929 2.312000 255 0 0
-0.177535 -0.055834 2.308000 255 0 0
-0.171141 -0.055812 2.307000 255 0 0
-0.165038 -0.055887 2.310000 255 0 0
-0.158780 -0.055913 2.311000 255 0 0
-0.152715 -0.056012 2.315000 255 0 0
-0.146247 -0.055965 2.313000 255 0 0
-0.139729 -0.055894 2.310000 255 0 0
-0.132938 -0.055702 2.302000 255 0 0
-0.126355 -0.055583 2.297000 255 0 0
-0.119800 -0.055464 2.292000 255 0 0
-0.113667 -0.055538 2.295000 255 0 0
-0.107799 -0.055757 2.304000 255 0 0
-0.102232 -0.056170 2.321000 255 0 0
-0.096201 -0.056365 2.329000 255 0 0
-0.089739 -0.056317 2.327000 255 0 0
-0.082823 -0.055955 2.312000 255 0 0
-0.076054 -0.055642 2.299000 255 0 0
-0.069205 -0.055207 2.281000 255 0 0
-0.062730 -0.055014 2.273000 255 0 0
-0.056324 -0.054846 2.266000 255 0 0
-0.050022 -0.054749 2.262000 255 0 0
-0.043703 -0.054605 2.256000 255 0 0
-0.037450 -0.054508 2.252000 255 0 0
-0.031136 -0.054267 2.242000 255 0 0
-0.024931 -0.054146 2.237000 255 0 0
-0.018763 -0.054050 2.233000 255 0 0
-0.012611 -0.053929 2.228000 255 0 0
-0.006489 -0.053832 2.224000 255 0 0
-0.000390 -0.053881 2.226000 255 0 0
0.005722 -0.053953 2.229000 255 0 0
0.011862 -0.054074 2.234000 255 0 0
0.017972 -0.054025 2.232000 255 0 0
0.024137 -0.054122 2.236000 255 0 0
0.030255 -0.054097 2.235000 255 0 0
0.036400 -0.054121 2.236000 255 0 0
0.042532 -0.054121 2.236000 255 0 0
0.048750 -0.054217 2.240000 255 0 0
0.054966 -0.054289 2.243000 255 0 0
0.061253 -0.054409 2.248000 255 0 0
0.067506 -0.054481 2.251000 255 0 0
0.073809 -0.054577 2.255000 255 0 0
0.080381 -0.054842 2.266000 255 0 0
-0.167272 -0.385539 2.643464 255 255 0
-0.044676 -0.390589 2.525418 255 255 0
-0.028424 -0.387985 2.523098 255 255 0
-0.014694 -0.386257 2.519217 255 255 0
-0.009294 -0.387488 2.509910 255 255 0
-0.003898 -0.388717 2.500615 255 255 0
0.015586 -0.384881 2.500743 255 255 0
0.015162 -0.388187 2.487620 255 255 0
0.021365 -0.389107 2.478942 255 255 0
0.015994 -0.394213 2.462424 255 255 0
0.038704 -0.389142 2.465018 255 255 0
0.030867 -0.395152 2.446778 255 255 0
-0.241642 -0.408455 2.586088 0 255 0
-0.231828 -0.402402 2.616213 0 255 0
-0.212758 -0.406828 2.616552 0 255 0
-0.211448 -0.403995 2.627855 0 255 0
-0.189794 -0.409425 2.626789 0 255 0
-0.188471 -0.406583 2.638133 0 255 0
-0.186302 -0.404087 2.648958 0 255 0
-0.173934 -0.405703 2.653691 0 255 0
-0.155595 -0.409702 2.654946 0 255 0
-0.140635 -0.412315 2.658303 0 255 0
-0.341524 -0.062071 2.308000 255 0 0
-0.334068 -0.061860 2.300000 255 0 0
-0.327652 -0.061838 2.299000 255 0 0
-0.322358 -0.062030 2.306000 255 0 0
-0.317985 -0.062411 2.320000 255 0 0
-0.314071 -0.062899 2.338000 255 0 0
-0.307821 -0.062930 2.339000 255 0 0
-0.301435 -0.062934 2.339000 255 0 0
-0.257363 -0.063121 2.345000 255 0 0
-0.249990 -0.062882 2.336000 255 0 0
-0.242873 -0.062696 2.329000 255 0 0
-0.236200 -0.062619 2.326000 255 0 0
-0.229542 -0.062541 2.323000 255 0 0
-0.222996 -0.062490 2.321000 255 0 0
-0.216366 -0.062413 2.318000 255 0 0
-0.209934 -0.062389 2.317000 255 0 0
-0.203593 -0.062391 2.317000 255 0 0
-0.197338 -0.062421 2.318000 255 0 0
-0.190828 -0.062370 2.316000 255 0 0
-0.184090 -0.062238 2.311000 255 0 0
-0.177917 -0.062294 2.313000 255 0 0
-0.171732 -0.062350 2.315000 255 0 0
-0.165679 -0.062460 2.319000 255 0 0
-0.159328 -0.062463 2.319000 255 0 0
-0.153174 -0.062546 2.322000 255 0 0
-0.146434 -0.062386 2.316000 255 0 0
-0.139787 -0.062253 2.311000 255 0 0
-0.132994 -0.062040 2.303000 255 0 0
-0.126684 -0.062042 2.303000 255 0 0
-0.120216 -0.061962 2.300000 255 0 0
-0.114012 -0.062018 2.302000 255 0 0
-0.107937 -0.062154 2.307000 255 0 0
-0.102099 -0.062452 2.318000 255 0 0
-0.096158 -0.062723 2.328000 255 0 0
-0.089661 -0.062643 2.325000 255 0 0
-0.082714 -0.062213 2.309000 255 0 0
-0.076020 -0.061918 2.298000 255 0 0
-0.069386 -0.061623 2.287000 255 0 0
-0.062840 -0.061354 2.277000 255 0 0
-0.056298 -0.061032 2.265000 255 0 0
-0.049955 -0.060871 2.259000 255 0 0
-0.043702 -0.060791 2.256000 255 0 0
-0.037516 -0.060791 2.256000 255 0 0
-0.031205 -0.060549 2.247000 255 0 0
-0.024987 -0.060415 2.242000 255 0 0
-0.018771 -0.060200 2.234000 255 0 0
-0.012628 -0.060119 2.231000 255 0 0
-0.006492 -0.059958 2.225000 255 0 0
-0.000391 -0.060119 2.231000 255 0 0
0.005733 -0.060173 2.233000 255 0 0
0.011872 -0.060254 2.236000 255 0 0
0.017980 -0.060173 2.233000 255 0 0
0.024115 -0.060199 2.234000 255 0 0
0.030241 -0.060199 2.234000 255 0 0
0.036465 -0.060360 2.240000 255 0 0
0.042703 -0.060494 2.245000 255 0 0
0.048989 -0.060655 2.251000 255 0 0
0.055112 -0.060601 2.249000 255 0 0
0.061279 -0.060600 2.249000 255 0 0
0.067415 -0.060572 2.248000 255 0 0
0.073906 -0.060841 2.258000 255 0 0
0.080699 -0.061298 2.275000 255 0 0
-0.157306 -0.397089 2.637948 255 255 0
-0.070765 -0.408307 2.522894 255 255 0
-0.039486 -0.400313 2.530182 255 255 0
-0.012427 -0.393784 2.534921 255 255 0
-0.017004 -0.398598 2.519073 255 255 0
-0.010770 -0.399525 2.510301 255 255 0
-0.013665 -0.403751 2.495489 255 255 0
0.003337 -0.400772 2.493910 255 255 0
0.016999 -0.398982 2.490191 255 255 0
0.023201 -0.399893 2.481513 255 255 0
0.037653 -0.397784 2.478455 255 255 0
0.038884 -0.400499 2.466454 255 255 0
-0.232000 -0.423713 2.581485 0 255 0
-0.227313 -0.422272 2.590683 0 255 0
-0.212492 -0.425016 2.593598 0 255 0
-0.206945 -0.423913 2.602325 0 255 0
-0.225920 -0.412719 2.626129 0 255 0
-0.212767 -0.414751 2.630162 0 255 0
-0.182652 -0.423706 2.623971 0 255 0
-0.175385 -0.423277 2.631761 0 255 0
-0.185461 -0.412395 2.662110 0 255 0
-0.159488 -0.419548 2.658814 0 255 0
-0.139431 -0.424265 2.659166 0 255 0
-0.337114 -0.068777 2.321000 255 0 0
-0.328930 -0.068397 2.308000 255 0 0
-0.322773 -0.068431 2.309000 255 0 0
-0.317432 -0.068643 2.316000 255 0 0
-0.312724 -0.069003 2.328000 255 0 0
-0.308080 -0.069392 2.341000 255 0 0
-0.304137 -0.069960 2.360000 255 0 0
-0.258457 -0.069840 2.355000 255 0 0
-0.250521 -0.069428 2.341000 255 0 0
-0.243495 -0.069254 2.335000 255 0 0
-0.236501 -0.069080 2.329000 255 0 0
-0.229835 -0.068994 2.326000 255 0 0
-0.223281 -0.068938 2.324000 255 0 0
-0.216643 -0.068852 2.321000 255 0 0
-0.210202 -0.068826 2.320000 255 0 0
-0.203854 -0.068829 2.320000 255 0 0
-0.197760 -0.068921 2.323000 255 0 0
-0.191155 -0.068835 2.320000 255 0 0
-0.184406 -0.068689 2.315000 255 0 0
-0.177991 -0.068662 2.314000 255 0 0
-0.172101 -0.068843 2.320000 255 0 0
-0.165962 -0.068935 2.323000 255 0 0
-0.159669 -0.068967 2.324000 255 0 0
-0.153436 -0.069029 2.326000 255 0 0
-0.146812 -0.068912 2.322000 255 0 0
-0.140148 -0.068766 2.317000 255 0 0
-0.133396 -0.068560 2.310000 255 0 0
-0.126957 -0.068503 2.308000 255 0 0
-0.120580 -0.068475 2.307000 255 0 0
-0.114308 -0.068507 2.308000 255 0 0
-0.108123 -0.068597 2.311000 255 0 0
-0.102009 -0.068747 2.316000 255 0 0
-0.096446 -0.069313 2.335000 255 0 0
-0.089814 -0.069136 2.329000 255 0 0
-0.082785 -0.068603 2.311000 255 0 0
-0.076151 -0.068337 2.302000 255 0 0
-0.069598 -0.068101 2.294000 255 0 0
-0.063004 -0.067776 2.283000 255 0 0
-0.056347 -0.067301 2.267000 255 0 0
-0.049932 -0.067035 2.258000 255 0 0
-0.043663 -0.066917 2.254000 255 0 0
-0.037482 -0.066918 2.254000 255 0 0
-0.031232 -0.066770 2.249000 255 0 0
-0.024998 -0.066592 2.243000 255 0 0
-0.018771 -0.066325 2.234000 255 0 0
-0.012622 -0.066207 2.230000 255 0 0
-0.006501 -0.066148 2.228000 255 0 0
-0.000392 -0.066355 2.235000 255 0 0
0.005732 -0.066296 2.233000 255 0 0
0.011867 -0.066355 2.235000 255 0 0
0.017980 -0.066296 2.233000 255 0 0
0.024147 -0.066414 2.237000 255 0 0
0.030268 -0.066384 2.236000 255 0 0
0.036513 -0.066591 2.243000 255 0 0
0.042778 -0.066769 2.249000 255 0 0
0.049075 -0.066946 2.255000 255 0 0
0.055259 -0.066945 2.255000 255 0 0
0.061360 -0.066855 2.252000 255 0 0
0.067564 -0.066884 2.253000 255 0 0
0.073839 -0.066972 2.256000 255 0 0
0.080946 -0.067743 2.282000 255 0 0
-0.165632 -0.405347 2.660471 255 255 0
-0.149099 -0.402807 2.657309 255 255 0
-0.068061 -0.419000 2.526052 255 255 0
-0.045123 -0.413928 2.527923 255 255 0
-0.015573 -0.406424 2.534249 255 255 0
0.002694 -0.406144 2.520550 255 255 0
0.001447 -0.409777 2.506878 255 255 0
0.003523 -0.412204 2.495387 255 255 0
0.000640 -0.416453 2.480556 255 255 0
0.012642 -0.415238 2.475721 255 255 0
0.029172 -0.415525 2.461143 255 255 0
-0.206105 -0.432209 2.615460 0 255 0
-0.207321 -0.428311 2.628343 0 255 0
-0.187376 -0.433151 2.628360 0 255 0
-0.175029 -0.434831 2.633080 0 255 0
-0.210163 -0.416995 2.666330 0 255 0
-0.137382 -0.436581 2.659535 0 255 0
-0.131771 -0.435440 2.668488 0 255 0
-0.130416 -0.432568 2.679937 0 255 0
-0.109452 -0.437636 2.680031 0 255 0
-0.323607 -0.074945 2.315000 255 0 0
-0.317702 -0.075047 2.318000 255 0 0
-0.312450 -0.075311 2.326000 255 0 0
-0.307549 -0.075672 2.337000 255 0 0
-0.305035 -0.076648 2.367000 255 0 0
-0.258453 -0.076290 2.355000 255 0 0
-0.250732 -0.075905 2.343000 255 0 0
-0.243909 -0.075780 2.339000 255 0 0
-0.237005 -0.075621 2.334000 255 0 0
-0.229832 -0.075366 2.326000 255 0 0
-0.223085 -0.075240 2.322000 255 0 0
-0.216640 -0.075211 2.321000 255 0 0
-0.210562 -0.075312 2.324000 255 0 0
-0.204290 -0.075348 2.325000 255 0 0
-0.197672 -0.075254 2.322000 255 0 0
-0.190987 -0.075127 2.318000 255 0 0
-0.184324 -0.075001 2.314000 255 0 0
-0.178066 -0.075036 2.315000 255 0 0
-0.171950 -0.075136 2.318000 255 0 0
-0.165817 -0.075236 2.321000 255 0 0
-0.159667 -0.075336 2.324000 255 0 0
-0.153499 -0.075436 2.327000 255 0 0
-0.146999 -0.075374 2.325000 255 0 0
-0.140509 -0.075311 2.323000 255 0 0
-0.133914 -0.075184 2.319000 255 0 0
-0.127560 -0.075186 2.319000 255 0 0
-0.121153 -0.075156 2.318000 255 0 0
-0.114752 -0.075125 2.317000 255 0 0
-0.108542 -0.075224 2.320000 255 0 0
-0.102448 -0.075421 2.326000 255 0 0
-0.096527 -0.075779 2.337000 255 0 0
-0.089466 -0.075229 2.320000 255 0 0
-0.082819 -0.074971 2.312000 255 0 0
-0.076183 -0.074681 2.303000 255 0 0
-0.069657 -0.074455 2.296000 255 0 0
-0.063059 -0.074100 2.285000 255 0 0
-0.056495 -0.073712 2.273000 255 0 0
-0.050064 -0.073421 2.264000 255 0 0
-0.043740 -0.073227 2.258000 255 0 0
-0.037498 -0.073130 2.255000 255 0 0
-0.031273 -0.073033 2.252000 255 0 0
-0.025109 -0.073066 2.253000 255 0 0
-0.018863 -0.072807 2.245000 255 0 0
-0.012673 -0.072613 2.239000 255 0 0
-0.006512 -0.072386 2.232000 255 0 0
-0.000392 -0.072516 2.236000 255 0 0
0.005735 -0.072451 2.234000 255 0 0
0.011867 -0.072483 2.235000 255 0 0
0.017988 -0.072451 2.234000 255 0 0
0.024136 -0.072515 2.236000 255 0 0
0.030281 -0.072547 2.237000 255 0 0
0.036529 -0.072774 2.244000 255 0 0
0.042834 -0.073032 2.252000 255 0 0
0.049162 -0.073259 2.259000 255 0 0
0.055405 -0.073323 2.261000 255 0 0
0.061577 -0.073289 2.260000 255 0 0
0.067863 -0.073385 2.263000 255 0 0
0.074067 -0.073384 2.263000 255 0 0
0.081051 -0.074096 2.285000 255 0 0
-0.153131 -0.415975 2.656444 255 255 0
-0.068313 -0.427538 2.540290 255 255 0
-0.052030 -0.424839 2.537798 255 255 0
-0.030782 -0.420305 2.538618 255 255 0
-0.010403 -0.416056 2.539003 255 255 0
0.021563 -0.407529 2.547110 255 255 0
0.016974 -0.412383 2.531331 255 255 0
0.017374 -0.415415 2.518798 255 255 0
-0.001254 -0.425481 2.493555 255 255 0
0.012406 -0.423631 2.489796 255 255 0
0.019439 -0.424223 2.481643 255 255 0
0.023989 -0.425733 2.471834 255 255 0
0.022769 -0.429393 2.458098 255 255 0
-0.189442 -0.436868 2.655445 0 255 0
-0.171999 -0.440672 2.657179 0 255 0
-0.160474 -0.442008 2.662521 0 255 0
-0.156584 -0.440190 2.672415 0 255 0
-0.146737 -0.440813 2.678832 0 255 0
-0.141135 -0.439685 2.687766 0 255 0
-0.257791 -0.082529 2.349000 255 0 0
-0.250513 -0.082252 2.341000 255 0 0
-0.244322 -0.082327 2.343000 255 0 0
-0.237204 -0.082085 2.336000 255 0 0
-0.230223 -0.081878 2.330000 255 0 0
-0.223370 -0.081706 2.325000 255 0 0
-0.217196 -0.081780 2.327000 255 0 0
-0.210920 -0.081819 2.328000 255 0 0
-0.204550 -0.081823 2.328000 255 0 0
-0.197669 -0.081616 2.322000 255 0 0
-0.190984 -0.081479 2.318000 255 0 0
-0.184559 -0.081447 2.317000 255 0 0
-0.178524 -0.081591 2.321000 255 0 0
-0.172392 -0.081699 2.324000 255 0 0
-0.166028 -0.081702 2.324000 255 0 0
-0.159595 -0.081670 2.323000 255 0 0
-0.153497 -0.081813 2.327000 255 0 0
-0.147249 -0.081886 2.329000 255 0 0
-0.140930 -0.081924 2.330000 255 0 0
-0.134547 -0.081927 2.330000 255 0 0
-0.128218 -0.081964 2.331000 255 0 0
-0.121831 -0.081967 2.331000 255 0 0
-0.115245 -0.081828 2.327000 255 0 0
-0.109008 -0.081936 2.330000 255 0 0
-0.102799 -0.082078 2.334000 255 0 0
-0.089772 -0.081871 2.328000 255 0 0
-0.082818 -0.081310 2.312000 255 0 0
-0.076347 -0.081170 2.308000 255 0 0
-0.069808 -0.080926 2.301000 255 0 0
-0.063196 -0.080540 2.290000 255 0 0
-0.056619 -0.080119 2.278000 255 0 0
-0.050174 -0.079803 2.269000 255 0 0
-0.043797 -0.079523 2.261000 255 0 0
-0.037514 -0.079348 2.256000 255 0 0
-0.031314 -0.079313 2.255000 255 0 0
-0.025142 -0.079349 2.256000 255 0 0
-0.018938 -0.079279 2.254000 255 0 0
-0.012718 -0.079033 2.247000 255 0 0
-0.006532 -0.078752 2.239000 255 0 0
-0.000392 -0.078682 2.237000 255 0 0
0.005743 -0.078682 2.237000 255 0 0
0.011888 -0.078752 2.239000 255 0 0
0.018028 -0.078751 2.239000 255 0 0
0.024200 -0.078857 2.242000 255 0 0
0.030375 -0.078926 2.244000 255 0 0
0.036561 -0.078996 2.246000 255 0 0
0.042777 -0.079101 2.249000 255 0 0
0.049009 -0.079206 2.252000 255 0 0
0.055428 -0.079556 2.262000 255 0 0
0.061657 -0.079590 2.263000 255 0 0
0.068042 -0.079800 2.269000 255 0 0
0.074033 -0.079553 2.262000 255 0 0
0.081192 -0.080501 2.289000 255 0 0
-0.144480 -0.424687 2.663101 255 255 0
-0.039773 -0.428756 2.559987 255 255 0
-0.044340 -0.433645 2.544162 255 255 0
-0.028097 -0.430889 2.541755 255 255 0
0.001410 -0.423214 2.548082 255 255 0
0.008454 -0.423802 2.539888 255 255 0
0.020465 -0.422541 2.534992 255 255 0
0.013412 -0.428352 2.517529 255 255 0
0.013826 -0.431399 2.504962 255 255 0
0.020031 -0.432289 2.496252 255 255 0
0.036959 -0.429156 2.494789 255 255 0
0.031599 -0.434370 2.478323 255 255 0
-0.191741 -0.454122 2.634055 0 255 0
-0.204796 -0.445241 2.654079 0 255 0
-0.206020 -0.441329 2.666908 0 255 0
-0.197926 -0.441303 2.674162 0 255 0
-0.180488 -0.445148 2.675926 0 255 0
-0.163024 -0.448974 2.677776 0 255 0
-0.150635 -0.450675 2.682696 0 255 0
-0.142484 -0.450609 2.690144 0 255 0
-0.149652 -0.444233 2.706477 0 255 0
-0.146609 -0.442066 2.716877 0 255 0
-0.257347 -0.088810 2.345000 255 0 0
-0.250402 -0.088626 2.340000 255 0 0
-0.244422 -0.088782 2.344000 255 0 0
-0.237606 -0.088635 2.340000 255 0 0
-0.230812 -0.088487 2.336000 255 0 0
-0.223942 -0.088302 2.331000 255 0 0
-0.217566 -0.088307 2.331000 255 0 0
-0.211279 -0.088348 2.332000 255 0 0
-0.204635 -0.088239 2.329000 255 0 0
-0.197665 -0.087977 2.322000 255 0 0
-0.191145 -0.087905 2.320000 255 0 0
-0.184875 -0.087947 2.321000 255 0 0
-0.178982 -0.088178 2.327000 255 0 0
-0.172759 -0.088257 2.329000 255 0 0
-0.166239 -0.088184 2.327000 255 0 0
-0.159661 -0.088074 2.324000 255 0 0
-0.153560 -0.088228 2.328000 255 0 0
-0.147500 -0.088421 2.333000 255 0 0
-0.141169 -0.088462 2.334000 255 0 0
-0.134833 -0.088502 2.335000 255 0 0
-0.128435 -0.088505 2.335000 255 0 0
-0.122194 -0.088621 2.338000 255 0 0
-0.115490 -0.088396 2.332000 255 0 0
-0.109380 -0.088625 2.338000 255 0 0
-0.103149 -0.088779 2.342000 255 0 0
-0.090079 -0.088555 2.336000 255 0 0
-0.083031 -0.087875 2.318000 255 0 0
-0.076544 -0.087725 2.314000 255 0 0
-0.070019 -0.087499 2.308000 255 0 0
-0.063415 -0.087121 2.298000 255 0 0
-0.056841 -0.086705 2.287000 255 0 0
-0.050372 -0.086365 2.278000 255 0 0
-0.043913 -0.085949 2.267000 255 0 0
-0.037530 -0.085571 2.257000 255 0 0
-0.031313 -0.085495 2.255000 255 0 0
-0.025175 -0.085648 2.259000 255 0 0
-0.018997 -0.085724 2.261000 255 0 0
-0.012763 -0.085497 2.255000 255 0 0
-0.006547 -0.085080 2.244000 255 0 0
-0.000393 -0.084928 2.240000 255 0 0
0.005753 -0.084966 2.241000 255 0 0
0.011919 -0.085118 2.245000 255 0 0
0.018092 -0.085193 2.247000 255 0 0
0.024253 -0.085193 2.247000 255 0 0
0.030442 -0.085268 2.249000 255 0 0
0.036609 -0.085267 2.249000 255 0 0
0.042852 -0.085418 2.253000 255 0 0
0.049073 -0.085493 2.255000 255 0 0
0.055476 -0.085833 2.264000 255 0 0
0.061738 -0.085908 2.266000 255 0 0
0.068070 -0.086058 2.270000 255 0 0
0.074195 -0.085943 2.267000 255 0 0
0.081368 -0.086965 2.294000 255 0 0
-0.040844 -0.437519 2.573584 255 255 0
-0.023758 -0.434424 2.571649 255 255 0
-0.034160 -0.441489 2.552124 255 255 0
-0.022089 -0.440232 2.547043 255 255 0
-0.004225 -0.436802 2.545796 255 255 0
0.014437 -0.433047 2.545179 255 255 0
0.012354 -0.437028 2.531014 255 255 0
0.007801 -0.441946 2.515174 255 255 0
0.007398 -0.445318 2.502036 255 255 0
0.028474 -0.440599 2.503253 255 255 0
0.035490 -0.441161 2.495134 255 255 0
0.027665 -0.447341 2.476989 255 255 0
-0.181925 -0.480039 2.592904 0 255 0
-0.172977 -0.480378 2.599692 0 255 0
-0.167396 -0.479279 2.608572 0 255 0
-0.182936 -0.469249 2.630255 0 255 0
-0.201047 -0.458174 2.653352 0 255 0
-0.224274 -0.444989 2.679361 0 255 0
-0.220433 -0.443212 2.689091 0 255 0
-0.200478 -0.448179 2.689301 0 255 0
-0.175400 -0.455251 2.686622 0 255 0
-0.151133 -0.461941 2.684572 0 255 0
-0.148936 -0.459418 2.695486 0 255 0
-0.142484 -0.458659 2.703939 0 255 0
-0.258659 -0.095719 2.357000 255 0 0
-0.251788 -0.095562 2.353000 255 0 0
-0.245043 -0.095445 2.350000 255 0 0
-0.238008 -0.095206 2.344000 255 0 0
-0.231202 -0.095048 2.340000 255 0 0
-0.224226 -0.094809 2.334000 255 0 0
-0.217935 -0.094854 2.335000 255 0 0
-0.211094 -0.094655 2.330000 255 0 0
-0.204631 -0.094619 2.329000 255 0 0
-0.198087 -0.094542 2.327000 255 0 0
-0.191801 -0.094586 2.328000 255 0 0
-0.185508 -0.094631 2.329000 255 0 0
-0.179363 -0.094757 2.332000 255 0 0
-0.173053 -0.094801 2.333000 255 0 0
-0.166665 -0.094804 2.333000 255 0 0
-0.160207 -0.094767 2.332000 255 0 0
-0.154084 -0.094933 2.336000 255 0 0
-0.147939 -0.095099 2.340000 255 0 0
-0.141408 -0.095020 2.338000 255 0 0
-0.135119 -0.095105 2.340000 255 0 0
-0.128818 -0.095189 2.342000 255 0 0
-0.122714 -0.095435 2.348000 255 0 0
-0.115884 -0.095112 2.340000 255 0 0
-0.109612 -0.095237 2.343000 255 0 0
-0.103191 -0.095239 2.343000 255 0 0
-0.098380 -0.096826 2.382000 255 0 0
-0.083029 -0.094229 2.318000 255 0 0
-0.076609 -0.094149 2.316000 255 0 0
-0.070108 -0.093947 2.311000 255 0 0
-0.063524 -0.093583 2.302000 255 0 0
-0.056890 -0.093056 2.289000 255 0 0
-0.050349 -0.092569 2.277000 255 0 0
-0.043989 -0.092326 2.271000 255 0 0
-0.037596 -0.091920 2.261000 255 0 0
-0.031396 -0.091921 2.261000 255 0 0
-0.025174 -0.091840 2.259000 255 0 0
-0.018980 -0.091841 2.259000 255 0 0
-0.012757 -0.091638 2.254000 255 0 0
-0.006561 -0.091435 2.249000 255 0 0
-0.000393 -0.091232 2.244000 255 0 0
0.005768 -0.091354 2.247000 255 0 0
0.011951 -0.091516 2.251000 255 0 0
0.018156 -0.091678 2.255000 255 0 0
0.024328 -0.091637 2.254000 255 0 0
0.030509 -0.091637 2.254000 255 0 0
0.036673 -0.091595 2.253000 255 0 0
0.042889 -0.091676 2.255000 255 0 0
0.049159 -0.091837 2.259000 255 0 0
0.055500 -0.092080 2.265000 255 0 0
0.061709 -0.092079 2.265000 255 0 0
0.068069 -0.092281 2.270000 255 0 0
0.074259 -0.092239 2.269000 255 0 0
0.081508 -0.093416 2.298000 255 0 0
-0.142876 -0.437931 2.705774 255 255 0
-0.128477 -0.439214 2.688493 255 255 0
-0.116224 -0.438021 2.682883 255 255 0
-0.107363 -0.438040 2.675317 255 255 0
-0.028990 -0.444699 2.582543 255 255 0
-0.041061 -0.452422 2.561996 255 255 0
-0.036465 -0.453944 2.552052 255 255 0
-0.029379 -0.454530 2.543727 255 255 0
-0.017321 -0.453242 2.538662 255 255 0
0.005494 -0.447886 2.540701 255 255 0
0.007566 -0.450327 2.529233 255 255 0
0.008814 -0.453082 2.517210 255 255 0
0.005109 -0.457721 2.501872 255 255 0
0.029483 -0.451692 2.505274 255 255 0
0.034848 -0.452873 2.496039 255 255 0
0.017973 -0.462554 2.471763 255 255 0
-0.184120 -0.490586 2.595770 0 255 0
-0.216280 -0.459667 2.676113 0 255 0
-0.220052 -0.454665 2.690402 0 255 0
-0.200106 -0.459682 2.690635 0 255 0
-0.177584 -0.465749 2.689476 0 255 0
-0.155877 -0.471436 2.688930 0 255 0
