ply
format ascii 1.0
element vertex 1301
property double x
property double y
property double z
property uchar red
property uchar green
property uchar blue
end_header
0.037879 -0.177562 2.328000 255 0 0
0.044336 -0.177866 2.332000 255 0 0
0.050553 -0.177254 2.324000 255 0 0
0.056825 -0.176946 2.320000 255 0 0
0.063156 -0.176868 2.319000 255 0 0
0.069631 -0.177170 2.323000 255 0 0
0.076357 -0.178006 2.334000 255 0 0
0.083284 -0.179147 2.349000 255 0 0
0.091287 -0.182271 2.390000 255 0 0
-0.060867 -0.581963 2.684331 255 255 0
-0.045413 -0.579018 2.680861 255 255 0
-0.033316 -0.577427 2.675438 255 255 0
-0.032889 -0.580613 2.662939 255 255 0
-0.052407 -0.592017 2.638141 255 255 0
-0.040319 -0.590421 2.632743 255 255 0
-0.019126 -0.585041 2.633080 255 255 0
0.000371 -0.580330 2.632485 255 255 0
-0.245483 -0.181146 2.295000 255 0 0
-0.238794 -0.180840 2.291000 255 0 0
-0.232126 -0.180533 2.287000 255 0 0
-0.225479 -0.180226 2.283000 255 0 0
-0.218757 -0.179840 2.278000 255 0 0
-0.212341 -0.179690 2.276000 255 0 0
-0.205845 -0.179461 2.273000 255 0 0
-0.199364 -0.179232 2.270000 255 0 0
-0.192814 -0.178924 2.266000 255 0 0
-0.186368 -0.178694 2.263000 255 0 0
-0.180335 -0.178859 2.265000 255 0 0
-0.174137 -0.178866 2.265000 255 0 0
-0.167938 -0.178873 2.265000 255 0 0
-0.161667 -0.178800 2.264000 255 0 0
-0.155676 -0.179043 2.267000 255 0 0
-0.149668 -0.179286 2.270000 255 0 0
-0.143390 -0.179213 2.269000 255 0 0
-0.137419 -0.179534 2.273000 255 0 0
-0.131483 -0.179935 2.278000 255 0 0
-0.125904 -0.180888 2.290000 255 0 0
-0.120155 -0.181682 2.300000 255 0 0
-0.114251 -0.182319 2.308000 255 0 0
-0.108116 -0.182639 2.312000 255 0 0
-0.102134 -0.183276 2.320000 255 0 0
-0.053222 -0.190253 2.408000 255 0 0
-0.046216 -0.188596 2.387000 255 0 0
-0.039524 -0.187886 2.378000 255 0 0
-0.032993 -0.187809 2.377000 255 0 0
-0.026400 -0.187257 2.370000 255 0 0
-0.019870 -0.186942 2.366000 255 0 0
-0.013317 -0.185994 2.354000 255 0 0
-0.006853 -0.185679 2.350000 255 0 0
-0.000412 -0.185916 2.353000 255 0 0
0.006025 -0.185521 2.348000 255 0 0
0.012407 -0.184730 2.338000 255 0 0
0.018759 -0.184176 2.331000 255 0 0
0.025149 -0.184176 2.331000 255 0 0
0.031646 -0.184807 2.339000 255 0 0
0.038057 -0.184805 2.339000 255 0 0
0.044505 -0.184961 2.341000 255 0 0
0.050704 -0.184169 2.331000 255 0 0
0.056994 -0.183851 2.327000 255 0 0
0.063235 -0.183454 2.322000 255 0 0
0.069628 -0.183530 2.323000 255 0 0
0.076157 -0.183922 2.328000 255 0 0
0.083175 -0.185341 2.346000 255 0 0
0.090405 -0.186997 2.367000 255 0 0
-0.026014 -0.596177 2.643068 255 255 0
-0.004844 -0.590735 2.643429 255 255 0
0.000553 -0.591853 2.634045 255 255 0
0.036555 -0.580142 2.643952 255 255 0
-0.014647 -0.608401 2.585969 255 255 0
-0.246436 -0.188158 2.304000 255 0 0
-0.239827 -0.187923 2.301000 255 0 0
-0.232421 -0.187034 2.290000 255 0 0
-0.225569 -0.186553 2.284000 255 0 0
-0.218556 -0.185908 2.276000 255 0 0
-0.212519 -0.186080 2.278000 255 0 0
-0.205927 -0.185761 2.274000 255 0 0
-0.199532 -0.185606 2.272000 255 0 0
-0.192807 -0.185123 2.266000 255 0 0
-0.186278 -0.184804 2.262000 255 0 0
-0.180089 -0.184811 2.262000 255 0 0
-0.174053 -0.184982 2.264000 255 0 0
-0.168080 -0.185234 2.267000 255 0 0
-0.161804 -0.185159 2.266000 255 0 0
-0.155601 -0.185165 2.266000 255 0 0
-0.149596 -0.185417 2.269000 255 0 0
-0.143510 -0.185586 2.271000 255 0 0
-0.137655 -0.186082 2.277000 255 0 0
-0.131708 -0.186496 2.282000 255 0 0
-0.126064 -0.187400 2.293000 255 0 0
-0.120150 -0.187978 2.300000 255 0 0
-0.114098 -0.188391 2.305000 255 0 0
-0.107971 -0.188722 2.309000 255 0 0
-0.053618 -0.198316 2.426000 255 0 0
-0.046388 -0.195866 2.396000 255 0 0
-0.039639 -0.194969 2.385000 255 0 0
-0.033005 -0.194398 2.378000 255 0 0
-0.026365 -0.193500 2.367000 255 0 0
-0.019819 -0.192929 2.360000 255 0 0
-0.013305 -0.192275 2.352000 255 0 0
-0.006847 -0.191949 2.348000 255 0 0
-0.000412 -0.192112 2.350000 255 0 0
0.006035 -0.192276 2.352000 255 0 0
0.012465 -0.192030 2.349000 255 0 0
0.018839 -0.191375 2.341000 255 0 0
0.025266 -0.191456 2.342000 255 0 0
0.031753 -0.191864 2.347000 255 0 0
0.038185 -0.191862 2.347000 255 0 0
0.044542 -0.191534 2.343000 255 0 0
0.050810 -0.190959 2.336000 255 0 0
0.057114 -0.190630 2.332000 255 0 0
0.063396 -0.190301 2.328000 255 0 0
0.069685 -0.190053 2.325000 255 0 0
0.076023 -0.189968 2.324000 255 0 0
0.082994 -0.191354 2.341000 255 0 0
0.028038 -0.598610 2.627321 255 255 0
0.018555 -0.606011 2.608556 255 255 0
-0.246319 -0.194375 2.303000 255 0 0
-0.240026 -0.194385 2.303000 255 0 0
-0.232209 -0.193128 2.288000 255 0 0
-0.225560 -0.192800 2.284000 255 0 0
-0.218547 -0.192133 2.276000 255 0 0
-0.212977 -0.192733 2.283000 255 0 0
-0.206372 -0.192404 2.279000 255 0 0
-0.199875 -0.192159 2.276000 255 0 0
-0.192884 -0.191407 2.267000 255 0 0
-0.186353 -0.191077 2.263000 255 0 0
-0.180162 -0.191084 2.263000 255 0 0
-0.174277 -0.191430 2.267000 255 0 0
-0.168221 -0.191606 2.269000 255 0 0
-0.161869 -0.191443 2.267000 255 0 0
-0.155664 -0.191450 2.267000 255 0 0
-0.149722 -0.191794 2.271000 255 0 0
-0.143820 -0.192223 2.276000 255 0 0
-0.137891 -0.192651 2.281000 255 0 0
-0.131934 -0.193079 2.286000 255 0 0
-0.126169 -0.193844 2.295000 255 0 0
-0.120249 -0.194441 2.302000 255 0 0
-0.114538 -0.195459 2.314000 255 0 0
-0.108761 -0.196478 2.326000 255 0 0
-0.053107 -0.203014 2.403000 255 0 0
-0.046522 -0.203016 2.403000 255 0 0
-0.039770 -0.202173 2.393000 255 0 0
-0.033115 -0.201583 2.386000 255 0 0
-0.026353 -0.199895 2.366000 255 0 0
-0.019793 -0.199135 2.357000 255 0 0
-0.013310 -0.198798 2.353000 255 0 0
-0.006855 -0.198629 2.351000 255 0 0
-0.000411 -0.198376 2.348000 255 0 0
0.006029 -0.198545 2.350000 255 0 0
0.012486 -0.198798 2.353000 255 0 0
0.018935 -0.198797 2.353000 255 0 0
0.025373 -0.198712 2.352000 255 0 0
0.031765 -0.198373 2.348000 255 0 0
0.038200 -0.198371 2.348000 255 0 0
0.044578 -0.198116 2.345000 255 0 0
0.050939 -0.197860 2.342000 255 0 0
0.057259 -0.197520 2.338000 255 0 0
0.063529 -0.197095 2.333000 255 0 0
0.069862 -0.196923 2.331000 255 0 0
0.076118 -0.196582 2.327000 255 0 0
0.083061 -0.197931 2.343000 255 0 0
-0.255783 -0.203189 2.332000 255 0 0
-0.245989 -0.200411 2.300000 255 0 0
-0.240225 -0.200857 2.305000 255 0 0
-0.232504 -0.199646 2.291000 255 0 0
-0.225847 -0.199307 2.287000 255 0 0
-0.218442 -0.198271 2.275000 255 0 0
-0.212689 -0.198716 2.280000 255 0 0
-0.206454 -0.198724 2.280000 255 0 0
-0.199867 -0.198384 2.276000 255 0 0
-0.192876 -0.197608 2.267000 255 0 0
-0.186181 -0.197093 2.261000 255 0 0
-0.179915 -0.197013 2.260000 255 0 0
-0.174116 -0.197457 2.265000 255 0 0
-0.168066 -0.197639 2.267000 255 0 0
-0.161862 -0.197646 2.267000 255 0 0
-0.155657 -0.197652 2.267000 255 0 0
-0.149649 -0.197921 2.270000 255 0 0
-0.143751 -0.198363 2.275000 255 0 0
-0.137885 -0.198892 2.281000 255 0 0
-0.131928 -0.199334 2.286000 255 0 0
-0.126163 -0.200124 2.295000 255 0 0
-0.120453 -0.201089 2.306000 255 0 0
-0.115127 -0.202838 2.326000 255 0 0
-0.109926 -0.205023 2.351000 255 0 0
-0.053260 -0.210201 2.410000 255 0 0
-0.046501 -0.209505 2.402000 255 0 0
-0.039818 -0.208984 2.396000 255 0 0
-0.033127 -0.208201 2.387000 255 0 0
-0.026374 -0.206545 2.368000 255 0 0
-0.019792 -0.205586 2.357000 255 0 0
-0.013332 -0.205587 2.357000 255 0 0
-0.006864 -0.205326 2.354000 255 0 0
-0.000412 -0.205151 2.352000 255 0 0
0.006024 -0.204802 2.348000 255 0 0
0.012480 -0.205151 2.352000 255 0 0
0.018902 -0.204888 2.349000 255 0 0
0.025307 -0.204626 2.346000 255 0 0
0.031669 -0.204188 2.341000 255 0 0
0.038117 -0.204361 2.343000 255 0 0
0.044538 -0.204360 2.343000 255 0 0
0.050980 -0.204445 2.344000 255 0 0
0.057330 -0.204181 2.341000 255 0 0
0.063690 -0.204004 2.339000 255 0 0
0.070159 -0.204175 2.341000 255 0 0
0.076442 -0.203823 2.337000 255 0 0
0.083058 -0.204343 2.343000 255 0 0
-0.255114 -0.209025 2.326000 255 0 0
-0.244695 -0.205621 2.288000 255 0 0
-0.239068 -0.206170 2.294000 255 0 0
-0.231885 -0.205372 2.285000 255 0 0
-0.225344 -0.205112 2.282000 255 0 0
-0.218145 -0.204222 2.272000 255 0 0
-0.212306 -0.204591 2.276000 255 0 0
-0.205992 -0.204510 2.275000 255 0 0
-0.199507 -0.204249 2.272000 255 0 0
-0.192613 -0.203539 2.264000 255 0 0
-0.186173 -0.203277 2.261000 255 0 0
-0.179987 -0.203285 2.261000 255 0 0
-0.174262 -0.203832 2.267000 255 0 0
-0.168133 -0.203930 2.268000 255 0 0
-0.161855 -0.203847 2.267000 255 0 0
-0.155650 -0.203854 2.267000 255 0 0
-0.149709 -0.204220 2.271000 255 0 0
-0.143871 -0.204766 2.277000 255 0 0
-0.137940 -0.205222 2.282000 255 0 0
-0.131980 -0.205678 2.287000 255 0 0
-0.126323 -0.206673 2.298000 255 0 0
-0.120918 -0.208207 2.315000 255 0 0
-0.115865 -0.210551 2.341000 255 0 0
-0.110388 -0.212355 2.361000 255 0 0
-0.105550 -0.215688 2.398000 255 0 0
-0.046498 -0.216079 2.402000 255 0 0
-0.039817 -0.215541 2.396000 255 0 0
-0.033154 -0.214913 2.389000 255 0 0
-0.026428 -0.213475 2.373000 255 0 0
-0.019900 -0.213206 2.370000 255 0 0
-0.013428 -0.213566 2.374000 255 0 0
-0.006907 -0.213117 2.369000 255 0 0
-0.000413 -0.211948 2.356000 255 0 0
0.006029 -0.211408 2.350000 255 0 0
0.012469 -0.211407 2.350000 255 0 0
0.018909 -0.211407 2.350000 255 0 0
0.025284 -0.210866 2.344000 255 0 0
0.031681 -0.210685 2.342000 255 0 0
0.038066 -0.210503 2.340000 255 0 0
0.044555 -0.210861 2.344000 255 0 0
0.051000 -0.210949 2.345000 255 0 0
0.057450 -0.211037 2.346000 255 0 0
0.063796 -0.210764 2.343000 255 0 0
0.070276 -0.210941 2.345000 255 0 0
0.076439 -0.210218 2.337000 255 0 0
-0.244898 -0.212061 2.290000 255 0 0
-0.238745 -0.212164 2.291000 255 0 0
-0.231875 -0.211619 2.285000 255 0 0
-0.225334 -0.211351 2.282000 255 0 0
-0.218328 -0.210620 2.274000 255 0 0
-0.212204 -0.210722 2.275000 255 0 0
-0.205621 -0.210361 2.271000 255 0 0
-0.199147 -0.210092 2.268000 255 0 0
-0.192519 -0.209637 2.263000 255 0 0
-0.186082 -0.209368 2.260000 255 0 0
-0.179979 -0.209469 2.261000 255 0 0
-0.174177 -0.209940 2.266000 255 0 0
-0.168051 -0.210040 2.267000 255 0 0
-0.161919 -0.210140 2.268000 255 0 0
-0.155849 -0.210333 2.270000 255 0 0
-0.149834 -0.210618 2.273000 255 0 0
-0.144181 -0.211458 2.282000 255 0 0
-0.138296 -0.212021 2.288000 255 0 0
-0.132263 -0.212397 2.292000 255 0 0
-0.126537 -0.213330 2.302000 255 0 0
-0.121226 -0.215097 2.321000 255 0 0
-0.115909 -0.217048 2.342000 255 0 0
-0.110243 -0.218536 2.358000 255 0 0
-0.104709 -0.220487 2.379000 255 0 0
-0.046574 -0.223022 2.406000 255 0 0
-0.039881 -0.222467 2.400000 255 0 0
-0.033207 -0.221820 2.393000 255 0 0
-0.026527 -0.220802 2.382000 255 0 0
-0.019975 -0.220525 2.379000 255 0 0
-0.013450 -0.220433 2.378000 255 0 0
-0.006904 -0.219507 2.368000 255 0 0
-0.000413 -0.218487 2.357000 255 0 0
0.006034 -0.218023 2.352000 255 0 0
0.012479 -0.218023 2.352000 255 0 0
0.018900 -0.217744 2.349000 255 0 0
0.025273 -0.217187 2.343000 255 0 0
0.031666 -0.217000 2.341000 255 0 0
0.038081 -0.216999 2.341000 255 0 0
0.044572 -0.217368 2.345000 255 0 0
0.051106 -0.217829 2.350000 255 0 0
0.057545 -0.217826 2.350000 255 0 0
0.063875 -0.217453 2.346000 255 0 0
0.070123 -0.216893 2.340000 255 0 0
0.077057 -0.218373 2.356000 255 0 0
-0.244781 -0.218225 2.289000 255 0 0
-0.238526 -0.218236 2.289000 255 0 0
-0.231967 -0.217961 2.286000 255 0 0
-0.225225 -0.217494 2.281000 255 0 0
-0.218318 -0.216837 2.274000 255 0 0
-0.212101 -0.216846 2.274000 255 0 0
-0.205521 -0.216474 2.270000 255 0 0
-0.199051 -0.216198 2.267000 255 0 0
-0.192595 -0.215920 2.264000 255 0 0
-0.186485 -0.216024 2.265000 255 0 0
-0.180289 -0.216033 2.265000 255 0 0
-0.174016 -0.215946 2.264000 255 0 0
-0.167970 -0.216144 2.266000 255 0 0
-0.161840 -0.216247 2.267000 255 0 0
-0.155842 -0.216541 2.270000 255 0 0
-0.149959 -0.217025 2.275000 255 0 0
-0.144427 -0.218081 2.286000 255 0 0
-0.138652 -0.218851 2.294000 255 0 0
-0.132545 -0.219143 2.297000 255 0 0
-0.126916 -0.220294 2.309000 255 0 0
-0.121272 -0.221541 2.322000 255 0 0
-0.115904 -0.223454 2.342000 255 0 0
-0.110051 -0.224605 2.354000 255 0 0
-0.105100 -0.227854 2.388000 255 0 0
-0.046765 -0.230558 2.416000 255 0 0
-0.040012 -0.229797 2.408000 255 0 0
-0.033303 -0.229035 2.400000 255 0 0
-0.026582 -0.227796 2.387000 255 0 0
-0.019999 -0.227320 2.382000 255 0 0
-0.013444 -0.226844 2.377000 255 0 0
-0.006907 -0.226081 2.369000 255 0 0
-0.000413 -0.225126 2.359000 255 0 0
0.006036 -0.224554 2.353000 255 0 0
0.012473 -0.224362 2.351000 255 0 0
0.018923 -0.224457 2.352000 255 0 0
0.025347 -0.224265 2.350000 255 0 0
0.031759 -0.224073 2.348000 255 0 0
0.038160 -0.223880 2.346000 255 0 0
0.044665 -0.224260 2.350000 255 0 0
0.051191 -0.224640 2.354000 255 0 0
0.057640 -0.224637 2.354000 255 0 0
0.063981 -0.224252 2.350000 255 0 0
0.070689 -0.225108 2.359000 255 0 0
0.077249 -0.225391 2.362000 255 0 0
-0.245625 -0.225266 2.297000 255 0 0
-0.239037 -0.224983 2.294000 255 0 0
-0.232565 -0.224797 2.292000 255 0 0
-0.225708 -0.224220 2.286000 255 0 0
-0.218788 -0.223543 2.279000 255 0 0
-0.212278 -0.223259 2.276000 255 0 0
-0.205693 -0.222876 2.272000 255 0 0
-0.199041 -0.222395 2.267000 255 0 0
-0.192672 -0.222208 2.265000 255 0 0
-0.186230 -0.221923 2.262000 255 0 0
-0.179883 -0.221735 2.260000 255 0 0
-0.173547 -0.221547 2.258000 255 0 0
-0.167665 -0.221948 2.262000 255 0 0
-0.161761 -0.222348 2.266000 255 0 0
-0.155903 -0.222846 2.271000 255 0 0
-0.150149 -0.223540 2.278000 255 0 0
-0.144609 -0.224627 2.289000 255 0 0
-0.138767 -0.225321 2.296000 255 0 0
-0.132712 -0.225720 2.300000 255 0 0
-0.126910 -0.226609 2.309000 255 0 0
-0.121214 -0.227793 2.321000 255 0 0
-0.115601 -0.229271 2.336000 255 0 0
-0.109812 -0.230552 2.349000 255 0 0
-0.046879 -0.237756 2.422000 255 0 0
-0.040077 -0.236777 2.412000 255 0 0
-0.033399 -0.236288 2.407000 255 0 0
-0.026625 -0.234718 2.391000 255 0 0
-0.019981 -0.233640 2.380000 255 0 0
-0.013409 -0.232757 2.371000 255 0 0
-0.006892 -0.232070 2.364000 255 0 0
-0.000414 -0.231874 2.362000 255 0 0
0.006051 -0.231579 2.359000 255 0 0
0.012504 -0.231383 2.357000 255 0 0
0.018931 -0.230989 2.353000 255 0 0
0.025356 -0.230792 2.351000 255 0 0
0.031731 -0.230300 2.346000 255 0 0
0.038159 -0.230298 2.346000 255 0 0
0.044605 -0.230394 2.347000 255 0 0
0.051166 -0.230981 2.353000 255 0 0
0.057637 -0.231076 2.354000 255 0 0
0.064195 -0.231466 2.358000 255 0 0
0.070985 -0.232542 2.369000 255 0 0
0.077736 -0.233324 2.377000 255 0 0
-0.245721 -0.231644 2.298000 255 0 0
-0.239130 -0.231353 2.295000 255 0 0
-0.232453 -0.230961 2.291000 255 0 0
-0.225599 -0.230367 2.285000 255 0 0
-0.219066 -0.230075 2.282000 255 0 0
-0.212548 -0.229782 2.279000 255 0 0
-0.206045 -0.229490 2.276000 255 0 0
-0.199471 -0.229096 2.272000 255 0 0
-0.193258 -0.229106 2.272000 255 0 0
-0.186797 -0.228812 2.269000 255 0 0
-0.180193 -0.228317 2.264000 255 0 0
-0.173846 -0.228124 2.262000 255 0 0
-0.167954 -0.228535 2.266000 255 0 0
-0.162182 -0.229149 2.272000 255 0 0
-0.156171 -0.229459 2.275000 255 0 0
-0.150406 -0.230172 2.282000 255 0 0
-0.144539 -0.230785 2.288000 255 0 0
-0.138699 -0.231498 2.295000 255 0 0
-0.132879 -0.232312 2.303000 255 0 0
-0.127123 -0.233327 2.313000 255 0 0
-0.121208 -0.234140 2.321000 255 0 0
-0.115398 -0.235255 2.332000 255 0 0
-0.109620 -0.236572 2.345000 255 0 0
-0.046702 -0.243472 2.413000 255 0 0
-0.039992 -0.242869 2.407000 255 0 0
-0.033369 -0.242669 2.405000 255 0 0
-0.026624 -0.241258 2.391000 255 0 0
-0.019997 -0.240351 2.382000 255 0 0
-0.013414 -0.239343 2.372000 255 0 0
-0.006894 -0.238637 2.365000 255 0 0
-0.000414 -0.238637 2.365000 255 0 0
0.006056 -0.238233 2.361000 255 0 0
0.012520 -0.238132 2.360000 255 0 0
0.018930 -0.237425 2.353000 255 0 0
0.025355 -0.237222 2.351000 255 0 0
0.031783 -0.237120 2.350000 255 0 0
0.038206 -0.237017 2.349000 255 0 0
0.044641 -0.237015 2.349000 255 0 0
0.051055 -0.236912 2.348000 255 0 0
0.057733 -0.237918 2.358000 255 0 0
0.064465 -0.238924 2.368000 255 0 0
0.071431 -0.240535 2.384000 255 0 0
-0.246458 -0.238648 2.305000 255 0 0
-0.239431 -0.237934 2.298000 255 0 0
-0.232746 -0.237532 2.294000 255 0 0
-0.226082 -0.237129 2.290000 255 0 0
-0.219727 -0.237036 2.289000 255 0 0
-0.212911 -0.236425 2.283000 255 0 0
-0.206217 -0.235917 2.278000 255 0 0
-0.199637 -0.235513 2.274000 255 0 0
-0.193163 -0.235212 2.271000 255 0 0
-0.186623 -0.234807 2.267000 255 0 0
-0.180104 -0.234402 2.263000 255 0 0
-0.174298 -0.234928 2.268000 255 0 0
-0.168390 -0.235351 2.272000 255 0 0
-0.162602 -0.235981 2.278000 255 0 0
-0.156506 -0.236196 2.280000 255 0 0
-0.150596 -0.236722 2.285000 255 0 0
-0.144658 -0.237247 2.290000 255 0 0
-0.138753 -0.237876 2.296000 255 0 0
-0.133160 -0.239126 2.308000 255 0 0
-0.127117 -0.239651 2.313000 255 0 0
-0.121150 -0.240382 2.320000 255 0 0
-0.115095 -0.241010 2.326000 255 0 0
-0.109474 -0.242673 2.342000 255 0 0
-0.046758 -0.250382 2.416000 255 0 0
-0.040056 -0.249866 2.411000 255 0 0
-0.033437 -0.249764 2.410000 255 0 0
-0.026745 -0.248937 2.402000 255 0 0
-0.020088 -0.248005 2.393000 255 0 0
-0.013447 -0.246451 2.378000 255 0 0
-0.006900 -0.245312 2.367000 255 0 0
-0.000414 -0.245001 2.364000 255 0 0
0.006063 -0.245001 2.364000 255 0 0
0.012535 -0.244897 2.363000 255 0 0
0.018937 -0.243963 2.354000 255 0 0
0.025332 -0.243444 2.349000 255 0 0
0.031782 -0.243546 2.350000 255 0 0
0.038269 -0.243855 2.353000 255 0 0
0.044715 -0.243853 2.353000 255 0 0
0.051118 -0.243643 2.351000 255 0 0
0.057730 -0.244366 2.358000 255 0 0
0.064543 -0.245710 2.371000 255 0 0
0.071217 -0.246329 2.377000 255 0 0
-0.246873 -0.245370 2.309000 255 0 0
-0.239524 -0.244319 2.299000 255 0 0
-0.232735 -0.243799 2.294000 255 0 0
-0.226268 -0.243598 2.292000 255 0 0
-0.219908 -0.243503 2.291000 255 0 0
-0.213180 -0.242982 2.286000 255 0 0
-0.206659 -0.242674 2.283000 255 0 0
-0.200242 -0.242471 2.281000 255 0 0
-0.193834 -0.242269 2.279000 255 0 0
-0.187355 -0.241959 2.276000 255 0 0
-0.180812 -0.241543 2.272000 255 0 0
-0.174827 -0.241871 2.275000 255 0 0
-0.168530 -0.241774 2.274000 255 0 0
-0.162665 -0.242314 2.279000 255 0 0
-0.156498 -0.242428 2.280000 255 0 0
-0.150589 -0.242968 2.285000 255 0 0
-0.144398 -0.243082 2.286000 255 0 0
-0.138685 -0.244046 2.295000 255 0 0
-0.133096 -0.245329 2.307000 255 0 0
-0.127165 -0.246080 2.314000 255 0 0
-0.121144 -0.246724 2.320000 255 0 0
-0.115287 -0.247794 2.330000 255 0 0
-0.110029 -0.250352 2.354000 255 0 0
-0.047046 -0.258583 2.431000 255 0 0
-0.040187 -0.257309 2.419000 255 0 0
-0.033477 -0.256673 2.413000 255 0 0
-0.026788 -0.255930 2.406000 255 0 0
-0.020146 -0.255293 2.400000 255 0 0
-0.013497 -0.253911 2.387000 255 0 0
-0.006931 -0.252954 2.378000 255 0 0
-0.000415 -0.251997 2.369000 255 0 0
0.006068 -0.251678 2.366000 255 0 0
0.012513 -0.250933 2.359000 255 0 0
0.018944 -0.250506 2.355000 255 0 0
0.025374 -0.250292 2.353000 255 0 0
0.031902 -0.250929 2.359000 255 0 0
0.038413 -0.251246 2.362000 255 0 0
0.044922 -0.251457 2.364000 255 0 0
0.051354 -0.251242 2.362000 255 0 0
0.057873 -0.251452 2.364000 255 0 0
0.064322 -0.251342 2.363000 255 0 0
0.070824 -0.251445 2.364000 255 0 0
-0.247396 -0.252222 2.314000 255 0 0
-0.240241 -0.251362 2.306000 255 0 0
-0.233230 -0.250611 2.299000 255 0 0
-0.226356 -0.249969 2.293000 255 0 0
-0.219705 -0.249544 2.289000 255 0 0
-0.213169 -0.249228 2.286000 255 0 0
-0.206739 -0.249021 2.284000 255 0 0
-0.200319 -0.248813 2.282000 255 0 0
-0.193569 -0.248169 2.276000 255 0 0
-0.187345 -0.248179 2.276000 255 0 0
-0.180882 -0.247861 2.273000 255 0 0
-0.174895 -0.248197 2.276000 255 0 0
-0.168447 -0.247879 2.273000 255 0 0
-0.162443 -0.248215 2.276000 255 0 0
-0.156353 -0.248441 2.278000 255 0 0
-0.150647 -0.249322 2.286000 255 0 0
-0.144707 -0.249875 2.291000 255 0 0
-0.138739 -0.250428 2.296000 255 0 0
-0.132974 -0.251416 2.305000 255 0 0
-0.127159 -0.252405 2.314000 255 0 0
-0.121294 -0.253393 2.323000 255 0 0
-0.115627 -0.254927 2.337000 255 0 0
-0.110958 -0.258969 2.374000 255 0 0
-0.040152 -0.263704 2.417000 255 0 0
-0.033447 -0.263052 2.411000 255 0 0
-0.026776 -0.262399 2.405000 255 0 0
-0.020179 -0.262291 2.404000 255 0 0
-0.013536 -0.261201 2.394000 255 0 0
-0.006969 -0.260874 2.391000 255 0 0
-0.000416 -0.259456 2.378000 255 0 0
0.006083 -0.258801 2.372000 255 0 0
0.012507 -0.257273 2.358000 255 0 0
0.018951 -0.257054 2.356000 255 0 0
0.025394 -0.256943 2.355000 255 0 0
0.031913 -0.257487 2.360000 255 0 0
0.038427 -0.257813 2.363000 255 0 0
0.044900 -0.257811 2.363000 255 0 0
0.051395 -0.257917 2.364000 255 0 0
0.057821 -0.257696 2.362000 255 0 0
0.064427 -0.258238 2.367000 255 0 0
0.070910 -0.258235 2.367000 255 0 0
-0.247490 -0.258654 2.315000 255 0 0
-0.239916 -0.257326 2.303000 255 0 0
-0.232508 -0.256109 2.292000 255 0 0
-0.225851 -0.255673 2.288000 255 0 0
-0.219022 -0.255015 2.282000 255 0 0
-0.212878 -0.255137 2.283000 255 0 0
-0.206457 -0.254925 2.281000 255 0 0
-0.200309 -0.255047 2.282000 255 0 0
-0.193644 -0.254499 2.277000 255 0 0
-0.187500 -0.254620 2.278000 255 0 0
-0.180873 -0.254071 2.273000 255 0 0
-0.174886 -0.254416 2.276000 255 0 0
-0.168438 -0.254090 2.273000 255 0 0
-0.162506 -0.254546 2.277000 255 0 0
-0.156688 -0.255225 2.283000 255 0 0
-0.151034 -0.256239 2.292000 255 0 0
-0.145015 -0.256694 2.296000 255 0 0
-0.138852 -0.256926 2.298000 255 0 0
-0.132851 -0.257492 2.303000 255 0 0
-0.127207 -0.258841 2.315000 255 0 0
-0.121549 -0.260301 2.328000 255 0 0
-0.116165 -0.262544 2.348000 255 0 0
-0.040100 -0.269975 2.414000 255 0 0
-0.033459 -0.269754 2.412000 255 0 0
-0.026774 -0.268973 2.405000 255 0 0
-0.020144 -0.268415 2.400000 255 0 0
-0.013524 -0.267521 2.392000 255 0 0
-0.006963 -0.267186 2.389000 255 0 0
-0.000417 -0.266180 2.380000 255 0 0
0.006080 -0.265173 2.371000 255 0 0
0.012533 -0.264278 2.363000 255 0 0
0.018990 -0.264053 2.361000 255 0 0
0.025501 -0.264499 2.365000 255 0 0
0.032020 -0.264833 2.368000 255 0 0
0.038506 -0.264831 2.368000 255 0 0
0.044898 -0.264270 2.363000 255 0 0
0.051392 -0.264379 2.364000 255 0 0
0.057941 -0.264711 2.367000 255 0 0
0.064642 -0.265603 2.375000 255 0 0
0.071895 -0.268395 2.400000 255 0 0
-0.242026 -0.259138 2.264000 255 0 0
-0.239591 -0.263272 2.300000 255 0 0
-0.232801 -0.262712 2.295000 255 0 0
-0.226135 -0.262266 2.291000 255 0 0
-0.219395 -0.261705 2.286000 255 0 0
-0.212961 -0.261488 2.284000 255 0 0
-0.206356 -0.261041 2.280000 255 0 0
-0.200035 -0.260937 2.279000 255 0 0
-0.193379 -0.260375 2.274000 255 0 0
-0.187161 -0.260385 2.274000 255 0 0
-0.180704 -0.260052 2.271000 255 0 0
-0.174954 -0.260748 2.277000 255 0 0
-0.168948 -0.261101 2.280000 255 0 0
-0.163139 -0.261797 2.286000 255 0 0
-0.157297 -0.262493 2.292000 255 0 0
-0.151553 -0.263418 2.300000 255 0 0
-0.145449 -0.263769 2.303000 255 0 0
-0.139086 -0.263663 2.302000 255 0 0
-0.133305 -0.264701 2.311000 255 0 0
-0.127969 -0.266770 2.329000 255 0 0
-0.122586 -0.268953 2.348000 255 0 0
-0.117198 -0.271365 2.369000 255 0 0
-0.040214 -0.277375 2.421000 255 0 0
-0.033541 -0.277033 2.418000 255 0 0
-0.026828 -0.276118 2.410000 255 0 0
-0.020118 -0.274630 2.397000 255 0 0
-0.013489 -0.273371 2.386000 255 0 0
-0.006930 -0.272455 2.378000 255 0 0
-0.000416 -0.272111 2.375000 255 0 0
0.006072 -0.271309 2.368000 255 0 0
0.012553 -0.271194 2.367000 255 0 0
0.019013 -0.270850 2.364000 255 0 0
0.025510 -0.271078 2.366000 255 0 0
0.031991 -0.271076 2.366000 255 0 0
0.038488 -0.271188 2.367000 255 0 0
0.044990 -0.271301 2.368000 255 0 0
0.051607 -0.271985 2.374000 255 0 0
0.058329 -0.273014 2.383000 255 0 0
0.065101 -0.274041 2.392000 255 0 0
-0.240516 -0.270607 2.309000 255 0 0
-0.233498 -0.269799 2.302000 255 0 0
-0.227110 -0.269694 2.301000 255 0 0
-0.219959 -0.268651 2.292000 255 0 0
-0.212856 -0.267608 2.283000 255 0 0
-0.205801 -0.266564 2.274000 255 0 0
-0.199585 -0.266575 2.274000 255 0 0
-0.193539 -0.266820 2.276000 255 0 0
-0.187316 -0.266831 2.276000 255 0 0
-0.180933 -0.266606 2.274000 255 0 0
-0.175021 -0.267085 2.278000 255 0 0
-0.169235 -0.267798 2.284000 255 0 0
-0.163630 -0.268863 2.293000 255 0 0
-0.157906 -0.269809 2.301000 255 0 0
-0.152006 -0.270522 2.307000 255 0 0
-0.145630 -0.270413 2.306000 255 0 0
-0.139381 -0.270538 2.307000 255 0 0
-0.134221 -0.272891 2.327000 255 0 0
-0.129281 -0.275947 2.353000 255 0 0
-0.124041 -0.278652 2.376000 255 0 0
-0.040610 -0.286806 2.445000 255 0 0
-0.033719 -0.285166 2.431000 255 0 0
-0.026994 -0.284464 2.425000 255 0 0
-0.020192 -0.282236 2.406000 255 0 0
-0.013511 -0.280360 2.390000 255 0 0
-0.006933 -0.279070 2.379000 255 0 0
-0.000416 -0.278719 2.376000 255 0 0
0.006077 -0.278015 2.370000 255 0 0
0.012558 -0.277780 2.368000 255 0 0
0.019012 -0.277310 2.364000 255 0 0
0.025509 -0.277543 2.366000 255 0 0
0.032043 -0.278010 2.370000 255 0 0
0.038648 -0.278830 2.377000 255 0 0
0.045254 -0.279414 2.382000 255 0 0
0.051930 -0.280232 2.389000 255 0 0
0.058693 -0.281285 2.398000 255 0 0
0.065369 -0.281750 2.402000 255 0 0
-0.237441 -0.280761 2.341000 255 0 0
-0.228973 -0.278255 2.320000 255 0 0
-0.220907 -0.276109 2.302000 255 0 0
-0.212844 -0.273842 2.283000 255 0 0
-0.206152 -0.273253 2.278000 255 0 0
-0.199925 -0.273265 2.278000 255 0 0
-0.194038 -0.273755 2.282000 255 0 0
-0.187881 -0.273886 2.283000 255 0 0
-0.181480 -0.273656 2.281000 255 0 0
-0.175780 -0.274506 2.288000 255 0 0
-0.169967 -0.275236 2.294000 255 0 0
-0.164191 -0.276085 2.301000 255 0 0
-0.158309 -0.276814 2.307000 255 0 0
-0.152195 -0.277183 2.310000 255 0 0
-0.146254 -0.277911 2.316000 255 0 0
-0.140158 -0.278399 2.320000 255 0 0
-0.135367 -0.281647 2.347000 255 0 0
-0.130098 -0.284175 2.368000 255 0 0
-0.124869 -0.287062 2.392000 255 0 0
-0.047846 -0.296844 2.473000 255 0 0
-0.040591 -0.293366 2.444000 255 0 0
-0.033773 -0.292288 2.435000 255 0 0
-0.027081 -0.292049 2.433000 255 0 0
-0.020283 -0.290130 2.417000 255 0 0
-0.013590 -0.288571 2.404000 255 0 0
-0.006970 -0.287131 2.392000 255 0 0
-0.000417 -0.286291 2.385000 255 0 0
0.006102 -0.285690 2.380000 255 0 0
0.012563 -0.284370 2.369000 255 0 0
0.019019 -0.283888 2.365000 255 0 0
0.025496 -0.283887 2.365000 255 0 0
0.032082 -0.284846 2.373000 255 0 0
0.038793 -0.286404 2.386000 255 0 0
0.045403 -0.286882 2.390000 255 0 0
0.052101 -0.287719 2.397000 255 0 0
0.058739 -0.288076 2.400000 255 0 0
0.065610 -0.289393 2.411000 255 0 0
0.072272 -0.289629 2.413000 255 0 0
-0.239761 -0.289973 2.364000 255 0 0
-0.230737 -0.286797 2.338000 255 0 0
-0.220894 -0.282393 2.302000 255 0 0
-0.213019 -0.280320 2.285000 255 0 0
-0.206503 -0.279964 2.282000 255 0 0
-0.200880 -0.280834 2.289000 255 0 0
-0.194792 -0.281090 2.291000 255 0 0
-0.188611 -0.281224 2.292000 255 0 0
-0.182026 -0.280744 2.288000 255 0 0
-0.176307 -0.281613 2.295000 255 0 0
-0.170476 -0.282359 2.301000 255 0 0
-0.164610 -0.283105 2.307000 255 0 0
-0.158574 -0.283605 2.311000 255 0 0
-0.152450 -0.283982 2.314000 255 0 0
-0.146498 -0.284727 2.320000 255 0 0
-0.140634 -0.285717 2.328000 255 0 0
-0.135474 -0.288303 2.349000 255 0 0
-0.130200 -0.290888 2.370000 255 0 0
-0.124758 -0.293350 2.390000 255 0 0
-0.047495 -0.301390 2.455000 255 0 0
-0.040788 -0.301515 2.456000 255 0 0
-0.033882 -0.299922 2.443000 255 0 0
-0.027180 -0.299801 2.442000 255 0 0
-0.020408 -0.298574 2.432000 255 0 0
-0.013668 -0.296857 2.418000 255 0 0
-0.006999 -0.294893 2.402000 255 0 0
-0.000418 -0.293297 2.389000 255 0 0
0.006112 -0.292683 2.384000 255 0 0
0.012567 -0.290964 2.370000 255 0 0
0.019042 -0.290717 2.368000 255 0 0
0.025495 -0.290348 2.365000 255 0 0
0.032121 -0.291696 2.376000 255 0 0
0.038790 -0.292922 2.386000 255 0 0
0.045458 -0.293779 2.393000 255 0 0
0.052163 -0.294635 2.400000 255 0 0
0.058784 -0.294878 2.402000 255 0 0
0.065715 -0.296470 2.415000 255 0 0
-0.239139 -0.295673 2.358000 255 0 0
-0.230428 -0.292802 2.335000 255 0 0
-0.221074 -0.288928 2.304000 255 0 0
-0.213753 -0.287561 2.293000 255 0 0
-0.207396 -0.287447 2.292000 255 0 0
-0.201658 -0.288211 2.298000 255 0 0
-0.195036 -0.287721 2.294000 255 0 0
-0.188765 -0.287732 2.294000 255 0 0
-0.182334 -0.287492 2.292000 255 0 0
-0.176605 -0.288380 2.299000 255 0 0
-0.170836 -0.289269 2.306000 255 0 0
-0.164815 -0.289780 2.310000 255 0 0
-0.158908 -0.290542 2.316000 255 0 0
-0.152836 -0.291053 2.320000 255 0 0
-0.147247 -0.292567 2.332000 255 0 0
-0.141531 -0.293956 2.343000 255 0 0
-0.135986 -0.295846 2.358000 255 0 0
-0.130192 -0.297360 2.370000 255 0 0
-0.125064 -0.300629 2.396000 255 0 0
-0.047995 -0.311358 2.481000 255 0 0
-0.041035 -0.310106 2.471000 255 0 0
-0.034004 -0.307724 2.452000 255 0 0
-0.027200 -0.306721 2.444000 255 0 0
-0.020398 -0.305091 2.431000 255 0 0
-0.013695 -0.304088 2.423000 255 0 0
-0.007007 -0.301830 2.405000 255 0 0
-0.000419 -0.300324 2.393000 255 0 0
0.006125 -0.299822 2.389000 255 0 0
0.012619 -0.298692 2.380000 255 0 0
0.019129 -0.298566 2.379000 255 0 0
0.025623 -0.298313 2.377000 255 0 0
0.032146 -0.298437 2.378000 255 0 0
0.038788 -0.299439 2.386000 255 0 0
0.045436 -0.300189 2.392000 255 0 0
0.052312 -0.302069 2.407000 255 0 0
0.058927 -0.302191 2.408000 255 0 0
0.065902 -0.303944 2.422000 255 0 0
-0.236895 -0.299289 2.336000 255 0 0
-0.228639 -0.296868 2.317000 255 0 0
-0.221349 -0.295600 2.307000 255 0 0
-0.214486 -0.294844 2.301000 255 0 0
-0.208108 -0.294728 2.300000 255 0 0
-0.201910 -0.294868 2.301000 255 0 0
-0.195195 -0.294239 2.296000 255 0 0
-0.188919 -0.294250 2.296000 255 0 0
-0.182642 -0.294261 2.296000 255 0 0
-0.176825 -0.295041 2.302000 255 0 0
-0.170900 -0.295692 2.307000 255 0 0
-0.165376 -0.297112 2.318000 255 0 0
-0.159722 -0.298403 2.328000 255 0 0
-0.153881 -0.299438 2.336000 255 0 0
-0.148122 -0.300729 2.346000 255 0 0
-0.142369 -0.302147 2.357000 255 0 0
-0.136439 -0.303310 2.366000 255 0 0
-0.130679 -0.304984 2.379000 255 0 0
-0.125213 -0.307556 2.399000 255 0 0
-0.048147 -0.319159 2.489000 255 0 0
-0.041198 -0.318136 2.481000 255 0 0
-0.034127 -0.315574 2.461000 255 0 0
-0.027243 -0.313908 2.448000 255 0 0
-0.020456 -0.312628 2.438000 255 0 0
-0.013740 -0.311731 2.431000 255 0 0
-0.007039 -0.309808 2.416000 255 0 0
-0.000421 -0.308141 2.403000 255 0 0
0.006137 -0.306987 2.394000 255 0 0
0.012656 -0.306089 2.387000 255 0 0
0.019176 -0.305832 2.385000 255 0 0
0.025675 -0.305445 2.382000 255 0 0
0.032225 -0.305700 2.384000 255 0 0
0.038688 -0.305185 2.380000 255 0 0
0.045395 -0.306465 2.390000 255 0 0
0.052244 -0.308257 2.404000 255 0 0
0.059022 -0.309279 2.412000 255 0 0
0.065843 -0.310301 2.420000 255 0 0
-0.235157 -0.303439 2.319000 255 0 0
-0.228625 -0.303191 2.317000 255 0 0
-0.222008 -0.302811 2.314000 255 0 0
-0.215499 -0.302562 2.312000 255 0 0
-0.208819 -0.302051 2.308000 255 0 0
-0.201810 -0.301016 2.300000 255 0 0
-0.195269 -0.300636 2.297000 255 0 0
-0.188743 -0.300254 2.294000 255 0 0
-0.183028 -0.301182 2.301000 255 0 0
-0.176891 -0.301454 2.303000 255 0 0
-0.171408 -0.302905 2.314000 255 0 0
-0.165865 -0.304355 2.325000 255 0 0
-0.160604 -0.306459 2.341000 255 0 0
-0.155189 -0.308432 2.356000 255 0 0
-0.149439 -0.309882 2.367000 255 0 0
-0.143266 -0.310545 2.372000 255 0 0
-0.137007 -0.311077 2.376000 255 0 0
-0.130781 -0.311740 2.381000 255 0 0
-0.125049 -0.313712 2.396000 255 0 0
-0.047969 -0.324776 2.480000 255 0 0
-0.041096 -0.324124 2.475000 255 0 0
-0.034180 -0.322817 2.465000 255 0 0
-0.027253 -0.320723 2.449000 255 0 0
-0.020505 -0.320070 2.444000 255 0 0
-0.013796 -0.319678 2.441000 255 0 0
-0.007091 -0.318762 2.434000 255 0 0
-0.000424 -0.317584 2.425000 255 0 0
0.006183 -0.315881 2.412000 255 0 0
0.012719 -0.314178 2.399000 255 0 0
0.019231 -0.313260 2.392000 255 0 0
0.025792 -0.313390 2.393000 255 0 0
0.032358 -0.313519 2.394000 255 0 0
0.038897 -0.313386 2.393000 255 0 0
0.045449 -0.313383 2.393000 255 0 0
0.052262 -0.314952 2.405000 255 0 0
0.059018 -0.315865 2.412000 255 0 0
0.065758 -0.316516 2.417000 255 0 0
-0.229599 -0.310848 2.327000 255 0 0
-0.223434 -0.311128 2.329000 255 0 0
-0.216977 -0.311008 2.328000 255 0 0
-0.209712 -0.309685 2.318000 255 0 0
-0.202763 -0.308762 2.311000 255 0 0
-0.196447 -0.308774 2.311000 255 0 0
-0.190295 -0.309053 2.313000 255 0 0
-0.183972 -0.309064 2.313000 255 0 0
-0.177802 -0.309342 2.315000 255 0 0
-0.171694 -0.309754 2.318000 255 0 0
-0.166212 -0.311368 2.330000 255 0 0
-0.161006 -0.313650 2.347000 255 0 0
-0.155641 -0.315798 2.363000 255 0 0
-0.149746 -0.317010 2.372000 255 0 0
-0.143257 -0.317019 2.372000 255 0 0
-0.137114 -0.317830 2.378000 255 0 0
-0.131047 -0.318907 2.386000 255 0 0
-0.125250 -0.320786 2.400000 255 0 0
-0.118831 -0.321195 2.403000 255 0 0
-0.047483 -0.328204 2.455000 255 0 0
-0.040927 -0.329544 2.465000 255 0 0
-0.034234 -0.330081 2.469000 255 0 0
-0.027385 -0.329013 2.461000 255 0 0
-0.020638 -0.328881 2.460000 255 0 0
-0.013879 -0.328347 2.456000 255 0 0
-0.007143 -0.327813 2.452000 255 0 0
-0.000427 -0.326075 2.439000 255 0 0
0.006213 -0.324070 2.424000 255 0 0
0.012723 -0.320861 2.400000 255 0 0
0.019230 -0.319790 2.392000 255 0 0
0.025769 -0.319655 2.391000 255 0 0
0.032397 -0.320455 2.397000 255 0 0
0.038960 -0.320453 2.397000 255 0 0
0.045636 -0.321252 2.403000 255 0 0
0.052411 -0.322453 2.412000 255 0 0
0.059283 -0.323920 2.423000 255 0 0
0.066026 -0.324450 2.427000 255 0 0
0.072520 -0.323778 2.422000 255 0 0
-0.230078 -0.317877 2.332000 255 0 0
-0.224092 -0.318436 2.336000 255 0 0
-0.217337 -0.317904 2.332000 255 0 0
-0.210061 -0.316553 2.322000 255 0 0
-0.203453 -0.316157 2.319000 255 0 0
-0.197710 -0.317124 2.326000 255 0 0
-0.191599 -0.317545 2.329000 255 0 0
-0.184994 -0.317147 2.326000 255 0 0
-0.178098 -0.316204 2.319000 255 0 0
-0.171832 -0.316351 2.320000 255 0 0
-0.165916 -0.317180 2.326000 255 0 0
-0.160379 -0.318826 2.338000 255 0 0
-0.154973 -0.320882 2.353000 255 0 0
-0.149484 -0.322937 2.368000 255 0 0
-0.143369 -0.323764 2.374000 255 0 0
-0.137278 -0.324728 2.381000 255 0 0
-0.131039 -0.325418 2.386000 255 0 0
-0.125190 -0.327199 2.399000 255 0 0
-0.119516 -0.329662 2.417000 255 0 0
-0.047577 -0.335586 2.460000 255 0 0
-0.040991 -0.336817 2.469000 255 0 0
-0.034301 -0.337502 2.474000 255 0 0
-0.027539 -0.337640 2.475000 255 0 0
-0.020754 -0.337505 2.474000 255 0 0
-0.013952 -0.336824 2.469000 255 0 0
-0.007166 -0.335597 2.460000 255 0 0
-0.000428 -0.333960 2.448000 255 0 0
0.006233 -0.331777 2.432000 255 0 0
0.012786 -0.329048 2.412000 255 0 0
0.019309 -0.327683 2.402000 255 0 0
0.025832 -0.326999 2.397000 255 0 0
0.032449 -0.327543 2.401000 255 0 0
0.039103 -0.328223 2.406000 255 0 0
0.045842 -0.329312 2.414000 255 0 0
0.052647 -0.330536 2.423000 255 0 0
0.059524 -0.331897 2.433000 255 0 0
0.066457 -0.333257 2.443000 255 0 0
0.073144 -0.333252 2.443000 255 0 0
-0.229768 -0.323819 2.329000 255 0 0
-0.223215 -0.323555 2.327000 255 0 0
-0.216951 -0.323708 2.328000 255 0 0
-0.210591 -0.323721 2.328000 255 0 0
-0.204668 -0.324429 2.333000 255 0 0
-0.198973 -0.325554 2.341000 255 0 0
-0.192821 -0.325984 2.344000 255 0 0
-0.185778 -0.324883 2.336000 255 0 0
-0.178548 -0.323365 2.325000 255 0 0
-0.171895 -0.322819 2.321000 255 0 0
-0.165763 -0.323247 2.324000 255 0 0
-0.159889 -0.324231 2.331000 255 0 0
-0.153975 -0.325215 2.338000 255 0 0
-0.148780 -0.327867 2.357000 255 0 0
-0.142937 -0.329268 2.367000 255 0 0
-0.137270 -0.331224 2.381000 255 0 0
-0.131525 -0.333180 2.395000 255 0 0
-0.125860 -0.335554 2.412000 255 0 0
-0.120101 -0.337926 2.429000 255 0 0
-0.048076 -0.345917 2.486000 255 0 0
-0.041155 -0.344946 2.479000 255 0 0
-0.034368 -0.344949 2.479000 255 0 0
-0.027615 -0.345368 2.482000 255 0 0
-0.020803 -0.345091 2.480000 255 0 0
-0.013991 -0.344536 2.476000 255 0 0
-0.007186 -0.343284 2.467000 255 0 0
-0.000429 -0.341476 2.454000 255 0 0
0.006253 -0.339527 2.440000 255 0 0
0.012865 -0.337718 2.427000 255 0 0
0.019429 -0.336325 2.417000 255 0 0
0.025916 -0.334654 2.405000 255 0 0
0.032501 -0.334652 2.405000 255 0 0
0.039101 -0.334789 2.406000 255 0 0
0.045763 -0.335343 2.410000 255 0 0
0.052513 -0.336313 2.417000 255 0 0
0.059472 -0.338258 2.431000 255 0 0
0.066452 -0.339923 2.443000 255 0 0
-0.228965 -0.329036 2.321000 255 0 0
-0.222338 -0.328625 2.318000 255 0 0
-0.216285 -0.329064 2.321000 255 0 0
-0.211663 -0.331771 2.340000 255 0 0
-0.205971 -0.332918 2.348000 255 0 0
-0.199895 -0.333498 2.352000 255 0 0
-0.192974 -0.332660 2.346000 255 0 0
-0.185926 -0.331538 2.338000 255 0 0
-0.178767 -0.330131 2.328000 255 0 0
-0.172329 -0.330001 2.327000 255 0 0
-0.165824 -0.329728 2.325000 255 0 0
-0.159741 -0.330306 2.329000 255 0 0
-0.153833 -0.331308 2.336000 255 0 0
-0.148581 -0.333871 2.354000 255 0 0
-0.143170 -0.336292 2.371000 255 0 0
-0.137664 -0.338712 2.388000 255 0 0
-0.131956 -0.340848 2.403000 255 0 0
-0.126530 -0.343977 2.425000 255 0 0
-0.120440 -0.345546 2.436000 255 0 0
-0.048092 -0.352842 2.487000 255 0 0
-0.041251 -0.352561 2.485000 255 0 0
-0.034477 -0.352847 2.487000 255 0 0
-0.027735 -0.353701 2.493000 255 0 0
-0.020852 -0.352709 2.486000 255 0 0
-0.013990 -0.351292 2.476000 255 0 0
-0.007177 -0.349590 2.464000 255 0 0
-0.000430 -0.348597 2.457000 255 0 0
0.006279 -0.347603 2.450000 255 0 0
0.012964 -0.347035 2.446000 255 0 0
0.019580 -0.345615 2.436000 255 0 0
0.026109 -0.343769 2.423000 255 0 0
0.032620 -0.342491 2.414000 255 0 0
0.039196 -0.342205 2.412000 255 0 0
0.045741 -0.341776 2.409000 255 0 0
0.052444 -0.342482 2.414000 255 0 0
0.059345 -0.344181 2.426000 255 0 0
0.066366 -0.346163 2.440000 255 0 0
-0.229345 -0.335942 2.325000 255 0 0
-0.223475 -0.336679 2.330000 255 0 0
-0.217669 -0.337560 2.336000 255 0 0
-0.212645 -0.339741 2.351000 255 0 0
-0.206309 -0.339899 2.352000 255 0 0
-0.199712 -0.339623 2.350000 255 0 0
-0.192715 -0.338624 2.343000 255 0 0
-0.185993 -0.338058 2.339000 255 0 0
-0.179370 -0.337636 2.336000 255 0 0
-0.172984 -0.337647 2.336000 255 0 0
-0.166384 -0.337225 2.333000 255 0 0
-0.160417 -0.338103 2.339000 255 0 0
-0.154548 -0.339269 2.347000 255 0 0
-0.149203 -0.341737 2.364000 255 0 0
-0.143523 -0.343626 2.377000 255 0 0
-0.137944 -0.345948 2.393000 255 0 0
-0.132661 -0.349282 2.416000 255 0 0
-0.127461 -0.353194 2.443000 255 0 0
-0.055007 -0.360346 2.492000 255 0 0
-0.048128 -0.359915 2.489000 255 0 0
-0.041282 -0.359629 2.487000 255 0 0
-0.034502 -0.359921 2.489000 255 0 0
-0.027689 -0.359923 2.489000 255 0 0
-0.020825 -0.359057 2.483000 255 0 0
-0.013966 -0.357468 2.472000 255 0 0
-0.007182 -0.356601 2.466000 255 0 0
-0.000431 -0.356022 2.462000 255 0 0
0.006299 -0.355444 2.458000 255 0 0
0.013011 -0.355009 2.455000 255 0 0
0.019635 -0.353273 2.443000 255 0 0
0.026172 -0.351247 2.429000 255 0 0
0.032685 -0.349799 2.419000 255 0 0
0.039274 -0.349507 2.417000 255 0 0
0.045852 -0.349215 2.415000 255 0 0
0.052441 -0.349067 2.414000 255 0 0
0.059121 -0.349497 2.417000 255 0 0
-0.230613 -0.344194 2.338000 255 0 0
-0.225379 -0.345975 2.350000 255 0 0
-0.219053 -0.346136 2.351000 255 0 0
-0.213174 -0.347034 2.357000 255 0 0
-0.206384 -0.346458 2.353000 255 0 0
-0.199700 -0.346030 2.350000 255 0 0
-0.192867 -0.345306 2.345000 255 0 0
-0.186220 -0.344877 2.342000 255 0 0
-0.179895 -0.345036 2.343000 255 0 0
-0.173565 -0.345195 2.344000 255 0 0
-0.167229 -0.345353 2.345000 255 0 0
-0.161161 -0.346100 2.350000 255 0 0
-0.155591 -0.348026 2.363000 255 0 0
-0.150013 -0.350098 2.377000 255 0 0
-0.144238 -0.351875 2.389000 255 0 0
-0.138050 -0.352768 2.395000 255 0 0
-0.132597 -0.355723 2.415000 255 0 0
-0.127453 -0.359856 2.443000 255 0 0
-0.121907 -0.363252 2.466000 255 0 0
-0.112405 -0.354569 2.407000 255 0 0
-0.054760 -0.365522 2.481000 255 0 0
-0.048086 -0.366409 2.487000 255 0 0
-0.041279 -0.366412 2.487000 255 0 0
-0.034458 -0.366267 2.486000 255 0 0
-0.027676 -0.366564 2.488000 255 0 0
-0.020824 -0.365829 2.483000 255 0 0
-0.013982 -0.364652 2.475000 255 0 0
-0.007187 -0.363621 2.468000 255 0 0
-0.000431 -0.363327 2.466000 255 0 0
0.006311 -0.362884 2.463000 255 0 0
0.013026 -0.362147 2.458000 255 0 0
0.019650 -0.360231 2.445000 255 0 0
0.026213 -0.358461 2.433000 255 0 0
0.032778 -0.357428 2.426000 255 0 0
0.039434 -0.357573 2.427000 255 0 0
0.046039 -0.357275 2.425000 255 0 0
0.052633 -0.356977 2.423000 255 0 0
0.059142 -0.356237 2.418000 255 0 0
0.065079 -0.352549 2.393000 255 0 0
-0.232768 -0.353864 2.360000 255 0 0
-0.225844 -0.353129 2.355000 255 0 0
-0.219598 -0.353444 2.357000 255 0 0
-0.213250 -0.353608 2.358000 255 0 0
-0.206721 -0.353472 2.357000 255 0 0
-0.199941 -0.352885 2.353000 255 0 0
-0.193265 -0.352448 2.350000 255 0 0
-0.186764 -0.352311 2.349000 255 0 0
-0.180651 -0.352923 2.353000 255 0 0
-0.174368 -0.353235 2.355000 255 0 0
-0.168216 -0.353846 2.359000 255 0 0
-0.162247 -0.354907 2.366000 255 0 0
-0.156371 -0.356268 2.375000 255 0 0
-0.150382 -0.357478 2.383000 255 0 0
-0.144288 -0.358538 2.390000 255 0 0
-0.138271 -0.359898 2.399000 255 0 0
-0.132589 -0.362307 2.415000 255 0 0
-0.127131 -0.365617 2.437000 255 0 0
-0.121503 -0.368776 2.458000 255 0 0
-0.054315 -0.369286 2.461000 255 0 0
-0.048160 -0.373791 2.491000 255 0 0
-0.041309 -0.373494 2.489000 255 0 0
-0.034442 -0.372896 2.485000 255 0 0
-0.027607 -0.372448 2.482000 255 0 0
-0.020814 -0.372450 2.482000 255 0 0
-0.014004 -0.372001 2.479000 255 0 0
-0.007201 -0.371101 2.473000 255 0 0
-0.000431 -0.369901 2.465000 255 0 0
0.006303 -0.369151 2.460000 255 0 0
0.013009 -0.368400 2.455000 255 0 0
0.019657 -0.367048 2.446000 255 0 0
0.026276 -0.365996 2.439000 255 0 0
0.032884 -0.365244 2.434000 255 0 0
0.039464 -0.364491 2.429000 255 0 0
0.046036 -0.363888 2.425000 255 0 0
0.052586 -0.363284 2.421000 255 0 0
0.059309 -0.363881 2.425000 255 0 0
0.065836 -0.363276 2.421000 255 0 0
-0.227363 -0.361990 2.371000 255 0 0
-0.220608 -0.361546 2.368000 255 0 0
-0.214412 -0.362019 2.371000 255 0 0
-0.207672 -0.361575 2.368000 255 0 0
-0.200693 -0.360672 2.362000 255 0 0
-0.193664 -0.359616 2.355000 255 0 0
-0.187229 -0.359629 2.355000 255 0 0
-0.181100 -0.360252 2.359000 255 0 0
-0.175097 -0.361181 2.365000 255 0 0
-0.168846 -0.361650 2.368000 255 0 0
-0.162716 -0.362425 2.373000 255 0 0
-0.156360 -0.362741 2.375000 255 0 0
-0.150056 -0.363210 2.378000 255 0 0
-0.144158 -0.364747 2.388000 255 0 0
-0.138377 -0.366743 2.401000 255 0 0
-0.132525 -0.368738 2.414000 255 0 0
-0.126392 -0.370121 2.423000 255 0 0
-0.121198 -0.374560 2.452000 255 0 0
-0.115565 -0.378081 2.475000 255 0 0
-0.054819 -0.379509 2.484000 255 0 0
-0.047963 -0.379055 2.481000 255 0 0
-0.041240 -0.379669 2.485000 255 0 0
-0.034467 -0.379977 2.487000 255 0 0
-0.027694 -0.380438 2.490000 255 0 0
-0.020855 -0.379981 2.487000 255 0 0
-0.014020 -0.379218 2.482000 255 0 0
-0.007201 -0.377844 2.473000 255 0 0
-0.000431 -0.376469 2.464000 255 0 0
0.006300 -0.375705 2.459000 255 0 0
0.013009 -0.375093 2.455000 255 0 0
0.019703 -0.374634 2.452000 255 0 0
0.026414 -0.374632 2.452000 255 0 0
0.033030 -0.373560 2.445000 255 0 0
0.039542 -0.371877 2.434000 255 0 0
0.045995 -0.370194 2.423000 255 0 0
0.052625 -0.370190 2.423000 255 0 0
0.059427 -0.371256 2.430000 255 0 0
0.066213 -0.372015 2.435000 255 0 0
-0.228307 -0.370004 2.381000 255 0 0
-0.221618 -0.369708 2.379000 255 0 0
-0.215031 -0.369567 2.378000 255 0 0
-0.207921 -0.368493 2.371000 255 0 0
-0.200764 -0.367264 2.363000 255 0 0
-0.193897 -0.366500 2.358000 255 0 0
-0.188090 -0.367756 2.366000 255 0 0
-0.181855 -0.368235 2.369000 255 0 0
-0.175603 -0.368713 2.372000 255 0 0
-0.168978 -0.368414 2.370000 255 0 0
-0.162842 -0.369203 2.375000 255 0 0
-0.156613 -0.369836 2.379000 255 0 0
-0.150425 -0.370624 2.384000 255 0 0
-0.144510 -0.372188 2.394000 255 0 0
-0.138656 -0.374064 2.406000 255 0 0
-0.132515 -0.375317 2.414000 255 0 0
-0.126592 -0.377347 2.427000 255 0 0
-0.121190 -0.381243 2.452000 255 0 0
-0.115791 -0.385605 2.480000 255 0 0
-0.062059 -0.389075 2.502000 255 0 0
-0.054992 -0.387525 2.492000 255 0 0
-0.048076 -0.386751 2.487000 255 0 0
-0.041337 -0.387376 2.491000 255 0 0
-0.034548 -0.387690 2.493000 255 0 0
-0.027748 -0.388003 2.495000 255 0 0
-0.020845 -0.386605 2.486000 255 0 0
-0.014008 -0.385673 2.480000 255 0 0
-0.007203 -0.384741 2.474000 255 0 0
-0.000431 -0.383652 2.467000 255 0 0
0.006299 -0.382408 2.459000 255 0 0
0.013002 -0.381630 2.454000 255 0 0
0.019726 -0.381784 2.455000 255 0 0
0.026466 -0.382094 2.457000 255 0 0
0.033095 -0.381003 2.450000 255 0 0
0.039556 -0.378668 2.435000 255 0 0
0.046067 -0.377420 2.427000 255 0 0
0.052643 -0.376951 2.424000 255 0 0
0.059521 -0.378502 2.434000 255 0 0
0.066072 -0.377875 2.430000 255 0 0
-0.221790 -0.376505 2.381000 255 0 0
-0.215197 -0.376361 2.380000 255 0 0
-0.207644 -0.374478 2.368000 255 0 0
-0.200921 -0.374018 2.365000 255 0 0
-0.194295 -0.373715 2.363000 255 0 0
-0.188714 -0.375468 2.374000 255 0 0
-0.182380 -0.375797 2.376000 255 0 0
-0.176109 -0.376283 2.379000 255 0 0
-0.169536 -0.376137 2.378000 255 0 0
-0.163448 -0.377098 2.384000 255 0 0
-0.157129 -0.377583 2.387000 255 0 0
-0.150919 -0.378385 2.392000 255 0 0
-0.145043 -0.380135 2.403000 255 0 0
-0.138819 -0.381095 2.409000 255 0 0
-0.132890 -0.383002 2.421000 255 0 0
-0.126740 -0.384435 2.430000 255 0 0
-0.121676 -0.389507 2.462000 255 0 0
-0.115642 -0.391888 2.477000 255 0 0
-0.061905 -0.394945 2.496000 255 0 0
-0.055054 -0.394791 2.495000 255 0 0
-0.048111 -0.393845 2.489000 255 0 0
-0.041351 -0.394323 2.492000 255 0 0
-0.034573 -0.394800 2.495000 255 0 0
-0.027768 -0.395119 2.497000 255 0 0
-0.020852 -0.393538 2.487000 255 0 0
-0.014001 -0.392274 2.479000 255 0 0
-0.007211 -0.391958 2.477000 255 0 0
-0.000433 -0.391800 2.476000 255 0 0
0.006322 -0.390534 2.468000 255 0 0
0.013023 -0.388951 2.458000 255 0 0
0.019717 -0.388317 2.454000 255 0 0
0.026399 -0.387840 2.451000 255 0 0
0.033039 -0.387047 2.446000 255 0 0
0.039634 -0.386095 2.440000 255 0 0
0.046197 -0.385143 2.434000 255 0 0
0.052879 -0.385297 2.435000 255 0 0
0.059565 -0.385451 2.436000 255 0 0
0.066611 -0.387662 2.450000 255 0 0
-0.221216 -0.382025 2.375000 255 0 0
-0.215092 -0.382683 2.379000 255 0 0
-0.208156 -0.381893 2.374000 255 0 0
-0.201672 -0.381907 2.374000 255 0 0
-0.195351 -0.382243 2.376000 255 0 0
-0.189416 -0.383382 2.383000 255 0 0
-0.183442 -0.384521 2.390000 255 0 0
-0.176911 -0.384534 2.390000 255 0 0
-0.170523 -0.384868 2.392000 255 0 0
-0.164054 -0.385040 2.393000 255 0 0
-0.157974 -0.386178 2.400000 255 0 0
-0.151476 -0.386350 2.401000 255 0 0
-0.145516 -0.387969 2.411000 255 0 0
-0.139155 -0.388623 2.415000 255 0 0
-0.133320 -0.390886 2.429000 255 0 0
-0.127409 -0.393148 2.443000 255 0 0
-0.122112 -0.397663 2.471000 255 0 0
-0.116054 -0.400085 2.486000 255 0 0
-0.061802 -0.401102 2.492000 255 0 0
-0.055160 -0.402394 2.500000 255 0 0
-0.048262 -0.401915 2.497000 255 0 0
-0.041480 -0.402401 2.500000 255 0 0
-0.034612 -0.402082 2.498000 255 0 0
-0.027788 -0.402245 2.499000 255 0 0
-0.020867 -0.400637 2.489000 255 0 0
-0.014011 -0.399351 2.481000 255 0 0
-0.007217 -0.399029 2.479000 255 0 0
-0.000433 -0.398225 2.474000 255 0 0
0.006316 -0.396937 2.466000 255 0 0
0.013016 -0.395488 2.457000 255 0 0
0.019707 -0.394843 2.453000 255 0 0
0.026365 -0.394036 2.448000 255 0 0
0.033050 -0.393873 2.447000 255 0 0
0.039664 -0.393066 2.442000 255 0 0
0.046308 -0.392741 2.440000 255 0 0
0.052896 -0.392093 2.436000 255 0 0
0.059659 -0.392733 2.440000 255 0 0
0.066470 -0.393533 2.445000 255 0 0
-0.221946 -0.389801 2.383000 255 0 0
-0.215439 -0.389816 2.383000 255 0 0
-0.208931 -0.389831 2.383000 255 0 0
-0.202677 -0.390336 2.386000 255 0 0
-0.196406 -0.390840 2.389000 255 0 0
-0.189959 -0.391017 2.390000 255 0 0
-0.184043 -0.392339 2.398000 255 0 0
-0.177787 -0.393007 2.402000 255 0 0
-0.171722 -0.394164 2.409000 255 0 0
-0.165276 -0.394503 2.411000 255 0 0
-0.159081 -0.395497 2.417000 255 0 0
-0.152475 -0.395508 2.417000 255 0 0
-0.146169 -0.396337 2.422000 255 0 0
-0.139836 -0.397165 2.427000 255 0 0
-0.133860 -0.399139 2.439000 255 0 0
-0.127869 -0.401276 2.452000 255 0 0
-0.122152 -0.404558 2.472000 255 0 0
-0.115766 -0.405875 2.480000 255 0 0
-0.062070 -0.409691 2.503000 255 0 0
-0.055201 -0.409532 2.502000 255 0 0
-0.048278 -0.408881 2.498000 255 0 0
-0.041428 -0.408721 2.497000 255 0 0
-0.034582 -0.408560 2.496000 255 0 0
-0.027731 -0.408235 2.494000 255 0 0
-0.020857 -0.407254 2.488000 255 0 0
-0.014010 -0.406110 2.481000 255 0 0
-0.007213 -0.405620 2.478000 255 0 0
-0.000432 -0.404638 2.472000 255 0 0
0.006311 -0.403328 2.464000 255 0 0
0.013026 -0.402509 2.459000 255 0 0
0.019738 -0.402180 2.457000 255 0 0
0.026471 -0.402342 2.458000 255 0 0
0.033156 -0.401849 2.455000 255 0 0
