ply
format ascii 1.0
element vertex 1298
property double x
property double y
property double z
property uchar red
property uchar green
property uchar blue
end_header
-0.048408 -0.382569 2.504000 255 0 0
-0.041539 -0.382419 2.503000 255 0 0
-0.034703 -0.382575 2.504000 255 0 0
-0.027828 -0.382271 2.502000 255 0 0
-0.020947 -0.381662 2.498000 255 0 0
-0.014059 -0.380288 2.489000 255 0 0
-0.007239 -0.379830 2.486000 255 0 0
-0.000435 -0.379678 2.485000 255 0 0
0.006354 -0.378913 2.480000 255 0 0
0.013141 -0.378913 2.480000 255 0 0
0.019888 -0.378148 2.475000 255 0 0
0.026619 -0.377535 2.471000 255 0 0
0.033260 -0.376158 2.462000 255 0 0
0.039819 -0.374475 2.451000 255 0 0
0.046488 -0.374166 2.449000 255 0 0
0.053190 -0.374163 2.449000 255 0 0
0.059990 -0.374770 2.453000 255 0 0
0.066457 -0.373390 2.444000 255 0 0
-0.230075 -0.362529 2.333000 255 0 0
-0.224567 -0.363943 2.342000 255 0 0
-0.218079 -0.363802 2.341000 255 0 0
-0.211052 -0.362729 2.334000 255 0 0
-0.204589 -0.362587 2.333000 255 0 0
-0.197961 -0.362135 2.330000 255 0 0
-0.191431 -0.361837 2.328000 255 0 0
-0.184831 -0.361383 2.325000 255 0 0
-0.178785 -0.362017 2.329000 255 0 0
-0.172938 -0.363117 2.336000 255 0 0
-0.167266 -0.364684 2.346000 255 0 0
-0.161539 -0.366249 2.356000 255 0 0
-0.155823 -0.367970 2.367000 255 0 0
-0.149541 -0.368447 2.370000 255 0 0
-0.143363 -0.369235 2.375000 255 0 0
-0.136984 -0.369555 2.377000 255 0 0
-0.131582 -0.372674 2.397000 255 0 0
-0.126227 -0.376259 2.420000 255 0 0
-0.062579 -0.392341 2.523000 255 0 0
-0.055279 -0.389546 2.505000 255 0 0
-0.048463 -0.389861 2.507000 255 0 0
-0.041569 -0.389553 2.505000 255 0 0
-0.034700 -0.389400 2.504000 255 0 0
-0.027804 -0.388780 2.500000 255 0 0
-0.020962 -0.388782 2.500000 255 0 0
-0.014104 -0.388317 2.497000 255 0 0
-0.007270 -0.388318 2.497000 255 0 0
-0.000435 -0.387229 2.490000 255 0 0
0.006348 -0.385363 2.478000 255 0 0
0.013092 -0.384273 2.471000 255 0 0
0.019806 -0.383339 2.465000 255 0 0
0.026541 -0.383182 2.464000 255 0 0
0.033217 -0.382402 2.459000 255 0 0
0.039897 -0.381933 2.456000 255 0 0
0.046637 -0.382086 2.457000 255 0 0
0.053295 -0.381616 2.454000 255 0 0
0.059936 -0.381145 2.451000 255 0 0
0.066752 -0.381763 2.455000 255 0 0
-0.231440 -0.371098 2.347000 255 0 0
-0.224840 -0.370797 2.345000 255 0 0
-0.218343 -0.370654 2.344000 255 0 0
-0.211399 -0.369720 2.338000 255 0 0
-0.204663 -0.369101 2.334000 255 0 0
-0.198032 -0.368641 2.331000 255 0 0
-0.191993 -0.369286 2.335000 255 0 0
-0.185613 -0.369299 2.335000 255 0 0
-0.179463 -0.369786 2.338000 255 0 0
-0.173444 -0.370589 2.343000 255 0 0
-0.167825 -0.372341 2.354000 255 0 0
-0.161940 -0.373618 2.362000 255 0 0
-0.155615 -0.373945 2.364000 255 0 0
-0.149468 -0.374747 2.369000 255 0 0
-0.143595 -0.376339 2.379000 255 0 0
-0.137724 -0.378089 2.390000 255 0 0
-0.131957 -0.380313 2.404000 255 0 0
-0.126166 -0.382695 2.419000 255 0 0
-0.120687 -0.386343 2.442000 255 0 0
-0.062327 -0.397635 2.513000 255 0 0
-0.055539 -0.398272 2.517000 255 0 0
-0.048633 -0.398117 2.516000 255 0 0
-0.041716 -0.397804 2.514000 255 0 0
-0.034740 -0.396699 2.507000 255 0 0
-0.027790 -0.395435 2.499000 255 0 0
-0.020935 -0.395121 2.497000 255 0 0
-0.014108 -0.395280 2.498000 255 0 0
-0.007267 -0.394965 2.496000 255 0 0
-0.000435 -0.393224 2.485000 255 0 0
0.006327 -0.390850 2.470000 255 0 0
0.013049 -0.389742 2.463000 255 0 0
0.019749 -0.388950 2.458000 255 0 0
0.026432 -0.388315 2.454000 255 0 0
0.033147 -0.388313 2.454000 255 0 0
0.039894 -0.388627 2.456000 255 0 0
0.046766 -0.389890 2.464000 255 0 0
0.053443 -0.389411 2.461000 255 0 0
0.060519 -0.391623 2.475000 255 0 0
-0.236355 -0.385532 2.397000 255 0 0
-0.225400 -0.378149 2.351000 255 0 0
-0.218981 -0.378164 2.351000 255 0 0
-0.212470 -0.378018 2.350000 255 0 0
-0.206139 -0.378193 2.351000 255 0 0
-0.198953 -0.376759 2.342000 255 0 0
-0.192555 -0.376773 2.342000 255 0 0
-0.186237 -0.376947 2.343000 255 0 0
-0.180295 -0.377925 2.349000 255 0 0
-0.174395 -0.379064 2.356000 255 0 0
-0.168384 -0.380041 2.362000 255 0 0
-0.162203 -0.380696 2.366000 255 0 0
-0.155670 -0.380546 2.365000 255 0 0
-0.149773 -0.382005 2.374000 255 0 0
-0.144128 -0.384268 2.388000 255 0 0
-0.138521 -0.386853 2.404000 255 0 0
-0.132607 -0.388794 2.416000 255 0 0
-0.126887 -0.391539 2.433000 255 0 0
-0.120876 -0.393640 2.446000 255 0 0
-0.062372 -0.404804 2.515000 255 0 0
-0.055668 -0.406096 2.523000 255 0 0
-0.048862 -0.406904 2.528000 255 0 0
-0.041912 -0.406586 2.526000 255 0 0
-0.034848 -0.404818 2.515000 255 0 0
-0.027866 -0.403372 2.506000 255 0 0
-0.020976 -0.402730 2.502000 255 0 0
-0.014147 -0.403214 2.505000 255 0 0
-0.007278 -0.402410 2.500000 255 0 0
-0.000435 -0.400800 2.490000 255 0 0
0.006347 -0.398869 2.478000 255 0 0
0.013085 -0.397580 2.470000 255 0 0
0.019780 -0.396291 2.462000 255 0 0
0.026462 -0.395485 2.457000 255 0 0
0.033158 -0.395161 2.455000 255 0 0
0.039973 -0.396124 2.461000 255 0 0
0.046706 -0.396121 2.461000 255 0 0
0.053591 -0.397244 2.468000 255 0 0
0.060539 -0.398527 2.476000 255 0 0
-0.225768 -0.385205 2.355000 255 0 0
-0.219338 -0.385221 2.355000 255 0 0
-0.212636 -0.384745 2.352000 255 0 0
-0.206388 -0.385087 2.354000 255 0 0
-0.199364 -0.383956 2.347000 255 0 0
-0.193200 -0.384460 2.350000 255 0 0
-0.187018 -0.384964 2.353000 255 0 0
-0.181050 -0.385959 2.359000 255 0 0
-0.175197 -0.387280 2.367000 255 0 0
-0.169085 -0.388110 2.372000 255 0 0
-0.162740 -0.388449 2.374000 255 0 0
-0.155856 -0.387479 2.368000 255 0 0
-0.149951 -0.388962 2.377000 255 0 0
-0.144118 -0.390773 2.388000 255 0 0
-0.138799 -0.394219 2.409000 255 0 0
-0.133146 -0.397011 2.426000 255 0 0
-0.127556 -0.400294 2.446000 255 0 0
-0.121510 -0.402430 2.459000 255 0 0
-0.062516 -0.412638 2.521000 255 0 0
-0.055664 -0.412969 2.523000 255 0 0
-0.048839 -0.413628 2.527000 255 0 0
-0.041958 -0.413959 2.529000 255 0 0
-0.034928 -0.412652 2.521000 255 0 0
-0.027942 -0.411345 2.513000 255 0 0
-0.020999 -0.410037 2.505000 255 0 0
-0.014123 -0.409384 2.501000 255 0 0
-0.007266 -0.408566 2.496000 255 0 0
-0.000436 -0.407748 2.491000 255 0 0
0.006367 -0.406929 2.486000 255 0 0
0.013158 -0.406601 2.484000 255 0 0
0.019858 -0.404636 2.472000 255 0 0
0.026546 -0.403488 2.465000 255 0 0
0.033237 -0.402831 2.461000 255 0 0
0.040067 -0.403810 2.467000 255 0 0
0.046930 -0.404789 2.473000 255 0 0
0.053826 -0.405768 2.479000 255 0 0
0.061146 -0.409365 2.501000 255 0 0
-0.224315 -0.389123 2.340000 255 0 0
-0.219230 -0.391466 2.354000 255 0 0
-0.212983 -0.391814 2.356000 255 0 0
-0.206812 -0.392328 2.359000 255 0 0
-0.200030 -0.391677 2.355000 255 0 0
-0.193762 -0.392023 2.357000 255 0 0
-0.187561 -0.392536 2.360000 255 0 0
-0.181575 -0.393547 2.366000 255 0 0
-0.175776 -0.395056 2.375000 255 0 0
-0.169643 -0.395900 2.380000 255 0 0
-0.163276 -0.396245 2.382000 255 0 0
-0.156503 -0.395591 2.378000 255 0 0
-0.150193 -0.396101 2.381000 255 0 0
-0.144047 -0.397110 2.387000 255 0 0
-0.138559 -0.400115 2.405000 255 0 0
-0.133356 -0.404284 2.430000 255 0 0
-0.128068 -0.408619 2.456000 255 0 0
-0.122193 -0.411456 2.473000 255 0 0
-0.083760 -0.422317 2.538000 255 0 0
-0.069683 -0.421163 2.531000 255 0 0
-0.062487 -0.419338 2.520000 255 0 0
-0.055660 -0.419841 2.523000 255 0 0
-0.048777 -0.420012 2.524000 255 0 0
-0.041889 -0.420181 2.525000 255 0 0
-0.034912 -0.419352 2.520000 255 0 0
-0.027962 -0.418522 2.515000 255 0 0
-0.021023 -0.417359 2.508000 255 0 0
-0.014122 -0.416196 2.501000 255 0 0
-0.007262 -0.415198 2.495000 255 0 0
-0.000436 -0.414866 2.493000 255 0 0
0.006387 -0.415032 2.494000 255 0 0
0.013200 -0.414698 2.492000 255 0 0
0.019929 -0.412867 2.481000 255 0 0
0.026663 -0.412033 2.476000 255 0 0
0.033356 -0.411032 2.470000 255 0 0
0.040210 -0.412028 2.476000 255 0 0
0.047022 -0.412357 2.478000 255 0 0
0.054105 -0.414683 2.492000 255 0 0
-0.224395 -0.395662 2.341000 255 0 0
-0.219773 -0.398889 2.360000 255 0 0
-0.213420 -0.399073 2.361000 255 0 0
-0.206885 -0.398919 2.360000 255 0 0
-0.200185 -0.398426 2.357000 255 0 0
-0.193995 -0.398947 2.360000 255 0 0
-0.188025 -0.399975 2.366000 255 0 0
-0.181945 -0.400833 2.371000 255 0 0
-0.175764 -0.401523 2.375000 255 0 0
-0.169702 -0.402549 2.381000 255 0 0
-0.163539 -0.403407 2.386000 255 0 0
-0.156953 -0.403249 2.385000 255 0 0
-0.150498 -0.403430 2.386000 255 0 0
-0.144338 -0.404455 2.392000 255 0 0
-0.138606 -0.406832 2.406000 255 0 0
-0.133182 -0.410393 2.427000 255 0 0
-0.127642 -0.413954 2.448000 255 0 0
-0.121838 -0.417007 2.466000 255 0 0
-0.076661 -0.428389 2.533000 255 0 0
-0.069375 -0.426196 2.520000 255 0 0
-0.062606 -0.427046 2.525000 255 0 0
-0.055678 -0.426881 2.524000 255 0 0
-0.048716 -0.426378 2.521000 255 0 0
-0.041753 -0.425705 2.517000 255 0 0
-0.034868 -0.425708 2.517000 255 0 0
-0.027982 -0.425710 2.517000 255 0 0
-0.021030 -0.424359 2.509000 255 0 0
-0.014115 -0.422838 2.500000 255 0 0
-0.007253 -0.421485 2.492000 255 0 0
-0.000436 -0.421993 2.495000 255 0 0
0.006387 -0.421824 2.494000 255 0 0
0.013204 -0.421654 2.493000 255 0 0
0.019912 -0.419285 2.479000 255 0 0
0.026639 -0.418437 2.474000 255 0 0
0.033380 -0.418097 2.472000 255 0 0
0.040256 -0.419278 2.479000 255 0 0
0.047170 -0.420459 2.486000 255 0 0
0.054318 -0.423161 2.502000 255 0 0
-0.219944 -0.405655 2.362000 255 0 0
-0.213676 -0.406014 2.364000 255 0 0
-0.206783 -0.405170 2.359000 255 0 0
-0.200511 -0.405528 2.361000 255 0 0
-0.194309 -0.406058 2.364000 255 0 0
-0.188727 -0.407961 2.375000 255 0 0
-0.182700 -0.409005 2.381000 255 0 0
-0.176269 -0.409190 2.382000 255 0 0
-0.170117 -0.410061 2.387000 255 0 0
-0.163801 -0.410589 2.390000 255 0 0
-0.157402 -0.410944 2.392000 255 0 0
-0.150865 -0.410956 2.392000 255 0 0
-0.144629 -0.411826 2.397000 255 0 0
-0.138827 -0.414069 2.410000 255 0 0
-0.133117 -0.416829 2.426000 255 0 0
-0.127476 -0.420103 2.445000 255 0 0
-0.121879 -0.423892 2.467000 255 0 0
-0.085167 -0.443528 2.581000 255 0 0
-0.069453 -0.433572 2.523000 255 0 0
-0.062750 -0.434952 2.531000 255 0 0
-0.055850 -0.435128 2.532000 255 0 0
-0.048809 -0.434101 2.526000 255 0 0
-0.041850 -0.433589 2.523000 255 0 0
-0.034893 -0.432904 2.519000 255 0 0
-0.027958 -0.432219 2.515000 255 0 0
-0.021045 -0.431534 2.511000 255 0 0
-0.014148 -0.430676 2.506000 255 0 0
-0.007281 -0.429989 2.502000 255 0 0
-0.000437 -0.429474 2.499000 255 0 0
0.006386 -0.428614 2.494000 255 0 0
0.013187 -0.427926 2.490000 255 0 0
0.019926 -0.426378 2.481000 255 0 0
0.026681 -0.425861 2.478000 255 0 0
0.033445 -0.425687 2.477000 255 0 0
0.040302 -0.426543 2.482000 255 0 0
0.047148 -0.427055 2.485000 255 0 0
0.054227 -0.429286 2.498000 255 0 0
-0.220487 -0.413129 2.368000 255 0 0
-0.214113 -0.413319 2.369000 255 0 0
-0.207119 -0.412288 2.363000 255 0 0
-0.201006 -0.413000 2.367000 255 0 0
-0.195117 -0.414236 2.374000 255 0 0
-0.189269 -0.415646 2.382000 255 0 0
-0.183147 -0.416532 2.387000 255 0 0
-0.176922 -0.417243 2.391000 255 0 0
-0.170960 -0.418652 2.399000 255 0 0
-0.164680 -0.419362 2.403000 255 0 0
-0.158180 -0.419549 2.404000 255 0 0
-0.151548 -0.419386 2.403000 255 0 0
-0.145222 -0.420095 2.407000 255 0 0
-0.139162 -0.421676 2.416000 255 0 0
-0.133381 -0.424304 2.431000 255 0 0
-0.127831 -0.427980 2.452000 255 0 0
-0.121919 -0.430782 2.468000 255 0 0
-0.116339 -0.435154 2.493000 255 0 0
-0.069970 -0.443757 2.542000 255 0 0
-0.063018 -0.443762 2.542000 255 0 0
-0.055956 -0.442894 2.537000 255 0 0
-0.048882 -0.441676 2.530000 255 0 0
-0.041830 -0.440282 2.522000 255 0 0
-0.034876 -0.439587 2.518000 255 0 0
-0.027934 -0.438717 2.513000 255 0 0
-0.021035 -0.438195 2.510000 255 0 0
-0.014187 -0.438720 2.513000 255 0 0
-0.007295 -0.437673 2.507000 255 0 0
-0.000437 -0.436800 2.502000 255 0 0
0.006383 -0.435229 2.493000 255 0 0
0.013192 -0.434879 2.491000 255 0 0
0.019949 -0.433656 2.484000 255 0 0
0.026722 -0.433305 2.482000 255 0 0
0.033524 -0.433477 2.483000 255 0 0
0.040412 -0.434522 2.489000 255 0 0
0.047372 -0.435915 2.497000 255 0 0
-0.219912 -0.418509 2.362000 255 0 0
-0.213736 -0.419056 2.365000 255 0 0
-0.207367 -0.419249 2.366000 255 0 0
-0.201756 -0.421035 2.376000 255 0 0
-0.195925 -0.422468 2.384000 255 0 0
-0.190288 -0.424431 2.395000 255 0 0
-0.183824 -0.424622 2.396000 255 0 0
-0.177501 -0.425167 2.399000 255 0 0
-0.171446 -0.426421 2.406000 255 0 0
-0.165010 -0.426788 2.408000 255 0 0
-0.158497 -0.426977 2.409000 255 0 0
-0.152104 -0.427520 2.412000 255 0 0
-0.145633 -0.427886 2.414000 255 0 0
-0.139555 -0.429492 2.423000 255 0 0
-0.133701 -0.431984 2.437000 255 0 0
-0.128499 -0.436957 2.465000 255 0 0
-0.122749 -0.440512 2.485000 255 0 0
-0.070240 -0.452448 2.552000 255 0 0
-0.063162 -0.451744 2.548000 255 0 0
-0.056106 -0.451040 2.544000 255 0 0
-0.048956 -0.449271 2.534000 255 0 0
-0.041876 -0.447678 2.525000 255 0 0
-0.034874 -0.446440 2.518000 255 0 0
-0.027865 -0.444492 2.507000 255 0 0
-0.021008 -0.444494 2.507000 255 0 0
-0.014163 -0.444850 2.509000 255 0 0
-0.007304 -0.445028 2.510000 255 0 0
-0.000438 -0.443965 2.504000 255 0 0
0.006393 -0.442723 2.497000 255 0 0
0.013228 -0.442900 2.498000 255 0 0
0.020052 -0.442721 2.497000 255 0 0
0.026881 -0.442720 2.497000 255 0 0
0.033710 -0.442717 2.497000 255 0 0
0.040685 -0.444310 2.506000 255 0 0
0.047729 -0.446080 2.516000 255 0 0
0.053567 -0.437566 2.468000 255 0 0
-0.214172 -0.426389 2.370000 255 0 0
-0.208053 -0.427124 2.374000 255 0 0
-0.202420 -0.428938 2.384000 255 0 0
-0.196732 -0.430752 2.394000 255 0 0
-0.190513 -0.431486 2.398000 255 0 0
-0.183964 -0.431500 2.398000 255 0 0
-0.177562 -0.431874 2.400000 255 0 0
-0.171576 -0.433326 2.408000 255 0 0
-0.165546 -0.434779 2.416000 255 0 0
-0.159143 -0.435331 2.419000 255 0 0
-0.152975 -0.436602 2.426000 255 0 0
-0.146527 -0.437153 2.429000 255 0 0
-0.140235 -0.438244 2.435000 255 0 0
-0.134020 -0.439694 2.443000 255 0 0
-0.128281 -0.442944 2.461000 255 0 0
-0.122641 -0.446913 2.483000 255 0 0
-0.076608 -0.455787 2.532000 255 0 0
-0.070180 -0.459032 2.550000 255 0 0
-0.063257 -0.459398 2.552000 255 0 0
-0.056080 -0.457782 2.543000 255 0 0
-0.048933 -0.455986 2.533000 255 0 0
-0.041790 -0.453649 2.520000 255 0 0
-0.034843 -0.452932 2.516000 255 0 0
-0.027841 -0.450954 2.505000 255 0 0
-0.020973 -0.450596 2.503000 255 0 0
-0.014162 -0.451678 2.509000 255 0 0
-0.007300 -0.451678 2.509000 255 0 0
-0.000438 -0.451499 2.508000 255 0 0
0.006395 -0.449698 2.498000 255 0 0
0.013227 -0.449697 2.498000 255 0 0
0.020034 -0.449156 2.495000 255 0 0
0.026857 -0.449154 2.495000 255 0 0
0.033708 -0.449512 2.497000 255 0 0
0.040731 -0.451669 2.509000 255 0 0
0.048009 -0.455626 2.531000 255 0 0
-0.214156 -0.432835 2.370000 255 0 0
-0.208388 -0.434312 2.378000 255 0 0
-0.202745 -0.436153 2.388000 255 0 0
-0.196800 -0.437447 2.395000 255 0 0
-0.190657 -0.438374 2.400000 255 0 0
-0.184103 -0.438388 2.400000 255 0 0
-0.177697 -0.438767 2.402000 255 0 0
-0.171635 -0.440059 2.409000 255 0 0
-0.165808 -0.442081 2.420000 255 0 0
-0.159789 -0.443737 2.429000 255 0 0
-0.153594 -0.445028 2.436000 255 0 0
-0.147300 -0.446136 2.442000 255 0 0
-0.141031 -0.447426 2.449000 255 0 0
-0.134448 -0.447801 2.451000 255 0 0
-0.128428 -0.450187 2.464000 255 0 0
-0.122583 -0.453485 2.482000 255 0 0
-0.081116 -0.449329 2.459000 255 0 0
-0.075634 -0.456828 2.500000 255 0 0
-0.070037 -0.465056 2.545000 255 0 0
-0.063301 -0.466706 2.554000 255 0 0
-0.056098 -0.464883 2.544000 255 0 0
-0.048832 -0.461963 2.528000 255 0 0
-0.041770 -0.460322 2.519000 255 0 0
-0.034855 -0.459960 2.517000 255 0 0
-0.027938 -0.459414 2.514000 255 0 0
-0.021030 -0.458685 2.510000 255 0 0
-0.014178 -0.459052 2.512000 255 0 0
-0.007311 -0.459235 2.513000 255 0 0
-0.000439 -0.458688 2.510000 255 0 0
0.006402 -0.457043 2.501000 255 0 0
0.013226 -0.456494 2.498000 255 0 0
0.020041 -0.456127 2.496000 255 0 0
0.026898 -0.456673 2.499000 255 0 0
0.033705 -0.456305 2.497000 255 0 0
0.040776 -0.459044 2.512000 255 0 0
0.047930 -0.461781 2.527000 255 0 0
-0.217213 -0.445581 2.404000 255 0 0
-0.209336 -0.442817 2.389000 255 0 0
-0.203069 -0.443388 2.392000 255 0 0
-0.196621 -0.443589 2.393000 255 0 0
-0.190405 -0.444345 2.397000 255 0 0
-0.184243 -0.445286 2.402000 255 0 0
-0.178275 -0.446782 2.410000 255 0 0
-0.172120 -0.447908 2.416000 255 0 0
-0.166343 -0.450146 2.428000 255 0 0
-0.160369 -0.452012 2.438000 255 0 0
-0.154024 -0.452951 2.443000 255 0 0
-0.147530 -0.453519 2.446000 255 0 0
-0.141078 -0.454272 2.450000 255 0 0
-0.134657 -0.455209 2.455000 255 0 0
-0.128626 -0.457630 2.468000 255 0 0
-0.122425 -0.459679 2.479000 255 0 0
-0.116770 -0.464139 2.503000 255 0 0
-0.082627 -0.464549 2.505000 255 0 0
-0.076233 -0.467337 2.520000 255 0 0
-0.069921 -0.471237 2.541000 255 0 0
-0.063123 -0.472355 2.547000 255 0 0
-0.055917 -0.470319 2.536000 255 0 0
-0.048751 -0.468098 2.524000 255 0 0
-0.041751 -0.466989 2.518000 255 0 0
-0.034949 -0.468104 2.524000 255 0 0
-0.028025 -0.467736 2.522000 255 0 0
-0.021087 -0.466811 2.517000 255 0 0
-0.014199 -0.466627 2.516000 255 0 0
-0.007314 -0.466257 2.514000 255 0 0
-0.000438 -0.465329 2.509000 255 0 0
0.006394 -0.463289 2.498000 255 0 0
0.013193 -0.462176 2.492000 255 0 0
0.019991 -0.461803 2.490000 255 0 0
0.026864 -0.462914 2.496000 255 0 0
0.033756 -0.463839 2.501000 255 0 0
0.040660 -0.464578 2.505000 255 0 0
-0.210284 -0.451381 2.400000 255 0 0
-0.203394 -0.450644 2.396000 255 0 0
-0.196770 -0.450471 2.395000 255 0 0
-0.190708 -0.451614 2.401000 255 0 0
-0.184919 -0.453510 2.411000 255 0 0
-0.179149 -0.455593 2.422000 255 0 0
-0.172748 -0.456170 2.425000 255 0 0
-0.166810 -0.458064 2.435000 255 0 0
-0.160817 -0.459958 2.445000 255 0 0
-0.154453 -0.460911 2.450000 255 0 0
-0.147760 -0.460923 2.450000 255 0 0
-0.141355 -0.461874 2.455000 255 0 0
-0.134976 -0.463014 2.461000 255 0 0
-0.128929 -0.465470 2.474000 255 0 0
-0.122811 -0.467926 2.487000 255 0 0
-0.116854 -0.471322 2.505000 255 0 0
-0.076802 -0.477765 2.539000 255 0 0
-0.069971 -0.478523 2.543000 255 0 0
-0.062994 -0.478340 2.542000 255 0 0
-0.055824 -0.476463 2.532000 255 0 0
-0.048747 -0.474962 2.524000 255 0 0
-0.041847 -0.474966 2.524000 255 0 0
-0.034960 -0.475157 2.525000 255 0 0
-0.028079 -0.475536 2.527000 255 0 0
-0.021136 -0.474785 2.523000 255 0 0
-0.014204 -0.473657 2.517000 255 0 0
-0.007313 -0.473093 2.514000 255 0 0
-0.000438 -0.471776 2.507000 255 0 0
0.006404 -0.470835 2.502000 255 0 0
0.013218 -0.469894 2.497000 255 0 0
0.020053 -0.470080 2.498000 255 0 0
0.026948 -0.471208 2.504000 255 0 0
0.033808 -0.471393 2.505000 255 0 0
0.040932 -0.474590 2.522000 255 0 0
-0.210531 -0.458477 2.403000 255 0 0
-0.203378 -0.457157 2.396000 255 0 0
-0.197166 -0.457936 2.400000 255 0 0
-0.190852 -0.458523 2.403000 255 0 0
-0.185212 -0.460827 2.415000 255 0 0
-0.179135 -0.462177 2.422000 255 0 0
-0.172949 -0.463335 2.428000 255 0 0
-0.167140 -0.465638 2.440000 255 0 0
-0.161133 -0.467559 2.450000 255 0 0
-0.154757 -0.468526 2.455000 255 0 0
-0.148050 -0.468537 2.455000 255 0 0
-0.141632 -0.469503 2.460000 255 0 0
-0.135020 -0.469895 2.462000 255 0 0
-0.128554 -0.470860 2.467000 255 0 0
-0.122505 -0.473542 2.481000 255 0 0
-0.116565 -0.476987 2.499000 255 0 0
-0.077128 -0.486768 2.550000 255 0 0
-0.069938 -0.485247 2.542000 255 0 0
-0.062865 -0.484297 2.537000 255 0 0
-0.055820 -0.483348 2.532000 255 0 0
-0.049014 -0.484497 2.538000 255 0 0
-0.042042 -0.484119 2.536000 255 0 0
-0.035068 -0.483549 2.533000 255 0 0
-0.028054 -0.482025 2.525000 255 0 0
-0.021134 -0.481645 2.523000 255 0 0
-0.014214 -0.480883 2.519000 255 0 0
-0.007321 -0.480502 2.517000 255 0 0
-0.000438 -0.478975 2.509000 255 0 0
0.006406 -0.477829 2.503000 255 0 0
0.013233 -0.477256 2.500000 255 0 0
0.020092 -0.477827 2.503000 255 0 0
0.026967 -0.478398 2.506000 255 0 0
0.033886 -0.479350 2.511000 255 0 0
0.040978 -0.482020 2.525000 255 0 0
-0.210428 -0.464814 2.402000 255 0 0
-0.203448 -0.463863 2.397000 255 0 0
-0.197562 -0.465426 2.405000 255 0 0
-0.191314 -0.466215 2.409000 255 0 0
-0.185504 -0.468165 2.419000 255 0 0
-0.179196 -0.468953 2.423000 255 0 0
-0.173149 -0.470515 2.431000 255 0 0
-0.167538 -0.473432 2.446000 255 0 0
-0.161516 -0.475380 2.456000 255 0 0
-0.155438 -0.477328 2.466000 255 0 0
-0.148702 -0.477340 2.466000 255 0 0
-0.142426 -0.478900 2.474000 255 0 0
-0.135558 -0.478523 2.472000 255 0 0
-0.129065 -0.479502 2.477000 255 0 0
-0.122693 -0.481060 2.485000 255 0 0
-0.116602 -0.483974 2.500000 255 0 0
-0.110386 -0.486693 2.514000 255 0 0
-0.084454 -0.495823 2.561000 255 0 0
-0.077062 -0.493313 2.548000 255 0 0
-0.069987 -0.492544 2.544000 255 0 0
-0.062959 -0.491969 2.541000 255 0 0
-0.056014 -0.491973 2.541000 255 0 0
-0.049145 -0.492752 2.545000 255 0 0
-0.042138 -0.492175 2.542000 255 0 0
-0.035051 -0.490242 2.532000 255 0 0
-0.028063 -0.489082 2.526000 255 0 0
-0.021124 -0.488310 2.522000 255 0 0
-0.014235 -0.488505 2.523000 255 0 0
-0.007329 -0.487925 2.520000 255 0 0
-0.000439 -0.486764 2.514000 255 0 0
0.006423 -0.485989 2.510000 255 0 0
0.013274 -0.485601 2.508000 255 0 0
0.020163 -0.486374 2.512000 255 0 0
0.027040 -0.486566 2.513000 255 0 0
0.033937 -0.486950 2.515000 255 0 0
0.040942 -0.488496 2.523000 255 0 0
-0.204196 -0.472142 2.406000 255 0 0
-0.197875 -0.472746 2.409000 255 0 0
-0.191220 -0.472565 2.408000 255 0 0
-0.185337 -0.474346 2.417000 255 0 0
-0.179256 -0.475734 2.424000 255 0 0
-0.173492 -0.478103 2.436000 255 0 0
-0.167593 -0.480275 2.447000 255 0 0
-0.161634 -0.482447 2.458000 255 0 0
-0.155678 -0.484815 2.470000 255 0 0
-0.149173 -0.485612 2.474000 255 0 0
-0.142646 -0.486408 2.478000 255 0 0
-0.135931 -0.486616 2.479000 255 0 0
-0.129472 -0.487804 2.485000 255 0 0
-0.122930 -0.488795 2.490000 255 0 0
-0.116640 -0.490964 2.501000 255 0 0
-0.110289 -0.493133 2.512000 255 0 0
-0.076874 -0.499060 2.542000 255 0 0
-0.069954 -0.499262 2.543000 255 0 0
-0.062929 -0.498678 2.540000 255 0 0
-0.056009 -0.498879 2.541000 255 0 0
-0.049141 -0.499669 2.545000 255 0 0
-0.042235 -0.500262 2.548000 255 0 0
-0.035131 -0.498301 2.538000 255 0 0
-0.028072 -0.496144 2.527000 255 0 0
-0.021114 -0.494968 2.521000 255 0 0
-0.014234 -0.495362 2.523000 255 0 0
-0.007335 -0.495167 2.522000 255 0 0
-0.000440 -0.494578 2.519000 255 0 0
0.006438 -0.493989 2.516000 255 0 0
0.013305 -0.493595 2.514000 255 0 0
0.020193 -0.493987 2.516000 255 0 0
0.027114 -0.494770 2.520000 255 0 0
0.034069 -0.495749 2.525000 255 0 0
-0.206047 -0.483056 2.428000 255 0 0
-0.198681 -0.481281 2.419000 255 0 0
-0.191682 -0.480301 2.414000 255 0 0
-0.185552 -0.481509 2.420000 255 0 0
-0.179685 -0.483514 2.430000 255 0 0
-0.173834 -0.485716 2.441000 255 0 0
-0.167923 -0.487918 2.452000 255 0 0
-0.161687 -0.489324 2.459000 255 0 0
-0.155855 -0.492123 2.473000 255 0 0
-0.149040 -0.491936 2.472000 255 0 0
-0.142749 -0.493539 2.480000 255 0 0
-0.136250 -0.494545 2.485000 255 0 0
-0.130139 -0.497143 2.498000 255 0 0
-0.123512 -0.497949 2.502000 255 0 0
-0.116817 -0.498556 2.505000 255 0 0
-0.110105 -0.499162 2.508000 255 0 0
-0.103211 -0.498972 2.507000 255 0 0
-0.083913 -0.506558 2.545000 255 0 0
-0.076958 -0.506564 2.545000 255 0 0
-0.070003 -0.506570 2.545000 255 0 0
-0.062974 -0.505978 2.542000 255 0 0
-0.056049 -0.506182 2.543000 255 0 0
-0.049099 -0.506187 2.543000 255 0 0
-0.042165 -0.506389 2.544000 255 0 0
-0.035046 -0.504004 2.532000 255 0 0
-0.028047 -0.502613 2.525000 255 0 0
-0.021104 -0.501620 2.520000 255 0 0
-0.014256 -0.503015 2.527000 255 0 0
-0.007346 -0.502816 2.526000 255 0 0
-0.000441 -0.502618 2.525000 255 0 0
0.006453 -0.502020 2.522000 255 0 0
0.013330 -0.501422 2.519000 255 0 0
0.020240 -0.502018 2.522000 255 0 0
0.027154 -0.502414 2.524000 255 0 0
0.034161 -0.504004 2.532000 255 0 0
-0.218875 -0.503953 2.499000 255 0 0
-0.207728 -0.493684 2.448000 255 0 0
-0.199734 -0.490473 2.432000 255 0 0
-0.192143 -0.488068 2.420000 255 0 0
-0.185461 -0.487882 2.419000 255 0 0
-0.179671 -0.490114 2.430000 255 0 0
-0.174177 -0.493355 2.446000 255 0 0
-0.168252 -0.495588 2.457000 255 0 0
-0.161806 -0.496408 2.461000 255 0 0
-0.155527 -0.497832 2.468000 255 0 0
-0.149029 -0.498651 2.472000 255 0 0
-0.142968 -0.501083 2.484000 255 0 0
-0.136622 -0.502708 2.492000 255 0 0
-0.130441 -0.505140 2.504000 255 0 0
-0.123651 -0.505352 2.505000 255 0 0
-0.117227 -0.507177 2.514000 255 0 0
-0.110359 -0.507186 2.514000 255 0 0
-0.103450 -0.506993 2.513000 255 0 0
-0.094778 -0.497519 2.466000 255 0 0
-0.091681 -0.518105 2.568000 255 0 0
-0.084071 -0.514481 2.550000 255 0 0
-0.076982 -0.513680 2.546000 255 0 0
-0.070163 -0.514695 2.551000 255 0 0
-0.063068 -0.513692 2.546000 255 0 0
-0.056176 -0.514302 2.549000 255 0 0
-0.049172 -0.513903 2.547000 255 0 0
-0.042211 -0.513906 2.547000 255 0 0
-0.035112 -0.511892 2.537000 255 0 0
-0.028089 -0.510280 2.529000 255 0 0
-0.021136 -0.509273 2.524000 255 0 0
-0.014260 -0.510082 2.528000 255 0 0
-0.007357 -0.510486 2.530000 255 0 0
-0.000442 -0.510083 2.528000 255 0 0
0.006457 -0.509276 2.524000 255 0 0
0.013340 -0.508670 2.521000 255 0 0
0.020262 -0.509475 2.525000 255 0 0
0.027185 -0.509877 2.527000 255 0 0
0.034212 -0.511690 2.536000 255 0 0
-0.215793 -0.503586 2.464000 255 0 0
-0.207797 -0.500537 2.449000 255 0 0
-0.200375 -0.498713 2.440000 255 0 0
-0.192684 -0.496072 2.427000 255 0 0
-0.185907 -0.495678 2.425000 255 0 0
-0.179509 -0.496305 2.428000 255 0 0
-0.173665 -0.498568 2.439000 255 0 0
-0.167965 -0.501443 2.453000 255 0 0
-0.161859 -0.503296 2.462000 255 0 0
-0.155515 -0.504535 2.468000 255 0 0
-0.148776 -0.504547 2.468000 255 0 0
-0.142899 -0.507626 2.483000 255 0 0
-0.136721 -0.509886 2.494000 255 0 0
-0.130587 -0.512554 2.507000 255 0 0
-0.123838 -0.512973 2.509000 255 0 0
-0.117404 -0.514823 2.518000 255 0 0
-0.110745 -0.515855 2.523000 255 0 0
-0.104471 -0.518931 2.538000 255 0 0
-0.084196 -0.522225 2.554000 255 0 0
-0.077158 -0.521823 2.552000 255 0 0
-0.070350 -0.523056 2.558000 255 0 0
-0.063434 -0.523674 2.561000 255 0 0
-0.056502 -0.524293 2.564000 255 0 0
-0.049477 -0.524093 2.563000 255 0 0
-0.042340 -0.522461 2.555000 255 0 0
-0.035206 -0.520214 2.544000 255 0 0
-0.028143 -0.518172 2.534000 255 0 0
-0.021184 -0.517356 2.530000 255 0 0
-0.014298 -0.518380 2.535000 255 0 0
-0.007382 -0.519199 2.539000 255 0 0
-0.000443 -0.519199 2.539000 255 0 0
0.006475 -0.517563 2.531000 255 0 0
0.013392 -0.517562 2.531000 255 0 0
0.020301 -0.517356 2.530000 255 0 0
0.027225 -0.517559 2.531000 255 0 0
0.034129 -0.517352 2.530000 255 0 0
0.209710 -0.561702 2.748000 255 0 0
-0.223221 -0.511916 2.472000 255 0 0
-0.216127 -0.511105 2.468000 255 0 0
-0.208545 -0.509051 2.458000 255 0 0
-0.200688 -0.506167 2.444000 255 0 0
-0.193304 -0.504319 2.435000 255 0 0
-0.186352 -0.503505 2.431000 255 0 0
-0.179495 -0.502898 2.428000 255 0 0
-0.173437 -0.504569 2.436000 255 0 0
-0.167814 -0.507690 2.451000 255 0 0
-0.162175 -0.511017 2.467000 255 0 0
-0.155943 -0.512687 2.475000 255 0 0
-0.149186 -0.512699 2.475000 255 0 0
-0.143060 -0.514990 2.486000 255 0 0
-0.136710 -0.516658 2.494000 255 0 0
-0.130628 -0.519570 2.508000 255 0 0
-0.124025 -0.520616 2.513000 255 0 0
-0.117768 -0.523319 2.526000 255 0 0
-0.111307 -0.525400 2.536000 255 0 0
-0.104791 -0.527480 2.546000 255 0 0
-0.098836 -0.532875 2.572000 255 0 0
-0.084156 -0.528954 2.553000 255 0 0
-0.077151 -0.528753 2.552000 255 0 0
-0.070426 -0.530624 2.561000 255 0 0
-0.063528 -0.531458 2.565000 255 0 0
-0.056564 -0.531878 2.567000 255 0 0
-0.049492 -0.531260 2.564000 255 0 0
-0.042403 -0.530228 2.559000 255 0 0
-0.035341 -0.529195 2.554000 255 0 0
-0.028285 -0.527748 2.547000 255 0 0
-0.021291 -0.526921 2.543000 255 0 0
-0.014337 -0.526715 2.542000 255 0 0
-0.007396 -0.527130 2.544000 255 0 0
-0.000444 -0.526509 2.541000 255 0 0
0.006482 -0.525058 2.534000 255 0 0
0.013396 -0.524643 2.532000 255 0 0
0.020307 -0.524435 2.531000 255 0 0
0.027223 -0.524433 2.531000 255 0 0
0.034207 -0.525466 2.536000 255 0 0
-0.224106 -0.520725 2.482000 255 0 0
-0.216723 -0.519274 2.475000 255 0 0
-0.209207 -0.517402 2.466000 255 0 0
-0.201247 -0.514271 2.451000 255 0 0
-0.194003 -0.512818 2.444000 255 0 0
-0.187104 -0.512203 2.441000 255 0 0
-0.180146 -0.511379 2.437000 255 0 0
-0.173423 -0.511183 2.436000 255 0 0
-0.167527 -0.513505 2.447000 255 0 0
-0.161899 -0.516876 2.463000 255 0 0
-0.155805 -0.518987 2.473000 255 0 0
-0.149113 -0.519209 2.474000 255 0 0
-0.142819 -0.520900 2.482000 255 0 0
-0.136535 -0.522800 2.491000 255 0 0
-0.130305 -0.525120 2.502000 255 0 0
-0.123917 -0.527019 2.511000 255 0 0
-0.117572 -0.529338 2.522000 255 0 0
-0.111254 -0.532075 2.535000 255 0 0
-0.104742 -0.534183 2.545000 255 0 0
-0.098174 -0.536291 2.555000 255 0 0
-0.091516 -0.538187 2.564000 255 0 0
-0.084413 -0.537565 2.561000 255 0 0
-0.077296 -0.536732 2.557000 255 0 0
-0.070393 -0.537368 2.560000 255 0 0
-0.063523 -0.538423 2.565000 255 0 0
-0.056581 -0.539058 2.568000 255 0 0
-0.049507 -0.538432 2.565000 255 0 0
-0.042366 -0.536757 2.557000 255 0 0
-0.035311 -0.535710 2.552000 255 0 0
-0.028260 -0.534244 2.545000 255 0 0
-0.021331 -0.534875 2.548000 255 0 0
-0.014375 -0.535087 2.549000 255 0 0
-0.007419 -0.535717 2.552000 255 0 0
-0.000445 -0.535298 2.550000 255 0 0
0.006502 -0.533618 2.542000 255 0 0
0.013437 -0.533198 2.540000 255 0 0
0.020313 -0.531517 2.532000 255 0 0
0.027178 -0.530465 2.527000 255 0 0
-0.234858 -0.536582 2.525000 255 0 0
-0.225172 -0.530012 2.494000 255 0 0
-0.217144 -0.527054 2.480000 255 0 0
-0.209699 -0.525371 2.472000 255 0 0
-0.201888 -0.522624 2.459000 255 0 0
-0.194543 -0.520939 2.451000 255 0 0
-0.187549 -0.520104 2.447000 255 0 0
-0.180575 -0.519269 2.443000 255 0 0
-0.173908 -0.519283 2.443000 255 0 0
-0.167582 -0.520360 2.448000 255 0 0
-0.161623 -0.522711 2.459000 255 0 0
-0.155603 -0.525062 2.470000 255 0 0
-0.149222 -0.526350 2.476000 255 0 0
-0.142807 -0.527637 2.482000 255 0 0
-0.136414 -0.529137 2.489000 255 0 0
-0.130190 -0.531486 2.500000 255 0 0
-0.123907 -0.533835 2.511000 255 0 0
-0.117609 -0.536396 2.523000 255 0 0
-0.111201 -0.538744 2.534000 255 0 0
-0.104610 -0.540454 2.542000 255 0 0
-0.098320 -0.544077 2.559000 255 0 0
-0.092115 -0.548762 2.581000 255 0 0
-0.084868 -0.547494 2.575000 255 0 0
-0.077532 -0.545374 2.565000 255 0 0
-0.070470 -0.544955 2.563000 255 0 0
-0.063443 -0.544748 2.562000 255 0 0
-0.056444 -0.544753 2.562000 255 0 0
-0.049329 -0.543482 2.556000 255 0 0
-0.042297 -0.542848 2.553000 255 0 0
-0.035294 -0.542426 2.551000 255 0 0
-0.028302 -0.542003 2.549000 255 0 0
-0.021363 -0.542643 2.552000 255 0 0
-0.014396 -0.542857 2.553000 255 0 0
-0.007424 -0.543071 2.554000 255 0 0
-0.000446 -0.542646 2.552000 255 0 0
0.006517 -0.541795 2.548000 255 0 0
0.013431 -0.539880 2.539000 255 0 0
0.020312 -0.538391 2.532000 255 0 0
0.027133 -0.536475 2.523000 255 0 0
-0.343751 -0.601291 2.795000 255 0 0
-0.238932 -0.552904 2.569000 255 0 0
-0.225606 -0.537856 2.499000 255 0 0
-0.217214 -0.533999 2.481000 255 0 0
-0.210107 -0.533155 2.477000 255 0 0
-0.202693 -0.531450 2.469000 255 0 0
-0.195322 -0.529744 2.461000 255 0 0
-0.188147 -0.528467 2.455000 255 0 0
-0.181448 -0.528482 2.455000 255 0 0
-0.174677 -0.528281 2.454000 255 0 0
-0.167842 -0.527865 2.452000 255 0 0
-0.161478 -0.528954 2.457000 255 0 0
-0.155465 -0.531335 2.468000 255 0 0
-0.149270 -0.533285 2.477000 255 0 0
-0.142853 -0.534589 2.483000 255 0 0
-0.136403 -0.535892 2.489000 255 0 0
-0.129919 -0.537195 2.495000 255 0 0
-0.123551 -0.539143 2.504000 255 0 0
-0.117226 -0.541521 2.515000 255 0 0
-0.110929 -0.544330 2.528000 255 0 0
-0.104436 -0.546492 2.538000 255 0 0
-0.097582 -0.546931 2.540000 255 0 0
-0.092572 -0.558567 2.594000 255 0 0
-0.085553 -0.559005 2.596000 255 0 0
-0.078039 -0.555997 2.582000 255 0 0
-0.070629 -0.553204 2.569000 255 0 0
-0.063389 -0.551271 2.560000 255 0 0
-0.056374 -0.551061 2.559000 255 0 0
-0.049287 -0.549989 2.554000 255 0 0
-0.042310 -0.549992 2.554000 255 0 0
-0.035291 -0.549350 2.551000 255 0 0
-0.028322 -0.549352 2.551000 255 0 0
-0.021361 -0.549570 2.552000 255 0 0
-0.014406 -0.550217 2.555000 255 0 0
-0.007423 -0.550003 2.554000 255 0 0
-0.000447 -0.550865 2.558000 255 0 0
0.006539 -0.550649 2.557000 255 0 0
0.013488 -0.549141 2.550000 255 0 0
0.020406 -0.547847 2.544000 255 0 0
0.027313 -0.546984 2.540000 255 0 0
0.034427 -0.549781 2.553000 255 0 0
0.042067 -0.558607 2.594000 255 0 0
0.056304 -0.559244 2.597000 255 0 0
-0.214570 -0.534193 2.451000 255 0 0
-0.209666 -0.538787 2.472000 255 0 0
-0.203333 -0.539893 2.477000 255 0 0
-0.195941 -0.538165 2.469000 255 0 0
-0.188668 -0.536655 2.462000 255 0 0
-0.181581 -0.535580 2.457000 255 0 0
-0.175090 -0.536248 2.460000 255 0 0
-0.168376 -0.536262 2.460000 255 0 0
-0.161925 -0.537147 2.464000 255 0 0
-0.155515 -0.538250 2.469000 255 0 0
-0.149258 -0.540007 2.477000 255 0 0
-0.142784 -0.541109 2.482000 255 0 0
-0.136282 -0.542210 2.487000 255 0 0
-0.129805 -0.543529 2.493000 255 0 0
-0.123590 -0.546156 2.505000 255 0 0
-0.117216 -0.548346 2.515000 255 0 0
-0.110876 -0.550972 2.527000 255 0 0
-0.104263 -0.552507 2.534000 255 0 0
-0.096959 -0.550335 2.524000 255 0 0
-0.092528 -0.565388 2.593000 255 0 0
-0.085348 -0.564741 2.590000 255 0 0
-0.077881 -0.561913 2.577000 255 0 0
-0.070623 -0.560175 2.569000 255 0 0
-0.063309 -0.557564 2.557000 255 0 0
-0.056303 -0.557351 2.556000 255 0 0
-0.049147 -0.555393 2.547000 255 0 0
-0.042223 -0.555833 2.549000 255 0 0
-0.035233 -0.555400 2.547000 255 0 0
-0.028331 -0.556493 2.552000 255 0 0
-0.021393 -0.557367 2.556000 255 0 0
-0.014416 -0.557587 2.557000 255 0 0
-0.007429 -0.557370 2.556000 255 0 0
-0.000446 -0.556716 2.553000 255 0 0
0.006534 -0.557152 2.555000 255 0 0
0.013503 -0.556715 2.553000 255 0 0
0.020525 -0.558022 2.559000 255 0 0
0.027827 -0.564343 2.588000 255 0 0
0.034654 -0.560416 2.570000 255 0 0
0.040296 -0.541877 2.485000 255 0 0
-0.205155 -0.533797 2.419000 255 0 0
-0.203974 -0.548378 2.485000 255 0 0
-0.196957 -0.547732 2.482000 255 0 0
-0.189956 -0.547085 2.479000 255 0 0
-0.182749 -0.545776 2.473000 255 0 0
-0.175858 -0.545349 2.471000 255 0 0
-0.168910 -0.544701 2.468000 255 0 0
-0.162306 -0.545156 2.470000 255 0 0
-0.155754 -0.545831 2.473000 255 0 0
-0.149366 -0.547168 2.479000 255 0 0
-0.143060 -0.548946 2.487000 255 0 0
-0.136490 -0.549840 2.491000 255 0 0
-0.130106 -0.551617 2.499000 255 0 0
-0.123629 -0.553173 2.506000 255 0 0
-0.117253 -0.555390 2.516000 255 0 0
-0.110691 -0.556945 2.523000 255 0 0
-0.103884 -0.557395 2.525000 255 0 0
-0.098295 -0.564909 2.559000 255 0 0
-0.092164 -0.570215 2.583000 255 0 0
-0.084912 -0.568898 2.577000 255 0 0
-0.077573 -0.566697 2.567000 255 0 0
-0.070480 -0.566041 2.564000 255 0 0
-0.063279 -0.564281 2.556000 255 0 0
-0.056320 -0.564506 2.557000 255 0 0
-0.049182 -0.562745 2.549000 255 0 0
-0.042220 -0.562749 2.549000 255 0 0
-0.035174 -0.561427 2.543000 255 0 0
-0.028284 -0.562534 2.548000 255 0 0
-0.021358 -0.563419 2.552000 255 0 0
-0.014438 -0.565407 2.561000 255 0 0
-0.007437 -0.564967 2.559000 255 0 0
-0.000446 -0.564305 2.556000 255 0 0
0.006541 -0.564746 2.558000 255 0 0
0.013560 -0.566070 2.564000 255 0 0
0.020707 -0.570042 2.582000 255 0 0
-0.203957 -0.555118 2.485000 255 0 0
-0.197100 -0.554911 2.484000 255 0 0
-0.190094 -0.554256 2.481000 255 0 0
-0.183029 -0.553378 2.477000 255 0 0
-0.176058 -0.552722 2.474000 255 0 0
-0.169102 -0.552066 2.471000 255 0 0
-0.162556 -0.552750 2.474000 255 0 0
-0.156056 -0.553656 2.478000 255 0 0
-0.149595 -0.554786 2.483000 255 0 0
-0.143393 -0.557032 2.493000 255 0 0
-0.136917 -0.558385 2.499000 255 0 0
-0.130564 -0.560407 2.508000 255 0 0
-0.124112 -0.562205 2.516000 255 0 0
-0.117523 -0.563556 2.522000 255 0 0
-0.110682 -0.563789 2.523000 255 0 0
-0.103464 -0.562010 2.515000 255 0 0
-0.097942 -0.569840 2.550000 255 0 0
-0.091692 -0.574317 2.570000 255 0 0
-0.084708 -0.574548 2.571000 255 0 0
-0.077475 -0.572990 2.564000 255 0 0
-0.070391 -0.572326 2.561000 255 0 0
-0.063298 -0.571438 2.557000 255 0 0
-0.056315 -0.571443 2.557000 255 0 0
-0.049197 -0.569883 2.550000 255 0 0
-0.042133 -0.568546 2.544000 255 0 0
-0.035144 -0.567878 2.541000 255 0 0
-0.028204 -0.567881 2.541000 255 0 0
-0.021306 -0.569001 2.546000 255 0 0
-0.014386 -0.570343 2.552000 255 0 0
-0.007430 -0.571461 2.557000 255 0 0
-0.000446 -0.571015 2.555000 255 0 0
0.006548 -0.572355 2.561000 255 0 0
0.013601 -0.574813 2.572000 255 0 0
0.020786 -0.579281 2.592000 255 0 0
-0.212245 -0.565910 2.503000 255 0 0
-0.204433 -0.563214 2.491000 255 0 0
-0.197322 -0.562326 2.487000 255 0 0
-0.190231 -0.561437 2.483000 255 0 0
-0.183532 -0.561678 2.484000 255 0 0
-0.176257 -0.560110 2.477000 255 0 0
-0.169362 -0.559672 2.475000 255 0 0
-0.162543 -0.559459 2.474000 255 0 0
-0.156421 -0.561734 2.484000 255 0 0
-0.149884 -0.562651 2.488000 255 0 0
-0.143841 -0.565603 2.501000 255 0 0
-0.137180 -0.566293 2.504000 255 0 0
-0.130918 -0.568792 2.515000 255 0 0
-0.124201 -0.569481 2.518000 255 0 0
-0.117700 -0.571300 2.526000 255 0 0
-0.110804 -0.571310 2.526000 255 0 0
-0.103538 -0.569283 2.517000 255 0 0
-0.091435 -0.579704 2.563000 255 0 0
-0.084701 -0.581520 2.571000 255 0 0
-0.077499 -0.580170 2.565000 255 0 0
-0.070440 -0.579724 2.563000 255 0 0
-0.063268 -0.578146 2.556000 255 0 0
-0.056267 -0.577925 2.555000 255 0 0
-0.049212 -0.577025 2.551000 255 0 0
-0.042146 -0.575671 2.545000 255 0 0
-0.035141 -0.574770 2.541000 255 0 0
-0.028179 -0.574320 2.539000 255 0 0
-0.021279 -0.575227 2.543000 255 0 0
-0.014373 -0.576812 2.550000 255 0 0
-0.007424 -0.577944 2.555000 255 0 0
-0.000447 -0.579075 2.560000 255 0 0
0.006629 -0.586540 2.593000 255 0 0
0.021153 -0.596716 2.638000 255 0 0
0.028175 -0.592869 2.621000 255 0 0
-0.211380 -0.570409 2.493000 255 0 0
-0.204253 -0.569510 2.489000 255 0 0
-0.197306 -0.569069 2.487000 255 0 0
-0.190063 -0.567712 2.481000 255 0 0
-0.183221 -0.567498 2.480000 255 0 0
-0.176314 -0.567055 2.478000 255 0 0
-0.169622 -0.567298 2.479000 255 0 0
-0.162858 -0.567311 2.479000 255 0 0
-0.156535 -0.568927 2.486000 255 0 0
-0.149992 -0.569855 2.490000 255 0 0
-0.143657 -0.571698 2.498000 255 0 0
-0.137114 -0.572854 2.503000 255 0 0
-0.130751 -0.574924 2.512000 255 0 0
-0.124437 -0.577453 2.523000 255 0 0
-0.118063 -0.579980 2.534000 255 0 0
-0.111848 -0.583652 2.550000 255 0 0
-0.091820 -0.589171 2.574000 255 0 0
-0.085056 -0.591010 2.582000 255 0 0
-0.077885 -0.590101 2.578000 255 0 0
-0.070764 -0.589421 2.575000 255 0 0
-0.063436 -0.586680 2.563000 255 0 0
-0.056240 -0.584624 2.554000 255 0 0
-0.049092 -0.582569 2.545000 255 0 0
-0.042010 -0.580741 2.537000 255 0 0
-0.035096 -0.580973 2.538000 255 0 0
-0.028166 -0.580976 2.538000 255 0 0
-0.021294 -0.582581 2.545000 255 0 0
-0.014355 -0.583040 2.547000 255 0 0
-0.007414 -0.584185 2.552000 255 0 0
-0.000446 -0.584644 2.554000 255 0 0
-0.210600 -0.575083 2.484000 255 0 0
-0.203580 -0.574406 2.481000 255 0 0
-0.197052 -0.575116 2.484000 255 0 0
-0.190124 -0.574669 2.482000 255 0 0
-0.183428 -0.574916 2.483000 255 0 0
-0.176441 -0.574236 2.480000 255 0 0
-0.169881 -0.574944 2.483000 255 0 0
-0.163173 -0.575190 2.484000 255 0 0
-0.156711 -0.576361 2.489000 255 0 0
-0.150100 -0.577068 2.492000 255 0 0
-0.143587 -0.578238 2.497000 255 0 0
-0.137212 -0.580102 2.505000 255 0 0
-0.131052 -0.583124 2.518000 255 0 0
-0.124969 -0.586840 2.534000 255 0 0
-0.119031 -0.591714 2.555000 255 0 0
-0.112715 -0.595197 2.570000 255 0 0
-0.092454 -0.600318 2.592000 255 0 0
-0.085246 -0.599399 2.588000 255 0 0
-0.078000 -0.598017 2.582000 255 0 0
-0.070841 -0.597097 2.578000 255 0 0
-0.063530 -0.594554 2.567000 255 0 0
-0.056257 -0.591780 2.555000 255 0 0
-0.049069 -0.589237 2.544000 255 0 0
-0.041990 -0.587388 2.536000 255 0 0
-0.035066 -0.587391 2.536000 255 0 0
-0.028152 -0.587625 2.537000 255 0 0
-0.021300 -0.589712 2.546000 255 0 0
-0.014377 -0.590872 2.551000 255 0 0
-0.007420 -0.591567 2.554000 255 0 0
-0.000446 -0.592263 2.557000 255 0 0
0.026310 -0.567011 2.448000 255 0 0
0.237461 -0.593552 2.564000 255 0 0
-0.227195 -0.589745 2.518000 255 0 0
-0.217268 -0.581565 2.483000 255 0 0
-0.209820 -0.579708 2.475000 255 0 0
-0.202989 -0.579491 2.474000 255 0 0
-0.196560 -0.580444 2.478000 255 0 0
-0.190032 -0.581162 2.481000 255 0 0
-0.183191 -0.580943 2.480000 255 0 0
-0.176498 -0.581192 2.481000 255 0 0
-0.169936 -0.581909 2.484000 255 0 0
-0.163685 -0.583797 2.492000 255 0 0
-0.157012 -0.584279 2.494000 255 0 0
-0.150630 -0.585931 2.501000 255 0 0
-0.143978 -0.586646 2.504000 255 0 0
-0.137858 -0.589704 2.517000 255 0 0
-0.131822 -0.593464 2.533000 255 0 0
-0.078144 -0.606187 2.587000 255 0 0
-0.070780 -0.603616 2.576000 255 0 0
-0.063475 -0.601044 2.565000 255 0 0
-0.056208 -0.598237 2.553000 255 0 0
-0.049045 -0.595898 2.543000 255 0 0
-0.041954 -0.593793 2.534000 255 0 0
-0.035063 -0.594265 2.536000 255 0 0
-0.028161 -0.594736 2.538000 255 0 0
-0.021290 -0.596379 2.545000 255 0 0
-0.014364 -0.597318 2.549000 255 0 0
-0.007413 -0.598022 2.552000 255 0 0
-0.000446 -0.598491 2.554000 255 0 0
0.006535 -0.599193 2.557000 255 0 0
0.013538 -0.600130 2.561000 255 0 0
-0.223839 -0.587802 2.481000 255 0 0
-0.216551 -0.586398 2.475000 255 0 0
-0.209464 -0.585468 2.471000 255 0 0
-0.202316 -0.584300 2.466000 255 0 0
-0.196148 -0.585974 2.473000 255 0 0
-0.189557 -0.586464 2.475000 255 0 0
-0.183103 -0.587427 2.479000 255 0 0
-0.176128 -0.586731 2.476000 255 0 0
-0.169785 -0.588167 2.482000 255 0 0
-0.163475 -0.589839 2.489000 255 0 0
-0.157125 -0.591511 2.496000 255 0 0
-0.150858 -0.593657 2.505000 255 0 0
-0.144656 -0.596276 2.516000 255 0 0
-0.139379 -0.603161 2.545000 255 0 0
-0.077986 -0.612013 2.582000 255 0 0
-0.070444 -0.607753 2.564000 255 0 0
-0.063222 -0.605625 2.555000 255 0 0
-0.056005 -0.603023 2.544000 255 0 0
-0.048983 -0.602079 2.540000 255 0 0
-0.041933 -0.600424 2.533000 255 0 0
-0.035018 -0.600427 2.533000 255 0 0
-0.028114 -0.600667 2.534000 255 0 0
-0.021205 -0.600906 2.535000 255 0 0
-0.014318 -0.602329 2.541000 255 0 0
-0.007404 -0.604227 2.549000 255 0 0
-0.000445 -0.604701 2.551000 255 0 0
0.006502 -0.603042 2.544000 255 0 0
0.013489 -0.604937 2.552000 255 0 0
-0.236771 -0.593050 2.475000 255 0 0
-0.230212 -0.593548 2.477000 255 0 0
-0.222829 -0.591889 2.470000 255 0 0
-0.215483 -0.590229 2.463000 255 0 0
-0.208938 -0.590725 2.465000 255 0 0
-0.201972 -0.590023 2.462000 255 0 0
-0.195576 -0.590998 2.466000 255 0 0
-0.188929 -0.591253 2.467000 255 0 0
-0.182497 -0.592227 2.471000 255 0 0
-0.175829 -0.592481 2.472000 255 0 0
-0.169224 -0.592975 2.474000 255 0 0
-0.163067 -0.595145 2.483000 255 0 0
-0.156735 -0.596836 2.490000 255 0 0
-0.150966 -0.600924 2.507000 255 0 0
-0.146196 -0.609566 2.543000 255 0 0
-0.070081 -0.611583 2.551000 255 0 0
-0.062945 -0.609911 2.544000 255 0 0
-0.055979 -0.609676 2.543000 255 0 0
-0.049037 -0.609681 2.543000 255 0 0
-0.041979 -0.608006 2.536000 255 0 0
-0.034919 -0.605612 2.526000 255 0 0
-0.028001 -0.605135 2.524000 255 0 0
-0.021153 -0.606336 2.529000 255 0 0
-0.014316 -0.609215 2.541000 255 0 0
-0.007383 -0.609455 2.542000 255 0 0
-0.000443 -0.608736 2.539000 255 0 0
0.006465 -0.606578 2.530000 255 0 0
0.013456 -0.610414 2.546000 255 0 0
0.020591 -0.615926 2.569000 255 0 0
0.132523 -0.648915 2.707000 255 0 0
-0.241135 -0.593921 2.451000 255 0 0
-0.236752 -0.599755 2.475000 255 0 0
-0.229171 -0.597593 2.466000 255 0 0
-0.222089 -0.596642 2.462000 255 0 0
-0.215204 -0.596174 2.460000 255 0 0
-0.208922 -0.597403 2.465000 255 0 0
-0.202120 -0.597177 2.464000 255 0 0
-0.195164 -0.596466 2.461000 255 0 0
-0.188148 -0.595512 2.457000 255 0 0
-0.181743 -0.596497 2.461000 255 0 0
-0.175317 -0.597481 2.465000 255 0 0
-0.168594 -0.597495 2.465000 255 0 0
-0.162266 -0.598963 2.471000 255 0 0
-0.156092 -0.601158 2.480000 255 0 0
-0.150351 -0.605292 2.497000 255 0 0
-0.062865 -0.616076 2.541000 255 0 0
-0.055820 -0.614868 2.536000 255 0 0
-0.048936 -0.615358 2.538000 255 0 0
-0.041943 -0.614392 2.534000 255 0 0
-0.034860 -0.611486 2.522000 255 0 0
-0.027932 -0.610518 2.518000 255 0 0
-0.021076 -0.611005 2.520000 255 0 0
-0.014276 -0.614401 2.534000 255 0 0
-0.007350 -0.613675 2.531000 255 0 0
-0.000439 -0.610523 2.518000 255 0 0
0.006442 -0.611250 2.521000 255 0 0
0.013424 -0.615856 2.540000 255 0 0
0.020461 -0.619007 2.553000 255 0 0
0.027419 -0.618762 2.552000 255 0 0
0.034506 -0.620942 2.561000 255 0 0
0.285168 -0.650561 2.685000 255 0 0
0.300367 -0.621398 2.565000 255 0 0
-0.253456 -0.614262 2.507000 255 0 0
-0.243871 -0.607420 2.479000 255 0 0
-0.235395 -0.603029 2.461000 255 0 0
-0.228874 -0.603537 2.463000 255 0 0
-0.221530 -0.601840 2.456000 255 0 0
-0.214749 -0.601612 2.455000 255 0 0
-0.208396 -0.602610 2.459000 255 0 0
-0.201857 -0.603116 2.461000 255 0 0
-0.195228 -0.603378 2.462000 255 0 0
-0.188209 -0.602413 2.458000 255 0 0
-0.181581 -0.602673 2.459000 255 0 0
-0.175516 -0.604893 2.468000 255 0 0
-0.168854 -0.605153 2.469000 255 0 0
-0.162843 -0.607862 2.480000 255 0 0
-0.155891 -0.607140 2.477000 255 0 0
-0.055947 -0.623209 2.542000 255 0 0
-0.048894 -0.621742 2.536000 255 0 0
-0.041989 -0.621991 2.537000 255 0 0
-0.034913 -0.619297 2.526000 255 0 0
-0.027963 -0.618074 2.521000 255 0 0
-0.021116 -0.619057 2.525000 255 0 0
-0.014286 -0.621755 2.536000 255 0 0
-0.007350 -0.620531 2.531000 255 0 0
-0.000440 -0.618079 2.521000 255 0 0
0.006451 -0.619060 2.525000 255 0 0
0.013359 -0.619794 2.528000 255 0 0
0.020267 -0.620038 2.529000 255 0 0
0.027169 -0.620036 2.529000 255 0 0
0.034045 -0.619543 2.527000 255 0 0
0.299524 -0.626631 2.558000 255 0 0
0.305651 -0.624893 2.551000 255 0 0
-0.251819 -0.617088 2.491000 255 0 0
-0.242081 -0.609675 2.461000 255 0 0
-0.234515 -0.607464 2.452000 255 0 0
-0.227555 -0.606739 2.449000 255 0 0
-0.220971 -0.607005 2.450000 255 0 0
-0.214819 -0.608509 2.456000 255 0 0
-0.208549 -0.609765 2.461000 255 0 0
-0.202005 -0.610277 2.463000 255 0 0
-0.195291 -0.610293 2.463000 255 0 0
-0.188347 -0.609565 2.460000 255 0 0
-0.181197 -0.608094 2.454000 255 0 0
-0.174933 -0.609595 2.460000 255 0 0
-0.168772 -0.611591 2.468000 255 0 0
-0.162895 -0.614827 2.481000 255 0 0
-0.156444 -0.616079 2.486000 255 0 0
-0.048697 -0.626131 2.526000 255 0 0
-0.041754 -0.625391 2.523000 255 0 0
-0.034910 -0.626138 2.526000 255 0 0
-0.027983 -0.625397 2.523000 255 0 0
-0.021089 -0.625152 2.522000 255 0 0
-0.014223 -0.625897 2.525000 255 0 0
-0.007326 -0.625402 2.523000 255 0 0
-0.000440 -0.625402 2.523000 255 0 0
0.006453 -0.626146 2.526000 255 0 0
0.013347 -0.626145 2.526000 255 0 0
0.020169 -0.623913 2.517000 255 0 0
0.027017 -0.623415 2.515000 255 0 0
0.034015 -0.625891 2.525000 255 0 0
0.186956 -0.607833 2.453000 255 0 0
0.199406 -0.625905 2.526000 255 0 0
-0.248261 -0.615068 2.456000 255 0 0
-0.242062 -0.616339 2.461000 255 0 0
-0.234592 -0.614354 2.453000 255 0 0
-0.227909 -0.614373 2.453000 255 0 0
-0.221134 -0.614140 2.452000 255 0 0
-0.214802 -0.615159 2.456000 255 0 0
-0.208024 -0.614926 2.455000 255 0 0
-0.201497 -0.615443 2.457000 255 0 0
-0.195037 -0.616211 2.460000 255 0 0
-0.188791 -0.617729 2.466000 255 0 0
-0.181847 -0.616993 2.463000 255 0 0
-0.174918 -0.616256 2.460000 255 0 0
-0.168348 -0.616771 2.462000 255 0 0
-0.162554 -0.620292 2.476000 255 0 0
-0.156557 -0.623312 2.488000 255 0 0
-0.149591 -0.622573 2.485000 255 0 0
-0.041634 -0.630469 2.516000 255 0 0
-0.034755 -0.630222 2.515000 255 0 0
-0.027925 -0.630976 2.518000 255 0 0
-0.007305 -0.630480 2.516000 255 0 0
-0.000438 -0.629478 2.512000 255 0 0
0.006430 -0.630730 2.517000 255 0 0
0.020143 -0.629976 2.514000 255 0 0
0.027004 -0.629974 2.514000 255 0 0
-0.253789 -0.618913 2.445000 255 0 0
-0.247029 -0.618679 2.444000 255 0 0
-0.241551 -0.621736 2.456000 255 0 0
-0.234669 -0.621249 2.454000 255 0 0
-0.227612 -0.620254 2.450000 255 0 0
-0.221026 -0.620525 2.451000 255 0 0
-0.214610 -0.621302 2.454000 255 0 0
-0.208092 -0.621826 2.456000 255 0 0
-0.200906 -0.620323 2.450000 255 0 0
-0.194229 -0.620339 2.450000 255 0 0
-0.187933 -0.621621 2.455000 255 0 0
-0.181167 -0.621382 2.454000 255 0 0
-0.174264 -0.620637 2.451000 255 0 0
-0.167513 -0.620398 2.450000 255 0 0
-0.161227 -0.621931 2.456000 255 0 0
-0.155160 -0.624476 2.466000 255 0 0
-0.146690 -0.617145 2.437000 255 0 0
-0.027767 -0.634247 2.504000 255 0 0
-0.007272 -0.634505 2.505000 255 0 0
0.026872 -0.633741 2.502000 255 0 0
0.033726 -0.634245 2.504000 255 0 0
-0.260535 -0.625768 2.446000 255 0 0
-0.251901 -0.620927 2.427000 255 0 0
-0.245999 -0.622737 2.434000 255 0 0
