ply
format ascii 1.0
element vertex 1329
property double x
property double y
property double z
property uchar red
property uchar green
property uchar blue
end_header
0.016847 0.505943 2.102000 255 0 0
0.022585 0.505942 2.102000 255 0 0
0.028337 0.506180 2.103000 255 0 0
0.034093 0.506418 2.104000 255 0 0
0.039874 0.506897 2.106000 255 0 0
0.045688 0.507615 2.109000 255 0 0
0.051542 0.508574 2.113000 255 0 0
0.057255 0.508088 2.111000 255 0 0
0.062957 0.507601 2.109000 255 0 0
0.068648 0.507114 2.107000 255 0 0
0.074434 0.507349 2.108000 255 0 0
0.080187 0.507342 2.108000 255 0 0
0.085898 0.507095 2.107000 255 0 0
0.091605 0.506846 2.106000 255 0 0
0.097398 0.507079 2.107000 255 0 0
0.103147 0.507071 2.107000 255 0 0
0.108896 0.507062 2.107000 255 0 0
0.114699 0.507293 2.108000 255 0 0
0.120507 0.507524 2.109000 255 0 0
0.126380 0.507995 2.111000 255 0 0
0.132138 0.507984 2.111000 255 0 0
0.138093 0.508695 2.114000 255 0 0
0.143995 0.509165 2.116000 255 0 0
0.150190 0.510596 2.122000 255 0 0
0.155977 0.510584 2.122000 255 0 0
0.162374 0.512496 2.130000 255 0 0
0.168971 0.514888 2.140000 255 0 0
-0.079516 0.645615 2.198857 255 255 0
-0.062023 0.644569 2.198857 255 255 0
-0.043698 0.643587 2.199576 255 255 0
-0.035740 0.642023 2.192660 255 255 0
-0.033815 0.640112 2.181246 255 255 0
-0.037044 0.637895 2.165931 255 255 0
-0.064047 0.632202 2.119492 255 255 0
-0.071494 0.629695 2.100712 255 255 0
-0.206097 0.564070 2.182465 0 255 0
-0.219025 0.568103 2.204120 0 255 0
-0.215237 0.570067 2.213408 0 255 0
-0.205275 0.571282 2.218195 0 255 0
-0.199715 0.573041 2.226223 0 255 0
-0.198567 0.575335 2.237454 0 255 0
-0.190350 0.576782 2.243587 0 255 0
-0.179470 0.577921 2.247848 0 255 0
-0.170348 0.579280 2.253414 0 255 0
-0.160329 0.580543 2.258384 0 255 0
-0.147637 0.581505 2.261517 0 255 0
-0.130489 0.581965 2.261590 0 255 0
-0.120427 0.583263 2.266704 0 255 0
-0.106796 0.584162 2.269385 0 255 0
-0.092256 0.584974 2.271511 0 255 0
-0.075916 0.585599 2.272475 0 255 0
-0.284180 0.526371 2.214000 255 0 0
-0.273630 0.517833 2.178000 255 0 0
-0.267331 0.517140 2.175000 255 0 0
-0.260808 0.515971 2.170000 255 0 0
-0.254664 0.515515 2.168000 255 0 0
-0.248186 0.514345 2.163000 255 0 0
-0.242070 0.513888 2.161000 255 0 0
-0.235528 0.512480 2.155000 255 0 0
-0.229444 0.512022 2.153000 255 0 0
-0.223371 0.511564 2.151000 255 0 0
-0.217611 0.511819 2.152000 255 0 0
-0.211452 0.511123 2.149000 255 0 0
-0.205499 0.510901 2.148000 255 0 0
-0.199552 0.510679 2.147000 255 0 0
-0.193790 0.510933 2.148000 255 0 0
-0.187847 0.510710 2.147000 255 0 0
-0.181824 0.510249 2.145000 255 0 0
-0.175566 0.509074 2.140000 255 0 0
-0.169493 0.508375 2.137000 255 0 0
-0.163436 0.507675 2.134000 255 0 0
-0.157616 0.507688 2.134000 255 0 0
-0.151582 0.506987 2.131000 255 0 0
-0.145702 0.506761 2.130000 255 0 0
-0.139760 0.506297 2.128000 255 0 0
-0.133956 0.506308 2.128000 255 0 0
-0.128210 0.506557 2.129000 255 0 0
-0.122402 0.506567 2.129000 255 0 0
-0.116648 0.506815 2.130000 255 0 0
-0.110680 0.506111 2.127000 255 0 0
-0.104531 0.504454 2.120000 255 0 0
-0.098374 0.502559 2.112000 255 0 0
-0.092303 0.500901 2.105000 255 0 0
-0.086517 0.500671 2.104000 255 0 0
-0.080929 0.501630 2.108000 255 0 0
-0.075568 0.504254 2.119000 255 0 0
-0.070014 0.505926 2.126000 255 0 0
-0.064363 0.507122 2.131000 255 0 0
-0.058491 0.506651 2.129000 255 0 0
-0.052605 0.505942 2.126000 255 0 0
-0.046604 0.503804 2.117000 255 0 0
-0.040690 0.502142 2.110000 255 0 0
-0.034830 0.500717 2.104000 255 0 0
-0.029059 0.500244 2.102000 255 0 0
-0.023332 0.500484 2.103000 255 0 0
-0.017632 0.501676 2.108000 255 0 0
-0.011894 0.502391 2.111000 255 0 0
-0.006131 0.502392 2.111000 255 0 0
-0.000368 0.501916 2.109000 255 0 0
0.005385 0.501440 2.107000 255 0 0
0.011126 0.500963 2.105000 255 0 0
0.016857 0.500486 2.103000 255 0 0
0.022598 0.500484 2.103000 255 0 0
0.028353 0.500720 2.104000 255 0 0
0.034112 0.500956 2.105000 255 0 0
0.039916 0.501666 2.108000 255 0 0
0.045713 0.502139 2.110000 255 0 0
0.051498 0.502373 2.111000 255 0 0
0.057151 0.501416 2.107000 255 0 0
0.062903 0.501411 2.107000 255 0 0
0.068654 0.501405 2.107000 255 0 0
0.074440 0.501637 2.108000 255 0 0
0.080155 0.501393 2.107000 255 0 0
0.085906 0.501386 2.107000 255 0 0
0.091699 0.501616 2.108000 255 0 0
0.097545 0.502084 2.110000 255 0 0
0.103204 0.501600 2.108000 255 0 0
0.108957 0.501591 2.108000 255 0 0
0.114763 0.501820 2.109000 255 0 0
0.120745 0.502762 2.113000 255 0 0
0.126570 0.502989 2.114000 255 0 0
0.132337 0.502979 2.114000 255 0 0
0.138300 0.503681 2.117000 255 0 0
0.144074 0.503670 2.117000 255 0 0
0.150273 0.505085 2.123000 255 0 0
0.156137 0.505310 2.124000 255 0 0
0.162463 0.506963 2.131000 255 0 0
0.168432 0.507425 2.133000 255 0 0
-0.081381 0.636858 2.211555 255 255 0
-0.063882 0.635845 2.211506 255 255 0
-0.042098 0.635105 2.214726 255 255 0
-0.018446 0.632477 2.206695 255 255 0
-0.022557 0.630198 2.190811 255 255 0
-0.024933 0.628018 2.176178 255 255 0
-0.033305 0.625456 2.156955 255 255 0
-0.222861 0.558347 2.208125 0 255 0
-0.216433 0.559977 2.215470 0 255 0
-0.201187 0.560512 2.216408 0 255 0
-0.195623 0.562267 2.224454 0 255 0
-0.192704 0.564354 2.234425 0 255 0
-0.188018 0.566224 2.243123 0 255 0
-0.178023 0.567451 2.248034 0 255 0
-0.169788 0.568902 2.254243 0 255 0
-0.159771 0.570147 2.259225 0 255 0
-0.145310 0.570871 2.261122 0 255 0
-0.132604 0.571820 2.264327 0 255 0
-0.118994 0.572678 2.266967 0 255 0
-0.110700 0.574177 2.273367 0 255 0
-0.102396 0.575684 2.279796 0 255 0
-0.092304 0.576991 2.285029 0 255 0
-0.282018 0.516376 2.197000 255 0 0
-0.274027 0.512636 2.181000 255 0 0
-0.267720 0.511951 2.178000 255 0 0
-0.261188 0.510796 2.173000 255 0 0
-0.254918 0.510110 2.170000 255 0 0
-0.248434 0.508954 2.165000 255 0 0
-0.242201 0.508267 2.162000 255 0 0
-0.235874 0.507345 2.158000 255 0 0
-0.229569 0.506423 2.154000 255 0 0
-0.223492 0.505970 2.152000 255 0 0
-0.217527 0.505753 2.151000 255 0 0
-0.211567 0.505534 2.150000 255 0 0
-0.205707 0.505551 2.150000 255 0 0
-0.199754 0.505332 2.149000 255 0 0
-0.193625 0.504642 2.146000 255 0 0
-0.187599 0.504187 2.144000 255 0 0
-0.181500 0.503496 2.141000 255 0 0
-0.175662 0.503511 2.141000 255 0 0
-0.169586 0.502819 2.138000 255 0 0
-0.163525 0.502127 2.135000 255 0 0
-0.157555 0.501670 2.133000 255 0 0
-0.151595 0.501212 2.131000 255 0 0
-0.145851 0.501459 2.132000 255 0 0
-0.139969 0.501236 2.131000 255 0 0
-0.134155 0.501247 2.131000 255 0 0
-0.128342 0.501258 2.131000 255 0 0
-0.122527 0.501268 2.131000 255 0 0
-0.116713 0.501278 2.131000 255 0 0
-0.110794 0.500817 2.129000 255 0 0
-0.104836 0.500121 2.126000 255 0 0
-0.098708 0.498482 2.119000 255 0 0
-0.092486 0.496138 2.109000 255 0 0
-0.086483 0.494734 2.103000 255 0 0
-0.080667 0.494271 2.101000 255 0 0
-0.075217 0.496159 2.109000 255 0 0
-0.069757 0.498283 2.118000 255 0 0
-0.064247 0.500406 2.127000 255 0 0
-0.058413 0.500176 2.126000 255 0 0
-0.052461 0.498769 2.120000 255 0 0
-0.046520 0.497126 2.113000 255 0 0
-0.040655 0.495953 2.108000 255 0 0
-0.034833 0.495015 2.104000 255 0 0
-0.029061 0.494548 2.102000 255 0 0
-0.023334 0.494785 2.103000 255 0 0
-0.017617 0.495493 2.106000 255 0 0
-0.011884 0.496200 2.109000 255 0 0
-0.006129 0.496436 2.110000 255 0 0
-0.000368 0.496201 2.109000 255 0 0
0.005390 0.496201 2.109000 255 0 0
0.011132 0.495494 2.106000 255 0 0
0.016882 0.495493 2.106000 255 0 0
0.022611 0.495021 2.104000 255 0 0
0.028368 0.495254 2.105000 255 0 0
0.034115 0.495251 2.105000 255 0 0
0.039938 0.496189 2.109000 255 0 0
0.045717 0.496421 2.110000 255 0 0
0.051429 0.495946 2.108000 255 0 0
0.057048 0.494765 2.103000 255 0 0
0.062818 0.494995 2.104000 255 0 0
0.068594 0.495225 2.105000 255 0 0
0.074446 0.495925 2.108000 255 0 0
0.080162 0.495683 2.107000 255 0 0
0.085995 0.496147 2.109000 255 0 0
0.091794 0.496374 2.110000 255 0 0
0.097599 0.496602 2.111000 255 0 0
0.103262 0.496123 2.109000 255 0 0
0.109017 0.496114 2.109000 255 0 0
0.114827 0.496340 2.110000 255 0 0
0.120870 0.497506 2.115000 255 0 0
0.126760 0.497966 2.117000 255 0 0
0.132599 0.498191 2.118000 255 0 0
0.138507 0.498650 2.120000 255 0 0
0.144291 0.498638 2.120000 255 0 0
0.150356 0.499567 2.124000 255 0 0
0.156444 0.500495 2.128000 255 0 0
0.162553 0.501423 2.132000 255 0 0
0.168604 0.502115 2.135000 255 0 0
-0.072653 0.626697 2.219096 255 255 0
-0.049989 0.626051 2.222866 255 255 0
-0.029951 0.625263 2.224834 255 255 0
-0.017701 0.624002 2.221141 255 255 0
-0.011494 0.622364 2.213001 255 255 0
-0.010449 0.620397 2.201008 255 255 0
-0.006822 0.618596 2.190940 255 255 0
-0.031275 0.612891 2.146668 255 255 0
-0.222570 0.545618 2.197005 0 255 0
-0.219660 0.547692 2.206949 0 255 0
-0.214111 0.549429 2.214956 0 255 0
-0.202392 0.550382 2.218482 0 255 0
-0.203001 0.552915 2.231006 0 255 0
-0.197439 0.554664 2.239049 0 255 0
-0.195407 0.556861 2.249641 0 255 0
-0.184536 0.557955 2.253909 0 255 0
-0.176308 0.559388 2.260107 0 255 0
-0.168070 0.560829 2.266334 0 255 0
-0.155394 0.561734 2.269468 0 255 0
-0.138267 0.562110 2.269549 0 255 0
-0.118453 0.562181 2.267853 0 255 0
-0.108383 0.563452 2.273031 0 255 0
-0.104525 0.565480 2.282544 0 255 0
-0.097107 0.567085 2.289615 0 255 0
-0.280884 0.508330 2.188000 255 0 0
-0.274173 0.506957 2.182000 255 0 0
-0.267986 0.506513 2.180000 255 0 0
-0.261689 0.505836 2.177000 255 0 0
-0.255055 0.504461 2.171000 255 0 0
-0.248568 0.503318 2.166000 255 0 0
-0.242220 0.502408 2.162000 255 0 0
-0.236002 0.501729 2.159000 255 0 0
-0.229693 0.500817 2.155000 255 0 0
-0.223613 0.500370 2.153000 255 0 0
-0.217645 0.500155 2.152000 255 0 0
-0.211780 0.500172 2.152000 255 0 0
-0.205819 0.499956 2.151000 255 0 0
-0.199955 0.499972 2.151000 255 0 0
-0.193731 0.499058 2.147000 255 0 0
-0.187702 0.498608 2.145000 255 0 0
-0.181599 0.497926 2.142000 255 0 0
-0.175758 0.497940 2.142000 255 0 0
-0.169679 0.497257 2.139000 255 0 0
-0.163462 0.496108 2.134000 255 0 0
-0.157346 0.495191 2.130000 255 0 0
-0.151465 0.494971 2.129000 255 0 0
-0.145794 0.495448 2.131000 255 0 0
-0.140046 0.495693 2.132000 255 0 0
-0.134230 0.495704 2.132000 255 0 0
-0.128352 0.495482 2.131000 255 0 0
-0.122480 0.495260 2.130000 255 0 0
-0.116558 0.494805 2.128000 255 0 0
-0.110751 0.494814 2.128000 255 0 0
-0.104943 0.494823 2.128000 255 0 0
-0.099042 0.494367 2.126000 255 0 0
-0.092889 0.492515 2.118000 255 0 0
-0.086820 0.490894 2.111000 255 0 0
-0.080827 0.489506 2.105000 255 0 0
-0.075117 0.489745 2.106000 255 0 0
-0.069532 0.490914 2.111000 255 0 0
-0.063951 0.492315 2.117000 255 0 0
-0.058226 0.492785 2.119000 255 0 0
-0.052342 0.491860 2.115000 255 0 0
-0.046479 0.490934 2.111000 255 0 0
-0.040658 0.490240 2.108000 255 0 0
-0.034836 0.489313 2.104000 255 0 0
-0.029050 0.488618 2.101000 255 0 0
-0.023336 0.489085 2.103000 255 0 0
-0.017602 0.489319 2.104000 255 0 0
-0.011874 0.490018 2.107000 255 0 0
-0.006121 0.490019 2.107000 255 0 0
-0.000368 0.490252 2.108000 255 0 0
0.005386 0.490019 2.107000 255 0 0
0.011128 0.489553 2.105000 255 0 0
0.016868 0.489320 2.104000 255 0 0
0.022602 0.489085 2.103000 255 0 0
0.028344 0.489083 2.103000 255 0 0
0.034134 0.489778 2.106000 255 0 0
0.039960 0.490705 2.110000 255 0 0
0.045721 0.490702 2.110000 255 0 0
0.051384 0.489767 2.106000 255 0 0
0.057080 0.489298 2.104000 255 0 0
0.062854 0.489525 2.105000 255 0 0
0.068633 0.489752 2.106000 255 0 0
0.074417 0.489979 2.107000 255 0 0
0.080169 0.489972 2.107000 255 0 0
0.086083 0.490895 2.111000 255 0 0
0.091889 0.491120 2.112000 255 0 0
0.097700 0.491345 2.113000 255 0 0
0.103418 0.491104 2.112000 255 0 0
0.109078 0.490630 2.110000 255 0 0
0.114836 0.490621 2.110000 255 0 0
0.120823 0.491541 2.114000 255 0 0
0.126771 0.492228 2.117000 255 0 0
0.132797 0.493148 2.121000 255 0 0
0.138584 0.493136 2.121000 255 0 0
0.144439 0.493357 2.122000 255 0 0
0.150369 0.493810 2.124000 255 0 0
0.156530 0.494960 2.129000 255 0 0
0.162642 0.495877 2.133000 255 0 0
0.168854 0.497026 2.138000 255 0 0
-0.057886 0.616968 2.231047 255 255 0
-0.041285 0.615991 2.230404 255 255 0
-0.022987 0.615143 2.231109 255 255 0
-0.011608 0.613852 2.226786 255 255 0
0.017281 0.609683 2.210205 255 255 0
0.025171 0.608189 2.203448 255 255 0
0.020204 0.605809 2.186941 255 255 0
-0.007844 0.601801 2.152720 255 255 0
-0.179626 0.524650 2.141893 0 255 0
-0.206502 0.530741 2.174138 0 255 0
-0.220258 0.535046 2.196473 0 255 0
-0.221739 0.537705 2.209658 0 255 0
-0.217951 0.539665 2.218953 0 255 0
-0.207999 0.540823 2.223761 0 255 0
-0.205966 0.543020 2.234354 0 255 0
-0.195998 0.544192 2.239215 0 255 0
-0.193079 0.546281 2.249181 0 255 0
-0.185745 0.547806 2.255990 0 255 0
-0.179287 0.549451 2.263451 0 255 0
-0.169284 0.550652 2.268425 0 255 0
-0.157498 0.551641 2.272192 0 255 0
-0.139493 0.551866 2.271662 0 255 0
-0.118802 0.551779 2.269361 0 255 0
-0.111399 0.553360 2.276395 0 255 0
-0.110208 0.555713 2.287744 0 255 0
-0.102796 0.557303 2.294806 0 255 0
-0.281418 0.503318 2.192000 255 0 0
-0.274194 0.501042 2.182000 255 0 0
-0.267883 0.500374 2.179000 255 0 0
-0.261709 0.499935 2.177000 255 0 0
-0.255192 0.498806 2.172000 255 0 0
-0.248931 0.498136 2.169000 255 0 0
-0.242574 0.497236 2.165000 255 0 0
-0.236239 0.496336 2.161000 255 0 0
-0.229818 0.495206 2.156000 255 0 0
-0.223527 0.494304 2.152000 255 0 0
-0.217662 0.494322 2.152000 255 0 0
-0.211698 0.494109 2.151000 255 0 0
-0.205835 0.494125 2.151000 255 0 0
-0.199692 0.493452 2.148000 255 0 0
-0.193566 0.492779 2.145000 255 0 0
-0.187367 0.491875 2.141000 255 0 0
-0.181359 0.491430 2.139000 255 0 0
-0.175608 0.491674 2.140000 255 0 0
-0.169613 0.491229 2.138000 255 0 0
-0.163399 0.490093 2.133000 255 0 0
-0.157359 0.489417 2.130000 255 0 0
-0.151477 0.489200 2.129000 255 0 0
-0.145875 0.489901 2.132000 255 0 0
-0.140189 0.490373 2.134000 255 0 0
-0.134367 0.490384 2.134000 255 0 0
-0.128363 0.489705 2.131000 255 0 0
-0.122490 0.489486 2.130000 255 0 0
-0.116513 0.488806 2.127000 255 0 0
-0.110708 0.488816 2.127000 255 0 0
-0.104952 0.489055 2.128000 255 0 0
-0.099097 0.488833 2.127000 255 0 0
-0.093116 0.487922 2.123000 255 0 0
-0.087074 0.486551 2.117000 255 0 0
-0.081141 0.485638 2.113000 255 0 0
-0.075159 0.484266 2.107000 255 0 0
-0.069406 0.484272 2.107000 255 0 0
-0.063745 0.484967 2.110000 255 0 0
-0.058121 0.486122 2.115000 255 0 0
-0.052297 0.485667 2.113000 255 0 0
-0.046439 0.484751 2.109000 255 0 0
-0.040623 0.484065 2.106000 255 0 0
-0.034856 0.483839 2.105000 255 0 0
-0.029080 0.483382 2.103000 255 0 0
-0.023349 0.483614 2.104000 255 0 0
-0.017587 0.483156 2.102000 255 0 0
-0.011858 0.483617 2.104000 255 0 0
-0.006116 0.483847 2.105000 255 0 0
-0.000368 0.484078 2.106000 255 0 0
0.005381 0.483848 2.105000 255 0 0
0.011129 0.483847 2.105000 255 0 0
0.016877 0.483846 2.105000 255 0 0
0.022625 0.483844 2.105000 255 0 0
0.028373 0.483842 2.105000 255 0 0
0.034154 0.484299 2.107000 255 0 0
0.039926 0.484526 2.108000 255 0 0
0.045682 0.484522 2.108000 255 0 0
0.051389 0.484058 2.106000 255 0 0
0.057112 0.483824 2.105000 255 0 0
0.062889 0.484049 2.106000 255 0 0
0.068606 0.483813 2.105000 255 0 0
0.074388 0.484037 2.106000 255 0 0
0.080214 0.484490 2.108000 255 0 0
0.086131 0.485402 2.112000 255 0 0
0.091984 0.485855 2.114000 255 0 0
0.097800 0.486076 2.115000 255 0 0
0.103524 0.485838 2.114000 255 0 0
0.109191 0.485370 2.112000 255 0 0
0.114955 0.485360 2.112000 255 0 0
0.120947 0.486270 2.116000 255 0 0
0.126961 0.487179 2.120000 255 0 0
0.132871 0.487628 2.122000 255 0 0
0.138595 0.487387 2.121000 255 0 0
0.144587 0.488065 2.124000 255 0 0
0.150593 0.488742 2.127000 255 0 0
0.156837 0.490108 2.133000 255 0 0
0.163036 0.491244 2.138000 255 0 0
0.169263 0.492379 2.143000 255 0 0
-0.111690 0.613143 2.257680 255 255 0
-0.107992 0.611297 2.247423 255 255 0
-0.083295 0.608761 2.239423 255 255 0
-0.065789 0.607856 2.239268 255 255 0
-0.049175 0.606907 2.238563 255 255 0
-0.038624 0.605560 2.233498 255 255 0
-0.028089 0.604221 2.228472 255 255 0
-0.013265 0.603190 2.226679 255 255 0
0.000676 0.602111 2.224309 255 255 0
0.013736 0.600982 2.221355 255 255 0
0.030208 0.600110 2.221039 255 255 0
0.044082 0.599066 2.218852 255 255 0
0.050231 0.597475 2.210866 255 255 0
0.053808 0.595700 2.200933 255 255 0
0.057386 0.593926 2.190998 255 255 0
-0.179108 0.514151 2.142688 0 255 0
-0.226453 0.528074 2.214303 0 255 0
-0.226184 0.530504 2.226161 0 255 0
-0.214483 0.531402 2.229674 0 255 0
-0.212453 0.533600 2.240252 0 255 0
-0.198968 0.534283 2.242562 0 255 0
-0.196051 0.536372 2.252525 0 255 0
-0.188719 0.537884 2.259332 0 255 0
-0.183148 0.539633 2.267419 0 255 0
-0.173151 0.540814 2.272392 0 255 0
-0.162257 0.541890 2.276781 0 255 0
-0.146036 0.542297 2.277493 0 255 0
-0.128906 0.542608 2.277663 0 255 0
-0.112639 0.543049 2.278527 0 255 0
-0.106119 0.544737 2.286201 0 255 0
-0.095149 0.545874 2.290844 0 255 0
-0.282081 0.498510 2.197000 255 0 0
-0.274591 0.495808 2.185000 255 0 0
-0.267780 0.494240 2.178000 255 0 0
-0.261488 0.493579 2.175000 255 0 0
-0.255094 0.492690 2.171000 255 0 0
-0.248950 0.492256 2.169000 255 0 0
-0.242817 0.491821 2.167000 255 0 0
-0.236585 0.491158 2.164000 255 0 0
-0.230049 0.489814 2.158000 255 0 0
-0.223752 0.488924 2.154000 255 0 0
-0.217881 0.488941 2.154000 255 0 0
-0.211912 0.488731 2.153000 255 0 0
-0.205756 0.488066 2.150000 255 0 0
-0.199615 0.487401 2.147000 255 0 0
-0.193491 0.486736 2.144000 255 0 0
-0.187557 0.486524 2.143000 255 0 0
-0.181543 0.486085 2.141000 255 0 0
-0.175622 0.485872 2.140000 255 0 0
-0.169548 0.485205 2.137000 255 0 0
-0.163489 0.484537 2.134000 255 0 0
-0.157520 0.484096 2.132000 255 0 0
-0.151632 0.483882 2.131000 255 0 0
-0.145886 0.484121 2.132000 255 0 0
-0.140135 0.484360 2.133000 255 0 0
-0.134315 0.484371 2.133000 255 0 0
-0.128373 0.483927 2.131000 255 0 0
-0.122443 0.483484 2.129000 255 0 0
-0.116523 0.483039 2.127000 255 0 0
-0.110821 0.483503 2.129000 255 0 0
-0.105059 0.483739 2.130000 255 0 0
-0.099245 0.483748 2.130000 255 0 0
-0.093299 0.483074 2.127000 255 0 0
-0.087287 0.481946 2.122000 255 0 0
-0.081378 0.481272 2.119000 255 0 0
-0.075379 0.479916 2.113000 255 0 0
-0.069478 0.479013 2.109000 255 0 0
-0.063689 0.478792 2.108000 255 0 0
-0.057989 0.479251 2.110000 255 0 0
-0.052202 0.479029 2.109000 255 0 0
-0.046377 0.478352 2.106000 255 0 0
-0.040588 0.477901 2.104000 255 0 0
-0.034842 0.477904 2.104000 255 0 0
-0.029097 0.477907 2.104000 255 0 0
-0.023329 0.477455 2.102000 255 0 0
-0.017580 0.477229 2.101000 255 0 0
-0.011848 0.477458 2.102000 255 0 0
-0.006113 0.477913 2.104000 255 0 0
-0.000367 0.478140 2.105000 255 0 0
0.005381 0.478140 2.105000 255 0 0
0.011135 0.478366 2.106000 255 0 0
0.016887 0.478365 2.106000 255 0 0
0.022649 0.478591 2.107000 255 0 0
0.028403 0.478589 2.107000 255 0 0
0.034173 0.478813 2.108000 255 0 0
0.039910 0.478583 2.107000 255 0 0
0.045621 0.478125 2.105000 255 0 0
0.051369 0.478121 2.105000 255 0 0
0.057144 0.478343 2.106000 255 0 0
0.062954 0.478793 2.108000 255 0 0
0.068710 0.478787 2.108000 255 0 0
0.074465 0.478781 2.108000 255 0 0
0.080296 0.479229 2.110000 255 0 0
0.086179 0.479903 2.113000 255 0 0
0.092078 0.480577 2.116000 255 0 0
0.097808 0.480342 2.115000 255 0 0
0.103631 0.480561 2.116000 255 0 0
0.109251 0.479870 2.113000 255 0 0
0.115127 0.480315 2.115000 255 0 0
0.121071 0.480987 2.118000 255 0 0
0.127091 0.481885 2.122000 255 0 0
0.132944 0.482101 2.123000 255 0 0
0.138803 0.482317 2.124000 255 0 0
0.144735 0.482760 2.126000 255 0 0
0.150677 0.483202 2.128000 255 0 0
0.156776 0.484098 2.132000 255 0 0
0.162973 0.485220 2.137000 255 0 0
0.169119 0.486115 2.141000 255 0 0
-0.108130 0.602621 2.261405 255 255 0
-0.100968 0.601013 2.253634 255 255 0
-0.089486 0.599709 2.248997 255 255 0
-0.071968 0.598835 2.248781 255 255 0
-0.057934 0.597734 2.246134 255 255 0
-0.043922 0.596644 2.243546 255 255 0
-0.035103 0.595196 2.237223 255 255 0
-0.020268 0.594189 2.235375 255 255 0
-0.004596 0.593256 2.234230 255 255 0
0.012769 0.592463 2.234435 255 255 0
0.027529 0.591495 2.232791 255 255 0
0.043125 0.590604 2.231857 255 255 0
0.055269 0.589469 2.228401 255 255 0
0.057983 0.587631 2.217840 255 255 0
0.064972 0.586120 2.210537 255 255 0
0.074516 0.584809 2.205220 255 255 0
0.078930 0.583110 2.195988 255 255 0
0.076527 0.580880 2.181477 255 255 0
0.057967 0.577373 2.154332 255 255 0
0.060708 0.575529 2.143693 255 255 0
-0.184397 0.506969 2.160094 0 255 0
-0.228806 0.515654 2.205136 0 255 0
-0.239064 0.519551 2.224748 0 255 0
-0.236167 0.521620 2.234643 0 255 0
-0.223599 0.522368 2.237498 0 255 0
-0.214535 0.523608 2.242956 0 255 0
-0.198414 0.523902 2.243369 0 255 0
-0.197258 0.526231 2.254601 0 255 0
-0.189929 0.527732 2.261413 0 255 0
-0.185241 0.529591 2.270130 0 255 0
-0.173481 0.530518 2.273858 0 255 0
-0.160823 0.531340 2.277013 0 255 0
-0.149032 0.532290 2.280841 0 255 0
-0.131912 0.532560 2.281017 0 255 0
-0.115654 0.532963 2.281887 0 255 0
-0.102924 0.533840 2.285278 0 255 0
-0.093732 0.535185 2.291160 0 255 0
-0.291362 0.498136 2.222000 255 0 0
-0.281974 0.492329 2.196000 255 0 0
-0.274737 0.490107 2.186000 255 0 0
-0.267678 0.488110 2.177000 255 0 0
-0.261267 0.487233 2.173000 255 0 0
-0.255113 0.486804 2.171000 255 0 0
-0.249199 0.486823 2.171000 255 0 0
-0.243172 0.486617 2.170000 255 0 0
-0.236822 0.485739 2.166000 255 0 0
-0.230386 0.484636 2.161000 255 0 0
-0.224081 0.483756 2.157000 255 0 0
-0.218202 0.483773 2.157000 255 0 0
-0.212027 0.483117 2.154000 255 0 0
-0.205963 0.482685 2.152000 255 0 0
-0.199631 0.481580 2.147000 255 0 0
-0.193596 0.481146 2.145000 255 0 0
-0.187659 0.480937 2.144000 255 0 0
-0.181558 0.480279 2.141000 255 0 0
-0.175472 0.479620 2.138000 255 0 0
-0.169403 0.478961 2.135000 255 0 0
-0.163502 0.478750 2.134000 255 0 0
-0.157680 0.478763 2.134000 255 0 0
-0.151716 0.478327 2.132000 255 0 0
-0.146035 0.478788 2.134000 255 0 0
-0.140146 0.478575 2.133000 255 0 0
-0.134263 0.478362 2.132000 255 0 0
-0.128324 0.477924 2.130000 255 0 0
-0.122510 0.477935 2.130000 255 0 0
-0.116642 0.477720 2.129000 255 0 0
-0.110831 0.477729 2.129000 255 0 0
-0.104970 0.477514 2.128000 255 0 0
-0.099207 0.477747 2.129000 255 0 0
-0.093263 0.477082 2.126000 255 0 0
-0.087335 0.476416 2.123000 255 0 0
-0.081462 0.475974 2.121000 255 0 0
-0.075528 0.475083 2.117000 255 0 0
-0.069550 0.473743 2.111000 255 0 0
-0.063725 0.473300 2.109000 255 0 0
-0.057911 0.472856 2.107000 255 0 0
-0.052132 0.472636 2.106000 255 0 0
-0.046315 0.471967 2.103000 255 0 0
-0.040572 0.471971 2.103000 255 0 0
-0.034845 0.472198 2.104000 255 0 0
-0.029113 0.472425 2.105000 255 0 0
-0.023353 0.472203 2.104000 255 0 0
-0.017598 0.471980 2.103000 255 0 0
-0.011849 0.471757 2.102000 255 0 0
-0.006114 0.472207 2.104000 255 0 0
-0.000367 0.472431 2.105000 255 0 0
0.005382 0.472431 2.105000 255 0 0
0.011131 0.472431 2.105000 255 0 0
0.016880 0.472429 2.105000 255 0 0
0.022651 0.472877 2.107000 255 0 0
0.028392 0.472650 2.106000 255 0 0
0.034143 0.472647 2.106000 255 0 0
0.039857 0.472195 2.104000 255 0 0
0.045581 0.471967 2.103000 255 0 0
0.051349 0.472188 2.104000 255 0 0
0.057148 0.472632 2.106000 255 0 0
0.062959 0.473076 2.108000 255 0 0
0.068715 0.473070 2.108000 255 0 0
0.074471 0.473064 2.108000 255 0 0
0.080303 0.473507 2.110000 255 0 0
0.086187 0.474173 2.113000 255 0 0
0.092042 0.474614 2.115000 255 0 0
0.097863 0.474831 2.116000 255 0 0
0.103639 0.474822 2.116000 255 0 0
0.109364 0.474589 2.115000 255 0 0
0.115409 0.475702 2.120000 255 0 0
0.121424 0.476590 2.124000 255 0 0
0.127281 0.476804 2.125000 255 0 0
0.133081 0.476793 2.125000 255 0 0
0.138945 0.477006 2.126000 255 0 0
0.145019 0.477892 2.130000 255 0 0
0.150972 0.478329 2.132000 255 0 0
0.157010 0.478989 2.135000 255 0 0
0.163063 0.479649 2.138000 255 0 0
0.169132 0.480309 2.141000 255 0 0
0.175136 0.480744 2.143000 255 0 0
-0.110001 0.593832 2.274146 255 255 0
-0.100237 0.592416 2.268214 255 255 0
-0.091351 0.590946 2.261698 255 255 0
-0.078152 0.589794 2.258323 255 255 0
-0.064972 0.588652 2.255002 255 255 0
-0.050949 0.587584 2.252364 255 255 0
-0.039535 0.586337 2.247896 255 255 0
-0.027276 0.585163 2.244105 255 255 0
-0.015035 0.583998 2.240364 255 255 0
0.001487 0.583169 2.239859 255 255 0
0.015405 0.582157 2.237509 255 255 0
0.029300 0.581157 2.235218 255 255 0
0.044889 0.580302 2.234277 255 255 0
0.057884 0.579259 2.231463 255 255 0
0.061453 0.577487 2.221556 255 255 0
0.070147 0.576122 2.215562 255 255 0
0.083951 0.575172 2.213524 255 255 0
0.089208 0.573548 2.204973 255 255 0
0.085096 0.571166 2.189173 255 255 0
0.094610 0.569890 2.183924 255 255 0
0.099863 0.568271 2.175384 255 255 0
0.088136 0.565245 2.153505 255 255 0
-0.234391 0.506165 2.210431 0 255 0
-0.239381 0.509355 2.226155 0 255 0
-0.239994 0.511920 2.238620 0 255 0
-0.225677 0.512393 2.240198 0 255 0
-0.215737 0.513493 2.245022 0 255 0
-0.204906 0.514481 2.249250 0 255 0
-0.201109 0.516448 2.258571 0 255 0
-0.194666 0.518057 2.266010 0 255 0
-0.184687 0.519189 2.270961 0 255 0
-0.177347 0.520690 2.277821 0 255 0
-0.167347 0.521840 2.282840 0 255 0
-0.155567 0.522763 2.286661 0 255 0
-0.137574 0.522871 2.286218 0 255 0
-0.118669 0.522881 2.285246 0 255 0
-0.104172 0.523496 2.287418 0 255 0
-0.094094 0.524708 2.292698 0 255 0
-0.290990 0.491446 2.219000 255 0 0
-0.281995 0.486373 2.196000 255 0 0
-0.274883 0.484401 2.187000 255 0 0
-0.267820 0.482427 2.178000 255 0 0
-0.261407 0.481561 2.174000 255 0 0
-0.255368 0.481359 2.173000 255 0 0
-0.249447 0.481378 2.173000 255 0 0
-0.243527 0.481397 2.173000 255 0 0
-0.237168 0.480529 2.169000 255 0 0
-0.230937 0.479883 2.166000 255 0 0
-0.224514 0.478792 2.161000 255 0 0
-0.218522 0.478588 2.160000 255 0 0
-0.212437 0.478162 2.158000 255 0 0
-0.206171 0.477292 2.154000 255 0 0
-0.199926 0.476421 2.150000 255 0 0
-0.193882 0.475994 2.148000 255 0 0
-0.187937 0.475787 2.147000 255 0 0
-0.181827 0.475137 2.144000 255 0 0
-0.175733 0.474487 2.141000 255 0 0
-0.169654 0.473836 2.138000 255 0 0
-0.163668 0.473406 2.136000 255 0 0
-0.157693 0.472975 2.134000 255 0 0
-0.151728 0.472545 2.132000 255 0 0
-0.145842 0.472335 2.131000 255 0 0
-0.139895 0.471903 2.129000 255 0 0
-0.134085 0.471915 2.129000 255 0 0
-0.128274 0.471925 2.129000 255 0 0
-0.122463 0.471936 2.129000 255 0 0
-0.116652 0.471945 2.129000 255 0 0
-0.110736 0.471512 2.127000 255 0 0
-0.104880 0.471299 2.126000 255 0 0
-0.099075 0.471307 2.126000 255 0 0
-0.093315 0.471537 2.127000 255 0 0
-0.087466 0.471323 2.126000 255 0 0
-0.081622 0.471108 2.125000 255 0 0
-0.075677 0.470228 2.121000 255 0 0
-0.069655 0.468682 2.114000 255 0 0
-0.063730 0.467579 2.109000 255 0 0
-0.057833 0.466476 2.104000 255 0 0
-0.052087 0.466480 2.104000 255 0 0
-0.046319 0.466263 2.103000 255 0 0
-0.040575 0.466266 2.103000 255 0 0
-0.034815 0.466048 2.102000 255 0 0
-0.029088 0.466272 2.103000 255 0 0
-0.023344 0.466274 2.103000 255 0 0
-0.017616 0.466720 2.105000 255 0 0
-0.011861 0.466499 2.104000 255 0 0
-0.006120 0.466943 2.106000 255 0 0
-0.000368 0.467165 2.107000 255 0 0
0.005382 0.466722 2.105000 255 0 0
0.011127 0.466499 2.104000 255 0 0
0.016865 0.466276 2.103000 255 0 0
0.022631 0.466718 2.105000 255 0 0
0.028380 0.466716 2.105000 255 0 0
0.034114 0.466492 2.104000 255 0 0
0.039860 0.466488 2.104000 255 0 0
0.045585 0.466263 2.103000 255 0 0
0.051328 0.466259 2.103000 255 0 0
0.057126 0.466698 2.105000 255 0 0
0.062964 0.467358 2.108000 255 0 0
0.068786 0.467796 2.110000 255 0 0
0.074548 0.467790 2.110000 255 0 0
0.080424 0.468449 2.113000 255 0 0
0.086235 0.468663 2.114000 255 0 0
0.092137 0.469321 2.117000 255 0 0
0.097871 0.469091 2.116000 255 0 0
0.103697 0.469305 2.117000 255 0 0
0.109528 0.469518 2.118000 255 0 0
0.115637 0.470838 2.124000 255 0 0
0.121606 0.471494 2.127000 255 0 0
0.127412 0.471483 2.127000 255 0 0
0.133217 0.471473 2.127000 255 0 0
0.139218 0.472127 2.130000 255 0 0
0.145099 0.472337 2.131000 255 0 0
0.150914 0.472325 2.131000 255 0 0
0.156949 0.472977 2.134000 255 0 0
0.163076 0.473851 2.138000 255 0 0
0.169146 0.474502 2.141000 255 0 0
0.175231 0.475153 2.144000 255 0 0
-0.117081 0.584664 2.283216 255 255 0
-0.109043 0.583133 2.276019 255 255 0
-0.099281 0.581735 2.270082 255 255 0
-0.090398 0.580280 2.263561 255 255 0
-0.074609 0.579350 2.262042 255 255 0
-0.061436 0.578238 2.258719 255 255 0
-0.044832 0.577400 2.257960 255 255 0
-0.037736 0.575846 2.250355 255 255 0
-0.027204 0.574564 2.245295 255 255 0
-0.010665 0.573761 2.244714 255 255 0
0.011861 0.573446 2.248665 255 255 0
0.030914 0.572878 2.250168 255 255 0
0.035359 0.571162 2.240854 255 255 0
0.044941 0.569862 2.235408 255 255 0
0.057932 0.568847 2.232583 255 255 0
0.072614 0.567982 2.231112 255 255 0
0.079588 0.566496 2.223839 255 255 0
0.083996 0.564803 2.214622 255 255 0
0.089254 0.563182 2.206066 255 255 0
0.100467 0.562067 2.202134 255 255 0
0.110813 0.560888 2.197583 255 255 0
0.115200 0.559209 2.188422 255 255 0
0.111950 0.556874 2.173263 255 255 0
0.101936 0.553944 2.152708 255 255 0
-0.167608 0.483655 2.150021 0 255 0
-0.212818 0.492759 2.195692 0 255 0
-0.234440 0.498391 2.223703 0 255 0
-0.239433 0.501600 2.239389 0 255 0
-0.232146 0.503046 2.246089 0 255 0
-0.221335 0.503998 2.250267 0 255 0
-0.209632 0.504836 2.253856 0 255 0
-0.210241 0.507420 2.266323 0 255 0
-0.200281 0.508520 2.271230 0 255 0
-0.189429 0.509508 2.275548 0 255 0
-0.181211 0.510873 2.281780 0 255 0
-0.169450 0.511759 2.285557 0 255 0
-0.162097 0.513262 2.292473 0 255 0
-0.145885 0.513565 2.293258 0 255 0
-0.132310 0.514246 2.295957 0 255 0
-0.116943 0.514701 2.297493 0 255 0
-0.104218 0.515530 2.300923 0 255 0
-0.092364 0.516489 2.305012 0 255 0
-0.292061 0.487178 2.227000 255 0 0
-0.282015 0.480417 2.196000 255 0 0
-0.275155 0.478906 2.189000 255 0 0
-0.268209 0.477176 2.181000 255 0 0
-0.261908 0.476540 2.178000 255 0 0
-0.255857 0.476340 2.177000 255 0 0
-0.249926 0.476359 2.177000 255 0 0
-0.243657 0.475722 2.174000 255 0 0
-0.237405 0.475084 2.171000 255 0 0
-0.231168 0.474445 2.168000 255 0 0
-0.224635 0.473149 2.162000 255 0 0
-0.218539 0.472729 2.160000 255 0 0
-0.212355 0.472089 2.157000 255 0 0
-0.206283 0.471668 2.155000 255 0 0
-0.200034 0.470808 2.151000 255 0 0
-0.193898 0.470167 2.148000 255 0 0
-0.187864 0.469744 2.146000 255 0 0
-0.181841 0.469321 2.144000 255 0 0
-0.175665 0.468460 2.140000 255 0 0
-0.169747 0.468255 2.139000 255 0 0
-0.163758 0.467830 2.137000 255 0 0
-0.157779 0.467405 2.135000 255 0 0
-0.151740 0.466761 2.132000 255 0 0
-0.145717 0.466116 2.129000 255 0 0
-0.139709 0.465471 2.126000 255 0 0
-0.133907 0.465482 2.126000 255 0 0
-0.128104 0.465493 2.126000 255 0 0
-0.122358 0.465722 2.127000 255 0 0
-0.116552 0.465732 2.127000 255 0 0
-0.110693 0.465522 2.126000 255 0 0
-0.104790 0.465093 2.124000 255 0 0
-0.098990 0.465102 2.124000 255 0 0
-0.093191 0.465110 2.124000 255 0 0
-0.087473 0.465555 2.126000 255 0 0
-0.081706 0.465781 2.127000 255 0 0
-0.075755 0.464912 2.123000 255 0 0
-0.069726 0.463385 2.116000 255 0 0
-0.063736 0.461857 2.109000 255 0 0
-0.057866 0.460987 2.105000 255 0 0
-0.052141 0.461210 2.106000 255 0 0
-0.046345 0.460776 2.104000 255 0 0
-0.040579 0.460561 2.103000 255 0 0
-0.034801 0.460126 2.101000 255 0 0
-0.029090 0.460567 2.103000 255 0 0
-0.023379 0.461226 2.106000 255 0 0
-0.017634 0.461447 2.107000 255 0 0
-0.011873 0.461229 2.106000 255 0 0
-0.006120 0.461230 2.106000 255 0 0
-0.000368 0.461230 2.106000 255 0 0
0.005383 0.461011 2.105000 255 0 0
0.011122 0.460572 2.103000 255 0 0
0.016867 0.460571 2.103000 255 0 0
0.022601 0.460350 2.102000 255 0 0
0.028329 0.460129 2.101000 255 0 0
0.034068 0.460126 2.101000 255 0 0
0.039845 0.460561 2.103000 255 0 0
0.045610 0.460777 2.104000 255 0 0
0.051382 0.460992 2.105000 255 0 0
0.057131 0.460987 2.105000 255 0 0
0.062940 0.461420 2.107000 255 0 0
0.068759 0.461853 2.109000 255 0 0
0.074590 0.462285 2.111000 255 0 0
0.080469 0.462935 2.114000 255 0 0
0.086323 0.463366 2.116000 255 0 0
0.092232 0.464016 2.119000 255 0 0
0.097972 0.463789 2.118000 255 0 0
0.103754 0.463780 2.118000 255 0 0
0.109692 0.464429 2.121000 255 0 0
0.115809 0.465733 2.127000 255 0 0
0.121787 0.466380 2.130000 255 0 0
0.127602 0.466370 2.130000 255 0 0
0.133416 0.466359 2.130000 255 0 0
0.139295 0.466567 2.131000 255 0 0
0.145178 0.466775 2.132000 255 0 0
0.151067 0.466982 2.133000 255 0 0
0.157109 0.467626 2.136000 255 0 0
0.163165 0.468270 2.139000 255 0 0
0.169317 0.469132 2.143000 255 0 0
0.175491 0.469994 2.147000 255 0 0
-0.116121 0.573947 2.285094 255 255 0
-0.109818 0.572296 2.276667 255 255 0
-0.098325 0.571048 2.271951 255 255 0
-0.076253 0.568511 2.262031 255 255 0
-0.062218 0.567494 2.259317 255 255 0
-0.043893 0.566830 2.259793 255 255 0
-0.032492 0.565631 2.255326 255 255 0
-0.020246 0.564510 2.251535 255 255 0
-0.005438 0.563609 2.249694 255 255 0
0.017074 0.563352 2.253641 255 255 0
0.030968 0.562409 2.251314 255 255 0
0.032843 0.560481 2.240072 255 255 0
0.038146 0.558838 2.231393 255 255 0
0.055418 0.558207 2.231768 255 255 0
0.077785 0.558027 2.236113 255 255 0
0.088167 0.556845 2.231453 255 255 0
0.089157 0.554864 2.219643 255 255 0
0.097817 0.553545 2.213722 255 255 0
0.108167 0.552382 2.209146 255 255 0
0.113405 0.550778 2.200643 255 255 0
0.112697 0.548650 2.187502 255 255 0
0.115391 0.546821 2.177001 255 255 0
0.110464 0.544307 2.160474 255 255 0
-0.212283 0.482325 2.196477 0 255 0
-0.225127 0.486740 2.218046 0 255 0
-0.236244 0.490880 2.238240 0 255 0
-0.232466 0.492828 2.247507 0 255 0
-0.226929 0.494524 2.255507 0 255 0
-0.219630 0.495969 2.262253 0 255 0
-0.215845 0.497927 2.271543 0 255 0
-0.212057 0.499886 2.280835 0 255 0
-0.193285 0.499718 2.279506 0 255 0
-0.180661 0.500443 2.282623 0 255 0
-0.168022 0.501181 2.285794 0 255 0
-0.158900 0.502426 2.291487 0 255 0
-0.148000 0.503433 2.295985 0 255 0
-0.135316 0.504206 2.299303 0 255 0
-0.120844 0.504747 2.301455 0 255 0
-0.108126 0.505547 2.304886 0 255 0
-0.092730 0.505996 2.306557 0 255 0
-0.293000 0.482649 2.234000 255 0 0
-0.282935 0.475972 2.203000 255 0 0
-0.275930 0.474264 2.195000 255 0 0
-0.268844 0.472340 2.186000 255 0 0
-0.262408 0.471495 2.182000 255 0 0
-0.256346 0.471299 2.181000 255 0 0
-0.250519 0.471534 2.182000 255 0 0
-0.244124 0.470688 2.178000 255 0 0
-0.237751 0.469842 2.174000 255 0 0
-0.231186 0.468563 2.168000 255 0 0
-0.224653 0.467284 2.162000 255 0 0
-0.218556 0.466869 2.160000 255 0 0
-0.212470 0.466453 2.158000 255 0 0
-0.206490 0.466253 2.157000 255 0 0
-0.200236 0.465405 2.153000 255 0 0
-0.193913 0.464339 2.148000 255 0 0
-0.187879 0.463922 2.146000 255 0 0
-0.181856 0.463504 2.144000 255 0 0
-0.175679 0.462654 2.140000 255 0 0
-0.169681 0.462235 2.138000 255 0 0
-0.163771 0.462032 2.137000 255 0 0
-0.157792 0.461613 2.135000 255 0 0
-0.151752 0.460976 2.132000 255 0 0
-0.145660 0.460124 2.128000 255 0 0
-0.139721 0.459703 2.126000 255 0 0
-0.133855 0.459498 2.125000 255 0 0
-0.128054 0.459508 2.125000 255 0 0
-0.122310 0.459735 2.126000 255 0 0
-0.116451 0.459528 2.125000 255 0 0
-0.110754 0.459970 2.127000 255 0 0
-0.104946 0.459979 2.127000 255 0 0
-0.099045 0.459555 2.125000 255 0 0
-0.093155 0.459130 2.123000 255 0 0
-0.087398 0.459354 2.124000 255 0 0
-0.081674 0.459793 2.126000 255 0 0
-0.075761 0.459151 2.123000 255 0 0
-0.069765 0.457859 2.117000 255 0 0
-0.063832 0.456784 2.112000 255 0 0
-0.058008 0.456356 2.110000 255 0 0
-0.052245 0.456361 2.110000 255 0 0
-0.046415 0.455716 2.107000 255 0 0
-0.040601 0.455071 2.104000 255 0 0
-0.034821 0.454641 2.102000 255 0 0
-0.029092 0.454860 2.103000 255 0 0
-0.023381 0.455511 2.106000 255 0 0
-0.017644 0.455946 2.108000 255 0 0
-0.011880 0.455731 2.107000 255 0 0
-0.006124 0.455731 2.107000 255 0 0
-0.000368 0.455515 2.106000 255 0 0
0.005381 0.455083 2.104000 255 0 0
0.011118 0.454649 2.102000 255 0 0
0.016860 0.454648 2.102000 255 0 0
0.022592 0.454430 2.101000 255 0 0
0.028331 0.454428 2.101000 255 0 0
0.034071 0.454425 2.101000 255 0 0
0.039848 0.454855 2.103000 255 0 0
0.045614 0.455068 2.104000 255 0 0
0.051435 0.455712 2.107000 255 0 0
0.057163 0.455492 2.106000 255 0 0
0.062975 0.455919 2.108000 255 0 0
0.068798 0.456346 2.110000 255 0 0
0.074737 0.457422 2.115000 255 0 0
0.080628 0.458064 2.118000 255 0 0
0.086494 0.458490 2.120000 255 0 0
0.092283 0.458482 2.120000 255 0 0
0.098026 0.458258 2.119000 255 0 0
0.103812 0.458250 2.119000 255 0 0
0.109805 0.459106 2.123000 255 0 0
0.115873 0.460178 2.128000 255 0 0
0.121855 0.460817 2.131000 255 0 0
0.127672 0.460807 2.131000 255 0 0
0.133552 0.461013 2.132000 255 0 0
0.139502 0.461434 2.134000 255 0 0
0.145326 0.461422 2.134000 255 0 0
0.151221 0.461627 2.135000 255 0 0
0.157268 0.462263 2.138000 255 0 0
0.163331 0.462899 2.141000 255 0 0
0.169647 0.464183 2.147000 255 0 0
0.175913 0.465250 2.152000 255 0 0
0.182460 0.466965 2.160000 255 0 0
-0.112558 0.563430 2.288806 255 255 0
-0.109724 0.561512 2.277931 255 255 0
-0.099965 0.560148 2.271974 255 255 0
-0.089354 0.558860 2.266670 255 255 0
-0.072711 0.558073 2.265748 255 255 0
-0.061272 0.556875 2.261164 255 255 0
-0.043816 0.556184 2.261003 255 255 0
-0.032417 0.555007 2.256526 255 255 0
-0.017593 0.554127 2.254615 255 255 0
0.000644 0.553550 2.255301 255 255 0
0.016276 0.552769 2.254166 255 255 0
0.033597 0.552149 2.254376 255 255 0
0.036328 0.550290 2.243779 255 255 0
0.041628 0.548653 2.235105 255 255 0
0.057181 0.547915 2.234185 255 255 0
0.076977 0.547566 2.236574 255 255 0
0.091622 0.546782 2.235156 255 255 0
0.095167 0.545021 2.225312 255 255 0
0.104671 0.543797 2.220056 255 255 0
0.105659 0.541810 2.208253 255 255 0
0.109202 0.540054 2.198416 255 255 0
0.109351 0.537987 2.185926 255 255 0
0.112898 0.536231 2.176076 255 255 0
0.113059 0.534161 2.163553 255 255 0
-0.212627 0.472008 2.197911 0 255 0
-0.221082 0.475813 2.216260 0 255 0
-0.228680 0.479474 2.233900 0 255 0
-0.225771 0.481557 2.243832 0 255 0
-0.224618 0.483900 2.255029 0 255 0
-0.221712 0.485983 2.264950 0 255 0
-0.224082 0.488841 2.278644 0 255 0
-0.214140 0.489896 2.283530 0 255 0
-0.198021 0.490065 2.284085 0 255 0
-0.179234 0.489869 2.282848 0 255 0
-0.165715 0.490455 2.285417 0 255 0
-0.158360 0.491938 2.292360 0 255 0
-0.150114 0.493301 2.298712 0 255 0
-0.136552 0.493921 2.301424 0 255 0
-0.122086 0.494429 2.303586 0 255 0
-0.110260 0.495325 2.307632 0 255 0
-0.099305 0.496357 2.312331 0 255 0
-0.291447 0.474027 2.222000 255 0 0
-0.283341 0.470635 2.206000 255 0 0
-0.276453 0.469162 2.199000 255 0 0
-0.269356 0.467262 2.190000 255 0 0
-0.262548 0.465788 2.183000 255 0 0
-0.256483 0.465594 2.182000 255 0 0
-0.250652 0.465827 2.183000 255 0 0
-0.244703 0.465845 2.183000 255 0 0
-0.238207 0.464797 2.178000 255 0 0
-0.231523 0.463321 2.171000 255 0 0
-0.224982 0.462058 2.165000 255 0 0
-0.218776 0.461435 2.162000 255 0 0
-0.212684 0.461024 2.160000 255 0 0
-0.206506 0.460400 2.157000 255 0 0
-0.200159 0.459349 2.152000 255 0 0
-0.193838 0.458297 2.147000 255 0 0
-0.187807 0.457885 2.145000 255 0 0
-0.181870 0.457686 2.144000 255 0 0
-0.175693 0.456846 2.140000 255 0 0
-0.169695 0.456433 2.138000 255 0 0
-0.163708 0.456019 2.136000 255 0 0
-0.157805 0.455819 2.135000 255 0 0
-0.151836 0.455404 2.133000 255 0 0
-0.145877 0.454989 2.131000 255 0 0
-0.139929 0.454574 2.129000 255 0 0
-0.133991 0.454158 2.127000 255 0 0
-0.128125 0.453955 2.126000 255 0 0
-0.122378 0.454179 2.127000 255 0 0
-0.116516 0.453975 2.126000 255 0 0
-0.110763 0.454198 2.127000 255 0 0
-0.104955 0.454206 2.127000 255 0 0
-0.099100 0.454001 2.126000 255 0 0
-0.093118 0.453155 2.122000 255 0 0
-0.087364 0.453376 2.123000 255 0 0
-0.081681 0.454024 2.126000 255 0 0
-0.075839 0.453816 2.125000 255 0 0
-0.069837 0.452541 2.119000 255 0 0
-0.063928 0.451692 2.115000 255 0 0
-0.058095 0.451270 2.113000 255 0 0
-0.052298 0.451061 2.112000 255 0 0
-0.046441 0.450211 2.108000 255 0 0
-0.040643 0.449788 2.106000 255 0 0
-0.034857 0.449364 2.104000 255 0 0
-0.029123 0.449580 2.105000 255 0 0
-0.023383 0.449796 2.106000 255 0 0
-0.017637 0.450011 2.107000 255 0 0
-0.011870 0.449585 2.105000 255 0 0
-0.006116 0.449372 2.104000 255 0 0
-0.000367 0.449159 2.103000 255 0 0
0.005381 0.449372 2.104000 255 0 0
0.011124 0.449158 2.103000 255 0 0
0.016870 0.449157 2.103000 255 0 0
0.022604 0.448942 2.102000 255 0 0
0.028347 0.448939 2.102000 255 0 0
0.034074 0.448723 2.101000 255 0 0
0.039870 0.449361 2.104000 255 0 0
0.045640 0.449571 2.105000 255 0 0
0.051463 0.450208 2.108000 255 0 0
0.057195 0.449990 2.107000 255 0 0
0.063040 0.450625 2.110000 255 0 0
0.068803 0.450620 2.110000 255 0 0
0.074814 0.452109 2.117000 255 0 0
0.080673 0.452530 2.119000 255 0 0
0.086623 0.453377 2.123000 255 0 0
0.092334 0.452942 2.121000 255 0 0
0.098127 0.452934 2.121000 255 0 0
0.103870 0.452713 2.120000 255 0 0
0.109969 0.453985 2.126000 255 0 0
0.116046 0.455044 2.131000 255 0 0
0.122093 0.455888 2.135000 255 0 0
0.127922 0.455878 2.135000 255 0 0
0.133876 0.456294 2.137000 255 0 0
0.139775 0.456497 2.138000 255 0 0
0.145679 0.456699 2.139000 255 0 0
0.151517 0.456687 2.139000 255 0 0
0.157575 0.457315 2.142000 255 0 0
0.163573 0.457729 2.144000 255 0 0
0.169819 0.458783 2.149000 255 0 0
0.176091 0.459837 2.154000 255 0 0
0.182559 0.461317 2.161000 255 0 0
-0.111597 0.552709 2.290686 255 255 0
-0.107030 0.550931 2.281034 255 255 0
-0.096410 0.549657 2.275691 255 255 0
-0.081483 0.548753 2.273474 255 255 0
-0.066580 0.547862 2.271321 255 255 0
-0.059462 0.546324 2.263634 255 255 0
-0.047182 0.545232 2.259715 255 255 0
-0.032339 0.544372 2.257728 255 255 0
-0.009783 0.544197 2.261472 255 255 0
0.006723 0.543516 2.260903 255 255 0
0.023201 0.542850 2.260407 255 255 0
0.031082 0.541438 2.253612 255 255 0
0.038099 0.539956 2.246203 255 255 0
0.045963 0.538554 2.239456 255 255 0
0.060652 0.537777 2.237891 255 255 0
0.078731 0.537323 2.238980 255 255 0
0.095928 0.536806 2.239504 255 255 0
0.105431 0.535598 2.234236 255 255 0
0.112370 0.534158 2.227037 255 255 0
0.111654 0.532008 2.213940 255 255 0
0.108401 0.529614 2.198838 255 255 0
0.111946 0.527857 2.188994 255 255 0
0.118033 0.526343 2.181141 255 255 0
0.120730 0.524508 2.170635 255 255 0
-0.198984 0.459525 2.189042 0 255 0
-0.217044 0.464850 2.214482 0 255 0
-0.217624 0.467477 2.227019 0 255 0
-0.215581 0.469701 2.237624 0 255 0
-0.223191 0.473384 2.255192 0 255 0
-0.222916 0.475866 2.267015 0 255 0
-0.220009 0.477951 2.276933 0 255 0
-0.205668 0.478334 2.278711 0 255 0
-0.194830 0.479255 2.283046 0 255 0
-0.176049 0.479016 2.281837 0 255 0
-0.166059 0.480092 2.286901 0 255 0
-0.150763 0.480404 2.288307 0 255 0
-0.141629 0.481629 2.294077 0 255 0
-0.127180 0.482097 2.296216 0 255 0
-0.116251 0.483089 2.300852 0 255 0
-0.103538 0.483838 2.304321 0 255 0
-0.097013 0.485482 2.312066 0 255 0
-0.085160 0.486378 2.316226 0 255 0
-0.292518 0.469683 2.230000 255 0 0
-0.283876 0.465491 2.210000 255 0 0
-0.276976 0.464037 2.203000 255 0 0
-0.269499 0.461530 2.191000 255 0 0
-0.262568 0.459864 2.183000 255 0 0
-0.256502 0.459673 2.182000 255 0 0
-0.251016 0.460534 2.186000 255 0 0
-0.245282 0.460975 2.188000 255 0 0
-0.238881 0.460150 2.184000 255 0 0
-0.231968 0.458272 2.175000 255 0 0
-0.225311 0.456814 2.168000 255 0 0
-0.218894 0.455778 2.163000 255 0 0
-0.212799 0.455373 2.161000 255 0 0
-0.206618 0.454757 2.158000 255 0 0
-0.200267 0.453719 2.153000 255 0 0
-0.194124 0.453102 2.150000 255 0 0
-0.187821 0.452063 2.145000 255 0 0
-0.181885 0.451867 2.144000 255 0 0
-0.175706 0.451038 2.140000 255 0 0
-0.169629 0.450419 2.137000 255 0 0
-0.163567 0.449800 2.134000 255 0 0
-0.157596 0.449392 2.132000 255 0 0
-0.151777 0.449404 2.132000 255 0 0
-0.146026 0.449627 2.133000 255 0 0
-0.140203 0.449638 2.133000 255 0 0
-0.134254 0.449228 2.131000 255 0 0
-0.128256 0.448606 2.128000 255 0 0
-0.122388 0.448405 2.127000 255 0 0
-0.116525 0.448204 2.126000 255 0 0
-0.110720 0.448213 2.126000 255 0 0
-0.104963 0.448433 2.127000 255 0 0
-0.099108 0.448230 2.126000 255 0 0
-0.093258 0.448027 2.125000 255 0 0
-0.087413 0.447824 2.124000 255 0 0
-0.081649 0.448042 2.125000 255 0 0
-0.075809 0.447837 2.124000 255 0 0
-0.069842 0.446789 2.119000 255 0 0
-0.063993 0.446373 2.117000 255 0 0
-0.058155 0.445956 2.115000 255 0 0
-0.052328 0.445539 2.113000 255 0 0
-0.046489 0.444911 2.110000 255 0 0
-0.040685 0.444493 2.108000 255 0 0
-0.034909 0.444285 2.107000 255 0 0
-0.029153 0.444288 2.107000 255 0 0
-0.023396 0.444290 2.107000 255 0 0
-0.017639 0.444291 2.107000 255 0 0
-0.011876 0.444082 2.106000 255 0 0
-0.006119 0.443872 2.105000 255 0 0
-0.000367 0.443661 2.104000 255 0 0
0.005381 0.443661 2.104000 255 0 0
0.011130 0.443660 2.104000 255 0 0
0.016871 0.443448 2.103000 255 0 0
0.022628 0.443657 2.104000 255 0 0
0.028376 0.443655 2.104000 255 0 0
0.034125 0.443653 2.104000 255 0 0
0.039892 0.443860 2.105000 255 0 0
0.045665 0.444068 2.106000 255 0 0
0.051468 0.444485 2.108000 255 0 0
0.057254 0.444692 2.109000 255 0 0
0.063075 0.445109 2.111000 255 0 0
0.068907 0.445525 2.113000 255 0 0
0.074856 0.446573 2.118000 255 0 0
0.080717 0.446988 2.120000 255 0 0
0.086590 0.447403 2.122000 255 0 0
0.092298 0.446974 2.120000 255 0 0
0.098088 0.446966 2.120000 255 0 0
0.103927 0.447169 2.121000 255 0 0
0.110133 0.448847 2.129000 255 0 0
0.116273 0.450103 2.135000 255 0 0
0.122332 0.450936 2.139000 255 0 0
0.128172 0.450926 2.139000 255 0 0
0.134137 0.451337 2.141000 255 0 0
0.140113 0.451748 2.143000 255 0 0
0.145895 0.451525 2.142000 255 0 0
0.151812 0.451724 2.143000 255 0 0
0.157882 0.452344 2.146000 255 0 0
0.163968 0.452964 2.149000 255 0 0
0.170148 0.453794 2.153000 255 0 0
0.176105 0.453991 2.154000 255 0 0
0.182404 0.455030 2.159000 255 0 0
-0.125612 0.542883 2.294948 255 255 0
-0.111501 0.541909 2.291958 255 255 0
-0.105202 0.540280 2.283525 255 255 0
-0.091992 0.539251 2.280019 255 255 0
-0.079665 0.538157 2.275952 255 255 0
-0.062179 0.537526 2.275650 255 255 0
-0.055066 0.535999 2.267969 255 255 0
-0.040211 0.535164 2.265924 255 255 0
-0.026240 0.534264 2.263318 255 255 0
-0.004556 0.534070 2.266434 255 255 0
0.013655 0.533586 2.267128 255 255 0
0.025834 0.532571 2.263469 255 255 0
0.034568 0.531251 2.257312 255 255 0
0.040725 0.529700 2.249267 255 255 0
0.052859 0.528710 2.245728 255 255 0
0.064976 0.527729 2.242239 255 255 0
0.077927 0.526838 2.239446 255 255 0
0.090859 0.525958 2.236707 255 255 0
0.099515 0.524682 2.230764 255 255 0
0.105609 0.523167 2.222886 255 255 0
0.113398 0.521820 2.216337 255 255 0
0.116087 0.519983 2.205856 255 255 0
0.122168 0.518478 2.198015 255 255 0
0.124011 0.516560 2.186867 255 255 0
0.135160 0.515563 2.183042 255 255 0
-0.213889 0.453988 2.213355 0 255 0
-0.216213 0.456901 2.227179 0 255 0
-0.212415 0.458860 2.236520 0 255 0
-0.218260 0.462306 2.252827 0 255 0
-0.222366 0.465474 2.267819 0 255 0
-0.218578 0.467427 2.277116 0 255 0
-0.208637 0.468447 2.282038 0 255 0
-0.197805 0.469344 2.286376 0 255 0
-0.180795 0.469324 2.286414 0 255 0
-0.167287 0.469850 2.289004 0 255 0
-0.156408 0.470784 2.293498 0 255 0
-0.147281 0.471990 2.299261 0 255 0
-0.134609 0.472683 2.302617 0 255 0
-0.121037 0.473259 2.305420 0 255 0
-0.102137 0.473074 2.304654 0 255 0
-0.095611 0.474710 2.312410 0 255 0
-0.087307 0.476096 2.318986 0 255 0
-0.293589 0.465293 2.238000 255 0 0
-0.284410 0.460325 2.214000 255 0 0
-0.277374 0.458682 2.206000 255 0 0
-0.270011 0.456415 2.195000 255 0 0
-0.262708 0.454147 2.184000 255 0 0
-0.256639 0.453958 2.183000 255 0 0
-0.250920 0.454393 2.185000 255 0 0
-0.245413 0.455243 2.189000 255 0 0
-0.239446 0.455262 2.189000 255 0 0
-0.232732 0.453824 2.182000 255 0 0
-0.225952 0.452177 2.174000 255 0 0
-0.219012 0.450114 2.164000 255 0 0
-0.212815 0.449507 2.161000 255 0 0
-0.206730 0.449107 2.159000 255 0 0
-0.200562 0.448499 2.156000 255 0 0
-0.194410 0.447890 2.153000 255 0 0
-0.187924 0.446449 2.146000 255 0 0
-0.181899 0.446047 2.144000 255 0 0
-0.175720 0.445229 2.140000 255 0 0
-0.169801 0.445034 2.139000 255 0 0
-0.163504 0.443799 2.133000 255 0 0
-0.157608 0.443604 2.132000 255 0 0
-0.151718 0.443408 2.131000 255 0 0
-0.145969 0.443628 2.132000 255 0 0
-0.140083 0.443431 2.131000 255 0 0
-0.134139 0.443026 2.129000 255 0 0
-0.128326 0.443037 2.129000 255 0 0
-0.122513 0.443047 2.129000 255 0 0
-0.116644 0.442848 2.128000 255 0 0
-0.110677 0.442233 2.125000 255 0 0
-0.104824 0.442034 2.124000 255 0 0
