ply
format ascii 1.0
element vertex 1327
property double x
property double y
property double z
property uchar red
property uchar green
property uchar blue
end_header
0.092885 0.467300 2.134000 255 0 0
0.098943 0.468387 2.139000 255 0 0
0.104979 0.469255 2.143000 255 0 0
0.110882 0.469465 2.144000 255 0 0
0.116789 0.469674 2.145000 255 0 0
0.122817 0.470321 2.148000 255 0 0
0.128740 0.470530 2.149000 255 0 0
0.134794 0.471176 2.152000 255 0 0
0.140994 0.472260 2.157000 255 0 0
0.147085 0.472905 2.160000 255 0 0
0.153192 0.473549 2.163000 255 0 0
0.159168 0.473756 2.164000 255 0 0
-0.119355 0.571568 2.269919 255 255 0
-0.099192 0.570982 2.271335 255 255 0
-0.074737 0.570749 2.275937 255 255 0
-0.063290 0.569525 2.271345 255 255 0
-0.050132 0.568446 2.268045 255 255 0
-0.036132 0.567447 2.265427 255 255 0
-0.027323 0.566045 2.259097 255 255 0
-0.017664 0.564718 2.253428 255 255 0
-0.008018 0.563399 2.247793 255 255 0
0.012781 0.563001 2.250462 255 255 0
0.029252 0.562267 2.250037 255 255 0
0.043127 0.561335 2.247764 255 255 0
0.056979 0.560414 2.245550 255 255 0
0.063969 0.558928 2.238228 255 255 0
0.066680 0.557084 2.227682 255 255 0
0.071953 0.555458 2.219083 255 255 0
0.082338 0.554276 2.214415 255 255 0
0.084193 0.552363 2.203224 255 255 0
0.086902 0.550524 2.192681 255 255 0
0.099810 0.549581 2.190065 255 255 0
-0.246979 0.482454 2.197935 0 255 0
-0.253696 0.485959 2.214983 0 255 0
-0.253428 0.488415 2.226809 0 255 0
-0.251412 0.490611 2.237330 0 255 0
-0.246767 0.492422 2.245922 0 255 0
-0.242997 0.494364 2.255159 0 255 0
-0.235713 0.495798 2.261858 0 255 0
-0.219630 0.495969 2.262253 0 255 0
-0.206166 0.496537 2.264613 0 255 0
-0.195325 0.497495 2.268913 0 255 0
-0.181827 0.498089 2.271382 0 255 0
-0.168311 0.498696 2.273910 0 255 0
-0.152130 0.498945 2.274637 0 255 0
-0.142994 0.500199 2.280376 0 255 0
-0.137387 0.501955 2.288609 0 255 0
-0.131775 0.503715 2.296854 0 255 0
-0.120844 0.504747 2.301455 0 255 0
-0.106353 0.505303 2.303671 0 255 0
-0.088293 0.505391 2.303534 0 255 0
-0.312639 0.475432 2.201000 255 0 0
-0.306091 0.474590 2.197000 255 0 0
-0.299018 0.472884 2.189000 255 0 0
-0.291719 0.470745 2.179000 255 0 0
-0.284737 0.469038 2.171000 255 0 0
-0.278568 0.468626 2.169000 255 0 0
-0.273290 0.469727 2.174000 255 0 0
-0.267123 0.469315 2.172000 255 0 0
-0.260845 0.468686 2.169000 255 0 0
-0.254113 0.467193 2.162000 255 0 0
-0.247763 0.466347 2.158000 255 0 0
-0.241546 0.465718 2.155000 255 0 0
-0.235673 0.465736 2.155000 255 0 0
-0.229266 0.464673 2.150000 255 0 0
-0.222990 0.463826 2.146000 255 0 0
-0.216735 0.462978 2.142000 255 0 0
-0.210797 0.462779 2.141000 255 0 0
-0.204767 0.462363 2.139000 255 0 0
-0.198655 0.461730 2.136000 255 0 0
-0.192739 0.461529 2.135000 255 0 0
-0.186916 0.461544 2.135000 255 0 0
-0.180923 0.461126 2.133000 255 0 0
-0.174776 0.460276 2.129000 255 0 0
-0.168729 0.459641 2.126000 255 0 0
-0.162852 0.459438 2.125000 255 0 0
-0.156979 0.459234 2.124000 255 0 0
-0.151254 0.459463 2.125000 255 0 0
-0.145523 0.459691 2.126000 255 0 0
-0.139918 0.460351 2.129000 255 0 0
-0.133981 0.459930 2.127000 255 0 0
-0.128174 0.459941 2.127000 255 0 0
-0.122310 0.459735 2.126000 255 0 0
-0.116506 0.459744 2.126000 255 0 0
-0.110650 0.459537 2.125000 255 0 0
-0.104749 0.459114 2.123000 255 0 0
-0.098998 0.459338 2.124000 255 0 0
-0.093155 0.459130 2.123000 255 0 0
-0.087275 0.458705 2.121000 255 0 0
-0.081329 0.457847 2.117000 255 0 0
-0.075511 0.457637 2.116000 255 0 0
-0.069699 0.457427 2.115000 255 0 0
-0.063862 0.457000 2.113000 255 0 0
-0.058008 0.456356 2.110000 255 0 0
-0.052245 0.456361 2.110000 255 0 0
-0.046503 0.456581 2.111000 255 0 0
-0.040736 0.456585 2.111000 255 0 0
-0.034986 0.456804 2.112000 255 0 0
-0.029231 0.457023 2.113000 255 0 0
-0.023470 0.457242 2.114000 255 0 0
-0.017686 0.457027 2.113000 255 0 0
-0.011903 0.456596 2.111000 255 0 0
-0.006141 0.457029 2.113000 255 0 0
-0.000369 0.457029 2.113000 255 0 0
0.005406 0.457245 2.114000 255 0 0
0.011171 0.456812 2.112000 255 0 0
0.016940 0.456811 2.112000 255 0 0
0.022721 0.457026 2.113000 255 0 0
0.028534 0.457672 2.116000 255 0 0
0.034346 0.458102 2.118000 255 0 0
0.040189 0.458748 2.121000 255 0 0
0.045983 0.458744 2.121000 255 0 0
0.051825 0.459173 2.123000 255 0 0
0.057624 0.459168 2.123000 255 0 0
0.063483 0.459596 2.125000 255 0 0
0.069385 0.460239 2.128000 255 0 0
0.075338 0.461098 2.132000 255 0 0
0.081275 0.461741 2.135000 255 0 0
0.087024 0.461301 2.133000 255 0 0
0.093067 0.462375 2.138000 255 0 0
0.099090 0.463232 2.142000 255 0 0
0.105184 0.464305 2.147000 255 0 0
0.111046 0.464296 2.147000 255 0 0
0.116908 0.464287 2.147000 255 0 0
0.122941 0.464926 2.150000 255 0 0
0.128870 0.465132 2.151000 255 0 0
0.134867 0.465553 2.153000 255 0 0
0.141005 0.466407 2.157000 255 0 0
0.147029 0.466828 2.159000 255 0 0
0.153205 0.467681 2.163000 255 0 0
0.159181 0.467884 2.164000 255 0 0
-0.108858 0.561581 2.278544 255 255 0
-0.088712 0.561048 2.279974 255 255 0
-0.071195 0.560325 2.279644 255 255 0
-0.058027 0.559266 2.276293 255 255 0
-0.050918 0.557723 2.268638 255 255 0
-0.035197 0.556895 2.267256 255 255 0
-0.030694 0.555150 2.257782 255 255 0
-0.020173 0.553911 2.252724 255 255 0
-0.010525 0.552608 2.247074 255 255 0
0.012842 0.552478 2.251624 255 255 0
0.027594 0.551636 2.249910 255 255 0
0.042323 0.550806 2.248261 255 255 0
0.051039 0.549469 2.242177 255 255 0
0.059745 0.548139 2.236121 255 255 0
0.061609 0.546213 2.224911 255 255 0
0.072858 0.545118 2.220845 255 255 0
0.078127 0.543500 2.212253 255 255 0
0.091053 0.542573 2.209568 255 255 0
0.096307 0.540964 2.201015 255 255 0
0.109202 0.540054 2.198416 255 255 0
0.109351 0.537987 2.185926 255 255 0
-0.257514 0.476284 2.218972 0 255 0
-0.256371 0.478616 2.230144 0 255 0
-0.249977 0.480156 2.237449 0 255 0
-0.250589 0.482751 2.249889 0 255 0
-0.242436 0.484037 2.255935 0 255 0
-0.231641 0.484940 2.260105 0 255 0
-0.222591 0.486113 2.265582 0 255 0
-0.211771 0.487036 2.269834 0 255 0
-0.200939 0.487970 2.274128 0 255 0
-0.185688 0.488275 2.275345 0 255 0
-0.168655 0.488342 2.275388 0 255 0
-0.151597 0.488426 2.275510 0 255 0
-0.141581 0.489539 2.280645 0 255 0
-0.135972 0.491290 2.288887 0 255 0
-0.133013 0.493420 2.298978 0 255 0
-0.123857 0.494679 2.304803 0 255 0
-0.111146 0.495449 2.308238 0 255 0
-0.088663 0.494874 2.305085 0 255 0
-0.075911 0.495676 2.308656 0 255 0
-0.313087 0.470101 2.204000 255 0 0
-0.306391 0.469056 2.199000 255 0 0
-0.299586 0.467798 2.193000 255 0 0
-0.292142 0.465473 2.182000 255 0 0
-0.284758 0.463147 2.171000 255 0 0
-0.278717 0.462955 2.170000 255 0 0
-0.273310 0.463828 2.174000 255 0 0
-0.267511 0.464062 2.175000 255 0 0
-0.261225 0.463441 2.172000 255 0 0
-0.254602 0.462180 2.166000 255 0 0
-0.248011 0.460919 2.160000 255 0 0
-0.241677 0.460084 2.156000 255 0 0
-0.235691 0.459888 2.155000 255 0 0
-0.229497 0.459266 2.152000 255 0 0
-0.223111 0.458216 2.147000 255 0 0
-0.216651 0.456952 2.141000 255 0 0
-0.210616 0.456542 2.139000 255 0 0
-0.204592 0.456131 2.137000 255 0 0
-0.198485 0.455507 2.134000 255 0 0
-0.192574 0.455309 2.133000 255 0 0
-0.186756 0.455323 2.133000 255 0 0
-0.180767 0.454911 2.131000 255 0 0
-0.174625 0.454071 2.127000 255 0 0
-0.168584 0.453444 2.124000 255 0 0
-0.162788 0.453458 2.124000 255 0 0
-0.157066 0.453684 2.125000 255 0 0
-0.151266 0.453696 2.125000 255 0 0
-0.145466 0.453708 2.125000 255 0 0
-0.139798 0.454147 2.127000 255 0 0
-0.133928 0.453944 2.126000 255 0 0
-0.128125 0.453955 2.126000 255 0 0
-0.122320 0.453965 2.126000 255 0 0
-0.116571 0.454188 2.127000 255 0 0
-0.110659 0.453770 2.125000 255 0 0
-0.104807 0.453566 2.124000 255 0 0
-0.099053 0.453788 2.125000 255 0 0
-0.093162 0.453368 2.123000 255 0 0
-0.087241 0.452735 2.120000 255 0 0
-0.081374 0.452315 2.118000 255 0 0
-0.075589 0.452322 2.118000 255 0 0
-0.069738 0.451900 2.116000 255 0 0
-0.063867 0.451265 2.113000 255 0 0
-0.057985 0.450416 2.109000 255 0 0
-0.052274 0.450848 2.111000 255 0 0
-0.046507 0.450852 2.111000 255 0 0
-0.040740 0.450855 2.111000 255 0 0
-0.034989 0.451072 2.112000 255 0 0
-0.029247 0.451502 2.114000 255 0 0
-0.023472 0.451504 2.114000 255 0 0
-0.017688 0.451292 2.113000 255 0 0
-0.011892 0.450439 2.109000 255 0 0
-0.006136 0.450867 2.111000 255 0 0
-0.000369 0.450867 2.111000 255 0 0
0.005407 0.451508 2.114000 255 0 0
0.011172 0.451080 2.112000 255 0 0
0.016942 0.451079 2.112000 255 0 0
0.022712 0.451077 2.112000 255 0 0
0.028522 0.451716 2.115000 255 0 0
0.034333 0.452140 2.117000 255 0 0
0.040154 0.452565 2.119000 255 0 0
0.045965 0.452775 2.120000 255 0 0
0.051830 0.453411 2.123000 255 0 0
0.057656 0.453620 2.124000 255 0 0
0.063518 0.454042 2.126000 255 0 0
0.069423 0.454678 2.129000 255 0 0
0.075380 0.455526 2.133000 255 0 0
0.081320 0.456160 2.136000 255 0 0
0.087113 0.455939 2.135000 255 0 0
0.093118 0.456786 2.139000 255 0 0
0.099144 0.457633 2.143000 255 0 0
0.105192 0.458478 2.147000 255 0 0
0.111055 0.458470 2.147000 255 0 0
0.116972 0.458674 2.148000 255 0 0
0.123065 0.459518 2.152000 255 0 0
0.129061 0.459935 2.154000 255 0 0
0.135066 0.460351 2.156000 255 0 0
0.141213 0.461194 2.160000 255 0 0
0.147177 0.461396 2.161000 255 0 0
0.153288 0.462024 2.164000 255 0 0
0.159267 0.462225 2.165000 255 0 0
-0.114197 0.552496 2.288857 255 255 0
-0.107030 0.550931 2.281034 255 255 0
-0.091219 0.550089 2.279379 255 255 0
-0.073705 0.549405 2.279028 255 255 0
-0.057947 0.548590 2.277518 255 255 0
-0.045663 0.547496 2.273589 255 255 0
-0.032537 0.546485 2.270335 255 255 0
-0.030618 0.544520 2.258982 255 255 0
-0.020959 0.543227 2.253285 255 255 0
-0.010453 0.542015 2.248257 255 255 0
0.013764 0.542019 2.253424 255 255 0
0.031082 0.541438 2.253612 255 255 0
0.043235 0.540414 2.250042 255 255 0
0.051949 0.539092 2.243952 255 255 0
0.058944 0.537622 2.236602 255 255 0
0.066785 0.536234 2.229918 255 255 0
0.077174 0.535086 2.225208 255 255 0
0.088400 0.534025 2.221189 255 255 0
0.100461 0.533051 2.217868 255 255 0
0.103157 0.531212 2.207367 255 255 0
0.107552 0.529534 2.198178 255 255 0
0.097532 0.526489 2.177732 255 255 0
-0.252318 0.467743 2.228324 0 255 0
-0.250297 0.469949 2.238856 0 255 0
-0.249154 0.472288 2.250018 0 255 0
-0.241002 0.473562 2.256077 0 255 0
-0.233719 0.474975 2.262797 0 255 0
-0.223794 0.475998 2.267646 0 255 0
-0.214736 0.477162 2.273162 0 255 0
-0.205668 0.478334 2.278711 0 255 0
-0.189548 0.478472 2.279305 0 255 0
-0.169881 0.478107 2.277490 0 255 0
-0.151069 0.477893 2.276387 0 255 0
-0.138407 0.478600 2.279685 0 255 0
-0.132795 0.480347 2.287944 0 255 0
-0.128064 0.482225 2.296826 0 255 0
-0.122445 0.483979 2.305110 0 255 0
-0.111508 0.484978 2.309772 0 255 0
-0.095240 0.485230 2.310860 0 255 0
-0.313394 0.464541 2.206000 255 0 0
-0.306692 0.463510 2.201000 255 0 0
-0.299744 0.462058 2.194000 255 0 0
-0.292565 0.460184 2.185000 255 0 0
-0.285172 0.457888 2.174000 255 0 0
-0.279123 0.457698 2.173000 255 0 0
-0.273582 0.458350 2.176000 255 0 0
-0.267777 0.458581 2.177000 255 0 0
-0.261726 0.458390 2.176000 255 0 0
-0.255092 0.457145 2.170000 255 0 0
-0.248489 0.455900 2.164000 255 0 0
-0.241919 0.454654 2.158000 255 0 0
-0.235928 0.454461 2.157000 255 0 0
-0.229408 0.453215 2.151000 255 0 0
-0.223024 0.452179 2.146000 255 0 0
-0.216768 0.451353 2.142000 255 0 0
-0.210829 0.451158 2.141000 255 0 0
-0.204799 0.450753 2.139000 255 0 0
-0.198593 0.449926 2.135000 255 0 0
-0.192679 0.449730 2.134000 255 0 0
-0.186858 0.449745 2.134000 255 0 0
-0.180867 0.449338 2.132000 255 0 0
-0.174639 0.448298 2.127000 255 0 0
-0.168597 0.447679 2.124000 255 0 0
-0.162954 0.448114 2.126000 255 0 0
-0.157226 0.448338 2.127000 255 0 0
-0.151421 0.448350 2.127000 255 0 0
-0.145547 0.448151 2.126000 255 0 0
-0.139809 0.448373 2.127000 255 0 0
-0.133876 0.447963 2.125000 255 0 0
-0.128135 0.448184 2.126000 255 0 0
-0.122273 0.447983 2.125000 255 0 0
-0.116580 0.448415 2.127000 255 0 0
-0.110668 0.448002 2.125000 255 0 0
-0.104865 0.448011 2.125000 255 0 0
-0.099061 0.448020 2.125000 255 0 0
-0.093214 0.447817 2.124000 255 0 0
-0.087207 0.446770 2.119000 255 0 0
-0.081419 0.446777 2.119000 255 0 0
-0.075595 0.446572 2.118000 255 0 0
-0.069777 0.446367 2.117000 255 0 0
-0.063873 0.445530 2.113000 255 0 0
-0.058018 0.444902 2.110000 255 0 0
-0.052303 0.445328 2.112000 255 0 0
-0.046511 0.445122 2.111000 255 0 0
-0.040763 0.445336 2.112000 255 0 0
-0.034992 0.445339 2.112000 255 0 0
-0.029236 0.445553 2.113000 255 0 0
-0.023462 0.445555 2.113000 255 0 0
-0.017672 0.445135 2.111000 255 0 0
-0.011888 0.444504 2.108000 255 0 0
-0.006131 0.444715 2.109000 255 0 0
-0.000368 0.444926 2.110000 255 0 0
0.005402 0.445348 2.112000 255 0 0
0.011178 0.445558 2.113000 255 0 0
0.016943 0.445346 2.112000 255 0 0
0.022725 0.445555 2.113000 255 0 0
0.028511 0.445764 2.114000 255 0 0
0.034320 0.446183 2.116000 255 0 0
0.040158 0.446812 2.119000 255 0 0
0.045947 0.446809 2.119000 255 0 0
0.051809 0.447437 2.122000 255 0 0
0.057688 0.448065 2.125000 255 0 0
0.063583 0.448693 2.128000 255 0 0
0.069461 0.449109 2.130000 255 0 0
0.075315 0.449314 2.131000 255 0 0
0.081250 0.449940 2.134000 255 0 0
0.087038 0.449722 2.133000 255 0 0
0.093213 0.451402 2.141000 255 0 0
0.099338 0.452659 2.147000 255 0 0
0.105495 0.453916 2.153000 255 0 0
0.111271 0.453485 2.151000 255 0 0
0.117254 0.453897 2.153000 255 0 0
0.123247 0.454309 2.155000 255 0 0
0.129371 0.455142 2.159000 255 0 0
0.135390 0.455553 2.161000 255 0 0
0.141486 0.456174 2.164000 255 0 0
0.147461 0.456374 2.165000 255 0 0
0.153442 0.456572 2.166000 255 0 0
0.159427 0.456771 2.167000 255 0 0
0.165723 0.457812 2.172000 255 0 0
-0.121275 0.543248 2.297980 255 255 0
-0.110635 0.541982 2.292567 255 255 0
-0.104337 0.540354 2.284136 255 255 0
-0.090262 0.539400 2.281248 255 255 0
-0.077937 0.538307 2.277185 255 255 0
-0.061316 0.537601 2.276269 255 255 0
-0.048170 0.536606 2.272942 255 255 0
-0.029878 0.536079 2.273414 255 255 0
-0.020218 0.534801 2.267704 255 255 0
-0.011430 0.533453 2.261401 255 255 0
-0.003512 0.532033 2.254496 255 255 0
0.014687 0.531555 2.255224 255 255 0
0.032855 0.531094 2.256038 255 255 0
0.045859 0.530175 2.253102 255 255 0
0.052005 0.528630 2.245086 255 255 0
0.061561 0.527409 2.239662 255 255 0
0.067692 0.525874 2.231685 255 255 0
0.079783 0.524907 2.228267 255 255 0
0.087600 0.523544 2.221640 255 255 0
0.100508 0.522677 2.218961 255 255 0
0.104056 0.520917 2.209113 255 255 0
0.105906 0.518992 2.197944 255 255 0
0.094201 0.515738 2.176176 255 255 0
-0.259032 0.456001 2.222416 0 255 0
-0.261381 0.458895 2.236163 0 255 0
-0.254992 0.460416 2.243468 0 255 0
-0.250349 0.462214 2.252066 0 255 0
-0.243952 0.463744 2.259402 0 255 0
-0.235796 0.465009 2.265488 0 255 0
-0.226753 0.466147 2.270972 0 255 0
-0.211552 0.466354 2.272093 0 255 0
-0.200726 0.467245 2.276410 0 255 0
-0.187247 0.467748 2.278902 0 255 0
-0.169348 0.467602 2.278351 0 255 0
-0.154949 0.468003 2.280356 0 255 0
-0.141413 0.468550 2.283040 0 255 0
-0.138453 0.470681 2.293135 0 255 0
-0.129308 0.471901 2.298957 0 255 0
-0.122806 0.473519 2.306636 0 255 0
-0.110102 0.474237 2.310098 0 255 0
-0.096497 0.474839 2.313013 0 255 0
-0.313274 0.458346 2.205000 255 0 0
-0.306714 0.457537 2.201000 255 0 0
-0.300175 0.456727 2.197000 255 0 0
-0.293122 0.455085 2.189000 255 0 0
-0.285980 0.453235 2.180000 255 0 0
-0.279400 0.452216 2.175000 255 0 0
-0.273602 0.452444 2.176000 255 0 0
-0.268043 0.453088 2.179000 255 0 0
-0.262226 0.453315 2.180000 255 0 0
-0.256051 0.452918 2.178000 255 0 0
-0.249197 0.451274 2.170000 255 0 0
-0.242162 0.449212 2.160000 255 0 0
-0.235836 0.448399 2.156000 255 0 0
-0.229532 0.447584 2.152000 255 0 0
-0.223249 0.446769 2.148000 255 0 0
-0.217089 0.446162 2.145000 255 0 0
-0.210944 0.445555 2.142000 255 0 0
-0.205006 0.445363 2.141000 255 0 0
-0.198795 0.444546 2.137000 255 0 0
-0.192785 0.444145 2.135000 255 0 0
-0.186610 0.443328 2.131000 255 0 0
-0.180711 0.443134 2.130000 255 0 0
-0.174735 0.442732 2.128000 255 0 0
-0.168849 0.442538 2.127000 255 0 0
-0.163044 0.442551 2.127000 255 0 0
-0.157386 0.442980 2.129000 255 0 0
-0.151504 0.442784 2.128000 255 0 0
-0.145627 0.442588 2.127000 255 0 0
-0.139689 0.442183 2.125000 255 0 0
-0.133824 0.441986 2.124000 255 0 0
-0.128145 0.442412 2.126000 255 0 0
-0.122283 0.442214 2.125000 255 0 0
-0.116590 0.442640 2.127000 255 0 0
-0.110677 0.442233 2.125000 255 0 0
-0.104923 0.442450 2.126000 255 0 0
-0.099023 0.442042 2.124000 255 0 0
-0.093178 0.441842 2.123000 255 0 0
-0.087255 0.441225 2.120000 255 0 0
-0.081426 0.441024 2.119000 255 0 0
-0.075566 0.440614 2.117000 255 0 0
-0.069683 0.439995 2.114000 255 0 0
-0.063848 0.439585 2.112000 255 0 0
-0.058022 0.439173 2.110000 255 0 0
-0.052307 0.439594 2.112000 255 0 0
-0.046493 0.439182 2.110000 255 0 0
-0.040766 0.439602 2.112000 255 0 0
-0.035012 0.439813 2.113000 255 0 0
-0.029252 0.440024 2.114000 255 0 0
-0.023464 0.439818 2.113000 255 0 0
-0.017674 0.439403 2.111000 255 0 0
-0.011894 0.438988 2.109000 255 0 0
-0.006131 0.438989 2.109000 255 0 0
-0.000369 0.439406 2.111000 255 0 0
0.005402 0.439613 2.112000 255 0 0
0.011184 0.440029 2.114000 255 0 0
0.016953 0.439820 2.113000 255 0 0
0.022726 0.439818 2.113000 255 0 0
0.028514 0.440024 2.114000 255 0 0
0.034339 0.440646 2.117000 255 0 0
0.040161 0.441059 2.119000 255 0 0
0.045951 0.441056 2.119000 255 0 0
0.051814 0.441676 2.122000 255 0 0
0.057720 0.442504 2.126000 255 0 0
0.063708 0.443748 2.132000 255 0 0
0.069630 0.444367 2.135000 255 0 0
0.075498 0.444569 2.136000 255 0 0
0.081409 0.444979 2.138000 255 0 0
0.087168 0.444556 2.136000 255 0 0
0.093351 0.446213 2.144000 255 0 0
0.099438 0.447246 2.149000 255 0 0
0.105651 0.448695 2.156000 255 0 0
0.111435 0.448270 2.154000 255 0 0
0.117427 0.448677 2.156000 255 0 0
0.123429 0.449083 2.158000 255 0 0
0.129621 0.450113 2.163000 255 0 0
0.135715 0.450727 2.166000 255 0 0
0.141759 0.451132 2.168000 255 0 0
0.147677 0.451120 2.168000 255 0 0
0.153596 0.451108 2.168000 255 0 0
0.159660 0.451512 2.170000 255 0 0
0.166041 0.452748 2.176000 255 0 0
-0.134433 0.533448 2.302916 255 255 0
-0.122043 0.532344 2.298657 255 255 0
-0.111404 0.531098 2.293232 255 255 0
-0.105105 0.529476 2.284793 255 255 0
-0.072667 0.528026 2.282126 255 255 0
-0.052607 0.527673 2.283686 255 255 0
-0.036027 0.527024 2.282856 255 255 0
-0.021195 0.526231 2.280855 255 255 0
-0.008967 0.525213 2.277040 255 255 0
-0.002768 0.523645 2.268876 255 255 0
0.004282 0.522161 2.261357 255 255 0
0.015611 0.521086 2.257026 255 255 0
0.031204 0.520425 2.255920 255 255 0
0.042496 0.519369 2.251690 255 255 0
0.052917 0.518240 2.246864 255 255 0
0.062471 0.517036 2.241434 255 255 0
0.070306 0.515674 2.234746 255 255 0
0.082391 0.514733 2.231325 255 255 0
0.089354 0.513300 2.224047 255 255 0
0.098009 0.512039 2.218094 255 255 0
0.101560 0.510277 2.208234 255 255 0
0.104264 0.508429 2.197715 255 255 0
0.095958 0.505469 2.178593 255 255 0
-0.256740 0.445358 2.221882 0 255 0
-0.257335 0.447990 2.234350 0 255 0
-0.254441 0.450062 2.244235 0 255 0
-0.252421 0.452274 2.254753 0 255 0
-0.248653 0.454209 2.263994 0 255 0
-0.242254 0.455733 2.271340 0 255 0
-0.227080 0.455890 2.272406 0 255 0
-0.206619 0.455243 2.269776 0 255 0
-0.191400 0.455435 2.270995 0 255 0
-0.179677 0.456185 2.274772 0 255 0
-0.171458 0.457487 2.281075 0 255 0
-0.158828 0.458124 2.284321 0 255 0
-0.147945 0.459041 2.288851 0 255 0
-0.138813 0.460236 2.294648 0 255 0
-0.127904 0.461174 2.299260 0 255 0
-0.120518 0.462651 2.306343 0 255 0
-0.107817 0.463344 2.309825 0 255 0
-0.097756 0.464443 2.315166 0 255 0
-0.313438 0.452566 2.206000 255 0 0
-0.306736 0.451562 2.201000 255 0 0
-0.300470 0.451174 2.199000 255 0 0
-0.294080 0.450579 2.196000 255 0 0
-0.286919 0.448754 2.187000 255 0 0
-0.279935 0.447132 2.179000 255 0 0
-0.273747 0.446742 2.177000 255 0 0
-0.268063 0.447172 2.179000 255 0 0
-0.262486 0.447808 2.182000 255 0 0
-0.256776 0.448237 2.184000 255 0 0
-0.249905 0.446614 2.176000 255 0 0
-0.242852 0.444580 2.166000 255 0 0
-0.236073 0.442956 2.158000 255 0 0
-0.229870 0.442358 2.155000 255 0 0
-0.223474 0.441348 2.150000 255 0 0
-0.217308 0.440749 2.147000 255 0 0
-0.211059 0.439945 2.143000 255 0 0
-0.205214 0.439960 2.143000 255 0 0
-0.198903 0.438949 2.138000 255 0 0
-0.192890 0.438554 2.136000 255 0 0
-0.186712 0.437747 2.132000 255 0 0
-0.180810 0.437556 2.131000 255 0 0
-0.174913 0.437365 2.130000 255 0 0
-0.169100 0.437378 2.130000 255 0 0
-0.163210 0.437186 2.129000 255 0 0
-0.157399 0.437199 2.129000 255 0 0
-0.151587 0.437211 2.129000 255 0 0
-0.145707 0.437018 2.128000 255 0 0
-0.139766 0.436618 2.126000 255 0 0
-0.133898 0.436424 2.125000 255 0 0
-0.128216 0.436845 2.127000 255 0 0
-0.122465 0.437060 2.128000 255 0 0
-0.116709 0.437275 2.129000 255 0 0
-0.110790 0.436874 2.127000 255 0 0
-0.104931 0.436677 2.126000 255 0 0
-0.099031 0.436275 2.124000 255 0 0
-0.093229 0.436282 2.124000 255 0 0
-0.087386 0.436084 2.123000 255 0 0
-0.081548 0.435886 2.122000 255 0 0
-0.075572 0.434865 2.117000 255 0 0
-0.069689 0.434255 2.114000 255 0 0
-0.063883 0.434055 2.113000 255 0 0
-0.058110 0.434060 2.113000 255 0 0
-0.052336 0.434064 2.113000 255 0 0
-0.046540 0.433863 2.112000 255 0 0
-0.040789 0.434072 2.113000 255 0 0
-0.035031 0.434280 2.114000 255 0 0
-0.029241 0.434078 2.113000 255 0 0
-0.023444 0.433669 2.111000 255 0 0
-0.017667 0.433465 2.110000 255 0 0
-0.011906 0.433672 2.111000 255 0 0
-0.006138 0.433673 2.111000 255 0 0
-0.000369 0.433878 2.112000 255 0 0
0.005398 0.433467 2.110000 255 0 0
0.011180 0.434083 2.113000 255 0 0
0.016962 0.434287 2.114000 255 0 0
0.022750 0.434491 2.115000 255 0 0
0.028516 0.434283 2.114000 255 0 0
0.034342 0.434897 2.117000 255 0 0
0.040183 0.435510 2.120000 255 0 0
0.046020 0.435918 2.122000 255 0 0
0.051867 0.436325 2.124000 255 0 0
0.057833 0.437553 2.130000 255 0 0
0.063803 0.438575 2.135000 255 0 0
0.069766 0.439391 2.139000 255 0 0
0.075575 0.439180 2.138000 255 0 0
0.081416 0.439173 2.138000 255 0 0
0.087257 0.439166 2.138000 255 0 0
0.093489 0.441008 2.147000 255 0 0
0.099678 0.442438 2.154000 255 0 0
0.105953 0.444073 2.162000 255 0 0
0.111703 0.443448 2.159000 255 0 0
0.117708 0.443849 2.161000 255 0 0
0.123610 0.443839 2.161000 255 0 0
0.129871 0.445062 2.167000 255 0 0
0.135913 0.445462 2.169000 255 0 0
0.141770 0.445245 2.168000 255 0 0
0.147621 0.445028 2.167000 255 0 0
0.153537 0.445016 2.167000 255 0 0
0.159673 0.445620 2.170000 255 0 0
0.166283 0.447455 2.179000 255 0 0
0.173574 0.450933 2.196000 255 0 0
-0.123675 0.521345 2.298734 255 255 0
-0.108707 0.520512 2.296333 255 255 0
-0.098087 0.519295 2.290946 255 255 0
-0.081436 0.518643 2.289890 255 255 0
-0.065674 0.517926 2.288294 255 255 0
-0.047352 0.517463 2.288621 255 255 0
-0.035949 0.516369 2.284071 255 255 0
-0.019401 0.515772 2.283304 255 255 0
-0.002022 0.515271 2.283236 255 255 0
0.010178 0.514291 2.279480 255 255 0
0.012928 0.512409 2.268841 255 255 0
0.019963 0.510944 2.261360 255 255 0
0.032979 0.510069 2.258348 255 255 0
0.046831 0.509289 2.256027 255 255 0
0.053830 0.507843 2.248643 255 255 0
0.066793 0.506998 2.245779 255 255 0
0.075475 0.505735 2.239741 255 255 0
0.086701 0.504737 2.235678 255 255 0
0.089408 0.502883 2.225153 255 255 0
0.093815 0.501202 2.215928 255 255 0
0.099070 0.499611 2.207363 255 255 0
0.105168 0.498109 2.199464 255 255 0
-0.253582 0.434545 2.220710 0 255 0
-0.256789 0.437619 2.235114 0 255 0
-0.253018 0.439552 2.244365 0 255 0
-0.250996 0.441768 2.254892 0 255 0
-0.247225 0.443703 2.264142 0 255 0
-0.243453 0.445640 2.273394 0 255 0
-0.230916 0.446181 2.276358 0 255 0
-0.210467 0.445482 2.273736 0 255 0
-0.189989 0.444806 2.271214 0 255 0
-0.176511 0.445256 2.273763 0 255 0
-0.167413 0.446409 2.279465 0 255 0
-0.160065 0.447844 2.286434 0 255 0
-0.151828 0.449149 2.292812 0 255 0
-0.144465 0.450597 2.299830 0 255 0
-0.131800 0.451238 2.303220 0 255 0
-0.119118 0.451892 2.306664 0 255 0
-0.103769 0.452156 2.308351 0 255 0
-0.091053 0.452837 2.311911 0 255 0
-0.080976 0.453931 2.317321 0 255 0
-0.313318 0.446375 2.205000 255 0 0
-0.306479 0.445182 2.199000 255 0 0
-0.300628 0.445406 2.200000 255 0 0
-0.294503 0.445225 2.199000 255 0 0
-0.287464 0.443626 2.191000 255 0 0
-0.280212 0.441621 2.181000 255 0 0
-0.273767 0.440831 2.177000 255 0 0
-0.268082 0.441256 2.179000 255 0 0
-0.262385 0.441681 2.181000 255 0 0
-0.256795 0.442307 2.184000 255 0 0
-0.250268 0.441313 2.179000 255 0 0
-0.243207 0.439306 2.169000 255 0 0
-0.236309 0.437501 2.160000 255 0 0
-0.230100 0.436911 2.157000 255 0 0
-0.223803 0.436118 2.153000 255 0 0
-0.217527 0.435324 2.149000 255 0 0
-0.211075 0.434125 2.143000 255 0 0
-0.205134 0.433939 2.142000 255 0 0
-0.198825 0.432941 2.137000 255 0 0
-0.192815 0.432551 2.135000 255 0 0
-0.186639 0.431755 2.131000 255 0 0
-0.180739 0.431567 2.130000 255 0 0
-0.174927 0.431581 2.130000 255 0 0
-0.169034 0.431392 2.129000 255 0 0
-0.163146 0.431202 2.128000 255 0 0
-0.157263 0.431012 2.127000 255 0 0
-0.151386 0.430821 2.126000 255 0 0
-0.145581 0.430833 2.126000 255 0 0
-0.139711 0.430642 2.125000 255 0 0
-0.133972 0.430855 2.126000 255 0 0
-0.128166 0.430866 2.126000 255 0 0
-0.122475 0.431281 2.128000 255 0 0
-0.116663 0.431291 2.128000 255 0 0
-0.110903 0.431502 2.129000 255 0 0
-0.104940 0.430903 2.126000 255 0 0
-0.099086 0.430708 2.125000 255 0 0
-0.093237 0.430514 2.124000 255 0 0
-0.087516 0.430926 2.126000 255 0 0
-0.081669 0.430730 2.125000 255 0 0
-0.075685 0.429723 2.120000 255 0 0
-0.069728 0.428716 2.115000 255 0 0
-0.063949 0.428721 2.115000 255 0 0
-0.058197 0.428929 2.116000 255 0 0
-0.052415 0.428933 2.116000 255 0 0
-0.046588 0.428532 2.114000 255 0 0
-0.040811 0.428536 2.114000 255 0 0
-0.035018 0.428336 2.113000 255 0 0
-0.029243 0.428339 2.113000 255 0 0
-0.023457 0.428138 2.112000 255 0 0
-0.017694 0.428342 2.113000 255 0 0
-0.011919 0.428344 2.113000 255 0 0
-0.006141 0.428142 2.112000 255 0 0
-0.000369 0.428142 2.112000 255 0 0
0.005403 0.428142 2.112000 255 0 0
0.011186 0.428546 2.114000 255 0 0
0.016963 0.428545 2.114000 255 0 0
0.022741 0.428544 2.114000 255 0 0
0.028532 0.428744 2.115000 255 0 0
0.034361 0.429350 2.118000 255 0 0
0.040225 0.430158 2.122000 255 0 0
0.046089 0.430762 2.125000 255 0 0
0.051969 0.431366 2.128000 255 0 0
0.057947 0.432578 2.134000 255 0 0
0.063927 0.433587 2.139000 255 0 0
0.069902 0.434392 2.143000 255 0 0
0.075722 0.434184 2.142000 255 0 0
0.081537 0.433974 2.141000 255 0 0
0.087427 0.434170 2.142000 255 0 0
0.093584 0.435582 2.149000 255 0 0
0.099732 0.436790 2.155000 255 0 0
0.106060 0.438606 2.164000 255 0 0
0.111919 0.438395 2.163000 255 0 0
0.117990 0.438993 2.166000 255 0 0
0.123849 0.438781 2.165000 255 0 0
0.130061 0.439784 2.170000 255 0 0
0.135987 0.439774 2.170000 255 0 0
0.141847 0.439560 2.169000 255 0 0
0.147565 0.438941 2.166000 255 0 0
0.153762 0.439739 2.170000 255 0 0
0.159980 0.440537 2.174000 255 0 0
0.166601 0.442348 2.183000 255 0 0
0.173192 0.443956 2.191000 255 0 0
-0.133356 0.511782 2.306115 255 255 0
-0.123571 0.510487 2.300023 255 255 0
-0.110338 0.509523 2.296396 255 255 0
-0.096261 0.508653 2.293434 255 255 0
-0.077026 0.508287 2.294206 255 255 0
-0.059548 0.507773 2.293839 255 255 0
-0.044684 0.507025 2.291700 255 255 0
-0.034148 0.505870 2.286528 255 255 0
-0.021046 0.504976 2.283262 255 255 0
0.000623 0.504938 2.286300 255 255 0
0.011102 0.503814 2.281287 255 255 0
0.012140 0.501758 2.269387 255 255 0
0.015750 0.499958 2.259368 255 255 0
0.025347 0.498763 2.253792 255 255 0
0.041766 0.498270 2.253350 255 255 0
0.053891 0.497354 2.249783 255 255 0
0.071965 0.497063 2.250762 255 255 0
0.082345 0.495994 2.246022 255 255 0
0.092709 0.494933 2.241321 255 255 0
0.094562 0.492989 2.230161 255 255 0
0.097268 0.491133 2.219642 255 255 0
0.098279 0.489098 2.207806 255 255 0
0.101837 0.487332 2.197927 255 255 0
-0.246944 0.423120 2.216970 0 255 0
-0.251012 0.426363 2.232035 0 255 0
-0.248982 0.428587 2.242585 0 255 0
-0.250449 0.431386 2.255672 0 255 0
-0.244928 0.433034 2.263661 0 255 0
-0.239403 0.434685 2.271664 0 255 0
-0.229494 0.435629 2.276537 0 255 0
-0.215190 0.435874 2.278319 0 255 0
-0.195602 0.435286 2.276424 0 255 0
-0.182134 0.435704 2.278970 0 255 0
-0.170406 0.436416 2.282811 0 255 0
-0.159543 0.437279 2.287317 0 255 0
-0.151308 0.438571 2.293706 0 255 0
-0.139539 0.439315 2.297680 0 255 0
-0.129520 0.440347 2.302921 0 255 0
-0.114193 0.440563 2.304567 0 255 0
-0.105912 0.441891 2.311106 0 255 0
-0.091434 0.442271 2.313473 0 255 0
-0.088440 0.444433 2.323675 0 255 0
-0.073933 0.444835 2.326137 0 255 0
-0.064724 0.446062 2.332220 0 255 0
-0.313482 0.440588 2.206000 255 0 0
-0.306918 0.439810 2.202000 255 0 0
-0.300786 0.439632 2.201000 255 0 0
-0.294792 0.439653 2.201000 255 0 0
-0.287879 0.438275 2.194000 255 0 0
-0.280874 0.436698 2.186000 255 0 0
-0.274039 0.435319 2.179000 255 0 0
-0.268225 0.435539 2.180000 255 0 0
-0.262525 0.435958 2.182000 255 0 0
-0.257049 0.436776 2.186000 255 0 0
-0.250861 0.436395 2.184000 255 0 0
-0.244010 0.434815 2.176000 255 0 0
-0.236874 0.432634 2.165000 255 0 0
-0.230331 0.431453 2.159000 255 0 0
-0.223924 0.430471 2.154000 255 0 0
-0.217746 0.429888 2.151000 255 0 0
-0.211386 0.428905 2.146000 255 0 0
-0.205341 0.428521 2.144000 255 0 0
-0.198934 0.427337 2.138000 255 0 0
-0.192920 0.426952 2.136000 255 0 0
-0.187004 0.426767 2.135000 255 0 0
-0.181008 0.426381 2.133000 255 0 0
-0.175104 0.426195 2.132000 255 0 0
-0.169047 0.425609 2.129000 255 0 0
-0.163236 0.425622 2.129000 255 0 0
-0.157276 0.425234 2.127000 255 0 0
-0.151469 0.425246 2.127000 255 0 0
-0.145798 0.425658 2.129000 255 0 0
-0.139985 0.425669 2.129000 255 0 0
-0.134234 0.425880 2.130000 255 0 0
-0.128357 0.425690 2.129000 255 0 0
-0.122542 0.425700 2.129000 255 0 0
-0.116727 0.425710 2.129000 255 0 0
-0.110964 0.425919 2.130000 255 0 0
-0.105047 0.425528 2.128000 255 0 0
-0.099187 0.425336 2.127000 255 0 0
-0.093332 0.425144 2.126000 255 0 0
-0.087565 0.425351 2.127000 255 0 0
-0.081753 0.425358 2.127000 255 0 0
-0.075763 0.424364 2.122000 255 0 0
-0.069832 0.423570 2.118000 255 0 0
-0.063984 0.423176 2.116000 255 0 0
-0.058257 0.423580 2.118000 255 0 0
-0.052444 0.423385 2.117000 255 0 0
-0.046636 0.423189 2.116000 255 0 0
-0.040853 0.423193 2.116000 255 0 0
-0.035053 0.422996 2.115000 255 0 0
-0.029231 0.422398 2.112000 255 0 0
-0.023448 0.422200 2.111000 255 0 0
-0.017695 0.422602 2.113000 255 0 0
-0.011925 0.422803 2.114000 255 0 0
-0.006144 0.422604 2.113000 255 0 0
-0.000369 0.422604 2.113000 255 0 0
0.005406 0.422604 2.113000 255 0 0
0.011197 0.423203 2.116000 255 0 0
0.016973 0.423002 2.115000 255 0 0
0.022754 0.423001 2.115000 255 0 0
0.028561 0.423399 2.117000 255 0 0
0.034412 0.424196 2.121000 255 0 0
0.040266 0.424793 2.124000 255 0 0
0.046157 0.425589 2.128000 255 0 0
0.052022 0.425985 2.130000 255 0 0
0.057979 0.426981 2.135000 255 0 0
0.063873 0.427376 2.137000 255 0 0
0.069810 0.427970 2.140000 255 0 0
0.075658 0.427965 2.140000 255 0 0
0.081505 0.427958 2.140000 255 0 0
0.087516 0.428751 2.144000 255 0 0
0.093678 0.430144 2.151000 255 0 0
0.099925 0.431736 2.159000 255 0 0
0.106215 0.433327 2.167000 255 0 0
0.112135 0.433319 2.167000 255 0 0
0.118327 0.434309 2.172000 255 0 0
0.124145 0.433900 2.170000 255 0 0
0.130251 0.434490 2.173000 255 0 0
0.135935 0.433679 2.169000 255 0 0
0.141923 0.433868 2.170000 255 0 0
0.147781 0.433657 2.169000 255 0 0
0.153986 0.434445 2.173000 255 0 0
0.160287 0.435432 2.178000 255 0 0
0.166767 0.436819 2.185000 255 0 0
0.173206 0.438005 2.191000 255 0 0
-0.128049 0.501394 2.311025 255 255 0
-0.120002 0.499951 2.303732 255 255 0
-0.108506 0.498849 2.298891 255 255 0
-0.091843 0.498263 2.297749 255 255 0
-0.070893 0.498116 2.299742 255 255 0
-0.054289 0.497561 2.298763 255 255 0
-0.041157 0.496676 2.295394 255 255 0
-0.034067 0.495198 2.287746 255 255 0
-0.020968 0.494331 2.284470 255 255 0
-0.004457 0.493824 2.283744 255 255 0
0.007740 0.492893 2.279962 255 255 0
0.005358 0.490474 2.265532 255 255 0
0.010689 0.488846 2.256752 255 255 0
0.018580 0.487488 2.249884 255 255 0
0.040978 0.487655 2.253865 255 255 0
0.053954 0.486854 2.250925 255 255 0
0.072022 0.486606 2.251889 255 255 0
0.084953 0.485829 2.249074 255 255 0
0.093612 0.484607 2.243078 255 255 0
0.099713 0.483116 2.235163 255 255 0
0.103264 0.481351 2.225307 255 255 0
0.106814 0.479588 2.215450 255 255 0
0.104439 0.477174 2.200995 255 255 0
-0.248156 0.412977 2.219031 0 255 0
-0.253091 0.416389 2.234731 0 255 0
-0.251060 0.418616 2.245280 0 255 0
-0.248159 0.420696 2.255184 0 255 0
-0.240888 0.422047 2.261921 0 255 0
-0.234485 0.423549 2.269312 0 255 0
-0.228952 0.425202 2.277348 0 255 0
-0.219033 0.426137 2.282271 0 255 0
-0.198581 0.425355 2.279761 0 255 0
-0.182487 0.425312 2.280450 0 255 0
-0.162857 0.424715 2.278745 0 255 0
-0.153750 0.425846 2.284513 0 255 0
-0.146391 0.427269 2.291540 0 255 0
-0.140787 0.428980 2.299810 0 255 0
-0.130771 0.429992 2.305057 0 255 0
-0.113687 0.429893 2.305505 0 255 0
-0.103642 0.430928 2.310851 0 255 0
-0.093585 0.431972 2.316235 0 255 0
-0.088822 0.433857 2.325242 0 255 0
-0.064229 0.435300 2.333217 0 255 0
-0.048806 0.435561 2.335220 0 255 0
-0.323275 0.439697 2.232000 255 0 0
-0.313219 0.434203 2.204000 255 0 0
-0.306800 0.433633 2.201000 255 0 0
-0.300807 0.433654 2.201000 255 0 0
-0.294947 0.433873 2.202000 255 0 0
-0.288293 0.432908 2.197000 255 0 0
-0.281152 0.431155 2.188000 255 0 0
-0.274436 0.429992 2.182000 255 0 0
-0.268367 0.429815 2.181000 255 0 0
-0.262785 0.430425 2.184000 255 0 0
-0.257185 0.431035 2.187000 255 0 0
-0.251224 0.431054 2.187000 255 0 0
-0.244589 0.429890 2.181000 255 0 0
-0.237329 0.427542 2.169000 255 0 0
-0.230775 0.426377 2.163000 255 0 0
-0.224356 0.425408 2.158000 255 0 0
-0.218066 0.424636 2.154000 255 0 0
-0.211599 0.423469 2.148000 255 0 0
-0.205261 0.422499 2.143000 255 0 0
-0.199042 0.421726 2.139000 255 0 0
-0.192844 0.420952 2.135000 255 0 0
-0.186930 0.420770 2.134000 255 0 0
-0.180937 0.420389 2.132000 255 0 0
-0.175036 0.420206 2.131000 255 0 0
-0.169140 0.420022 2.130000 255 0 0
-0.163248 0.419838 2.129000 255 0 0
-0.157288 0.419456 2.127000 255 0 0
-0.151409 0.419271 2.126000 255 0 0
-0.145810 0.419874 2.129000 255 0 0
-0.140062 0.420082 2.130000 255 0 0
-0.134245 0.420093 2.130000 255 0 0
-0.128307 0.419709 2.128000 255 0 0
-0.122552 0.419916 2.129000 255 0 0
-0.116627 0.419531 2.127000 255 0 0
-0.110869 0.419737 2.128000 255 0 0
-0.105055 0.419746 2.128000 255 0 0
-0.099288 0.419951 2.129000 255 0 0
-0.093339 0.419367 2.126000 255 0 0
-0.087530 0.419374 2.126000 255 0 0
-0.081683 0.419184 2.125000 255 0 0
-0.075804 0.418796 2.123000 255 0 0
-0.069871 0.418013 2.119000 255 0 0
-0.064050 0.417821 2.118000 255 0 0
-0.058234 0.417628 2.117000 255 0 0
-0.052473 0.417830 2.118000 255 0 0
-0.046684 0.417834 2.118000 255 0 0
-0.040876 0.417640 2.117000 255 0 0
-0.035073 0.417446 2.116000 255 0 0
-0.029248 0.416857 2.113000 255 0 0
-0.023472 0.416859 2.113000 255 0 0
-0.017713 0.417255 2.115000 255 0 0
-0.011932 0.417256 2.115000 255 0 0
-0.006148 0.417060 2.114000 255 0 0
-0.000369 0.416863 2.113000 255 0 0
0.005412 0.417257 2.115000 255 0 0
0.011209 0.417848 2.118000 255 0 0
0.016998 0.417847 2.118000 255 0 0
0.022798 0.418043 2.119000 255 0 0
0.028617 0.418435 2.121000 255 0 0
0.034464 0.419025 2.124000 255 0 0
0.040345 0.419811 2.128000 255 0 0
0.046204 0.420202 2.130000 255 0 0
0.052099 0.420790 2.133000 255 0 0
0.058010 0.421377 2.136000 255 0 0
0.063908 0.421767 2.138000 255 0 0
0.069849 0.422353 2.141000 255 0 0
0.075735 0.422545 2.142000 255 0 0
0.081588 0.422538 2.142000 255 0 0
0.087564 0.423123 2.145000 255 0 0
0.093729 0.424497 2.152000 255 0 0
0.100072 0.426462 2.162000 255 0 0
0.106322 0.427834 2.169000 255 0 0
0.112299 0.428023 2.170000 255 0 0
0.118391 0.428605 2.173000 255 0 0
0.124383 0.428793 2.174000 255 0 0
0.130441 0.429177 2.176000 255 0 0
0.136134 0.428378 2.172000 255 0 0
0.142000 0.428170 2.171000 255 0 0
0.147929 0.428158 2.171000 255 0 0
0.154282 0.429330 2.177000 255 0 0
0.160741 0.430698 2.184000 255 0 0
0.167009 0.431474 2.188000 255 0 0
0.173377 0.432447 2.193000 255 0 0
0.180181 0.434405 2.203000 255 0 0
-0.135998 0.491947 2.319652 255 255 0
-0.128808 0.490426 2.311725 255 255 0
-0.117300 0.489339 2.306836 255 255 0
-0.105809 0.488261 2.301991 255 255 0
-0.066489 0.487795 2.304049 255 255 0
-0.048172 0.487456 2.304297 255 255 0
-0.038492 0.486249 2.298470 255 255 0
-0.033124 0.484604 2.289585 255 255 0
-0.021748 0.483587 2.285058 255 255 0
-0.004382 0.483207 2.284941 255 255 0
0.002670 0.481759 2.277391 255 255 0
0.001154 0.479409 2.263575 255 255 0
0.004779 0.477601 2.253514 255 255 0
0.017803 0.476802 2.250423 255 255 0
0.041900 0.477209 2.255657 255 255 0
0.057429 0.476714 2.254624 255 255 0
0.074636 0.476418 2.254943 255 255 0
0.085008 0.475390 2.250192 255 255 0
0.094517 0.474276 2.244835 255 255 0
0.100617 0.472792 2.236917 255 255 0
0.106712 0.471311 2.229013 255 255 0
0.111107 0.469644 2.219816 255 255 0
0.102809 0.466543 2.200780 255 255 0
-0.250239 0.402980 2.221734 0 255 0
-0.261267 0.407466 2.241905 0 255 0
-0.258369 0.409543 2.251796 0 255 0
-0.255472 0.411620 2.261683 0 255 0
-0.244716 0.412361 2.265879 0 255 0
-0.234820 0.413260 2.270747 0 255 0
-0.227538 0.414612 2.277536 0 255 0
-0.216745 0.415381 2.281848 0 255 0
-0.179334 0.414327 2.279456 0 255 0
-0.161466 0.413975 2.279011 0 255 0
-0.155873 0.415670 2.287250 0 255 0
-0.145000 0.416502 2.291832 0 255 0
-0.139395 0.418208 2.300113 0 255 0
-0.131143 0.419488 2.306589 0 255 0
-0.116711 0.419777 2.308863 0 255 0
-0.107553 0.420934 2.314813 0 255 0
-0.098385 0.422098 2.320795 0 255 0
-0.092743 0.423835 2.329198 0 255 0
-0.064623 0.424663 2.334810 0 255 0
-0.047434 0.424610 2.335649 0 255 0
-0.322283 0.432274 2.225000 255 0 0
-0.314094 0.429382 2.210000 255 0 0
-0.307658 0.428821 2.207000 255 0 0
-0.301101 0.428065 2.203000 255 0 0
-0.295101 0.428085 2.203000 255 0 0
-0.288707 0.427523 2.200000 255 0 0
-0.281686 0.425989 2.192000 255 0 0
-0.274959 0.424842 2.186000 255 0 0
-0.268633 0.424279 2.183000 255 0 0
-0.263165 0.425075 2.187000 255 0 0
-0.257674 0.425872 2.191000 255 0 0
-0.251816 0.426085 2.192000 255 0 0
-0.245504 0.425520 2.189000 255 0 0
-0.238332 0.423399 2.178000 255 0 0
-0.231646 0.422056 2.171000 255 0 0
-0.224997 0.420712 2.164000 255 0 0
-0.218689 0.419950 2.160000 255 0 0
-0.212009 0.418411 2.152000 255 0 0
-0.205563 0.417260 2.146000 255 0 0
-0.199243 0.416303 2.141000 255 0 0
-0.193130 0.415735 2.138000 255 0 0
-0.187120 0.415360 2.136000 255 0 0
-0.181120 0.414985 2.134000 255 0 0
-0.175296 0.414999 2.134000 255 0 0
-0.169311 0.414623 2.132000 255 0 0
-0.163338 0.414247 2.130000 255 0 0
-0.157374 0.413871 2.128000 255 0 0
-0.151564 0.413883 2.128000 255 0 0
-0.146027 0.414672 2.132000 255 0 0
-0.140204 0.414683 2.132000 255 0 0
-0.134381 0.414694 2.132000 255 0 0
-0.128377 0.414121 2.129000 255 0 0
-0.122562 0.414131 2.129000 255 0 0
-0.116636 0.413751 2.127000 255 0 0
-0.110877 0.413954 2.128000 255 0 0
-0.105113 0.414158 2.129000 255 0 0
-0.099389 0.414555 2.131000 255 0 0
-0.093479 0.414173 2.129000 255 0 0
-0.087579 0.413791 2.127000 255 0 0
-0.081689 0.413409 2.125000 255 0 0
-0.075846 0.413221 2.124000 255 0 0
-0.069877 0.412254 2.119000 255 0 0
-0.064055 0.412065 2.118000 255 0 0
-0.058239 0.411875 2.117000 255 0 0
-0.052477 0.412074 2.118000 255 0 0
-0.046688 0.412078 2.118000 255 0 0
-0.040918 0.412276 2.119000 255 0 0
-0.035092 0.411890 2.117000 255 0 0
-0.029264 0.411309 2.114000 255 0 0
-0.023474 0.411116 2.113000 255 0 0
-0.017706 0.411313 2.114000 255 0 0
-0.011927 0.411314 2.114000 255 0 0
-0.006145 0.411120 2.113000 255 0 0
-0.000369 0.411509 2.115000 255 0 0
0.005412 0.411509 2.115000 255 0 0
0.011220 0.412481 2.120000 255 0 0
0.017016 0.412480 2.120000 255 0 0
0.022843 0.413062 2.123000 255 0 0
0.028633 0.412866 2.122000 255 0 0
0.034483 0.413447 2.125000 255 0 0
0.040348 0.414027 2.128000 255 0 0
0.046252 0.414802 2.132000 255 0 0
0.052128 0.415187 2.134000 255 0 0
0.058015 0.415572 2.136000 255 0 0
0.063943 0.416151 2.139000 255 0 0
0.069887 0.416729 2.142000 255 0 0
0.075741 0.416723 2.142000 255 0 0
0.081633 0.416912 2.143000 255 0 0
0.087611 0.417489 2.146000 255 0 0
0.093911 0.419427 2.156000 255 0 0
0.100311 0.421559 2.167000 255 0 0
0.106575 0.422912 2.174000 255 0 0
0.112515 0.422904 2.174000 255 0 0
0.118509 0.423089 2.175000 255 0 0
0.124508 0.423274 2.176000 255 0 0
0.130572 0.423653 2.178000 255 0 0
0.136270 0.422865 2.174000 255 0 0
0.142077 0.422465 2.172000 255 0 0
0.148008 0.422454 2.172000 255 0 0
0.154365 0.423609 2.178000 255 0 0
0.160754 0.424764 2.184000 255 0 0
0.167022 0.425529 2.188000 255 0 0
0.173391 0.426488 2.193000 255 0 0
0.179704 0.427252 2.197000 255 0 0
-0.135021 0.481129 2.321560 255 255 0
-0.130430 0.479352 2.311827 255 255 0
-0.118058 0.478377 2.307525 255 255 0
-0.108296 0.477143 2.301458 255 255 0
-0.070708 0.476588 2.302249 255 255 0
-0.046365 0.476924 2.306760 255 255 0
-0.037549 0.475644 2.300314 255 255 0
-0.026165 0.474645 2.295752 255 255 0
-0.013082 0.473837 2.292475 255 255 0
-0.001734 0.472856 2.288008 255 255 0
0.001033 0.470955 2.277332 255 255 0
-0.002189 0.468401 2.262253 255 255 0
0.007426 0.467247 2.256593 255 255 0
0.027274 0.467229 2.258563 255 255 0
0.051352 0.467703 2.263805 255 255 0
0.061754 0.466678 2.258958 255 255 0
0.072993 0.465756 2.254792 255 255 0
0.082515 0.464651 2.249384 255 255 0
0.092874 0.463650 2.244657 255 255 0
0.098976 0.462171 2.236728 255 255 0
0.106768 0.460891 2.230114 255 255 0
0.114551 0.459617 2.223525 255 255 0
0.111331 0.457070 2.208437 255 255 0
-0.254931 0.393442 2.226361 0 255 0
-0.263930 0.400196 2.257031 0 255 0
-0.258420 0.401816 2.265005 0 255 0
-0.252033 0.403290 2.272360 0 255 0
-0.243894 0.404467 2.278475 0 255 0
-0.233997 0.405351 2.283365 0 255 0
-0.218838 0.405348 2.284551 0 255 0
-0.192273 0.403424 2.277730 0 255 0
-0.156570 0.402623 2.276817 0 255 0
-0.156241 0.405198 2.288759 0 255 0
-0.147129 0.406303 2.294574 0 255 0
-0.141526 0.408001 2.302855 0 255 0
-0.133277 0.409266 2.309334 0 255 0
-0.119733 0.409667 2.312220 0 255 0
-0.107053 0.410226 2.315766 0 255 0
-0.101417 0.411951 2.324153 0 255 0
-0.090477 0.412818 2.328980 0 255 0
-0.063248 0.413729 2.335224 0 255 0
-0.322305 0.426230 2.225000 255 0 0
-0.314542 0.423953 2.213000 255 0 0
-0.307958 0.423208 2.209000 255 0 0
-0.301396 0.422463 2.205000 255 0 0
-0.295122 0.422100 2.203000 255 0 0
-0.288990 0.421929 2.202000 255 0 0
-0.281963 0.420416 2.194000 255 0 0
-0.275230 0.419286 2.188000 255 0 0
-0.268652 0.418348 2.183000 255 0 0
-0.263184 0.419133 2.187000 255 0 0
-0.257693 0.419919 2.191000 255 0 0
-0.252065 0.420512 2.194000 255 0 0
-0.246307 0.420913 2.196000 255 0 0
-0.239662 0.419781 2.190000 255 0 0
-0.232943 0.418457 2.183000 255 0 0
-0.226053 0.416748 2.174000 255 0 0
-0.219617 0.415806 2.169000 255 0 0
-0.212813 0.414097 2.160000 255 0 0
-0.206058 0.412387 2.151000 255 0 0
-0.199537 0.411060 2.144000 255 0 0
-0.193325 0.410308 2.140000 255 0 0
-0.187134 0.409556 2.136000 255 0 0
-0.181134 0.409186 2.134000 255 0 0
-0.175145 0.408816 2.132000 255 0 0
-0.169324 0.408829 2.132000 255 0 0
-0.163274 0.408267 2.129000 255 0 0
-0.157460 0.408279 2.129000 255 0 0
-0.151647 0.408291 2.129000 255 0 0
-0.146038 0.408878 2.132000 255 0 0
-0.140149 0.408697 2.131000 255 0 0
-0.134329 0.408708 2.131000 255 0 0
-0.128387 0.408334 2.129000 255 0 0
-0.122686 0.408728 2.131000 255 0 0
-0.116755 0.408353 2.129000 255 0 0
-0.110938 0.408362 2.129000 255 0 0
-0.105121 0.408371 2.129000 255 0 0
-0.099397 0.408762 2.131000 255 0 0
-0.093574 0.408770 2.131000 255 0 0
-0.087627 0.408202 2.128000 255 0 0
-0.081696 0.407633 2.125000 255 0 0
-0.075816 0.407255 2.123000 255 0 0
-0.069849 0.406302 2.118000 255 0 0
-0.064030 0.406116 2.117000 255 0 0
-0.058243 0.406120 2.117000 255 0 0
-0.052506 0.406509 2.119000 255 0 0
-0.046692 0.406321 2.118000 255 0 0
-0.040921 0.406516 2.119000 255 0 0
-0.035112 0.406327 2.118000 255 0 0
-0.029308 0.406138 2.117000 255 0 0
-0.023498 0.405756 2.115000 255 0 0
-0.017708 0.405566 2.114000 255 0 0
-0.011923 0.405375 2.113000 255 0 0
-0.006149 0.405568 2.114000 255 0 0
-0.000370 0.405952 2.116000 255 0 0
0.005418 0.406144 2.117000 255 0 0
0.011227 0.406910 2.121000 255 0 0
0.017041 0.407293 2.123000 255 0 0
0.022877 0.407867 2.126000 255 0 0
0.028663 0.407481 2.124000 255 0 0
0.034534 0.408246 2.128000 255 0 0
0.040408 0.408819 2.131000 255 0 0
0.046320 0.409582 2.135000 255 0 0
0.052205 0.409962 2.137000 255 0 0
0.058128 0.410533 2.140000 255 0 0
0.064067 0.411104 2.143000 255 0 0
0.069925 0.411099 2.143000 255 0 0
0.075782 0.411093 2.143000 255 0 0
0.081715 0.411470 2.145000 255 0 0
0.087741 0.412231 2.149000 255 0 0
0.094093 0.414334 2.160000 255 0 0
0.100597 0.416820 2.173000 255 0 0
0.106829 0.417963 2.179000 255 0 0
0.112679 0.417570 2.177000 255 0 0
0.118573 0.417369 2.176000 255 0 0
0.124632 0.417744 2.178000 255 0 0
0.130642 0.417925 2.179000 255 0 0
0.136468 0.417531 2.177000 255 0 0
0.142153 0.416753 2.173000 255 0 0
0.148020 0.416550 2.172000 255 0 0
0.154377 0.417689 2.178000 255 0 0
0.160766 0.418828 2.184000 255 0 0
0.167187 0.419966 2.190000 255 0 0
0.173167 0.419953 2.190000 255 0 0
0.179391 0.420515 2.193000 255 0 0
-0.134644 0.467985 2.310136 255 255 0
-0.119678 0.467306 2.307617 255 255 0
-0.103871 0.466731 2.305770 255 255 0
-0.084641 0.466539 2.306422 255 255 0
-0.068890 0.465993 2.304726 255 255 0
-0.045418 0.466299 2.308610 255 255 0
-0.034884 0.465221 2.303389 255 255 0
-0.021788 0.464433 2.300059 255 255 0
-0.011287 0.463373 2.294924 255 255 0
0.002628 0.462700 2.292320 255 255 0
0.001968 0.460416 2.279152 255 255 0
0.000462 0.458032 2.265332 255 255 0
0.007508 0.456607 2.257781 255 255 0
0.027350 0.456639 2.259735 255 255 0
0.053123 0.457369 2.266227 255 255 0
0.066077 0.456658 2.263289 255 255 0
0.077308 0.455760 2.259126 255 255 0
0.084275 0.454379 2.251795 255 255 0
0.094630 0.453398 2.247064 255 255 0
0.099035 0.451729 2.237839 255 255 0
0.105979 0.450361 2.230568 255 255 0
0.112916 0.448997 2.223316 255 255 0
0.116465 0.447235 2.213464 255 255 0
-0.234733 0.376836 2.200472 0 255 0
-0.248320 0.381895 2.222652 0 255 0
-0.260778 0.389323 2.255900 0 255 0
-0.259623 0.391710 2.267057 0 255 0
-0.259344 0.394249 2.278831 0 255 0
-0.248594 0.394949 2.283049 0 255 0
-0.236082 0.395353 2.286059 0 255 0
-0.220057 0.395162 2.286630 0 255 0
-0.196132 0.393624 2.281691 0 255 0
-0.172171 0.392112 2.276872 0 255 0
-0.159573 0.392583 2.280173 0 255 0
-0.158366 0.395016 2.291497 0 255 0
-0.152772 0.396701 2.299756 0 255 0
-0.142778 0.397645 2.304990 0 255 0
-0.133652 0.398746 2.310868 0 255 0
-0.120113 0.399118 2.313766 0 255 0
-0.109201 0.399945 2.318525 0 255 0
-0.101802 0.401368 2.325717 0 255 0
-0.094397 0.402799 2.332935 0 255 0
-0.078149 0.402779 2.334251 0 255 0
-0.066300 0.403501 2.338593 0 255 0
-0.321313 0.418863 2.218000 255 0 0
-0.314705 0.418129 2.214000 255 0 0
-0.308398 0.417773 2.212000 255 0 0
-0.301963 0.417227 2.209000 255 0 0
-0.295411 0.416492 2.205000 255 0 0
-0.289272 0.416324 2.204000 255 0 0
-0.282625 0.415399 2.199000 255 0 0
-0.275627 0.413907 2.191000 255 0 0
-0.268794 0.412604 2.184000 255 0 0
-0.263202 0.413190 2.187000 255 0 0
-0.257947 0.414342 2.193000 255 0 0
-0.252657 0.415494 2.199000 255 0 0
-0.246998 0.416079 2.202000 255 0 0
-0.240993 0.416097 2.202000 255 0 0
-0.234668 0.415547 2.199000 255 0 0
-0.227630 0.413674 2.189000 255 0 0
-0.220747 0.411990 2.180000 255 0 0
-0.213617 0.409738 2.168000 255 0 0
-0.206648 0.407675 2.157000 255 0 0
-0.199924 0.405989 2.148000 255 0 0
-0.193520 0.404870 2.142000 255 0 0
-0.187323 0.404128 2.138000 255 0 0
-0.181318 0.403764 2.136000 255 0 0
-0.175322 0.403399 2.134000 255 0 0
-0.169417 0.403223 2.133000 255 0 0
-0.163363 0.402668 2.130000 255 0 0
-0.157546 0.402681 2.130000 255 0 0
-0.151801 0.402882 2.131000 255 0 0
-0.146118 0.403271 2.133000 255 0 0
-0.140292 0.403282 2.133000 255 0 0
-0.134528 0.403482 2.134000 255 0 0
-0.128638 0.403303 2.133000 255 0 0
-0.122811 0.403313 2.133000 255 0 0
-0.116929 0.403133 2.132000 255 0 0
-0.111103 0.403142 2.132000 255 0 0
-0.105278 0.403150 2.132000 255 0 0
-0.099451 0.403158 2.132000 255 0 0
-0.093669 0.403355 2.133000 255 0 0
