ply
format ascii 1.0
element vertex 1326
property double x
property double y
property double z
property uchar red
property uchar green
property uchar blue
end_header
-0.070974 0.295183 2.149000 255 0 0
-0.065092 0.295188 2.149000 255 0 0
-0.059237 0.295329 2.150000 255 0 0
-0.053377 0.295470 2.151000 255 0 0
-0.047532 0.295748 2.153000 255 0 0
-0.041638 0.295751 2.153000 255 0 0
-0.035761 0.295891 2.154000 255 0 0
-0.029905 0.296305 2.157000 255 0 0
-0.024033 0.296719 2.160000 255 0 0
-0.018145 0.297132 2.163000 255 0 0
-0.012234 0.297408 2.165000 255 0 0
-0.006315 0.297821 2.168000 255 0 0
-0.000380 0.298371 2.172000 255 0 0
0.005582 0.299195 2.178000 255 0 0
0.011577 0.300018 2.184000 255 0 0
0.017589 0.300567 2.188000 255 0 0
0.023622 0.301115 2.192000 255 0 0
0.029677 0.301663 2.196000 255 0 0
0.035803 0.302622 2.203000 255 0 0
0.042043 0.304131 2.214000 255 0 0
0.048343 0.305639 2.225000 255 0 0
0.054703 0.307147 2.236000 255 0 0
0.061178 0.308929 2.249000 255 0 0
0.067753 0.310847 2.263000 255 0 0
0.074993 0.315238 2.295000 255 0 0
0.082231 0.318942 2.322000 255 0 0
0.087556 0.315228 2.295000 255 0 0
0.093510 0.314123 2.287000 255 0 0
0.099420 0.313018 2.279000 255 0 0
0.105332 0.312050 2.272000 255 0 0
0.111352 0.311494 2.268000 255 0 0
0.117350 0.310937 2.264000 255 0 0
0.123272 0.310243 2.259000 255 0 0
0.129165 0.309548 2.254000 255 0 0
0.135271 0.309403 2.253000 255 0 0
0.141496 0.309531 2.254000 255 0 0
0.147530 0.309248 2.252000 255 0 0
0.153280 0.308414 2.246000 255 0 0
-0.116068 0.259703 2.399497 255 255 0
-0.102887 0.259398 2.395523 255 255 0
-0.087152 0.259530 2.393351 255 255 0
-0.070586 0.259817 2.391836 255 255 0
-0.054904 0.259976 2.389811 255 255 0
-0.048655 0.258568 2.381365 255 255 0
-0.032159 0.258892 2.380046 255 255 0
-0.027640 0.257207 2.370471 255 255 0
-0.020566 0.255958 2.362695 255 255 0
-0.016905 0.254132 2.352539 255 255 0
-0.006439 0.253473 2.347205 255 255 0
0.001464 0.252383 2.340096 255 255 0
0.001716 0.249977 2.327544 255 255 0
-0.003962 0.246538 2.310701 255 255 0
-0.004536 0.243975 2.297480 255 255 0
0.040492 0.242051 2.279212 255 255 0
0.077831 0.246238 2.294138 255 255 0
0.100787 0.247905 2.298594 255 255 0
0.106885 0.246579 2.290562 255 255 0
0.097858 0.242533 2.271155 255 255 0
-0.288564 0.186812 2.299644 0 255 0
-0.277051 0.186844 2.303356 0 255 0
-0.265524 0.186888 2.307118 0 255 0
-0.244497 0.184692 2.304171 0 255 0
-0.213945 0.180275 2.294598 0 255 0
-0.212715 0.182813 2.305901 0 255 0
-0.213217 0.185754 2.318406 0 255 0
-0.212860 0.188489 2.330284 0 255 0
-0.207312 0.190011 2.338536 0 255 0
-0.206093 0.192542 2.349797 0 255 0
-0.208347 0.195875 2.363432 0 255 0
-0.209744 0.199003 2.376442 0 255 0
-0.204194 0.200527 2.384692 0 255 0
-0.188203 0.199664 2.385891 0 255 0
-0.170449 0.198421 2.385992 0 255 0
-0.156155 0.197989 2.388513 0 255 0
-0.149690 0.199350 2.396332 0 255 0
-0.142346 0.200519 2.403591 0 255 0
-0.134994 0.201693 2.410874 0 255 0
-0.333075 0.302950 2.254000 255 0 0
-0.327079 0.303102 2.255000 255 0 0
-0.320507 0.302717 2.252000 255 0 0
-0.314509 0.302869 2.253000 255 0 0
-0.309052 0.303558 2.258000 255 0 0
-0.303298 0.303979 2.261000 255 0 0
-0.297527 0.304399 2.264000 255 0 0
-0.291225 0.304281 2.263000 255 0 0
-0.285430 0.304701 2.266000 255 0 0
-0.279865 0.305390 2.271000 255 0 0
-0.274512 0.306347 2.278000 255 0 0
-0.269120 0.307304 2.285000 255 0 0
-0.264035 0.308665 2.295000 255 0 0
-0.256872 0.307604 2.287000 255 0 0
-0.248766 0.305332 2.270000 255 0 0
-0.240965 0.303329 2.255000 255 0 0
-0.233037 0.301056 2.238000 255 0 0
-0.225709 0.299456 2.226000 255 0 0
-0.218445 0.297854 2.214000 255 0 0
-0.211533 0.296656 2.205000 255 0 0
-0.204484 0.295189 2.194000 255 0 0
-0.197856 0.294259 2.187000 255 0 0
-0.191353 0.293464 2.181000 255 0 0
-0.184967 0.292802 2.176000 255 0 0
-0.178608 0.292141 2.171000 255 0 0
-0.172197 0.291344 2.165000 255 0 0
-0.165970 0.290816 2.161000 255 0 0
-0.159988 0.290691 2.160000 255 0 0
-0.154010 0.290566 2.159000 255 0 0
-0.147969 0.290307 2.157000 255 0 0
-0.141938 0.290046 2.155000 255 0 0
-0.135854 0.289651 2.152000 255 0 0
-0.129847 0.289390 2.150000 255 0 0
-0.123850 0.289129 2.148000 255 0 0
-0.117918 0.289002 2.147000 255 0 0
-0.112096 0.289144 2.148000 255 0 0
-0.106268 0.289285 2.149000 255 0 0
-0.100387 0.289292 2.149000 255 0 0
-0.094374 0.288894 2.146000 255 0 0
-0.088460 0.288765 2.145000 255 0 0
-0.082666 0.289040 2.147000 255 0 0
-0.076861 0.289314 2.149000 255 0 0
-0.071012 0.289453 2.150000 255 0 0
-0.065157 0.289592 2.151000 255 0 0
-0.059296 0.289731 2.152000 255 0 0
-0.053405 0.289734 2.152000 255 0 0
-0.047557 0.290007 2.154000 255 0 0
-0.041680 0.290144 2.155000 255 0 0
-0.035796 0.290282 2.156000 255 0 0
-0.029907 0.290418 2.157000 255 0 0
-0.024057 0.291093 2.162000 255 0 0
-0.018171 0.291633 2.166000 255 0 0
-0.012252 0.291903 2.168000 255 0 0
-0.006321 0.292173 2.170000 255 0 0
-0.000380 0.292577 2.173000 255 0 0
0.005588 0.293520 2.180000 255 0 0
0.011588 0.294327 2.186000 255 0 0
0.017614 0.294999 2.191000 255 0 0
0.023656 0.295537 2.195000 255 0 0
0.029733 0.296208 2.200000 255 0 0
0.035854 0.297014 2.206000 255 0 0
0.042027 0.297954 2.213000 255 0 0
0.048303 0.299297 2.223000 255 0 0
0.054683 0.300910 2.235000 255 0 0
0.061318 0.303464 2.254000 255 0 0
0.067997 0.305749 2.271000 255 0 0
0.076011 0.313149 2.326000 255 0 0
0.082520 0.313682 2.330000 255 0 0
0.087676 0.309369 2.298000 255 0 0
0.093598 0.308151 2.289000 255 0 0
0.099470 0.306934 2.280000 255 0 0
0.105431 0.306120 2.274000 255 0 0
0.111359 0.305305 2.268000 255 0 0
0.117358 0.304760 2.264000 255 0 0
0.123334 0.304214 2.260000 255 0 0
0.129231 0.303533 2.255000 255 0 0
0.135280 0.303255 2.253000 255 0 0
0.141380 0.303112 2.252000 255 0 0
0.147343 0.302699 2.249000 255 0 0
0.153153 0.302017 2.244000 255 0 0
-0.119672 0.250500 2.411226 255 255 0
-0.109062 0.249787 2.405480 255 255 0
-0.096750 0.249369 2.400935 255 255 0
-0.081026 0.249540 2.398768 255 255 0
-0.066185 0.249580 2.396088 255 255 0
-0.051367 0.249631 2.393475 255 255 0
-0.045977 0.248086 2.384442 255 255 0
-0.028635 0.248597 2.383708 255 255 0
-0.024971 0.246769 2.373545 255 255 0
-0.014491 0.246121 2.368156 255 255 0
-0.014240 0.243706 2.355616 255 255 0
-0.002928 0.243217 2.350882 255 255 0
-0.000127 0.241248 2.340147 255 255 0
0.002676 0.239278 2.329409 255 255 0
0.002938 0.236859 2.316837 255 255 0
0.005746 0.234887 2.306082 255 255 0
0.038919 0.230948 2.279185 255 255 0
0.076243 0.235238 2.294077 255 255 0
0.096668 0.236505 2.296629 255 255 0
0.102771 0.235184 2.288578 255 255 0
0.107189 0.233558 2.279277 255 255 0
-0.290121 0.173883 2.289933 0 255 0
-0.280337 0.174304 2.294882 0 255 0
-0.264519 0.173276 2.295537 0 255 0
-0.259012 0.174757 2.303662 0 255 0
-0.237988 0.172512 2.300753 0 255 0
-0.213484 0.169464 2.295506 0 255 0
-0.213978 0.172420 2.308031 0 255 0
-0.214477 0.175373 2.320535 0 255 0
-0.210659 0.177296 2.329999 0 255 0
-0.209436 0.179834 2.341269 0 255 0
-0.207350 0.182167 2.351929 0 255 0
-0.208735 0.185312 2.364966 0 255 0
-0.203184 0.186830 2.373231 0 255 0
-0.196761 0.188149 2.380917 0 255 0
-0.186855 0.188666 2.386271 0 255 0
-0.172587 0.188186 2.388736 0 255 0
-0.160913 0.188323 2.393016 0 255 0
-0.153580 0.189471 2.400248 0 255 0
-0.147985 0.191025 2.408661 0 255 0
-0.142385 0.192582 2.417089 0 255 0
-0.088019 0.194533 2.442563 0 255 0
-0.074473 0.194367 2.446114 0 255 0
-0.332945 0.296673 2.253000 255 0 0
-0.326807 0.296691 2.253000 255 0 0
-0.320525 0.296577 2.252000 255 0 0
-0.314526 0.296726 2.253000 255 0 0
-0.309069 0.297402 2.258000 255 0 0
-0.303181 0.297682 2.260000 255 0 0
-0.297281 0.297962 2.262000 255 0 0
-0.291241 0.298110 2.263000 255 0 0
-0.285572 0.298654 2.267000 255 0 0
-0.280127 0.299460 2.273000 255 0 0
-0.274769 0.300398 2.280000 255 0 0
-0.269725 0.301731 2.290000 255 0 0
-0.264510 0.302932 2.299000 255 0 0
-0.257224 0.301761 2.290000 255 0 0
-0.248890 0.299272 2.271000 255 0 0
-0.241407 0.297705 2.259000 255 0 0
-0.233363 0.295347 2.241000 255 0 0
-0.225925 0.293647 2.228000 255 0 0
-0.218655 0.292078 2.216000 255 0 0
-0.211834 0.291036 2.208000 255 0 0
-0.204962 0.289862 2.199000 255 0 0
-0.198320 0.288952 2.192000 255 0 0
-0.191715 0.288040 2.185000 255 0 0
-0.185489 0.287656 2.182000 255 0 0
-0.179113 0.287008 2.177000 255 0 0
-0.172525 0.285964 2.169000 255 0 0
-0.166211 0.285315 2.164000 255 0 0
-0.160072 0.284929 2.161000 255 0 0
-0.154091 0.284807 2.160000 255 0 0
-0.147978 0.284420 2.157000 255 0 0
-0.142012 0.284297 2.156000 255 0 0
-0.135926 0.283910 2.153000 255 0 0
-0.129915 0.283655 2.151000 255 0 0
-0.123973 0.283531 2.150000 255 0 0
-0.118035 0.283406 2.149000 255 0 0
-0.112207 0.283545 2.150000 255 0 0
-0.106324 0.283552 2.150000 255 0 0
-0.100487 0.283690 2.151000 255 0 0
-0.094512 0.283432 2.149000 255 0 0
-0.088548 0.283174 2.147000 255 0 0
-0.082710 0.283311 2.148000 255 0 0
-0.076866 0.283448 2.149000 255 0 0
-0.071049 0.283717 2.151000 255 0 0
-0.065191 0.283853 2.152000 255 0 0
-0.059327 0.283989 2.153000 255 0 0
-0.053483 0.284256 2.155000 255 0 0
-0.047605 0.284391 2.156000 255 0 0
-0.041740 0.284658 2.158000 255 0 0
-0.035848 0.284792 2.159000 255 0 0
-0.029992 0.285322 2.163000 255 0 0
-0.024092 0.285587 2.165000 255 0 0
-0.018206 0.286248 2.170000 255 0 0
-0.012269 0.286381 2.171000 255 0 0
-0.006336 0.286909 2.175000 255 0 0
-0.000381 0.287173 2.177000 255 0 0
0.005598 0.288096 2.184000 255 0 0
0.011600 0.288624 2.188000 255 0 0
0.017647 0.289546 2.195000 255 0 0
0.023690 0.289941 2.198000 255 0 0
0.029762 0.290466 2.202000 255 0 0
0.035889 0.291256 2.208000 255 0 0
0.042049 0.292045 2.214000 255 0 0
0.048284 0.293097 2.222000 255 0 0
0.054661 0.294677 2.234000 255 0 0
0.061376 0.297575 2.256000 255 0 0
0.068181 0.300341 2.277000 255 0 0
0.075787 0.305877 2.319000 255 0 0
0.083198 0.309829 2.349000 255 0 0
0.087873 0.303756 2.303000 255 0 0
0.093645 0.302036 2.290000 255 0 0
0.099520 0.300843 2.281000 255 0 0
0.105484 0.300045 2.275000 255 0 0
0.111366 0.299115 2.268000 255 0 0
0.117210 0.298185 2.261000 255 0 0
0.123178 0.297650 2.257000 255 0 0
0.129067 0.296983 2.252000 255 0 0
0.135168 0.296843 2.251000 255 0 0
0.141263 0.296702 2.250000 255 0 0
0.147286 0.296430 2.248000 255 0 0
-0.110943 0.240883 2.418341 255 255 0
-0.101203 0.240047 2.412034 255 255 0
-0.086328 0.240101 2.409236 255 255 0
-0.071476 0.240166 2.406505 255 255 0
-0.057505 0.240096 2.403256 255 255 0
-0.043556 0.240037 2.400068 255 255 0
-0.036465 0.238799 2.392230 255 255 0
-0.026820 0.238012 2.386187 255 255 0
-0.023156 0.236185 2.376023 255 255 0
-0.015235 0.235108 2.368841 255 255 0
-0.010726 0.233434 2.359290 255 255 0
-0.001969 0.232517 2.352751 255 255 0
0.004230 0.231152 2.344432 255 255 0
0.004485 0.228725 2.331882 255 255 0
0.006443 0.226601 2.320531 255 255 0
0.010943 0.224933 2.311004 255 255 0
0.070449 0.223441 2.290902 255 255 0
0.085829 0.223824 2.289661 255 255 0
0.095303 0.223127 2.284086 255 255 0
0.103087 0.222125 2.277283 255 255 0
-0.287919 0.162811 2.289515 0 255 0
-0.277276 0.163002 2.293860 0 255 0
-0.265761 0.162992 2.297630 0 255 0
-0.214267 0.156086 2.285091 0 255 0
-0.203545 0.156337 2.289702 0 255 0
-0.217830 0.162649 2.311986 0 255 0
-0.217465 0.165402 2.323876 0 255 0
-0.212785 0.167114 2.332735 0 255 0
-0.211561 0.169657 2.344003 0 255 0
-0.209475 0.171992 2.354662 0 255 0
-0.204791 0.173709 2.363528 0 255 0
-0.193167 0.173784 2.367663 0 255 0
-0.187604 0.175305 2.375978 0 255 0
-0.182036 0.176830 2.384308 0 255 0
-0.177334 0.178563 2.393236 0 255 0
-0.170017 0.179688 2.400425 0 255 0
-0.161823 0.180616 2.407061 0 255 0
-0.157978 0.182562 2.416612 0 255 0
-0.150643 0.183703 2.423869 0 255 0
-0.090194 0.184125 2.445349 0 255 0
-0.080162 0.184721 2.451146 0 255 0
-0.332520 0.290144 2.250000 255 0 0
-0.326534 0.290290 2.251000 255 0 0
-0.320257 0.290178 2.250000 255 0 0
-0.314125 0.290195 2.250000 255 0 0
-0.308812 0.290986 2.256000 255 0 0
-0.303466 0.291777 2.262000 255 0 0
-0.298086 0.292567 2.268000 255 0 0
-0.291901 0.292584 2.268000 255 0 0
-0.285840 0.292728 2.269000 255 0 0
-0.280513 0.293647 2.276000 255 0 0
-0.275266 0.294695 2.284000 255 0 0
-0.270329 0.296130 2.295000 255 0 0
-0.264755 0.296919 2.301000 255 0 0
-0.256902 0.295127 2.287000 255 0 0
-0.248575 0.292690 2.268000 255 0 0
-0.241527 0.291671 2.260000 255 0 0
-0.233793 0.289749 2.245000 255 0 0
-0.226343 0.288084 2.232000 255 0 0
-0.218865 0.286290 2.218000 255 0 0
-0.212134 0.285399 2.211000 255 0 0
-0.205627 0.284766 2.206000 255 0 0
-0.199056 0.284003 2.200000 255 0 0
-0.192517 0.283240 2.194000 255 0 0
-0.186010 0.282476 2.188000 255 0 0
-0.179535 0.281713 2.182000 255 0 0
-0.172933 0.280690 2.174000 255 0 0
-0.166375 0.279667 2.166000 255 0 0
-0.160230 0.279290 2.163000 255 0 0
-0.154172 0.279041 2.161000 255 0 0
-0.148055 0.278662 2.158000 255 0 0
-0.142087 0.278542 2.157000 255 0 0
-0.136060 0.278292 2.155000 255 0 0
-0.130044 0.278042 2.153000 255 0 0
-0.124038 0.277791 2.151000 255 0 0
-0.118097 0.277669 2.150000 255 0 0
-0.112214 0.277676 2.150000 255 0 0
-0.106331 0.277683 2.150000 255 0 0
-0.100540 0.277947 2.152000 255 0 0
-0.094606 0.277824 2.151000 255 0 0
-0.088677 0.277701 2.150000 255 0 0
-0.082715 0.277448 2.148000 255 0 0
-0.076835 0.277452 2.148000 255 0 0
-0.071021 0.277715 2.150000 255 0 0
-0.065195 0.277978 2.152000 255 0 0
-0.059359 0.278240 2.154000 255 0 0
-0.053511 0.278502 2.156000 255 0 0
-0.047630 0.278634 2.157000 255 0 0
-0.041743 0.278766 2.158000 255 0 0
-0.035867 0.279027 2.160000 255 0 0
-0.030008 0.279546 2.164000 255 0 0
-0.024127 0.280064 2.168000 255 0 0
-0.018232 0.280711 2.173000 255 0 0
-0.012293 0.280970 2.175000 255 0 0
-0.006351 0.281617 2.180000 255 0 0
-0.000382 0.282005 2.183000 255 0 0
0.005614 0.282909 2.190000 255 0 0
0.011638 0.283554 2.195000 255 0 0
0.017680 0.284070 2.199000 255 0 0
0.023745 0.284585 2.203000 255 0 0
0.029845 0.285230 2.208000 255 0 0
0.035973 0.285874 2.213000 255 0 0
0.042108 0.286388 2.217000 255 0 0
0.048309 0.287160 2.223000 255 0 0
0.054738 0.288965 2.237000 255 0 0
0.061462 0.291804 2.259000 255 0 0
0.068245 0.294383 2.279000 255 0 0
0.075334 0.297737 2.305000 255 0 0
0.082672 0.301478 2.334000 255 0 0
0.087840 0.297340 2.302000 255 0 0
0.093650 0.295784 2.290000 255 0 0
0.099569 0.294745 2.282000 255 0 0
0.105491 0.293835 2.275000 255 0 0
0.111324 0.292795 2.267000 255 0 0
0.117165 0.291884 2.260000 255 0 0
0.123076 0.291231 2.255000 255 0 0
0.129017 0.290707 2.251000 255 0 0
0.135056 0.290440 2.249000 255 0 0
0.141209 0.290432 2.249000 255 0 0
0.147230 0.290165 2.247000 255 0 0
0.152966 0.289381 2.241000 255 0 0
-0.117986 0.231088 2.427778 255 255 0
-0.111674 0.229670 2.419141 255 255 0
-0.099359 0.229300 2.414550 255 255 0
-0.081917 0.229836 2.413478 255 255 0
-0.062792 0.230688 2.413650 255 255 0
-0.055679 0.229449 2.405748 255 255 0
-0.043445 0.229120 2.401382 255 255 0
-0.032084 0.228649 2.396478 255 255 0
-0.018180 0.228642 2.393393 255 255 0
-0.012820 0.227123 2.384435 255 255 0
-0.004909 0.226065 2.377276 255 255 0
0.001291 0.224705 2.368946 255 255 0
0.007485 0.223348 2.360631 255 255 0
0.011977 0.221687 2.351126 255 255 0
0.011380 0.219099 2.337990 255 255 0
0.011640 0.216662 2.325439 255 255 0
0.004294 0.212823 2.307371 255 255 0
0.070552 0.212700 2.292102 255 255 0
0.080885 0.212170 2.287092 255 255 0
0.088684 0.211172 2.280237 255 255 0
0.094797 0.209860 2.272145 255 255 0
-0.282807 0.153808 2.299046 0 255 0
-0.265286 0.152277 2.298491 0 255 0
-0.249460 0.151190 2.299250 0 255 0
-0.206069 0.143326 2.280491 0 255 0
-0.225630 0.156700 2.330843 0 255 0
-0.222683 0.158824 2.340889 0 255 0
-0.218008 0.160528 2.349733 0 255 0
-0.215060 0.162654 2.359782 0 255 0
-0.210381 0.164363 2.368639 0 255 0
-0.193565 0.163162 2.369219 0 255 0
-0.185400 0.164054 2.375773 0 255 0
-0.181567 0.165987 2.385289 0 255 0
-0.182946 0.169161 2.398316 0 255 0
-0.177375 0.170682 2.406663 0 255 0
-0.170929 0.172002 2.414444 0 255 0
-0.167962 0.174145 2.424551 0 255 0
-0.158892 0.174860 2.430640 0 255 0
-0.094996 0.174321 2.449819 0 255 0
-0.333276 0.284639 2.255000 255 0 0
-0.327277 0.284783 2.256000 255 0 0
-0.320986 0.284674 2.255000 255 0 0
-0.314840 0.284690 2.255000 255 0 0
-0.309103 0.285086 2.258000 255 0 0
-0.303617 0.285733 2.263000 255 0 0
-0.298103 0.286381 2.268000 255 0 0
-0.292174 0.286650 2.270000 255 0 0
-0.286108 0.286792 2.271000 255 0 0
-0.280775 0.287691 2.278000 255 0 0
-0.275523 0.288717 2.286000 255 0 0
-0.270462 0.289995 2.296000 255 0 0
-0.264425 0.290262 2.298000 255 0 0
-0.256242 0.288129 2.281000 255 0 0
-0.248480 0.286375 2.267000 255 0 0
-0.241862 0.285883 2.263000 255 0 0
-0.234432 0.284381 2.251000 255 0 0
-0.226661 0.282372 2.235000 255 0 0
-0.218976 0.280364 2.219000 255 0 0
-0.212146 0.279365 2.211000 255 0 0
-0.205732 0.278872 2.207000 255 0 0
-0.199339 0.278378 2.203000 255 0 0
-0.192791 0.277631 2.197000 255 0 0
-0.186106 0.276631 2.189000 255 0 0
-0.179710 0.276010 2.184000 255 0 0
-0.173182 0.275135 2.177000 255 0 0
-0.166692 0.274260 2.170000 255 0 0
-0.160387 0.273638 2.165000 255 0 0
-0.154323 0.273394 2.163000 255 0 0
-0.148270 0.273151 2.161000 255 0 0
-0.142293 0.273033 2.160000 255 0 0
-0.136131 0.272535 2.156000 255 0 0
-0.130172 0.272417 2.155000 255 0 0
-0.124161 0.272172 2.153000 255 0 0
-0.118269 0.272179 2.153000 255 0 0
-0.112430 0.272312 2.154000 255 0 0
-0.106485 0.272192 2.153000 255 0 0
-0.100639 0.272325 2.154000 255 0 0
-0.094656 0.272078 2.152000 255 0 0
-0.088806 0.272210 2.153000 255 0 0
-0.082874 0.272088 2.152000 255 0 0
-0.076983 0.272093 2.152000 255 0 0
-0.071124 0.272224 2.153000 255 0 0
-0.065260 0.272355 2.154000 255 0 0
-0.059417 0.272611 2.156000 255 0 0
-0.053564 0.272868 2.158000 255 0 0
-0.047655 0.272871 2.158000 255 0 0
-0.041784 0.273126 2.160000 255 0 0
-0.035902 0.273382 2.162000 255 0 0
-0.030051 0.274016 2.167000 255 0 0
-0.024150 0.274397 2.170000 255 0 0
-0.018241 0.274904 2.174000 255 0 0
-0.012310 0.275411 2.178000 255 0 0
-0.006357 0.275917 2.182000 255 0 0
-0.000383 0.276676 2.188000 255 0 0
0.005624 0.277434 2.194000 255 0 0
0.011665 0.278193 2.200000 255 0 0
0.017730 0.278824 2.205000 255 0 0
0.023822 0.279455 2.210000 255 0 0
0.029955 0.280212 2.216000 255 0 0
0.036072 0.280589 2.219000 255 0 0
0.042206 0.280966 2.222000 255 0 0
0.048399 0.281596 2.227000 255 0 0
0.054791 0.283110 2.239000 255 0 0
0.061438 0.285509 2.258000 255 0 0
0.068160 0.287781 2.276000 255 0 0
0.075012 0.290179 2.295000 255 0 0
0.082252 0.293588 2.322000 255 0 0
0.087807 0.290928 2.301000 255 0 0
0.093574 0.289279 2.288000 255 0 0
0.099488 0.288262 2.280000 255 0 0
0.105404 0.287370 2.273000 255 0 0
0.111282 0.286479 2.266000 255 0 0
0.117224 0.285840 2.261000 255 0 0
0.123029 0.284948 2.254000 255 0 0
0.129082 0.284688 2.252000 255 0 0
0.135064 0.284301 2.249000 255 0 0
0.141280 0.284419 2.250000 255 0 0
0.147304 0.284157 2.248000 255 0 0
0.153180 0.283643 2.244000 255 0 0
-0.120435 0.219550 2.427452 255 255 0
-0.112403 0.218441 2.419945 255 255 0
-0.095800 0.218855 2.418216 255 255 0
-0.077510 0.219587 2.417718 255 255 0
-0.059251 0.220335 2.417307 255 255 0
-0.047866 0.219873 2.412321 255 255 0
-0.038206 0.219113 2.406210 255 255 0
-0.025999 0.218822 2.401898 255 255 0
-0.014663 0.218386 2.397048 255 255 0
-0.007602 0.217184 2.389279 255 255 0
0.002003 0.216451 2.383317 255 255 0
0.009896 0.215414 2.376196 255 255 0
0.010139 0.212976 2.363699 255 255 0
0.013781 0.211161 2.353592 255 255 0
0.015728 0.209032 2.342277 255 255 0
0.010063 0.205483 2.325482 255 255 0
0.070658 0.201949 2.293305 255 255 0
0.078469 0.200957 2.286410 255 255 0
0.088787 0.200453 2.281423 255 255 0
0.094062 0.198987 2.272694 255 255 0
-0.280612 0.142686 2.298653 0 255 0
-0.277694 0.144785 2.308605 0 255 0
-0.256728 0.142360 2.305658 0 255 0
-0.228113 0.143777 2.321707 0 255 0
-0.229475 0.146968 2.334781 0 255 0
-0.225667 0.148877 2.344220 0 255 0
-0.217538 0.149727 2.350668 0 255 0
-0.215453 0.152066 2.361319 0 255 0
-0.208177 0.153137 2.368401 0 255 0
-0.197430 0.153372 2.373142 0 255 0
-0.186669 0.153617 2.377928 0 255 0
-0.188042 0.156804 2.390964 0 255 0
-0.186816 0.159361 2.402223 0 255 0
-0.182987 0.161290 2.411728 0 255 0
-0.174808 0.162181 2.418346 0 255 0
-0.171842 0.164323 2.428448 0 255 0
-0.161034 0.164605 2.433388 0 255 0
-0.102420 0.165144 2.455968 0 255 0
-0.096784 0.166711 2.464543 0 255 0
-0.085882 0.167063 2.469800 0 255 0
-0.333737 0.278860 2.258000 255 0 0
-0.327584 0.278877 2.258000 255 0 0
-0.321003 0.278523 2.255000 255 0 0
-0.314996 0.278663 2.256000 255 0 0
-0.309393 0.279173 2.260000 255 0 0
-0.304170 0.280054 2.267000 255 0 0
-0.298776 0.280811 2.273000 255 0 0
-0.292833 0.281074 2.275000 255 0 0
-0.286753 0.281213 2.276000 255 0 0
-0.281160 0.281846 2.281000 255 0 0
-0.275779 0.282726 2.288000 255 0 0
-0.270830 0.284101 2.299000 255 0 0
-0.264900 0.284486 2.302000 255 0 0
-0.256368 0.282028 2.282000 255 0 0
-0.248603 0.280312 2.268000 255 0 0
-0.241875 0.279708 2.263000 255 0 0
-0.234861 0.278732 2.255000 255 0 0
-0.227383 0.277138 2.242000 255 0 0
-0.219581 0.275049 2.225000 255 0 0
-0.212350 0.273578 2.213000 255 0 0
-0.205930 0.273095 2.209000 255 0 0
-0.199440 0.272488 2.204000 255 0 0
-0.192890 0.271757 2.198000 255 0 0
-0.186286 0.270903 2.191000 255 0 0
-0.179885 0.270295 2.186000 255 0 0
-0.173669 0.269934 2.183000 255 0 0
-0.167009 0.268831 2.174000 255 0 0
-0.160767 0.268346 2.170000 255 0 0
-0.154475 0.267736 2.165000 255 0 0
-0.148485 0.267621 2.164000 255 0 0
-0.142433 0.267383 2.162000 255 0 0
-0.136392 0.267143 2.160000 255 0 0
-0.130422 0.267027 2.159000 255 0 0
-0.124341 0.266664 2.156000 255 0 0
-0.118496 0.266795 2.157000 255 0 0
-0.112489 0.266554 2.155000 255 0 0
-0.106591 0.266560 2.155000 255 0 0
-0.100692 0.266566 2.155000 255 0 0
-0.094793 0.266572 2.155000 255 0 0
-0.088935 0.266701 2.156000 255 0 0
-0.083072 0.266830 2.157000 255 0 0
-0.077166 0.266835 2.157000 255 0 0
-0.071228 0.266716 2.156000 255 0 0
-0.065324 0.266720 2.156000 255 0 0
-0.059421 0.266723 2.156000 255 0 0
-0.053567 0.266974 2.158000 255 0 0
-0.047702 0.267225 2.160000 255 0 0
-0.041845 0.267598 2.163000 255 0 0
-0.035954 0.267848 2.165000 255 0 0
-0.030067 0.268221 2.168000 255 0 0
-0.024163 0.268594 2.171000 255 0 0
-0.018251 0.269090 2.175000 255 0 0
-0.012322 0.269710 2.180000 255 0 0
-0.006367 0.270329 2.185000 255 0 0
-0.000384 0.271195 2.192000 255 0 0
0.005638 0.272061 2.199000 255 0 0
0.011692 0.272803 2.205000 255 0 0
0.017763 0.273297 2.209000 255 0 0
0.023856 0.273790 2.213000 255 0 0
0.029998 0.274531 2.219000 255 0 0
0.036140 0.275024 2.223000 255 0 0
0.042322 0.275640 2.228000 255 0 0
0.048510 0.276132 2.232000 255 0 0
0.054818 0.277119 2.240000 255 0 0
0.061333 0.278848 2.254000 255 0 0
0.067924 0.280576 2.268000 255 0 0
0.074755 0.282922 2.287000 255 0 0
0.082469 0.287989 2.328000 255 0 0
0.087812 0.284644 2.301000 255 0 0
0.093539 0.282907 2.287000 255 0 0
0.099494 0.282035 2.280000 255 0 0
0.105410 0.281163 2.273000 255 0 0
0.111239 0.280168 2.265000 255 0 0
0.117231 0.279666 2.261000 255 0 0
0.123091 0.278917 2.255000 255 0 0
0.129147 0.278662 2.253000 255 0 0
0.135072 0.278160 2.249000 255 0 0
0.141225 0.278152 2.249000 255 0 0
0.147313 0.278020 2.248000 255 0 0
0.153053 0.277269 2.242000 255 0 0
-0.113427 0.209673 2.433397 255 255 0
-0.104544 0.208735 2.426474 255 255 0
-0.089669 0.208882 2.423604 255 255 0
-0.073105 0.209352 2.421955 255 255 0
-0.052289 0.210612 2.423279 255 255 0
-0.041769 0.210022 2.417720 255 255 0
-0.030409 0.209595 2.412786 255 255 0
-0.020772 0.208864 2.406726 255 255 0
-0.012852 0.207825 2.399522 255 255 0
-0.004091 0.206949 2.392936 255 255 0
0.009762 0.207026 2.389947 255 255 0
0.020194 0.206481 2.384632 255 255 0
0.020429 0.204037 2.372162 255 255 0
0.016433 0.200793 2.356662 255 255 0
0.014147 0.197862 2.342328 255 255 0
0.000877 0.192841 2.320066 255 255 0
0.080254 0.190533 2.288857 255 255 0
0.093923 0.190706 2.286374 255 255 0
0.099194 0.189248 2.277655 255 255 0
-0.206046 0.121753 2.282947 0 255 0
-0.209093 0.125413 2.297352 0 255 0
-0.225562 0.135303 2.333288 0 255 0
-0.222612 0.137429 2.343344 0 255 0
-0.217072 0.138911 2.351606 0 255 0
-0.216712 0.141681 2.363454 0 255 0
-0.213763 0.143808 2.373507 0 255 0
-0.205620 0.144657 2.380015 0 255 0
-0.198335 0.145725 2.387141 0 255 0
-0.196245 0.148071 2.397804 0 255 0
-0.192421 0.149994 2.407295 0 255 0
-0.183384 0.150652 2.413308 0 255 0
-0.175206 0.151528 2.419933 0 255 0
-0.169629 0.153042 2.428314 0 255 0
-0.159694 0.153512 2.433846 0 255 0
-0.147133 0.153364 2.437708 0 255 0
-0.133681 0.153021 2.441057 0 255 0
-0.124578 0.153729 2.447292 0 255 0
-0.117212 0.154861 2.454689 0 255 0
-0.343912 0.270976 2.244000 255 0 0
-0.339605 0.272442 2.256000 255 0 0
-0.334050 0.272942 2.260000 255 0 0
-0.327746 0.272838 2.259000 255 0 0
-0.321162 0.272492 2.256000 255 0 0
-0.315012 0.272508 2.256000 255 0 0
-0.309409 0.273008 2.260000 255 0 0
-0.303917 0.273628 2.265000 255 0 0
-0.298660 0.274489 2.272000 255 0 0
-0.292978 0.274988 2.276000 255 0 0
-0.287020 0.275245 2.278000 255 0 0
-0.281298 0.275743 2.282000 255 0 0
-0.275794 0.276483 2.288000 255 0 0
-0.270609 0.277585 2.297000 255 0 0
-0.264799 0.278083 2.301000 255 0 0
-0.256719 0.276163 2.285000 255 0 0
-0.248945 0.274484 2.271000 255 0 0
-0.242209 0.273893 2.266000 255 0 0
-0.235291 0.273060 2.259000 255 0 0
-0.228004 0.271743 2.248000 255 0 0
-0.220382 0.269942 2.233000 255 0 0
-0.212842 0.268141 2.218000 255 0 0
-0.206128 0.267306 2.211000 255 0 0
-0.199542 0.266592 2.205000 255 0 0
-0.192988 0.265877 2.199000 255 0 0
-0.186297 0.264921 2.191000 255 0 0
-0.180060 0.264568 2.188000 255 0 0
-0.173838 0.264215 2.185000 255 0 0
-0.167325 0.263379 2.178000 255 0 0
-0.161072 0.262904 2.174000 255 0 0
-0.154698 0.262187 2.168000 255 0 0
-0.148630 0.261954 2.166000 255 0 0
-0.142441 0.261479 2.162000 255 0 0
-0.136400 0.261245 2.160000 255 0 0
-0.130550 0.261373 2.161000 255 0 0
-0.124521 0.261139 2.159000 255 0 0
-0.118668 0.261267 2.160000 255 0 0
-0.112547 0.260789 2.156000 255 0 0
-0.106646 0.260796 2.156000 255 0 0
-0.100698 0.260681 2.155000 255 0 0
-0.094887 0.260928 2.157000 255 0 0
-0.089023 0.261055 2.158000 255 0 0
-0.083192 0.261302 2.160000 255 0 0
-0.077278 0.261306 2.160000 255 0 0
-0.071364 0.261311 2.160000 255 0 0
-0.065419 0.261194 2.159000 255 0 0
-0.059452 0.260955 2.157000 255 0 0
-0.053595 0.261201 2.159000 255 0 0
-0.047704 0.261324 2.160000 255 0 0
-0.041886 0.261932 2.165000 255 0 0
-0.035990 0.262176 2.167000 255 0 0
-0.030110 0.262662 2.171000 255 0 0
-0.024187 0.262906 2.173000 255 0 0
-0.018277 0.263512 2.178000 255 0 0
-0.012329 0.263876 2.181000 255 0 0
-0.006373 0.264602 2.187000 255 0 0
-0.000384 0.265570 2.195000 255 0 0
0.005648 0.266538 2.203000 255 0 0
0.011709 0.267143 2.208000 255 0 0
0.017796 0.267747 2.213000 255 0 0
0.023879 0.267987 2.215000 255 0 0
0.030026 0.268712 2.221000 255 0 0
0.036174 0.269194 2.225000 255 0 0
0.042401 0.270038 2.232000 255 0 0
0.048622 0.270641 2.237000 255 0 0
0.054919 0.271484 2.244000 255 0 0
0.061337 0.272691 2.254000 255 0 0
0.067898 0.274260 2.267000 255 0 0
0.074629 0.276191 2.283000 255 0 0
0.082297 0.281026 2.323000 255 0 0
0.087817 0.278359 2.301000 255 0 0
0.093422 0.276298 2.284000 255 0 0
0.099325 0.275324 2.276000 255 0 0
0.105324 0.274714 2.271000 255 0 0
0.111196 0.273861 2.264000 255 0 0
0.117238 0.273491 2.261000 255 0 0
0.123153 0.272879 2.256000 255 0 0
0.129155 0.272509 2.253000 255 0 0
0.135020 0.271897 2.248000 255 0 0
0.141108 0.271768 2.247000 255 0 0
0.147321 0.271881 2.248000 255 0 0
0.153335 0.271630 2.246000 255 0 0
-0.117030 0.200441 2.445145 255 255 0
-0.103847 0.200295 2.441042 255 255 0
-0.088969 0.200473 2.438138 255 255 0
-0.078400 0.199877 2.432431 255 255 0
-0.064422 0.199919 2.429070 255 255 0
-0.046188 0.200762 2.428666 255 255 0
-0.031404 0.200987 2.426022 255 255 0
-0.023472 0.199954 2.418772 255 255 0
-0.016401 0.198767 2.410963 255 255 0
-0.009338 0.197583 2.403174 255 255 0
0.002822 0.197365 2.398955 255 255 0
0.012414 0.196674 2.393005 255 255 0
0.021143 0.195828 2.386494 255 255 0
0.021381 0.193374 2.374025 255 255 0
0.018237 0.190269 2.359130 255 255 0
0.013415 0.186832 2.342988 255 255 0
-0.005761 0.180618 2.316486 255 255 0
0.076167 0.178948 2.286937 255 255 0
0.090674 0.179316 2.285055 255 255 0
0.100135 0.178695 2.279465 255 255 0
0.101220 0.176407 2.267595 255 255 0
-0.197878 0.108856 2.278384 0 255 0
-0.216115 0.125077 2.340078 0 255 0
-0.218335 0.128513 2.353744 0 255 0
-0.217973 0.131292 2.365592 0 255 0
-0.214159 0.133203 2.375055 0 255 0
-0.210343 0.135115 2.384520 0 255 0
-0.203929 0.136383 2.392228 0 255 0
-0.200975 0.138515 2.402295 0 255 0
-0.191083 0.138934 2.407703 0 255 0
-0.187255 0.140858 2.417208 0 255 0
-0.175607 0.140865 2.421523 0 255 0
-0.167422 0.141734 2.428187 0 255 0
-0.157488 0.142185 2.433738 0 255 0
-0.149283 0.143069 2.440466 0 255 0
-0.139326 0.143538 2.446092 0 255 0
-0.128485 0.143805 2.451192 0 255 0
-0.121123 0.144922 2.458587 0 255 0
-0.344235 0.265091 2.246000 255 0 0
-0.338117 0.265107 2.246000 255 0 0
-0.333180 0.266068 2.254000 255 0 0
-0.327327 0.266321 2.256000 255 0 0
-0.321178 0.266337 2.256000 255 0 0
-0.315307 0.266589 2.258000 255 0 0
-0.309699 0.267077 2.262000 255 0 0
-0.303933 0.267447 2.265000 255 0 0
-0.298676 0.268289 2.272000 255 0 0
-0.293122 0.268895 2.277000 255 0 0
-0.287665 0.269618 2.283000 255 0 0
-0.281806 0.269987 2.286000 255 0 0
-0.276049 0.270474 2.290000 255 0 0
-0.270388 0.271079 2.295000 255 0 0
-0.264238 0.271211 2.296000 255 0 0
-0.256508 0.269689 2.283000 255 0 0
-0.248740 0.268049 2.269000 255 0 0
-0.242115 0.267589 2.265000 255 0 0
-0.235304 0.266893 2.259000 255 0 0
-0.228321 0.265960 2.251000 255 0 0
-0.221085 0.264673 2.240000 255 0 0
-0.213525 0.262912 2.225000 255 0 0
-0.206699 0.261978 2.217000 255 0 0
-0.199825 0.260926 2.208000 255 0 0
-0.193262 0.260227 2.202000 255 0 0
-0.186647 0.259411 2.195000 255 0 0
-0.180317 0.258948 2.191000 255 0 0
-0.174087 0.258603 2.188000 255 0 0
-0.167488 0.257667 2.180000 255 0 0
-0.161230 0.257203 2.176000 255 0 0
-0.154778 0.256385 2.169000 255 0 0
-0.148707 0.256157 2.167000 255 0 0
-0.142581 0.255810 2.164000 255 0 0
-0.136660 0.255818 2.164000 255 0 0
-0.130739 0.255826 2.164000 255 0 0
-0.124701 0.255596 2.162000 255 0 0
-0.118729 0.255485 2.161000 255 0 0
-0.112606 0.255019 2.157000 255 0 0
-0.106751 0.255143 2.158000 255 0 0
-0.100844 0.255149 2.158000 255 0 0
-0.095024 0.255391 2.160000 255 0 0
-0.089111 0.255396 2.160000 255 0 0
-0.083235 0.255519 2.161000 255 0 0
-0.077282 0.255406 2.160000 255 0 0
-0.071368 0.255410 2.160000 255 0 0
-0.065483 0.255532 2.161000 255 0 0
-0.059538 0.255417 2.160000 255 0 0
-0.053648 0.255539 2.161000 255 0 0
-0.047751 0.255660 2.162000 255 0 0
-0.041908 0.256136 2.166000 255 0 0
-0.036008 0.256374 2.168000 255 0 0
-0.030140 0.256967 2.173000 255 0 0
-0.024233 0.257442 2.177000 255 0 0
-0.018295 0.257798 2.180000 255 0 0
-0.012341 0.258154 2.183000 255 0 0
-0.006379 0.258864 2.189000 255 0 0
-0.000385 0.259810 2.197000 255 0 0
0.005649 0.260519 2.203000 255 0 0
0.011720 0.261347 2.210000 255 0 0
0.017813 0.261937 2.215000 255 0 0
0.023913 0.262291 2.218000 255 0 0
0.030055 0.262880 2.223000 255 0 0
0.036225 0.263470 2.228000 255 0 0
0.042479 0.264414 2.236000 255 0 0
0.048712 0.265002 2.241000 255 0 0
0.055021 0.265827 2.248000 255 0 0
0.061395 0.266770 2.256000 255 0 0
0.067932 0.268185 2.268000 255 0 0
0.074633 0.269955 2.283000 255 0 0
0.082054 0.273852 2.316000 255 0 0
0.087861 0.272192 2.302000 255 0 0
0.093550 0.270413 2.287000 255 0 0
0.099375 0.269225 2.277000 255 0 0
0.105284 0.268392 2.270000 255 0 0
0.111203 0.267676 2.264000 255 0 0
0.117192 0.267197 2.260000 255 0 0
0.123051 0.266481 2.254000 255 0 0
0.129105 0.266237 2.252000 255 0 0
0.135027 0.265757 2.248000 255 0 0
0.141179 0.265749 2.248000 255 0 0
0.147330 0.265741 2.248000 255 0 0
0.153207 0.265260 2.244000 255 0 0
0.157712 0.262532 2.221000 255 0 0
-0.124076 0.190567 2.454655 255 255 0
-0.112601 0.190126 2.449370 255 255 0
-0.099427 0.190011 2.445267 255 255 0
-0.080269 0.191020 2.445216 255 255 0
-0.071424 0.190131 2.438378 255 255 0
-0.057457 0.190208 2.435025 255 255 0
-0.041801 0.190617 2.432890 255 255 0
-0.026172 0.191039 2.430826 255 255 0
-0.016539 0.190344 2.424751 255 255 0
-0.015441 0.188037 2.412854 255 255 0
-0.009231 0.186702 2.404472 255 255 0
-0.002176 0.185533 2.396698 255 255 0
0.010817 0.185510 2.393096 255 255 0
0.018700 0.184515 2.385976 255 255 0
0.021487 0.182541 2.375292 255 255 0
0.017501 0.179250 2.359797 255 255 0
0.013531 0.175951 2.344256 255 255 0
-0.004786 0.169832 2.318372 255 255 0
0.070407 0.166988 2.283779 255 255 0
0.086593 0.167724 2.283119 255 255 0
0.092710 0.166441 2.274994 255 255 0
0.085446 0.162442 2.256789 255 255 0
-0.216897 0.111644 2.329728 0 255 0
-0.219105 0.115099 2.343418 0 255 0
-0.227359 0.120089 2.361253 0 255 0
-0.225276 0.122432 2.371890 0 255 0
-0.218876 0.123680 2.379562 0 255 0
-0.214198 0.125370 2.388432 0 255 0
-0.210384 0.127280 2.397897 0 255 0
-0.202238 0.128105 2.404446 0 255 0
-0.191483 0.128287 2.409280 0 255 0
-0.188522 0.130425 2.419370 0 255 0
-0.183824 0.132131 2.428306 0 255 0
-0.171303 0.131905 2.432086 0 255 0
-0.157026 0.131262 2.434779 0 255 0
-0.147952 0.131917 2.440950 0 255 0
-0.139739 0.132794 2.447723 0 255 0
-0.130645 0.133465 2.453963 0 255 0
-0.117177 0.133082 2.457432 0 255 0
-0.336929 0.258057 2.238000 255 0 0
-0.333048 0.259803 2.253000 255 0 0
-0.327343 0.260165 2.256000 255 0 0
-0.321479 0.260412 2.258000 255 0 0
-0.315602 0.260658 2.260000 255 0 0
-0.309851 0.261020 2.263000 255 0 0
-0.304082 0.261381 2.266000 255 0 0
-0.298691 0.262088 2.272000 255 0 0
-0.293394 0.262911 2.279000 255 0 0
-0.287932 0.263617 2.285000 255 0 0
-0.282190 0.264093 2.289000 255 0 0
-0.276425 0.264569 2.293000 255 0 0
-0.270755 0.265160 2.298000 255 0 0
-0.264136 0.264828 2.295000 255 0 0
-0.256522 0.263456 2.283000 255 0 0
-0.249191 0.262316 2.273000 255 0 0
-0.242235 0.261521 2.266000 255 0 0
-0.235420 0.260841 2.260000 255 0 0
-0.228333 0.259814 2.251000 255 0 0
-0.221196 0.258672 2.241000 255 0 0
-0.214016 0.257414 2.230000 255 0 0
-0.206989 0.256270 2.220000 255 0 0
-0.200016 0.255127 2.210000 255 0 0
-0.193361 0.254329 2.203000 255 0 0
-0.186997 0.253878 2.199000 255 0 0
-0.180656 0.253426 2.195000 255 0 0
-0.174255 0.252858 2.190000 255 0 0
-0.167728 0.252059 2.183000 255 0 0
-0.161387 0.251491 2.178000 255 0 0
-0.155001 0.250807 2.172000 255 0 0
-0.148921 0.250584 2.170000 255 0 0
-0.142721 0.250130 2.166000 255 0 0
-0.136794 0.250138 2.166000 255 0 0
-0.130806 0.250030 2.165000 255 0 0
-0.124766 0.249806 2.163000 255 0 0
-0.118626 0.249350 2.159000 255 0 0
-0.112612 0.249126 2.157000 255 0 0
-0.106807 0.249363 2.159000 255 0 0
-0.100896 0.249369 2.159000 255 0 0
-0.095074 0.249605 2.161000 255 0 0
-0.089157 0.249610 2.161000 255 0 0
-0.083240 0.249615 2.161000 255 0 0
-0.077323 0.249619 2.161000 255 0 0
-0.071471 0.249855 2.163000 255 0 0
-0.065578 0.249974 2.164000 255 0 0
-0.059624 0.249862 2.163000 255 0 0
-0.053725 0.249981 2.164000 255 0 0
-0.047820 0.250099 2.165000 255 0 0
-0.041949 0.250448 2.168000 255 0 0
-0.036044 0.250681 2.170000 255 0 0
-0.030183 0.251376 2.176000 255 0 0
-0.024267 0.251840 2.180000 255 0 0
-0.018313 0.252072 2.182000 255 0 0
-0.012359 0.252535 2.186000 255 0 0
-0.006385 0.253113 2.191000 255 0 0
-0.000385 0.253807 2.197000 255 0 0
0.005651 0.254615 2.204000 255 0 0
0.011731 0.255539 2.212000 255 0 0
0.017847 0.256347 2.219000 255 0 0
0.023989 0.257039 2.225000 255 0 0
0.030138 0.257499 2.229000 255 0 0
0.036292 0.257844 2.232000 255 0 0
0.042558 0.258766 2.240000 255 0 0
0.048845 0.259572 2.247000 255 0 0
0.055219 0.260609 2.256000 255 0 0
0.061561 0.261299 2.262000 255 0 0
0.068116 0.262681 2.274000 255 0 0
0.074735 0.264063 2.286000 255 0 0
0.081668 0.266254 2.305000 255 0 0
0.087751 0.265556 2.299000 255 0 0
0.093555 0.264165 2.287000 255 0 0
0.099337 0.262889 2.276000 255 0 0
0.105150 0.261844 2.267000 255 0 0
0.111062 0.261145 2.261000 255 0 0
0.117147 0.260907 2.259000 255 0 0
0.123057 0.260323 2.254000 255 0 0
0.129112 0.260085 2.252000 255 0 0
0.135155 0.259847 2.250000 255 0 0
0.141312 0.259839 2.250000 255 0 0
0.147403 0.259716 2.249000 255 0 0
0.153215 0.259130 2.244000 255 0 0
0.157792 0.256581 2.222000 255 0 0
-0.111612 0.179183 2.451330 255 255 0
-0.094151 0.179903 2.450057 255 255 0
-0.077576 0.180477 2.448295 255 255 0
-0.062742 0.180739 2.445464 255 255 0
-0.051353 0.180364 2.440398 255 255 0
-0.038272 0.180323 2.436534 255 255 0
-0.018383 0.181601 2.437368 255 255 0
-0.007907 0.181092 2.431889 255 255 0
-0.004260 0.179275 2.421769 255 255 0
-0.004017 0.176799 2.409300 255 255 0
0.003032 0.175642 2.401532 255 255 0
0.016866 0.175816 2.398527 255 255 0
0.022197 0.174339 2.389631 255 255 0
0.024135 0.172197 2.378356 255 255 0
0.022691 0.169384 2.364668 255 255 0
0.025485 0.167405 2.353966 255 255 0
0.019836 0.163745 2.337206 255 255 0
0.085030 0.156611 2.283068 255 255 0
0.091985 0.155506 2.275559 255 255 0
0.083894 0.151299 2.256724 255 255 0
-0.228122 0.106687 2.350947 0 255 0
-0.232066 0.110593 2.365772 0 255 0
-0.226534 0.112049 2.374026 0 255 0
-0.214957 0.111959 2.378157 0 255 0
-0.210275 0.113647 2.387045 0 255 0
-0.209050 0.116218 2.398286 0 255 0
-0.206964 0.118569 2.408933 0 255 0
-0.197948 0.119164 2.414926 0 255 0
-0.194124 0.121080 2.424424 0 255 0
-0.188563 0.122561 2.432775 0 255 0
-0.178655 0.122957 2.438275 0 255 0
-0.161783 0.121626 2.439249 0 255 0
-0.146625 0.120745 2.441441 0 255 0
-0.139284 0.121824 2.448793 0 255 0
-0.132806 0.123124 2.456734 0 255 0
-0.118472 0.122495 2.459650 0 255 0
-0.333845 0.245180 2.178000 255 0 0
-0.333360 0.253880 2.255000 255 0 0
-0.327649 0.254234 2.258000 255 0 0
-0.321637 0.254362 2.259000 255 0 0
-0.315897 0.254715 2.262000 255 0 0
-0.310003 0.254956 2.264000 255 0 0
-0.304232 0.255308 2.267000 255 0 0
-0.298705 0.255886 2.272000 255 0 0
-0.293666 0.256915 2.281000 255 0 0
-0.288199 0.257605 2.287000 255 0 0
-0.282697 0.258295 2.293000 255 0 0
-0.277042 0.258872 2.298000 255 0 0
-0.271240 0.259337 2.302000 255 0 0
-0.264150 0.258562 2.295000 255 0 0
-0.257097 0.257786 2.288000 255 0 0
-0.249643 0.256560 2.277000 255 0 0
-0.242461 0.255558 2.268000 255 0 0
-0.235328 0.254556 2.259000 255 0 0
-0.228447 0.253779 2.252000 255 0 0
-0.221207 0.252551 2.241000 255 0 0
-0.214124 0.251436 2.231000 255 0 0
-0.207187 0.250432 2.222000 255 0 0
-0.200389 0.249541 2.214000 255 0 0
-0.193810 0.248876 2.208000 255 0 0
-0.187348 0.248322 2.203000 255 0 0
-0.180994 0.247881 2.199000 255 0 0
-0.174424 0.247101 2.192000 255 0 0
-0.167891 0.246321 2.185000 255 0 0
-0.161544 0.245766 2.180000 255 0 0
-0.155223 0.245211 2.175000 255 0 0
-0.149135 0.244994 2.173000 255 0 0
-0.143124 0.244889 2.172000 255 0 0
-0.137117 0.244784 2.171000 255 0 0
-0.130995 0.244453 2.168000 255 0 0
-0.124888 0.244121 2.165000 255 0 0
-0.118798 0.243790 2.162000 255 0 0
-0.112879 0.243796 2.162000 255 0 0
-0.106961 0.243802 2.162000 255 0 0
-0.100949 0.243582 2.160000 255 0 0
-0.095079 0.243700 2.161000 255 0 0
-0.089162 0.243705 2.161000 255 0 0
-0.083283 0.243823 2.162000 255 0 0
-0.077398 0.243940 2.163000 255 0 0
-0.071508 0.244057 2.164000 255 0 0
-0.065612 0.244173 2.165000 255 0 0
-0.059683 0.244177 2.165000 255 0 0
-0.053803 0.244405 2.167000 255 0 0
-0.047889 0.244521 2.168000 255 0 0
-0.041990 0.244749 2.170000 255 0 0
-0.036079 0.244977 2.172000 255 0 0
-0.030185 0.245430 2.176000 255 0 0
-0.024280 0.245995 2.181000 255 0 0
-0.018339 0.246447 2.185000 255 0 0
-0.012382 0.247012 2.190000 255 0 0
-0.006394 0.247464 2.194000 255 0 0
-0.000385 0.248028 2.199000 255 0 0
0.005659 0.248930 2.207000 255 0 0
0.011742 0.249719 2.214000 255 0 0
0.017872 0.250621 2.222000 255 0 0
0.024034 0.251409 2.229000 255 0 0
0.030207 0.251972 2.234000 255 0 0
0.036408 0.252534 2.239000 255 0 0
0.042636 0.253096 2.244000 255 0 0
0.048935 0.253883 2.251000 255 0 0
0.055345 0.255008 2.261000 255 0 0
0.061755 0.255907 2.269000 255 0 0
0.068209 0.256805 2.277000 255 0 0
0.074707 0.257704 2.285000 255 0 0
0.081673 0.259955 2.305000 255 0 0
0.087870 0.259612 2.302000 255 0 0
0.093683 0.258254 2.290000 255 0 0
0.099429 0.256895 2.278000 255 0 0
0.105156 0.255649 2.267000 255 0 0
0.111068 0.254966 2.261000 255 0 0
0.117050 0.254509 2.257000 255 0 0
0.123010 0.254052 2.253000 255 0 0
0.129062 0.253819 2.251000 255 0 0
0.135162 0.253699 2.250000 255 0 0
0.141257 0.253579 2.249000 255 0 0
0.147411 0.253571 2.249000 255 0 0
0.153223 0.253000 2.244000 255 0 0
0.157374 0.249834 2.216000 255 0 0
-0.102035 0.169868 2.458939 255 255 0
-0.088879 0.169815 2.454843 255 255 0
-0.073171 0.170266 2.452512 255 255 0
-0.060913 0.170070 2.447964 255 255 0
-0.044399 0.170711 2.446341 255 255 0
-0.031328 0.170702 2.442485 255 255 0
-0.013159 0.171700 2.442163 255 255 0
-0.003543 0.171048 2.436107 255 255 0
-0.003304 0.168565 2.423657 255 255 0
-0.003058 0.166078 2.411187 255 255 0
0.001442 0.164428 2.401646 255 255 0
0.016122 0.164801 2.399217 255 255 0
0.024845 0.164003 2.392690 255 255 0
0.027630 0.162026 2.382015 255 255 0
0.026186 0.159200 2.368337 255 255 0
0.028979 0.157220 2.357640 255 255 0
0.030085 0.154898 2.345729 255 255 0
0.083470 0.145476 2.283021 255 255 0
0.088755 0.144031 2.274247 255 255 0
0.089026 0.141537 2.261702 255 255 0
-0.285111 0.090817 2.307876 0 255 0
-0.267637 0.089029 2.307418 0 255 0
-0.220153 0.079270 2.285671 0 255 0
-0.201745 0.077310 2.284863 0 255 0
-0.209917 0.082413 2.302917 0 255 0
-0.216389 0.087048 2.319697 0 255 0
-0.229757 0.093482 2.341224 0 255 0
-0.231106 0.096737 2.354280 0 255 0
-0.230741 0.099537 2.366119 0 255 0
-0.224347 0.100763 2.373792 0 255 0
-0.215358 0.101321 2.379713 0 255 0
-0.209814 0.102781 2.388020 0 255 0
-0.211179 0.106028 2.401022 0 255 0
-0.213416 0.109492 2.414581 0 255 0
-0.204408 0.110066 2.420566 0 255 0
-0.193657 0.110206 2.425431 0 255 0
-0.190697 0.112343 2.435516 0 255 0
-0.184266 0.113599 2.443311 0 255 0
-0.171748 0.113322 2.447136 0 255 0
-0.147911 0.110209 2.443639 0 255 0
-0.139701 0.111056 2.450432 0 255 0
-0.134966 0.112783 2.459505 0 255 0
-0.118897 0.111685 2.461310 0 255 0
-0.046090 0.108375 2.476401 0 255 0
-0.340123 0.248150 2.259000 255 0 0
-0.333671 0.247946 2.257000 255 0 0
-0.327665 0.248071 2.258000 255 0 0
-0.321510 0.248086 2.258000 255 0 0
-0.315773 0.248431 2.261000 255 0 0
-0.309881 0.248666 2.263000 255 0 0
-0.304246 0.249120 2.267000 255 0 0
-0.298852 0.249794 2.273000 255 0 0
-0.293552 0.250577 2.280000 255 0 0
-0.288087 0.251251 2.286000 255 0 0
-0.282588 0.251924 2.292000 255 0 0
-0.277297 0.252817 2.300000 255 0 0
-0.271372 0.253161 2.303000 255 0 0
-0.264509 0.252624 2.298000 255 0 0
-0.257784 0.252198 2.294000 255 0 0
-0.250423 0.251111 2.284000 255 0 0
-0.242794 0.249694 2.271000 255 0 0
-0.235340 0.248387 2.259000 255 0 0
-0.228560 0.247738 2.253000 255 0 0
-0.221219 0.246430 2.241000 255 0 0
-0.214327 0.245562 2.233000 255 0 0
-0.207384 0.244583 2.224000 255 0 0
-0.200761 0.243933 2.218000 255 0 0
-0.193995 0.243064 2.210000 255 0 0
-0.187613 0.242634 2.206000 255 0 0
-0.181004 0.241873 2.199000 255 0 0
-0.174513 0.241222 2.193000 255 0 0
-0.168053 0.240571 2.187000 255 0 0
-0.161700 0.240030 2.182000 255 0 0
-0.155445 0.239598 2.178000 255 0 0
-0.149349 0.239386 2.176000 255 0 0
-0.143263 0.239174 2.174000 255 0 0
-0.137251 0.239071 2.173000 255 0 0
-0.131002 0.238528 2.168000 255 0 0
-0.124895 0.238205 2.165000 255 0 0
-0.118859 0.237991 2.163000 255 0 0
-0.112990 0.238108 2.164000 255 0 0
-0.107016 0.238003 2.163000 255 0 0
-0.100954 0.237679 2.160000 255 0 0
-0.095084 0.237794 2.161000 255 0 0
-0.089249 0.238019 2.163000 255 0 0
-0.083403 0.238244 2.165000 255 0 0
-0.077474 0.238248 2.165000 255 0 0
-0.071545 0.238252 2.165000 255 0 0
-0.065676 0.238476 2.167000 255 0 0
-0.059769 0.238589 2.168000 255 0 0
-0.053855 0.238702 2.169000 255 0 0
-0.047980 0.239035 2.172000 255 0 0
-0.042069 0.239258 2.174000 255 0 0
-0.036181 0.239700 2.178000 255 0 0
-0.030242 0.239922 2.180000 255 0 0
-0.024315 0.240364 2.184000 255 0 0
-0.018357 0.240695 2.187000 255 0 0
-0.012394 0.241246 2.192000 255 0 0
-0.006403 0.241797 2.197000 255 0 0
-0.000386 0.242678 2.205000 255 0 0
0.005673 0.243448 2.212000 255 0 0
0.011764 0.244108 2.218000 255 0 0
0.017889 0.244767 2.224000 255 0 0
0.024068 0.245647 2.232000 255 0 0
0.030250 0.246196 2.237000 255 0 0
0.036443 0.246634 2.241000 255 0 0
0.042714 0.247402 2.248000 255 0 0
0.049046 0.248280 2.256000 255 0 0
0.055470 0.249378 2.266000 255 0 0
0.061868 0.250145 2.273000 255 0 0
0.068333 0.251022 2.281000 255 0 0
0.074809 0.251788 2.288000 255 0 0
0.081571 0.253325 2.302000 255 0 0
0.087837 0.253210 2.301000 255 0 0
0.093565 0.251665 2.287000 255 0 0
0.099260 0.250229 2.274000 255 0 0
0.105115 0.249343 2.266000 255 0 0
0.110975 0.248567 2.259000 255 0 0
0.117004 0.248231 2.256000 255 0 0
0.123016 0.247895 2.253000 255 0 0
0.129069 0.247668 2.251000 255 0 0
0.135110 0.247441 2.249000 255 0 0
0.141202 0.247324 2.248000 255 0 0
0.147419 0.247426 2.249000 255 0 0
0.153232 0.246868 2.244000 255 0 0
-0.104773 0.160795 2.471235 255 255 0
-0.087320 0.161596 2.469920 255 255 0
-0.077609 0.160913 2.463590 255 255 0
-0.069625 0.159903 2.456157 255 255 0
-0.053096 0.160573 2.454465 255 255 0
-0.034032 0.161759 2.454573 255 255 0
-0.019269 0.162121 2.451888 255 255 0
-0.007087 0.161988 2.447533 255 255 0
-0.005144 0.159834 2.436253 255 255 0
0.000205 0.158357 2.427299 255 255 0
0.002151 0.156202 2.416009 255 255 0
0.010042 0.155240 2.408833 255 255 0
0.017925 0.154282 2.401684 255 255 0
0.025797 0.153329 2.394560 255 255 0
0.031122 0.151866 2.385672 255 255 0
0.029680 0.149025 2.372003 255 255 0
0.029092 0.146352 2.358906 255 255 0
-0.005230 0.136744 2.321624 255 255 0
0.009640 0.121648 2.242053 255 255 0
0.096391 0.134829 2.281087 255 255 0
0.095823 0.132150 2.267934 255 255 0
-0.288922 0.081210 2.311819 0 255 0
-0.267181 0.078220 2.308304 0 255 0
-0.206912 0.070771 2.302048 0 255 0
-0.215950 0.076126 2.320642 0 255 0
-0.225009 0.081466 2.339163 0 255 0
-0.233230 0.086564 2.357015 0 255 0
-0.228560 0.088233 2.365878 0 255 0
-0.226471 0.090586 2.376527 0 255 0
-0.214901 0.090446 2.380682 0 255 0
-0.212807 0.092804 2.391346 0 255 0
-0.214171 0.096063 2.404343 0 255 0
-0.214676 0.099091 2.416730 0 255 0
-0.202211 0.098750 2.420404 0 255 0
-0.192327 0.099093 2.425865 0 255 0
-0.186765 0.100561 2.434237 0 255 0
-0.187270 0.103592 2.446626 0 255 0
-0.173022 0.102842 2.449317 0 255 0
-0.152674 0.100554 2.448107 0 255 0
-0.146209 0.101826 2.456024 0 255 0
-0.129294 0.100456 2.457222 0 255 0
-0.116710 0.100203 2.461297 0 255 0
-0.349666 0.244325 2.281000 255 0 0
-0.340289 0.242091 2.260000 255 0 0
-0.333982 0.241999 2.259000 255 0 0
-0.327970 0.242121 2.260000 255 0 0
-0.321952 0.242244 2.261000 255 0 0
-0.315927 0.242366 2.262000 255 0 0
-0.310170 0.242702 2.265000 255 0 0
-0.304529 0.243145 2.269000 255 0 0
-0.298997 0.243695 2.274000 255 0 0
-0.293695 0.244459 2.281000 255 0 0
-0.288101 0.245009 2.286000 255 0 0
-0.282848 0.245880 2.294000 255 0 0
-0.277310 0.246536 2.300000 255 0 0
-0.271149 0.246657 2.301000 255 0 0
-0.264752 0.246563 2.300000 255 0 0
-0.258134 0.246254 2.297000 255 0 0
-0.250764 0.245194 2.287000 255 0 0
-0.243020 0.243705 2.273000 255 0 0
-0.235248 0.242109 2.258000 255 0 0
-0.228571 0.241584 2.253000 255 0 0
-0.221427 0.240523 2.243000 255 0 0
-0.214625 0.239783 2.236000 255 0 0
-0.207768 0.238936 2.228000 255 0 0
-0.201134 0.238303 2.222000 255 0 0
-0.194356 0.237454 2.214000 255 0 0
-0.187707 0.236713 2.207000 255 0 0
-0.181096 0.235972 2.200000 255 0 0
-0.174601 0.235337 2.194000 255 0 0
-0.168062 0.234595 2.187000 255 0 0
-0.161783 0.234175 2.183000 255 0 0
-0.155525 0.233754 2.179000 255 0 0
-0.149426 0.233547 2.177000 255 0 0
-0.143337 0.233340 2.175000 255 0 0
-0.137195 0.233025 2.172000 255 0 0
-0.131129 0.232818 2.170000 255 0 0
-0.125074 0.232610 2.168000 255 0 0
-0.119085 0.232509 2.167000 255 0 0
-0.113100 0.232407 2.166000 255 0 0
-0.107121 0.232306 2.165000 255 0 0
-0.101146 0.232204 2.164000 255 0 0
