ply
format ascii 1.0
element vertex 1289
property double x
property double y
property double z
property uchar red
property uchar green
property uchar blue
end_header
-0.169509 -0.055280 2.285000 255 0 0
-0.163109 -0.055234 2.283000 255 0 0
-0.156994 -0.055284 2.285000 255 0 0
-0.151065 -0.055407 2.290000 255 0 0
-0.145109 -0.055530 2.295000 255 0 0
-0.138942 -0.055580 2.297000 255 0 0
-0.132649 -0.055581 2.297000 255 0 0
-0.126135 -0.055486 2.293000 255 0 0
-0.119800 -0.055464 2.292000 255 0 0
-0.113519 -0.055465 2.292000 255 0 0
-0.107565 -0.055636 2.299000 255 0 0
-0.101968 -0.056024 2.315000 255 0 0
-0.095499 -0.055953 2.312000 255 0 0
-0.088930 -0.055809 2.306000 255 0 0
-0.082429 -0.055689 2.301000 255 0 0
-0.076087 -0.055666 2.300000 255 0 0
-0.069539 -0.055473 2.292000 255 0 0
-0.062951 -0.055208 2.281000 255 0 0
-0.056423 -0.054942 2.270000 255 0 0
-0.049978 -0.054701 2.260000 255 0 0
-0.043645 -0.054532 2.253000 255 0 0
-0.037367 -0.054387 2.247000 255 0 0
-0.031149 -0.054291 2.243000 255 0 0
-0.024965 -0.054219 2.240000 255 0 0
-0.018771 -0.054074 2.234000 255 0 0
-0.012634 -0.054026 2.232000 255 0 0
-0.006507 -0.053977 2.230000 255 0 0
-0.000392 -0.054147 2.237000 255 0 0
0.005745 -0.054171 2.238000 255 0 0
0.011936 -0.054413 2.248000 255 0 0
0.018109 -0.054437 2.249000 255 0 0
0.024320 -0.054534 2.253000 255 0 0
0.030512 -0.054557 2.254000 255 0 0
0.036758 -0.054654 2.258000 255 0 0
0.043084 -0.054823 2.265000 255 0 0
0.049338 -0.054871 2.267000 255 0 0
0.055897 -0.055209 2.281000 255 0 0
0.062342 -0.055377 2.288000 255 0 0
-0.146745 -0.397667 2.577759 255 255 0
-0.082375 -0.378509 2.604580 255 255 0
-0.063482 -0.375086 2.603495 255 255 0
-0.061400 -0.377507 2.591980 255 255 0
-0.032500 -0.370540 2.597370 255 255 0
-0.004493 -0.363839 2.602382 255 255 0
0.000887 -0.365060 2.593134 255 255 0
-0.002927 -0.369521 2.578001 255 255 0
-0.004220 -0.373104 2.564441 255 255 0
0.005330 -0.372849 2.557886 255 255 0
0.007375 -0.375252 2.546474 255 255 0
0.016908 -0.374988 2.539970 255 255 0
0.015628 -0.378579 2.526370 255 255 0
0.015189 -0.381876 2.513292 255 255 0
-0.236931 -0.430722 2.510067 0 255 0
-0.235600 -0.427874 2.521437 0 255 0
-0.215786 -0.432717 2.520909 0 255 0
-0.222855 -0.426372 2.537693 0 255 0
-0.213949 -0.426660 2.544246 0 255 0
-0.220197 -0.420678 2.560423 0 255 0
-0.225619 -0.415056 2.576015 0 255 0
-0.229368 -0.410137 2.590499 0 255 0
-0.199337 -0.419081 2.583940 0 255 0
-0.142518 -0.435485 2.573389 0 255 0
-0.130981 -0.436745 2.578692 0 255 0
-0.014137 -0.470114 2.558311 0 255 0
-0.035590 -0.447460 2.621482 0 255 0
-0.047819 -0.439103 2.641107 0 255 0
-0.044695 -0.436875 2.651784 0 255 0
-0.033019 -0.438035 2.657567 0 255 0
-0.023039 -0.438508 2.664375 0 255 0
-0.355872 -0.061279 2.279000 255 0 0
-0.345364 -0.060530 2.251000 255 0 0
-0.336817 -0.060104 2.235000 255 0 0
-0.329982 -0.059974 2.230000 255 0 0
-0.323465 -0.059897 2.227000 255 0 0
-0.316393 -0.059713 2.220000 255 0 0
-0.310196 -0.059690 2.219000 255 0 0
-0.304416 -0.059747 2.221000 255 0 0
-0.300772 -0.060235 2.239000 255 0 0
-0.298345 -0.060993 2.267000 255 0 0
-0.287774 -0.060082 2.233000 255 0 0
-0.281299 -0.060004 2.230000 255 0 0
-0.276442 -0.060277 2.240000 255 0 0
-0.273341 -0.060953 2.265000 255 0 0
-0.269748 -0.061549 2.287000 255 0 0
-0.263960 -0.061660 2.291000 255 0 0
-0.257586 -0.061637 2.290000 255 0 0
-0.251876 -0.061775 2.295000 255 0 0
-0.245495 -0.061751 2.294000 255 0 0
-0.239119 -0.061727 2.293000 255 0 0
-0.232849 -0.061730 2.293000 255 0 0
-0.226578 -0.061734 2.293000 255 0 0
-0.219921 -0.061629 2.289000 255 0 0
-0.213006 -0.061443 2.282000 255 0 0
-0.206581 -0.061392 2.280000 255 0 0
-0.200782 -0.061530 2.285000 255 0 0
-0.195039 -0.061694 2.291000 255 0 0
-0.188933 -0.061750 2.293000 255 0 0
-0.182656 -0.061753 2.293000 255 0 0
-0.175994 -0.061621 2.288000 255 0 0
-0.169804 -0.061650 2.289000 255 0 0
-0.163250 -0.061545 2.285000 255 0 0
-0.157129 -0.061601 2.287000 255 0 0
-0.151063 -0.061684 2.290000 255 0 0
-0.145233 -0.061874 2.297000 255 0 0
-0.139243 -0.062011 2.302000 255 0 0
-0.133052 -0.062067 2.304000 255 0 0
-0.126574 -0.061988 2.301000 255 0 0
-0.120269 -0.061989 2.301000 255 0 0
-0.113913 -0.061964 2.300000 255 0 0
-0.107937 -0.062154 2.307000 255 0 0
-0.102187 -0.062506 2.320000 255 0 0
-0.095828 -0.062507 2.320000 255 0 0
-0.089083 -0.062239 2.310000 255 0 0
-0.082464 -0.062025 2.302000 255 0 0
-0.075888 -0.061810 2.294000 255 0 0
-0.069417 -0.061650 2.288000 255 0 0
-0.062895 -0.061408 2.279000 255 0 0
-0.056522 -0.061274 2.274000 255 0 0
-0.050043 -0.060979 2.263000 255 0 0
-0.043702 -0.060791 2.256000 255 0 0
-0.037433 -0.060657 2.251000 255 0 0
-0.031232 -0.060603 2.249000 255 0 0
-0.025031 -0.060523 2.246000 255 0 0
-0.018796 -0.060281 2.237000 255 0 0
-0.012656 -0.060254 2.236000 255 0 0
-0.006515 -0.060173 2.233000 255 0 0
-0.000392 -0.060335 2.239000 255 0 0
0.005753 -0.060389 2.241000 255 0 0
0.011941 -0.060604 2.249000 255 0 0
0.018125 -0.060658 2.251000 255 0 0
0.024331 -0.060738 2.254000 255 0 0
0.030525 -0.060765 2.255000 255 0 0
0.036790 -0.060899 2.260000 255 0 0
0.043102 -0.061060 2.266000 255 0 0
0.049468 -0.061248 2.273000 255 0 0
0.055897 -0.061463 2.281000 255 0 0
0.062369 -0.061678 2.289000 255 0 0
0.069305 -0.062270 2.311000 255 0 0
-0.157112 -0.409868 2.585955 255 255 0
-0.104475 -0.394678 2.605272 255 255 0
-0.048583 -0.378256 2.626965 255 255 0
-0.049876 -0.381854 2.613413 255 255 0
-0.051160 -0.385456 2.599832 255 255 0
-0.034008 -0.382549 2.597838 255 255 0
-0.012702 -0.378145 2.598578 255 255 0
-0.001464 -0.377287 2.593029 255 255 0
0.000575 -0.379691 2.581638 255 255 0
-0.007389 -0.385671 2.563781 255 255 0
-0.011997 -0.390470 2.548018 255 255 0
0.004215 -0.387810 2.545782 255 255 0
0.016243 -0.386631 2.540894 255 255 0
0.021611 -0.387841 2.531674 255 255 0
0.004581 -0.397150 2.507600 255 255 0
-0.216147 -0.454258 2.485642 0 255 0
-0.234071 -0.443265 2.509625 0 255 0
-0.226023 -0.443230 2.516673 0 255 0
-0.226363 -0.439668 2.529146 0 255 0
-0.225029 -0.436813 2.540525 0 255 0
-0.217808 -0.436418 2.548152 0 255 0
-0.211423 -0.435667 2.556336 0 255 0
-0.216830 -0.430013 2.571954 0 255 0
-0.200321 -0.433454 2.573821 0 255 0
-0.194762 -0.432343 2.582585 0 255 0
-0.163006 -0.442028 2.575187 0 255 0
-0.146421 -0.445416 2.577311 0 255 0
-0.138278 -0.445314 2.584683 0 255 0
-0.129278 -0.445552 2.591573 0 255 0
-0.046660 -0.451301 2.642070 0 255 0
-0.046095 -0.448046 2.654232 0 255 0
-0.036988 -0.448208 2.661491 0 255 0
-0.348275 -0.067252 2.270000 255 0 0
-0.337716 -0.066398 2.241000 255 0 0
-0.330422 -0.066165 2.233000 255 0 0
-0.324042 -0.066110 2.231000 255 0 0
-0.316816 -0.065878 2.223000 255 0 0
-0.310192 -0.065764 2.219000 255 0 0
-0.304549 -0.065857 2.222000 255 0 0
-0.301171 -0.066454 2.242000 255 0 0
-0.300710 -0.067733 2.285000 255 0 0
-0.290863 -0.066907 2.257000 255 0 0
-0.281925 -0.066259 2.235000 255 0 0
-0.277179 -0.066589 2.246000 255 0 0
-0.273820 -0.067274 2.269000 255 0 0
-0.269980 -0.067871 2.289000 255 0 0
-0.264187 -0.067994 2.293000 255 0 0
-0.258258 -0.068087 2.296000 255 0 0
-0.252202 -0.068150 2.298000 255 0 0
-0.245706 -0.068094 2.296000 255 0 0
-0.239428 -0.068097 2.296000 255 0 0
-0.233455 -0.068190 2.299000 255 0 0
-0.226871 -0.068104 2.296000 255 0 0
-0.219630 -0.067811 2.286000 255 0 0
-0.212910 -0.067666 2.281000 255 0 0
-0.206760 -0.067699 2.282000 255 0 0
-0.201218 -0.067939 2.290000 255 0 0
-0.195377 -0.068090 2.295000 255 0 0
-0.189178 -0.068123 2.296000 255 0 0
-0.182972 -0.068155 2.297000 255 0 0
-0.176222 -0.067980 2.291000 255 0 0
-0.170024 -0.068012 2.292000 255 0 0
-0.163676 -0.067985 2.291000 255 0 0
-0.157539 -0.068047 2.293000 255 0 0
-0.151523 -0.068168 2.297000 255 0 0
-0.145484 -0.068289 2.301000 255 0 0
-0.139543 -0.068469 2.307000 255 0 0
-0.133338 -0.068531 2.309000 255 0 0
-0.126902 -0.068473 2.307000 255 0 0
-0.120528 -0.068446 2.306000 255 0 0
-0.114110 -0.068388 2.304000 255 0 0
-0.108123 -0.068597 2.311000 255 0 0
-0.102406 -0.069015 2.325000 255 0 0
-0.096074 -0.069046 2.326000 255 0 0
-0.089158 -0.068632 2.312000 255 0 0
-0.082391 -0.068277 2.300000 255 0 0
-0.075788 -0.068011 2.291000 255 0 0
-0.069294 -0.067804 2.284000 255 0 0
-0.062894 -0.067657 2.279000 255 0 0
-0.056546 -0.067539 2.275000 255 0 0
-0.050087 -0.067243 2.265000 255 0 0
-0.043721 -0.067006 2.257000 255 0 0
-0.037432 -0.066829 2.251000 255 0 0
-0.031246 -0.066800 2.250000 255 0 0
-0.025031 -0.066681 2.246000 255 0 0
-0.018805 -0.066444 2.238000 255 0 0
-0.012656 -0.066385 2.236000 255 0 0
-0.006515 -0.066296 2.233000 255 0 0
-0.000392 -0.066445 2.238000 255 0 0
0.005745 -0.066444 2.238000 255 0 0
0.011925 -0.066682 2.246000 255 0 0
0.018109 -0.066771 2.249000 255 0 0
0.024341 -0.066948 2.255000 255 0 0
0.030552 -0.067007 2.257000 255 0 0
0.036822 -0.067155 2.262000 255 0 0
0.043177 -0.067392 2.270000 255 0 0
0.049554 -0.067599 2.277000 255 0 0
0.055896 -0.067717 2.281000 255 0 0
0.062232 -0.067805 2.284000 255 0 0
0.068974 -0.068279 2.300000 255 0 0
-0.195810 -0.428804 2.590183 255 255 0
-0.186866 -0.428923 2.582435 255 255 0
-0.073178 -0.395297 2.626001 255 255 0
-0.038339 -0.386131 2.634748 255 255 0
-0.033767 -0.387654 2.624882 255 255 0
-0.040091 -0.393053 2.608199 255 255 0
-0.033001 -0.393683 2.599894 255 255 0
-0.015885 -0.390720 2.597969 255 255 0
-0.013833 -0.393135 2.586544 255 255 0
-0.008440 -0.394350 2.577250 255 255 0
-0.008886 -0.397668 2.564205 255 255 0
-0.007658 -0.400387 2.552217 255 255 0
-0.003099 -0.401904 2.542385 255 255 0
0.006443 -0.401609 2.535829 255 255 0
0.014710 -0.404935 2.515677 255 255 0
-0.228704 -0.456906 2.507561 0 255 0
-0.243644 -0.443730 2.541682 0 255 0
-0.233922 -0.444422 2.547650 0 255 0
-0.225029 -0.444751 2.554192 0 255 0
-0.211076 -0.447192 2.557582 0 255 0
-0.203843 -0.446799 2.565269 0 255 0
-0.208403 -0.441473 2.580348 0 255 0
-0.190196 -0.445646 2.581242 0 255 0
-0.176185 -0.448045 2.584834 0 255 0
-0.140491 -0.455952 2.587571 0 255 0
-0.133189 -0.455510 2.595492 0 255 0
-0.022825 -0.479750 2.604704 0 255 0
0.005034 -0.487526 2.601110 0 255 0
-0.046642 -0.459566 2.656191 0 255 0
-0.055474 -0.452520 2.673712 0 255 0
-0.036970 -0.456483 2.675622 0 255 0
-0.338314 -0.072659 2.245000 255 0 0
-0.330713 -0.072341 2.235000 255 0 0
-0.324182 -0.072248 2.232000 255 0 0
-0.317382 -0.072091 2.227000 255 0 0
-0.310467 -0.071902 2.221000 255 0 0
-0.304681 -0.071971 2.223000 255 0 0
-0.301032 -0.072559 2.241000 255 0 0
-0.299521 -0.073696 2.276000 255 0 0
-0.284192 -0.072961 2.253000 255 0 0
-0.278286 -0.073030 2.255000 255 0 0
-0.274178 -0.073585 2.272000 255 0 0
-0.270330 -0.074237 2.292000 255 0 0
-0.264643 -0.074403 2.297000 255 0 0
-0.259154 -0.074634 2.304000 255 0 0
-0.252856 -0.074638 2.304000 255 0 0
-0.246023 -0.074480 2.299000 255 0 0
-0.239320 -0.074354 2.295000 255 0 0
-0.233248 -0.074423 2.297000 255 0 0
-0.226966 -0.074426 2.297000 255 0 0
-0.220203 -0.074268 2.292000 255 0 0
-0.213466 -0.074109 2.287000 255 0 0
-0.207391 -0.074178 2.289000 255 0 0
-0.201566 -0.074343 2.294000 255 0 0
-0.195544 -0.074443 2.297000 255 0 0
-0.189010 -0.074349 2.294000 255 0 0
-0.182730 -0.074352 2.294000 255 0 0
-0.176143 -0.074226 2.290000 255 0 0
-0.170169 -0.074358 2.294000 255 0 0
-0.164245 -0.074523 2.299000 255 0 0
-0.157880 -0.074493 2.298000 255 0 0
-0.151784 -0.074593 2.301000 255 0 0
-0.145355 -0.074531 2.299000 255 0 0
-0.139602 -0.074825 2.308000 255 0 0
-0.133452 -0.074924 2.311000 255 0 0
-0.127065 -0.074894 2.310000 255 0 0
-0.120892 -0.074994 2.313000 255 0 0
-0.114653 -0.075060 2.315000 255 0 0
-0.108729 -0.075354 2.324000 255 0 0
-0.103417 -0.076134 2.348000 255 0 0
-0.096651 -0.075876 2.340000 255 0 0
-0.089543 -0.075294 2.322000 255 0 0
-0.082640 -0.074809 2.307000 255 0 0
-0.075886 -0.074389 2.294000 255 0 0
-0.069293 -0.074066 2.284000 255 0 0
-0.062921 -0.073938 2.280000 255 0 0
-0.056644 -0.073906 2.279000 255 0 0
-0.050329 -0.073810 2.276000 255 0 0
-0.043914 -0.073519 2.267000 255 0 0
-0.037515 -0.073163 2.256000 255 0 0
-0.031231 -0.072936 2.249000 255 0 0
-0.025019 -0.072807 2.245000 255 0 0
-0.018829 -0.072678 2.241000 255 0 0
-0.012678 -0.072645 2.240000 255 0 0
-0.006530 -0.072581 2.238000 255 0 0
-0.000393 -0.072711 2.242000 255 0 0
0.005761 -0.072775 2.244000 255 0 0
0.011952 -0.073002 2.251000 255 0 0
0.018133 -0.073034 2.252000 255 0 0
0.024351 -0.073164 2.256000 255 0 0
0.030551 -0.073196 2.257000 255 0 0
0.036822 -0.073357 2.262000 255 0 0
0.043177 -0.073616 2.270000 255 0 0
0.049510 -0.073777 2.275000 255 0 0
0.055821 -0.073874 2.278000 255 0 0
0.062094 -0.073905 2.279000 255 0 0
0.068673 -0.074261 2.290000 255 0 0
-0.198107 -0.441563 2.590325 255 255 0
-0.072160 -0.406516 2.628089 255 255 0
-0.049927 -0.401753 2.629024 255 255 0
-0.040311 -0.401477 2.622245 255 255 0
-0.009405 -0.396686 2.616172 255 255 0
-0.004020 -0.397893 2.606893 255 255 0
-0.004482 -0.401214 2.593904 255 255 0
-0.016611 -0.408775 2.573412 255 255 0
-0.002050 -0.406655 2.570003 255 255 0
0.004166 -0.407558 2.561266 255 255 0
0.002896 -0.411193 2.547671 255 255 0
0.009510 -0.415127 2.526409 255 255 0
-0.211626 -0.475609 2.497903 0 255 0
-0.206912 -0.474158 2.507204 0 255 0
-0.229873 -0.460916 2.534276 0 255 0
-0.235251 -0.455199 2.549942 0 255 0
-0.220480 -0.458040 2.552761 0 255 0
-0.198120 -0.464067 2.550873 0 255 0
-0.195925 -0.461547 2.561778 0 255 0
-0.201314 -0.455837 2.577408 0 255 0
-0.198286 -0.453679 2.587757 0 255 0
-0.178380 -0.458591 2.587697 0 255 0
-0.156755 -0.464187 2.586702 0 255 0
-0.139323 -0.467998 2.588397 0 255 0
-0.129483 -0.468624 2.594795 0 255 0
-0.072777 -0.460681 2.672853 0 255 0
-0.330412 -0.078386 2.233000 255 0 0
-0.324323 -0.078392 2.233000 255 0 0
-0.317377 -0.078186 2.227000 255 0 0
-0.310742 -0.078051 2.223000 255 0 0
-0.304814 -0.078091 2.224000 255 0 0
-0.300356 -0.078517 2.236000 255 0 0
-0.297279 -0.079330 2.259000 255 0 0
-0.293690 -0.080037 2.279000 255 0 0
-0.288098 -0.080218 2.284000 255 0 0
-0.282724 -0.080468 2.291000 255 0 0
-0.276708 -0.080543 2.293000 255 0 0
-0.271505 -0.080864 2.302000 255 0 0
-0.265446 -0.080939 2.304000 255 0 0
-0.260049 -0.081224 2.312000 255 0 0
-0.253620 -0.081194 2.311000 255 0 0
-0.246875 -0.081057 2.307000 255 0 0
-0.239838 -0.080816 2.300000 255 0 0
-0.233244 -0.080714 2.297000 255 0 0
-0.226962 -0.080718 2.297000 255 0 0
-0.220488 -0.080652 2.295000 255 0 0
-0.214116 -0.080621 2.294000 255 0 0
-0.207749 -0.080589 2.293000 255 0 0
-0.201563 -0.080628 2.294000 255 0 0
-0.195455 -0.080702 2.296000 255 0 0
-0.189007 -0.080635 2.294000 255 0 0
-0.182807 -0.080673 2.295000 255 0 0
-0.176447 -0.080641 2.294000 255 0 0
-0.170537 -0.080820 2.299000 255 0 0
-0.164528 -0.080964 2.303000 255 0 0
-0.158084 -0.080897 2.301000 255 0 0
-0.151848 -0.080934 2.302000 255 0 0
-0.145416 -0.080867 2.300000 255 0 0
-0.139660 -0.081186 2.309000 255 0 0
-0.133565 -0.081329 2.313000 255 0 0
-0.127283 -0.081366 2.314000 255 0 0
-0.121047 -0.081439 2.316000 255 0 0
-0.114849 -0.081547 2.319000 255 0 0
-0.109055 -0.081971 2.331000 255 0 0
-0.104208 -0.083204 2.366000 255 0 0
-0.097930 -0.083381 2.371000 255 0 0
-0.089541 -0.081660 2.322000 255 0 0
-0.082746 -0.081239 2.310000 255 0 0
-0.076017 -0.080819 2.298000 255 0 0
-0.069413 -0.080468 2.288000 255 0 0
-0.062975 -0.080259 2.282000 255 0 0
-0.056693 -0.080224 2.281000 255 0 0
-0.050439 -0.080225 2.281000 255 0 0
-0.044010 -0.079910 2.272000 255 0 0
-0.037531 -0.079383 2.257000 255 0 0
-0.031161 -0.078926 2.244000 255 0 0
-0.024930 -0.078681 2.237000 255 0 0
-0.018787 -0.078646 2.236000 255 0 0
-0.012678 -0.078787 2.240000 255 0 0
-0.006544 -0.078893 2.243000 255 0 0
-0.000394 -0.079033 2.247000 255 0 0
0.005771 -0.079068 2.248000 255 0 0
0.011957 -0.079209 2.252000 255 0 0
0.018132 -0.079209 2.252000 255 0 0
0.024362 -0.079384 2.257000 255 0 0
0.030591 -0.079489 2.260000 255 0 0
0.036886 -0.079700 2.266000 255 0 0
0.043195 -0.079875 2.271000 255 0 0
0.049487 -0.079979 2.274000 255 0 0
0.055771 -0.080049 2.276000 255 0 0
0.062039 -0.080083 2.277000 255 0 0
0.068522 -0.080363 2.285000 255 0 0
-0.075341 -0.419251 2.627598 255 255 0
-0.063179 -0.418063 2.622282 255 255 0
-0.047684 -0.415654 2.619100 255 255 0
-0.000884 -0.405024 2.622950 255 255 0
-0.003024 -0.408961 2.608932 255 255 0
-0.008489 -0.414122 2.592758 255 255 0
-0.013936 -0.419294 2.576528 255 255 0
-0.003544 -0.418666 2.570432 255 255 0
0.009328 -0.417113 2.565993 255 255 0
-0.004405 -0.425360 2.544294 255 255 0
-0.199053 -0.489009 2.503579 0 255 0
-0.216960 -0.477841 2.527436 0 255 0
-0.212252 -0.476399 2.536720 0 255 0
-0.170054 -0.487482 2.534651 0 255 0
-0.188020 -0.476356 2.558304 0 255 0
-0.206023 -0.465258 2.581831 0 255 0
-0.196256 -0.465955 2.587994 0 255 0
-0.183105 -0.468067 2.592119 0 255 0
-0.162337 -0.473367 2.591650 0 255 0
-0.149143 -0.475450 2.595921 0 255 0
-0.129165 -0.480356 2.596155 0 255 0
-0.334254 -0.085480 2.259000 255 0 0
-0.325043 -0.084691 2.238000 255 0 0
-0.318654 -0.084621 2.236000 255 0 0
-0.312135 -0.084513 2.233000 255 0 0
-0.305768 -0.084443 2.231000 255 0 0
-0.300216 -0.084600 2.235000 255 0 0
-0.295300 -0.084946 2.244000 255 0 0
-0.291236 -0.085557 2.260000 255 0 0
-0.287336 -0.086243 2.278000 255 0 0
-0.285434 -0.087574 2.313000 255 0 0
-0.277909 -0.087200 2.303000 255 0 0
-0.271972 -0.087319 2.306000 255 0 0
-0.265786 -0.087361 2.307000 255 0 0
-0.259820 -0.087480 2.310000 255 0 0
-0.253177 -0.087371 2.307000 255 0 0
-0.246443 -0.087224 2.303000 255 0 0
-0.239416 -0.086964 2.296000 255 0 0
-0.232935 -0.086892 2.294000 255 0 0
-0.226563 -0.086859 2.293000 255 0 0
-0.220580 -0.086976 2.296000 255 0 0
-0.214112 -0.086905 2.294000 255 0 0
-0.208017 -0.086985 2.296000 255 0 0
-0.201735 -0.086988 2.296000 255 0 0
-0.195537 -0.087030 2.297000 255 0 0
-0.188921 -0.086882 2.293000 255 0 0
-0.182724 -0.086924 2.294000 255 0 0
-0.176905 -0.087155 2.300000 255 0 0
-0.171276 -0.087499 2.309000 255 0 0
-0.165025 -0.087540 2.310000 255 0 0
-0.158493 -0.087429 2.307000 255 0 0
-0.152175 -0.087432 2.307000 255 0 0
-0.145856 -0.087435 2.307000 255 0 0
-0.139839 -0.087628 2.312000 255 0 0
-0.133736 -0.087782 2.316000 255 0 0
-0.127500 -0.087860 2.318000 255 0 0
-0.121254 -0.087939 2.320000 255 0 0
-0.115243 -0.088206 2.327000 255 0 0
-0.109568 -0.088777 2.342000 255 0 0
-0.096895 -0.088933 2.346000 255 0 0
-0.089462 -0.087949 2.320000 255 0 0
-0.082852 -0.087685 2.313000 255 0 0
-0.076181 -0.087308 2.303000 255 0 0
-0.069473 -0.086816 2.290000 255 0 0
-0.063001 -0.086552 2.283000 255 0 0
-0.056717 -0.086516 2.282000 255 0 0
-0.050482 -0.086555 2.283000 255 0 0
-0.044087 -0.086290 2.276000 255 0 0
-0.037647 -0.085836 2.264000 255 0 0
-0.031216 -0.085230 2.248000 255 0 0
-0.024963 -0.084927 2.240000 255 0 0
-0.018787 -0.084776 2.236000 255 0 0
-0.012683 -0.084966 2.241000 255 0 0
-0.006547 -0.085080 2.244000 255 0 0
-0.000394 -0.085307 2.250000 255 0 0
0.005776 -0.085307 2.250000 255 0 0
0.011946 -0.085307 2.250000 255 0 0
0.018108 -0.085269 2.249000 255 0 0
0.024307 -0.085382 2.252000 255 0 0
0.030577 -0.085647 2.259000 255 0 0
0.036918 -0.085988 2.268000 255 0 0
0.043175 -0.086063 2.270000 255 0 0
0.049399 -0.086062 2.270000 255 0 0
0.055697 -0.086174 2.273000 255 0 0
0.062119 -0.086439 2.280000 255 0 0
0.068610 -0.086741 2.288000 255 0 0
-0.094487 -0.431374 2.643054 255 255 0
-0.055855 -0.423787 2.641032 255 255 0
-0.051262 -0.425310 2.631100 255 255 0
-0.047509 -0.427138 2.620655 255 255 0
-0.030372 -0.424067 2.618577 255 255 0
-0.012046 -0.423716 2.604638 255 255 0
-0.010824 -0.426452 2.592680 255 255 0
-0.009596 -0.429191 2.580709 255 255 0
-0.010861 -0.432856 2.567118 255 255 0
0.009890 -0.431546 2.554984 255 255 0
0.006143 -0.436143 2.539749 255 255 0
-0.195690 -0.498481 2.515253 0 255 0
-0.192946 -0.492688 2.538231 0 255 0
-0.191896 -0.486184 2.562222 0 255 0
-0.210729 -0.474663 2.586251 0 255 0
-0.216127 -0.468917 2.601801 0 255 0
-0.166754 -0.486495 2.583561 0 255 0
-0.172977 -0.480378 2.599692 0 255 0
-0.157263 -0.483570 2.602404 0 255 0
-0.145753 -0.484961 2.607750 0 255 0
-0.147760 -0.480637 2.621289 0 255 0
-0.072996 -0.483968 2.676259 0 255 0
-0.056247 -0.487383 2.679111 0 255 0
-0.051419 -0.485863 2.688814 0 255 0
-0.049151 -0.483288 2.699973 0 255 0
-0.321641 -0.091592 2.257000 255 0 0
-0.313387 -0.090989 2.242000 255 0 0
-0.306721 -0.090833 2.238000 255 0 0
-0.300614 -0.090839 2.238000 255 0 0
-0.295163 -0.091047 2.243000 255 0 0
-0.290329 -0.091459 2.253000 255 0 0
-0.285943 -0.092033 2.267000 255 0 0
-0.284318 -0.093540 2.304000 255 0 0
-0.279111 -0.093911 2.313000 255 0 0
-0.273382 -0.094120 2.318000 255 0 0
-0.266818 -0.094044 2.316000 255 0 0
-0.260265 -0.093968 2.314000 255 0 0
-0.252953 -0.093607 2.305000 255 0 0
-0.246545 -0.093572 2.304000 255 0 0
-0.239516 -0.093292 2.297000 255 0 0
-0.233134 -0.093256 2.296000 255 0 0
-0.226657 -0.093180 2.294000 255 0 0
-0.220479 -0.093225 2.295000 255 0 0
-0.214388 -0.093310 2.297000 255 0 0
-0.208104 -0.093315 2.297000 255 0 0
-0.202170 -0.093481 2.301000 255 0 0
-0.195703 -0.093404 2.299000 255 0 0
-0.189082 -0.093246 2.295000 255 0 0
-0.182720 -0.093209 2.294000 255 0 0
-0.177056 -0.093538 2.302000 255 0 0
-0.171198 -0.093785 2.308000 255 0 0
-0.164879 -0.093788 2.308000 255 0 0
-0.158558 -0.093792 2.308000 255 0 0
-0.152303 -0.093836 2.309000 255 0 0
-0.146106 -0.093920 2.311000 255 0 0
-0.139957 -0.094045 2.314000 255 0 0
-0.134079 -0.094373 2.322000 255 0 0
-0.127828 -0.094457 2.324000 255 0 0
-0.121565 -0.094541 2.326000 255 0 0
-0.115439 -0.094747 2.331000 255 0 0
-0.110080 -0.095643 2.353000 255 0 0
-0.089306 -0.094146 2.316000 255 0 0
-0.082922 -0.094107 2.315000 255 0 0
-0.076344 -0.093824 2.308000 255 0 0
-0.069744 -0.093460 2.299000 255 0 0
-0.063110 -0.092973 2.287000 255 0 0
-0.056666 -0.092690 2.280000 255 0 0
-0.050304 -0.092488 2.275000 255 0 0
-0.044008 -0.092367 2.272000 255 0 0
-0.037662 -0.092083 2.265000 255 0 0
-0.031341 -0.091759 2.257000 255 0 0
-0.025018 -0.091271 2.245000 255 0 0
-0.018803 -0.090987 2.238000 255 0 0
-0.012661 -0.090947 2.237000 255 0 0
-0.006535 -0.091069 2.240000 255 0 0
-0.000393 -0.091272 2.245000 255 0 0
0.005765 -0.091313 2.246000 255 0 0
0.011919 -0.091272 2.245000 255 0 0
0.018099 -0.091394 2.248000 255 0 0
0.024296 -0.091515 2.251000 255 0 0
0.030617 -0.091962 2.262000 255 0 0
0.036917 -0.092205 2.268000 255 0 0
0.043231 -0.092407 2.273000 255 0 0
0.049398 -0.092285 2.270000 255 0 0
0.055720 -0.092446 2.274000 255 0 0
0.062173 -0.092770 2.282000 255 0 0
0.068699 -0.093134 2.291000 255 0 0
-0.103983 -0.443264 2.651659 255 255 0
-0.078328 -0.437143 2.654340 255 255 0
-0.056079 -0.432227 2.655106 255 255 0
-0.049810 -0.433131 2.646203 255 255 0
-0.036842 -0.431570 2.641456 255 255 0
-0.028081 -0.431541 2.634167 255 255 0
-0.030202 -0.435519 2.620119 255 255 0
-0.026463 -0.437339 2.609711 255 255 0
-0.016884 -0.436991 2.602997 255 255 0
-0.007319 -0.436637 2.596320 255 255 0
-0.014419 -0.442487 2.579031 255 255 0
-0.024821 -0.449591 2.559540 255 255 0
-0.011933 -0.447992 2.555012 255 255 0
0.010894 -0.442641 2.557018 255 255 0
-0.169411 -0.482993 2.635864 0 255 0
-0.056793 -0.498908 2.681080 0 255 0
-0.030648 -0.506239 2.678721 0 255 0
-0.047988 -0.495523 2.700993 0 255 0
-0.304112 -0.096135 2.219000 255 0 0
-0.303294 -0.097830 2.258000 255 0 0
-0.296737 -0.097706 2.255000 255 0 0
-0.291225 -0.097929 2.260000 255 0 0
-0.285559 -0.098108 2.264000 255 0 0
-0.281351 -0.098808 2.280000 255 0 0
-0.278140 -0.099897 2.305000 255 0 0
-0.273730 -0.100596 2.321000 255 0 0
-0.267274 -0.100558 2.320000 255 0 0
-0.260484 -0.100390 2.316000 255 0 0
-0.252728 -0.099832 2.303000 255 0 0
-0.246219 -0.099751 2.301000 255 0 0
-0.239511 -0.099583 2.297000 255 0 0
-0.233231 -0.099588 2.297000 255 0 0
-0.226653 -0.099463 2.294000 255 0 0
-0.220763 -0.099641 2.298000 255 0 0
-0.214477 -0.099645 2.298000 255 0 0
-0.208371 -0.099737 2.300000 255 0 0
-0.202166 -0.099785 2.301000 255 0 0
-0.195784 -0.099746 2.300000 255 0 0
-0.188995 -0.099489 2.294000 255 0 0
-0.182557 -0.099407 2.292000 255 0 0
-0.176821 -0.099714 2.299000 255 0 0
-0.171269 -0.100152 2.309000 255 0 0
-0.165090 -0.100242 2.311000 255 0 0
-0.158967 -0.100376 2.314000 255 0 0
-0.152762 -0.100466 2.316000 255 0 0
-0.146545 -0.100556 2.318000 255 0 0
-0.140256 -0.100603 2.319000 255 0 0
-0.134308 -0.100910 2.326000 255 0 0
-0.128155 -0.101086 2.330000 255 0 0
-0.121876 -0.101176 2.332000 255 0 0
-0.115832 -0.101482 2.339000 255 0 0
-0.110405 -0.102396 2.360000 255 0 0
-0.089497 -0.100710 2.321000 255 0 0
-0.083135 -0.100712 2.321000 255 0 0
-0.076508 -0.100367 2.313000 255 0 0
-0.069803 -0.099848 2.301000 255 0 0
-0.063247 -0.099459 2.292000 255 0 0
-0.056789 -0.099156 2.285000 255 0 0
-0.050370 -0.098854 2.278000 255 0 0
-0.044007 -0.098595 2.272000 255 0 0
-0.037695 -0.098379 2.267000 255 0 0
-0.031437 -0.098249 2.264000 255 0 0
-0.025118 -0.097816 2.254000 255 0 0
-0.018862 -0.097426 2.245000 255 0 0
-0.012666 -0.097122 2.238000 255 0 0
-0.006529 -0.097123 2.238000 255 0 0
-0.000393 -0.097253 2.241000 255 0 0
0.005763 -0.097426 2.245000 255 0 0
0.011924 -0.097470 2.246000 255 0 0
0.018115 -0.097643 2.250000 255 0 0
0.024317 -0.097772 2.253000 255 0 0
0.030603 -0.098119 2.261000 255 0 0
0.036884 -0.098335 2.266000 255 0 0
0.043192 -0.098551 2.271000 255 0 0
0.049419 -0.098550 2.271000 255 0 0
0.055768 -0.098766 2.276000 255 0 0
0.062144 -0.098982 2.281000 255 0 0
0.068667 -0.099371 2.290000 255 0 0
-0.058823 -0.441586 2.667643 255 255 0
-0.056748 -0.444032 2.656168 255 255 0
-0.037901 -0.440279 2.654968 255 255 0
-0.019924 -0.436820 2.653344 255 255 0
-0.013691 -0.437698 2.644538 255 255 0
-0.009136 -0.439197 2.634706 255 255 0
-0.013767 -0.444124 2.619115 255 255 0
0.001634 -0.441566 2.616116 255 255 0
0.004514 -0.443685 2.605249 255 255 0
-0.010080 -0.452380 2.583214 255 255 0
-0.015491 -0.457645 2.566946 255 255 0
-0.153867 -0.501146 2.628076 0 255 0
-0.036055 -0.519367 2.670938 0 255 0
-0.286940 -0.104812 2.275000 255 0 0
-0.278877 -0.104127 2.260000 255 0 0
-0.277531 -0.105976 2.300000 255 0 0
-0.273842 -0.106996 2.322000 255 0 0
-0.267729 -0.107094 2.324000 255 0 0
-0.260816 -0.106870 2.319000 255 0 0
-0.253381 -0.106415 2.309000 255 0 0
-0.246641 -0.106236 2.305000 255 0 0
-0.240132 -0.106149 2.303000 255 0 0
-0.233429 -0.105970 2.299000 255 0 0
-0.227043 -0.105929 2.298000 255 0 0
-0.220950 -0.106027 2.300000 255 0 0
-0.214659 -0.106032 2.300000 255 0 0
-0.208186 -0.105944 2.298000 255 0 0
-0.201722 -0.105857 2.296000 255 0 0
-0.195525 -0.105907 2.297000 255 0 0
-0.189074 -0.105820 2.295000 255 0 0
-0.182951 -0.105916 2.297000 255 0 0
-0.176894 -0.106059 2.300000 255 0 0
-0.171042 -0.106339 2.306000 255 0 0
-0.165086 -0.106574 2.311000 255 0 0
-0.159101 -0.106808 2.316000 255 0 0
-0.152956 -0.106950 2.319000 255 0 0
-0.146668 -0.107000 2.320000 255 0 0
-0.140495 -0.107142 2.323000 255 0 0
-0.134593 -0.107514 2.331000 255 0 0
-0.128537 -0.107794 2.337000 255 0 0
-0.122395 -0.108027 2.342000 255 0 0
-0.116176 -0.108215 2.346000 255 0 0
-0.110356 -0.108817 2.359000 255 0 0
-0.096600 -0.107900 2.339000 255 0 0
-0.089803 -0.107440 2.329000 255 0 0
-0.083205 -0.107166 2.323000 255 0 0
-0.076539 -0.106752 2.314000 255 0 0
-0.069832 -0.106201 2.302000 255 0 0
-0.063383 -0.105972 2.297000 255 0 0
-0.056937 -0.105696 2.291000 255 0 0
-0.050390 -0.105144 2.279000 255 0 0
-0.043929 -0.104637 2.268000 255 0 0
-0.037661 -0.104500 2.265000 255 0 0
-0.031478 -0.104593 2.267000 255 0 0
-0.025184 -0.104271 2.260000 255 0 0
-0.018912 -0.103856 2.251000 255 0 0
-0.012677 -0.103349 2.240000 255 0 0
-0.006532 -0.103303 2.239000 255 0 0
-0.000392 -0.103211 2.237000 255 0 0
0.005752 -0.103395 2.241000 255 0 0
0.011924 -0.103626 2.246000 255 0 0
0.018139 -0.103949 2.253000 255 0 0
0.024360 -0.104133 2.257000 255 0 0
0.030589 -0.104270 2.260000 255 0 0
0.036867 -0.104500 2.265000 255 0 0
0.043229 -0.104868 2.273000 255 0 0
0.049570 -0.105098 2.278000 255 0 0
0.055914 -0.105281 2.282000 255 0 0
0.062252 -0.105418 2.285000 255 0 0
0.068666 -0.105647 2.290000 255 0 0
0.075270 -0.106107 2.300000 255 0 0
-0.177424 -0.483909 2.649764 255 255 0
-0.074180 -0.455620 2.672600 255 255 0
-0.051935 -0.450595 2.673293 255 255 0
-0.048186 -0.452418 2.662857 255 255 0
-0.037735 -0.451740 2.656530 255 255 0
-0.013067 -0.445732 2.659018 255 255 0
0.004866 -0.442210 2.657485 255 255 0
-0.004798 -0.449033 2.638844 255 255 0
-0.006925 -0.453041 2.624836 255 255 0
0.000131 -0.453591 2.616583 255 255 0
-0.010307 -0.460758 2.597250 255 255 0
-0.002845 -0.464388 2.576476 255 255 0
-0.019032 -0.473800 2.553224 255 255 0
-0.150164 -0.514307 2.627412 0 255 0
-0.276559 -0.111882 2.292000 255 0 0
-0.273364 -0.113157 2.318000 255 0 0
-0.267031 -0.113164 2.318000 255 0 0
-0.260473 -0.113072 2.316000 255 0 0
-0.253814 -0.112932 2.313000 255 0 0
-0.247706 -0.113035 2.315000 255 0 0
-0.240960 -0.112846 2.311000 255 0 0
-0.234032 -0.112559 2.305000 255 0 0
-0.227334 -0.112369 2.301000 255 0 0
-0.220945 -0.112325 2.300000 255 0 0
-0.214280 -0.112135 2.296000 255 0 0
-0.207999 -0.112140 2.296000 255 0 0
-0.201630 -0.112097 2.295000 255 0 0
-0.195775 -0.112346 2.300000 255 0 0
-0.189728 -0.112497 2.303000 255 0 0
-0.183903 -0.112795 2.309000 255 0 0
-0.177659 -0.112848 2.310000 255 0 0
-0.171706 -0.113096 2.315000 255 0 0
-0.165582 -0.113247 2.318000 255 0 0
-0.159509 -0.113447 2.322000 255 0 0
-0.153150 -0.113450 2.322000 255 0 0
-0.146917 -0.113552 2.324000 255 0 0
-0.140673 -0.113653 2.326000 255 0 0
-0.134648 -0.113950 2.332000 255 0 0
-0.128589 -0.114246 2.338000 255 0 0
-0.122601 -0.114640 2.346000 255 0 0
-0.116570 -0.115034 2.354000 255 0 0
-0.097878 -0.115824 2.370000 255 0 0
-0.090148 -0.114263 2.338000 255 0 0
-0.083203 -0.113532 2.323000 255 0 0
-0.076471 -0.112996 2.312000 255 0 0
-0.069679 -0.112265 2.297000 255 0 0
-0.063271 -0.112071 2.293000 255 0 0
-0.056911 -0.111926 2.290000 255 0 0
-0.050478 -0.111585 2.283000 255 0 0
-0.043986 -0.111000 2.271000 255 0 0
-0.037726 -0.110903 2.269000 255 0 0
-0.031505 -0.110904 2.269000 255 0 0
-0.025206 -0.110563 2.262000 255 0 0
-0.018911 -0.110026 2.251000 255 0 0
-0.012694 -0.109635 2.243000 255 0 0
-0.006546 -0.109684 2.244000 255 0 0
-0.000393 -0.109684 2.244000 255 0 0
0.005765 -0.109782 2.246000 255 0 0
0.011934 -0.109880 2.248000 255 0 0
0.018138 -0.110124 2.253000 255 0 0
0.024391 -0.110465 2.260000 255 0 0
0.030575 -0.110416 2.259000 255 0 0
0.036899 -0.110806 2.267000 255 0 0
0.043228 -0.111098 2.273000 255 0 0
0.049634 -0.111488 2.281000 255 0 0
0.055961 -0.111633 2.284000 255 0 0
0.062250 -0.111681 2.285000 255 0 0
0.068634 -0.111874 2.289000 255 0 0
0.075170 -0.112264 2.297000 255 0 0
-0.098804 -0.473173 2.672129 255 255 0
-0.060560 -0.462146 2.682284 255 255 0
-0.041695 -0.458314 2.680968 255 255 0
-0.041309 -0.461391 2.668515 255 255 0
-0.030029 -0.460373 2.662711 255 255 0
-0.018765 -0.459347 2.656954 255 255 0
-0.003340 -0.456732 2.653834 255 255 0
-0.008812 -0.462018 2.637775 255 255 0
-0.014264 -0.467315 2.621662 255 255 0
-0.013033 -0.470081 2.609700 255 255 0
-0.012218 -0.476256 2.584673 255 255 0
-0.008480 -0.478074 2.574263 255 255 0
-0.154906 -0.523834 2.631821 0 255 0
-0.273594 -0.119605 2.320000 255 0 0
-0.267140 -0.119561 2.319000 255 0 0
-0.260691 -0.119516 2.318000 255 0 0
-0.254247 -0.119470 2.317000 255 0 0
-0.248021 -0.119528 2.318000 255 0 0
-0.241267 -0.119328 2.314000 255 0 0
-0.234433 -0.119076 2.309000 255 0 0
-0.227921 -0.118979 2.307000 255 0 0
-0.221324 -0.118830 2.304000 255 0 0
-0.214462 -0.118526 2.298000 255 0 0
-0.208266 -0.118583 2.299000 255 0 0
-0.202240 -0.118743 2.302000 255 0 0
-0.196537 -0.119109 2.309000 255 0 0
-0.190630 -0.119372 2.314000 255 0 0
-0.184774 -0.119687 2.320000 255 0 0
-0.178424 -0.119691 2.320000 255 0 0
-0.172221 -0.119799 2.322000 255 0 0
-0.166149 -0.120010 2.326000 255 0 0
-0.160055 -0.120220 2.330000 255 0 0
-0.153542 -0.120121 2.328000 255 0 0
-0.147293 -0.120228 2.330000 255 0 0
-0.141032 -0.120335 2.332000 255 0 0
-0.134760 -0.120442 2.334000 255 0 0
-0.128531 -0.120601 2.337000 255 0 0
-0.122703 -0.121172 2.348000 255 0 0
-0.099568 -0.124435 2.411000 255 0 0
-0.090069 -0.120566 2.336000 255 0 0
-0.083201 -0.119898 2.323000 255 0 0
-0.076436 -0.119281 2.311000 255 0 0
-0.069768 -0.118715 2.300000 255 0 0
-0.063215 -0.118252 2.291000 255 0 0
-0.056835 -0.118047 2.287000 255 0 0
-0.050432 -0.117739 2.281000 255 0 0
-0.044043 -0.117379 2.274000 255 0 0
-0.037775 -0.117277 2.272000 255 0 0
-0.031476 -0.117020 2.267000 255 0 0
-0.025183 -0.116659 2.260000 255 0 0
-0.018902 -0.116143 2.250000 255 0 0
-0.012705 -0.115886 2.245000 255 0 0
-0.006549 -0.115886 2.245000 255 0 0
-0.000393 -0.115783 2.243000 255 0 0
0.005760 -0.115834 2.244000 255 0 0
0.011923 -0.115937 2.246000 255 0 0
0.018146 -0.116350 2.254000 255 0 0
0.024380 -0.116607 2.259000 255 0 0
0.030560 -0.116555 2.258000 255 0 0
0.036865 -0.116915 2.265000 255 0 0
0.043227 -0.117327 2.273000 255 0 0
0.049720 -0.117946 2.285000 255 0 0
0.056058 -0.118099 2.288000 255 0 0
0.062330 -0.118097 2.288000 255 0 0
0.068692 -0.118250 2.291000 255 0 0
0.075267 -0.118713 2.300000 255 0 0
-0.045725 -0.471369 2.680007 255 255 0
-0.043656 -0.473824 2.668559 255 255 0
-0.037398 -0.474691 2.659663 255 255 0
-0.027801 -0.474281 2.652843 255 255 0
-0.015712 -0.472910 2.647612 255 255 0
-0.010316 -0.474082 2.638274 255 255 0
-0.012426 -0.478130 2.624248 255 255 0
0.009622 -0.472901 2.625407 255 255 0
0.014163 -0.474383 2.615605 255 255 0
-0.007883 -0.486135 2.588854 255 255 0
-0.181667 -0.541258 2.588025 0 255 0
-0.279924 -0.125948 2.320000 255 0 0
-0.273705 -0.126010 2.321000 255 0 0
-0.267133 -0.125908 2.319000 255 0 0
-0.260685 -0.125861 2.318000 255 0 0
-0.254460 -0.125922 2.319000 255 0 0
-0.248442 -0.126091 2.322000 255 0 0
-0.241678 -0.125881 2.318000 255 0 0
-0.234934 -0.125670 2.314000 255 0 0
-0.228310 -0.125513 2.311000 255 0 0
-0.221990 -0.125519 2.311000 255 0 0
-0.215203 -0.125253 2.306000 255 0 0
-0.208532 -0.125042 2.302000 255 0 0
-0.202761 -0.125373 2.308000 255 0 0
-0.196872 -0.125650 2.313000 255 0 0
-0.191036 -0.125981 2.319000 255 0 0
-0.184769 -0.126041 2.320000 255 0 0
-0.178650 -0.126209 2.323000 255 0 0
-0.172587 -0.126431 2.327000 255 0 0
-0.166573 -0.126707 2.332000 255 0 0
-0.160257 -0.126766 2.333000 255 0 0
-0.154066 -0.126933 2.336000 255 0 0
-0.147858 -0.127100 2.339000 255 0 0
-0.141573 -0.127213 2.341000 255 0 0
-0.135045 -0.127108 2.339000 255 0 0
-0.128802 -0.127275 2.342000 255 0 0
-0.123013 -0.127931 2.354000 255 0 0
-0.117158 -0.128586 2.366000 255 0 0
-0.089874 -0.126695 2.331000 255 0 0
-0.083306 -0.126426 2.326000 255 0 0
-0.076633 -0.125939 2.317000 255 0 0
-0.069918 -0.125289 2.305000 255 0 0
-0.063268 -0.124639 2.293000 255 0 0
-0.056858 -0.124368 2.288000 255 0 0
-0.050453 -0.124044 2.282000 255 0 0
-0.044139 -0.123882 2.279000 255 0 0
-0.037791 -0.123557 2.273000 255 0 0
-0.031462 -0.123178 2.266000 255 0 0
-0.025137 -0.122635 2.256000 255 0 0
-0.018885 -0.122201 2.248000 255 0 0
-0.012704 -0.122038 2.245000 255 0 0
-0.006558 -0.122201 2.248000 255 0 0
-0.000394 -0.122147 2.247000 255 0 0
0.005775 -0.122310 2.250000 255 0 0
0.011955 -0.122418 2.252000 255 0 0
0.018161 -0.122636 2.256000 255 0 0
0.024390 -0.122852 2.260000 255 0 0
0.030586 -0.122852 2.260000 255 0 0
0.036897 -0.123231 2.267000 255 0 0
0.043245 -0.123611 2.274000 255 0 0
0.049697 -0.124153 2.284000 255 0 0
0.056032 -0.124314 2.287000 255 0 0
0.062301 -0.124313 2.287000 255 0 0
0.068660 -0.124474 2.290000 255 0 0
0.075166 -0.124852 2.297000 255 0 0
-0.067339 -0.484639 2.693938 255 255 0
-0.055181 -0.483275 2.688498 255 255 0
-0.044719 -0.482542 2.682096 255 255 0
-0.025059 -0.478281 2.681337 255 255 0
-0.017984 -0.478809 2.673002 255 255 0
-0.025960 -0.485111 2.655434 255 255 0
-0.016380 -0.484677 2.648646 255 255 0
0.007364 -0.478765 2.650721 255 255 0
0.006073 -0.482499 2.637268 255 255 0
-0.008522 -0.491401 2.615398 255 255 0
-0.167935 -0.569654 2.543808 0 255 0
-0.200866 -0.551309 2.576800 0 255 0
-0.158702 -0.563086 2.575382 0 255 0
-0.273697 -0.132362 2.321000 255 0 0
-0.267817 -0.132597 2.325000 255 0 0
-0.261240 -0.132491 2.323000 255 0 0
-0.254782 -0.132441 2.322000 255 0 0
-0.248115 -0.132276 2.319000 255 0 0
-0.241463 -0.132112 2.316000 255 0 0
-0.234623 -0.131834 2.311000 255 0 0
-0.228205 -0.131783 2.310000 255 0 0
-0.222272 -0.132017 2.314000 255 0 0
-0.216037 -0.132081 2.315000 255 0 0
-0.209251 -0.131801 2.310000 255 0 0
-0.203283 -0.132035 2.314000 255 0 0
-0.197122 -0.132155 2.316000 255 0 0
-0.191196 -0.132446 2.321000 255 0 0
-0.184605 -0.132280 2.318000 255 0 0
-0.178414 -0.132400 2.320000 255 0 0
-0.172360 -0.132633 2.324000 255 0 0
-0.166569 -0.133094 2.332000 255 0 0
-0.160527 -0.133384 2.337000 255 0 0
-0.154523 -0.133731 2.343000 255 0 0
-0.148296 -0.133907 2.346000 255 0 0
-0.141992 -0.134025 2.348000 255 0 0
-0.135676 -0.134144 2.350000 255 0 0
-0.129293 -0.134204 2.351000 255 0 0
-0.123219 -0.134608 2.358000 255 0 0
-0.090102 -0.133425 2.337000 255 0 0
-0.083339 -0.132856 2.327000 255 0 0
-0.076597 -0.132230 2.316000 255 0 0
-0.070007 -0.131776 2.308000 255 0 0
-0.063404 -0.131207 2.298000 255 0 0
-0.056956 -0.130866 2.292000 255 0 0
-0.050496 -0.130411 2.284000 255 0 0
-0.044195 -0.130298 2.282000 255 0 0
-0.037806 -0.129843 2.274000 255 0 0
-0.031461 -0.129387 2.266000 255 0 0
-0.025148 -0.128874 2.257000 255 0 0
-0.018918 -0.128589 2.252000 255 0 0
-0.012721 -0.128361 2.248000 255 0 0
-0.006546 -0.128133 2.244000 255 0 0
-0.000393 -0.128019 2.242000 255 0 0
0.005765 -0.128247 2.246000 255 0 0
0.011954 -0.128589 2.252000 255 0 0
0.018177 -0.128932 2.258000 255 0 0
0.024379 -0.128988 2.259000 255 0 0
0.030599 -0.129101 2.261000 255 0 0
0.036912 -0.129500 2.268000 255 0 0
0.043320 -0.130070 2.278000 255 0 0
0.049804 -0.130697 2.289000 255 0 0
0.056177 -0.130923 2.293000 255 0 0
0.062408 -0.130807 2.291000 255 0 0
0.068628 -0.130691 2.289000 255 0 0
0.075197 -0.131203 2.298000 255 0 0
-0.106681 -0.504706 2.697678 255 255 0
-0.081021 -0.498208 2.700051 255 255 0
-0.062127 -0.494258 2.698550 255 255 0
-0.051656 -0.493509 2.692106 255 255 0
-0.044551 -0.494042 2.683681 255 255 0
-0.017364 -0.486827 2.687482 255 255 0
-0.006952 -0.486049 2.681205 255 255 0
-0.009920 -0.490441 2.666754 255 255 0
-0.012875 -0.494839 2.652263 255 255 0
0.000855 -0.492756 2.648106 255 255 0
0.032047 -0.483840 2.654953 255 255 0
-0.199713 -0.563375 2.577584 0 255 0
-0.172374 -0.572161 2.572951 0 255 0
-0.137446 -0.584312 2.563815 0 255 0
-0.273808 -0.138773 2.322000 255 0 0
-0.267464 -0.138781 2.322000 255 0 0
-0.260895 -0.138669 2.320000 255 0 0
-0.254775 -0.138796 2.322000 255 0 0
-0.248429 -0.138803 2.322000 255 0 0
-0.241664 -0.138571 2.318000 255 0 0
-0.234718 -0.138220 2.312000 255 0 0
-0.228199 -0.138107 2.310000 255 0 0
-0.222458 -0.138472 2.316000 255 0 0
-0.216404 -0.138658 2.319000 255 0 0
-0.209608 -0.138365 2.314000 255 0 0
-0.203277 -0.138371 2.314000 255 0 0
-0.196861 -0.138317 2.313000 255 0 0
-0.191026 -0.138682 2.319000 255 0 0
-0.184440 -0.138508 2.316000 255 0 0
-0.178486 -0.138813 2.321000 255 0 0
-0.172280 -0.138938 2.323000 255 0 0
-0.166349 -0.139302 2.329000 255 0 0
-0.160453 -0.139725 2.336000 255 0 0
-0.154584 -0.140208 2.344000 255 0 0
-0.148355 -0.140392 2.347000 255 0 0
-0.142169 -0.140636 2.351000 255 0 0
-0.136076 -0.140999 2.357000 255 0 0
-0.129785 -0.141183 2.360000 255 0 0
-0.123476 -0.141366 2.363000 255 0 0
-0.083444 -0.139411 2.330000 255 0 0
-0.076661 -0.138695 2.318000 255 0 0
-0.070004 -0.138099 2.308000 255 0 0
-0.063457 -0.137623 2.300000 255 0 0
-0.057078 -0.137445 2.297000 255 0 0
-0.050649 -0.137088 2.291000 255 0 0
-0.044349 -0.137029 2.290000 255 0 0
-0.037921 -0.136492 2.281000 255 0 0
-0.031543 -0.135954 2.272000 255 0 0
-0.025192 -0.135297 2.261000 255 0 0
-0.018926 -0.134819 2.253000 255 0 0
-0.012726 -0.134580 2.249000 255 0 0
-0.006554 -0.134461 2.247000 255 0 0
-0.000394 -0.134581 2.249000 255 0 0
0.005780 -0.134760 2.252000 255 0 0
0.011975 -0.134999 2.256000 255 0 0
0.018177 -0.135118 2.258000 255 0 0
0.024367 -0.135118 2.258000 255 0 0
0.030612 -0.135356 2.262000 255 0 0
0.036976 -0.135954 2.272000 255 0 0
0.043394 -0.136551 2.282000 255 0 0
0.049846 -0.137088 2.291000 255 0 0
0.056126 -0.137086 2.291000 255 0 0
0.062379 -0.137024 2.290000 255 0 0
0.068596 -0.136903 2.288000 255 0 0
0.075195 -0.137499 2.298000 255 0 0
-0.071189 -0.509363 2.694652 255 255 0
-0.056516 -0.506976 2.690685 255 255 0
-0.038518 -0.503278 2.688807 255 255 0
-0.017205 -0.498263 2.689047 255 255 0
-0.006795 -0.497464 2.682760 255 255 0
-0.015602 -0.504160 2.664718 255 255 0
-0.016877 -0.507930 2.651241 255 255 0
-0.004813 -0.506471 2.646022 255 255 0
0.009729 -0.504021 2.642416 255 255 0
-0.213314 -0.572291 2.575268 0 255 0
-0.189365 -0.579650 2.572641 0 255 0
-0.149474 -0.594209 2.560288 0 255 0
-0.275686 -0.146127 2.338000 255 0 0
-0.268263 -0.145573 2.329000 255 0 0
-0.261562 -0.145393 2.326000 255 0 0
-0.255096 -0.145339 2.325000 255 0 0
-0.248314 -0.145096 2.321000 255 0 0
-0.241240 -0.144666 2.314000 255 0 0
-0.234407 -0.144361 2.309000 255 0 0
-0.227995 -0.144305 2.308000 255 0 0
-0.222259 -0.144687 2.314000 255 0 0
-0.216491 -0.145069 2.320000 255 0 0
-0.210145 -0.145076 2.320000 255 0 0
-0.203534 -0.144894 2.317000 255 0 0
-0.197195 -0.144901 2.317000 255 0 0
-0.191020 -0.145032 2.319000 255 0 0
-0.184514 -0.144912 2.317000 255 0 0
-0.178249 -0.144981 2.318000 255 0 0
-0.172275 -0.145299 2.323000 255 0 0
-0.166416 -0.145742 2.330000 255 0 0
-0.160586 -0.146247 2.338000 255 0 0
-0.154382 -0.146440 2.341000 255 0 0
-0.148287 -0.146758 2.346000 255 0 0
-0.142225 -0.147138 2.352000 255 0 0
-0.136303 -0.147705 2.361000 255 0 0
-0.129945 -0.147834 2.363000 255 0 0
-0.123420 -0.147776 2.362000 255 0 0
-0.083692 -0.146232 2.337000 255 0 0
-0.076725 -0.145170 2.320000 255 0 0
-0.070063 -0.144547 2.310000 255 0 0
-0.063483 -0.143986 2.301000 255 0 0
-0.057126 -0.143863 2.299000 255 0 0
-0.050780 -0.143739 2.297000 255 0 0
-0.044386 -0.143428 2.292000 255 0 0
-0.037970 -0.142929 2.284000 255 0 0
-0.031528 -0.142116 2.271000 255 0 0
-0.025235 -0.141742 2.265000 255 0 0
-0.018950 -0.141179 2.256000 255 0 0
-0.012748 -0.140992 2.253000 255 0 0
-0.006560 -0.140742 2.249000 255 0 0
-0.000394 -0.140867 2.251000 255 0 0
0.005774 -0.140805 2.250000 255 0 0
0.011959 -0.140992 2.253000 255 0 0
0.018176 -0.141305 2.258000 255 0 0
0.024399 -0.141492 2.261000 255 0 0
0.030678 -0.141866 2.267000 255 0 0
0.037007 -0.142303 2.274000 255 0 0
0.043469 -0.143053 2.286000 255 0 0
0.049845 -0.143364 2.291000 255 0 0
0.056051 -0.143175 2.288000 255 0 0
0.062350 -0.143235 2.289000 255 0 0
0.068654 -0.143296 2.290000 255 0 0
0.075487 -0.144357 2.307000 255 0 0
-0.076859 -0.529842 2.667176 255 255 0
-0.020002 -0.514143 2.676162 255 255 0
-0.049213 -0.532249 2.632725 255 255 0
0.005347 -0.513969 2.653780 255 255 0
0.008231 -0.516101 2.642913 255 255 0
-0.202434 -0.585266 2.582291 0 255 0
-0.169269 -0.596882 2.574080 0 255 0
-0.181553 -0.584107 2.606409 0 255 0
-0.161160 -0.586231 2.618714 0 255 0
-0.172371 -0.577583 2.637813 0 255 0
-0.268600 -0.152142 2.332000 255 0 0
-0.261892 -0.151954 2.329000 255 0 0
-0.255089 -0.151701 2.325000 255 0 0
-0.248200 -0.151383 2.320000 255 0 0
-0.241441 -0.151130 2.316000 255 0 0
-0.234805 -0.150941 2.313000 255 0 0
-0.228580 -0.151014 2.314000 255 0 0
-0.222445 -0.151152 2.316000 255 0 0
-0.216391 -0.151354 2.319000 255 0 0
-0.210048 -0.151361 2.319000 255 0 0
-0.203440 -0.151172 2.316000 255 0 0
-0.196934 -0.151048 2.314000 255 0 0
-0.190519 -0.150989 2.313000 255 0 0
-0.184269 -0.151060 2.314000 255 0 0
-0.178474 -0.151523 2.321000 255 0 0
-0.172715 -0.152051 2.329000 255 0 0
-0.166696 -0.152383 2.334000 255 0 0
-0.160581 -0.152650 2.338000 255 0 0
-0.154443 -0.152916 2.342000 255 0 0
-0.148156 -0.153052 2.344000 255 0 0
-0.142100 -0.153448 2.350000 255 0 0
-0.135952 -0.153779 2.355000 255 0 0
-0.129831 -0.154175 2.361000 255 0 0
-0.123468 -0.154310 2.363000 255 0 0
-0.083618 -0.152502 2.335000 255 0 0
-0.076788 -0.151656 2.322000 255 0 0
-0.070121 -0.151005 2.312000 255 0 0
-0.063508 -0.150354 2.302000 255 0 0
-0.057074 -0.150030 2.297000 255 0 0
-0.050668 -0.149705 2.292000 255 0 0
-0.044346 -0.149576 2.290000 255 0 0
-0.037919 -0.148990 2.281000 255 0 0
-0.031486 -0.148142 2.268000 255 0 0
-0.025201 -0.147751 2.262000 255 0 0
-0.018941 -0.147294 2.255000 255 0 0
-0.012754 -0.147229 2.254000 255 0 0
-0.006566 -0.147034 2.251000 255 0 0
-0.000395 -0.147230 2.254000 255 0 0
0.005782 -0.147164 2.253000 255 0 0
0.011969 -0.147295 2.255000 255 0 0
0.018199 -0.147686 2.261000 255 0 0
0.024441 -0.147947 2.265000 255 0 0
0.030718 -0.148272 2.270000 255 0 0
0.037120 -0.148990 2.281000 255 0 0
0.043525 -0.149511 2.289000 255 0 0
0.049821 -0.149575 2.290000 255 0 0
0.056000 -0.149312 2.286000 255 0 0
0.062375 -0.149571 2.290000 255 0 0
0.068682 -0.149634 2.291000 255 0 0
0.075484 -0.150677 2.307000 255 0 0
-0.129038 -0.558755 2.650257 255 255 0
-0.008595 -0.524448 2.671939 255 255 0
-0.037360 -0.539195 2.641513 255 255 0
-0.026943 -0.538360 2.635174 255 255 0
-0.197401 -0.595592 2.593013 0 255 0
-0.180123 -0.599966 2.594710 0 255 0
-0.179569 -0.596633 2.606735 0 255 0
-0.172314 -0.596376 2.614668 0 255 0
-0.177636 -0.590363 2.630232 0 255 0
-0.181293 -0.585126 2.644737 0 255 0
-0.269052 -0.158794 2.336000 255 0 0
-0.262445 -0.158667 2.334000 255 0 0
-0.255739 -0.158471 2.331000 255 0 0
-0.248727 -0.158071 2.325000 255 0 0
-0.242059 -0.157875 2.322000 255 0 0
-0.235001 -0.157407 2.315000 255 0 0
-0.228968 -0.157619 2.318000 255 0 0
-0.222629 -0.157626 2.318000 255 0 0
-0.216570 -0.157838 2.321000 255 0 0
-0.210041 -0.157709 2.319000 255 0 0
-0.203609 -0.157648 2.318000 255 0 0
-0.197438 -0.157790 2.320000 255 0 0
-0.190925 -0.157661 2.318000 255 0 0
-0.184821 -0.157871 2.321000 255 0 0
-0.178545 -0.157945 2.322000 255 0 0
-0.172783 -0.158496 2.330000 255 0 0
-0.166762 -0.158842 2.335000 255 0 0
-0.160575 -0.159051 2.338000 255 0 0
-0.154372 -0.159261 2.341000 255 0 0
-0.148214 -0.159538 2.345000 255 0 0
-0.142216 -0.160019 2.352000 255 0 0
-0.135890 -0.160160 2.354000 255 0 0
-0.129772 -0.160573 2.360000 255 0 0
-0.123569 -0.160917 2.365000 255 0 0
-0.083830 -0.159306 2.341000 255 0 0
-0.076918 -0.158288 2.326000 255 0 0
-0.070210 -0.157542 2.315000 255 0 0
-0.063561 -0.156796 2.304000 255 0 0
-0.056998 -0.156117 2.294000 255 0 0
-0.050644 -0.155915 2.291000 255 0 0
-0.044248 -0.155508 2.285000 255 0 0
-0.037918 -0.155237 2.281000 255 0 0
-0.031498 -0.154422 2.269000 255 0 0
-0.025234 -0.154151 2.265000 255 0 0
-0.018983 -0.153811 2.260000 255 0 0
-0.012770 -0.153608 2.257000 255 0 0
-0.006574 -0.153404 2.254000 255 0 0
-0.000395 -0.153404 2.254000 255 0 0
0.005777 -0.153200 2.251000 255 0 0
0.011963 -0.153403 2.254000 255 0 0
0.018199 -0.153879 2.261000 255 0 0
0.024451 -0.154219 2.266000 255 0 0
0.030717 -0.154490 2.270000 255 0 0
0.037086 -0.155101 2.279000 255 0 0
0.043523 -0.155781 2.289000 255 0 0
0.049841 -0.155915 2.291000 255 0 0
0.056121 -0.155913 2.291000 255 0 0
0.062427 -0.155979 2.292000 255 0 0
0.068799 -0.156181 2.295000 255 0 0
0.075318 -0.156655 2.302000 255 0 0
-0.145566 -0.577193 2.641901 255 255 0
-0.145051 -0.580395 2.629132 255 255 0
-0.168753 -0.593262 2.601672 255 255 0
-0.102767 -0.583915 2.576510 255 255 0
-0.200802 -0.591319 2.645779 0 255 0
-0.269044 -0.165185 2.336000 255 0 0
-0.262662 -0.165194 2.336000 255 0 0
-0.255950 -0.164990 2.333000 255 0 0
-0.249253 -0.164787 2.330000 255 0 0
-0.242781 -0.164724 2.329000 255 0 0
-0.235704 -0.164237 2.322000 255 0 0
-0.229652 -0.164458 2.325000 255 0 0
-0.223006 -0.164253 2.322000 255 0 0
-0.216749 -0.164331 2.323000 255 0 0
-0.209943 -0.163985 2.318000 255 0 0
-0.203602 -0.163992 2.318000 255 0 0
-0.197601 -0.164282 2.322000 255 0 0
-0.191330 -0.164360 2.323000 255 0 0
-0.185372 -0.164720 2.328000 255 0 0
-0.179077 -0.164797 2.329000 255 0 0
-0.172777 -0.164874 2.330000 255 0 0
-0.166685 -0.165163 2.334000 255 0 0
-0.160226 -0.165098 2.333000 255 0 0
-0.154300 -0.165599 2.340000 255 0 0
-0.147893 -0.165605 2.340000 255 0 0
-0.141969 -0.166176 2.348000 255 0 0
-0.135654 -0.166322 2.350000 255 0 0
