ply
format ascii 1.0
element vertex 1315
property double x
property double y
property double z
property uchar red
property uchar green
property uchar blue
end_header
-0.055634 0.142243 2.239000 255 0 0
-0.049585 0.142498 2.243000 255 0 0
-0.043514 0.142754 2.247000 255 0 0
-0.037371 0.142819 2.248000 255 0 0
-0.031181 0.142693 2.246000 255 0 0
-0.025035 0.142758 2.247000 255 0 0
-0.018908 0.143012 2.251000 255 0 0
-0.012748 0.143140 2.253000 255 0 0
-0.006571 0.143140 2.253000 255 0 0
-0.000395 0.143204 2.254000 255 0 0
0.005800 0.143585 2.260000 255 0 0
0.012022 0.143902 2.265000 255 0 0
0.018280 0.144283 2.271000 255 0 0
0.024560 0.144600 2.276000 255 0 0
0.030908 0.145107 2.284000 255 0 0
0.037365 0.145869 2.296000 255 0 0
0.044001 0.147011 2.314000 255 0 0
0.050780 0.148280 2.334000 255 0 0
0.083688 0.149921 2.360000 255 0 0
0.090003 0.149664 2.356000 255 0 0
0.096214 0.149280 2.350000 255 0 0
0.102653 0.149276 2.350000 255 0 0
0.108860 0.148955 2.345000 255 0 0
0.115088 0.148698 2.341000 255 0 0
0.121138 0.148249 2.334000 255 0 0
-0.193892 -0.049232 2.449478 255 255 0
-0.171315 -0.046514 2.450915 255 255 0
-0.164086 -0.047567 2.442502 255 255 0
-0.087458 -0.042557 2.427924 255 255 0
-0.065954 -0.039939 2.429424 255 255 0
-0.041956 -0.036661 2.432744 255 255 0
-0.024748 -0.035075 2.431596 255 255 0
-0.019361 -0.036478 2.422467 255 255 0
0.000325 -0.034224 2.423183 255 255 0
0.008209 -0.034969 2.415861 255 255 0
0.017764 -0.035277 2.409732 255 255 0
0.015564 -0.038608 2.395435 255 255 0
0.026781 -0.038476 2.390520 255 255 0
0.028775 -0.040726 2.379149 255 255 0
0.034116 -0.042106 2.370144 255 255 0
0.028598 -0.046320 2.353400 255 255 0
0.015591 -0.052511 2.331214 255 255 0
-0.242521 -0.098076 2.372932 0 255 0
-0.257416 -0.090230 2.395363 0 255 0
-0.268085 -0.083763 2.414772 0 255 0
-0.264290 -0.081918 2.424232 0 255 0
-0.252815 -0.082505 2.428494 0 255 0
-0.234496 -0.085238 2.428204 0 255 0
-0.234949 -0.082029 2.440607 0 255 0
-0.224291 -0.082317 2.445575 0 255 0
-0.220467 -0.080450 2.455129 0 255 0
-0.206360 -0.081794 2.457907 0 255 0
-0.197380 -0.081520 2.464126 0 255 0
-0.176373 -0.084971 2.462538 0 255 0
-0.148463 -0.090527 2.456597 0 255 0
-0.113632 -0.098176 2.446362 0 255 0
-0.025186 -0.115869 2.427186 0 255 0
-0.360940 0.133249 2.197000 255 0 0
-0.356087 0.133684 2.204000 255 0 0
-0.350083 0.133693 2.204000 255 0 0
-0.343921 0.133642 2.203000 255 0 0
-0.337304 0.133408 2.199000 255 0 0
-0.331310 0.133417 2.199000 255 0 0
-0.325759 0.133608 2.202000 255 0 0
-0.320916 0.134102 2.210000 255 0 0
-0.316884 0.134961 2.224000 255 0 0
-0.313333 0.136062 2.242000 255 0 0
-0.311328 0.137891 2.272000 255 0 0
-0.308888 0.139599 2.300000 255 0 0
-0.302611 0.139608 2.300000 255 0 0
-0.295818 0.139374 2.296000 255 0 0
-0.288667 0.138957 2.289000 255 0 0
-0.281060 0.138297 2.278000 255 0 0
-0.273632 0.137698 2.268000 255 0 0
-0.266376 0.137159 2.259000 255 0 0
-0.260205 0.137167 2.259000 255 0 0
-0.254033 0.137175 2.259000 255 0 0
-0.248079 0.137303 2.261000 255 0 0
-0.241900 0.137311 2.261000 255 0 0
-0.235302 0.137075 2.257000 255 0 0
-0.228726 0.136839 2.253000 255 0 0
-0.222072 0.136542 2.248000 255 0 0
-0.215732 0.136427 2.246000 255 0 0
-0.209309 0.136251 2.243000 255 0 0
-0.202993 0.136135 2.241000 255 0 0
-0.196599 0.135959 2.238000 255 0 0
-0.190220 0.135783 2.235000 255 0 0
-0.183610 0.135424 2.229000 255 0 0
-0.176952 0.135004 2.222000 255 0 0
-0.170409 0.134645 2.216000 255 0 0
-0.164195 0.134528 2.214000 255 0 0
-0.157991 0.134412 2.212000 255 0 0
-0.151866 0.134356 2.211000 255 0 0
-0.145812 0.134360 2.211000 255 0 0
-0.139820 0.134425 2.212000 255 0 0
-0.133702 0.134369 2.211000 255 0 0
-0.127588 0.134312 2.210000 255 0 0
-0.121589 0.134377 2.211000 255 0 0
-0.115741 0.134623 2.215000 255 0 0
-0.109772 0.134748 2.217000 255 0 0
-0.103744 0.134813 2.218000 255 0 0
-0.097755 0.134937 2.220000 255 0 0
-0.091961 0.135366 2.227000 255 0 0
-0.086050 0.135672 2.232000 255 0 0
-0.080077 0.135918 2.236000 255 0 0
-0.074048 0.136103 2.239000 255 0 0
-0.067971 0.136227 2.241000 255 0 0
-0.061884 0.136350 2.243000 255 0 0
-0.055711 0.136291 2.242000 255 0 0
-0.049587 0.136354 2.243000 255 0 0
-0.043458 0.136416 2.244000 255 0 0
-0.037306 0.136417 2.244000 255 0 0
-0.031140 0.136358 2.243000 255 0 0
-0.024991 0.136358 2.243000 255 0 0
-0.018858 0.136481 2.245000 255 0 0
-0.012709 0.136542 2.246000 255 0 0
-0.006560 0.136725 2.249000 255 0 0
-0.000395 0.136968 2.253000 255 0 0
0.005800 0.137393 2.260000 255 0 0
0.012018 0.137636 2.264000 255 0 0
0.018265 0.137940 2.269000 255 0 0
0.024518 0.138122 2.272000 255 0 0
0.030828 0.138485 2.278000 255 0 0
0.037219 0.139032 2.287000 255 0 0
0.043774 0.139942 2.302000 255 0 0
0.050607 0.141400 2.326000 255 0 0
0.083904 0.143821 2.366000 255 0 0
0.090044 0.143271 2.357000 255 0 0
0.096258 0.142903 2.351000 255 0 0
0.102700 0.142900 2.351000 255 0 0
0.108956 0.142654 2.347000 255 0 0
0.115141 0.142346 2.342000 255 0 0
0.120987 0.141674 2.331000 255 0 0
-0.189431 -0.059733 2.453746 255 255 0
-0.177929 -0.059722 2.448022 255 255 0
-0.172393 -0.061194 2.438476 255 255 0
-0.092359 -0.055166 2.425966 255 255 0
-0.057345 -0.049043 2.436519 255 255 0
-0.040958 -0.047645 2.434711 255 255 0
-0.038926 -0.049918 2.423240 255 255 0
-0.007942 -0.047503 2.418763 255 255 0
0.008351 -0.046059 2.417212 255 255 0
0.006156 -0.049409 2.402913 255 255 0
0.013194 -0.050356 2.395019 255 255 0
0.031110 -0.048446 2.394790 255 255 0
0.037285 -0.049599 2.386380 255 255 0
0.030085 -0.054274 2.368499 255 255 0
0.034593 -0.055870 2.358890 255 255 0
0.012419 -0.064544 2.330152 255 255 0
-0.254007 -0.105318 2.382158 0 255 0
-0.275702 -0.095228 2.409226 0 255 0
-0.271058 -0.093662 2.418094 0 255 0
-0.263005 -0.093188 2.424653 0 255 0
-0.252386 -0.093525 2.429510 0 255 0
-0.249433 -0.091402 2.439584 0 255 0
-0.237940 -0.091997 2.443936 0 255 0
-0.223868 -0.093394 2.446629 0 255 0
-0.202933 -0.096944 2.444852 0 255 0
-0.186248 -0.099119 2.446002 0 255 0
-0.187535 -0.095615 2.459035 0 255 0
-0.183684 -0.093730 2.468686 0 255 0
-0.110678 -0.110329 2.445874 0 255 0
-0.362921 0.127939 2.209000 255 0 0
-0.355127 0.127310 2.198000 255 0 0
-0.349615 0.127493 2.201000 255 0 0
-0.343774 0.127560 2.202000 255 0 0
-0.337313 0.127395 2.199000 255 0 0
-0.331319 0.127404 2.199000 255 0 0
-0.325768 0.127586 2.202000 255 0 0
-0.320925 0.128058 2.210000 255 0 0
-0.317035 0.128936 2.225000 255 0 0
-0.313482 0.129987 2.243000 255 0 0
-0.312569 0.132198 2.281000 255 0 0
-0.303672 0.133779 2.308000 255 0 0
-0.295826 0.133092 2.296000 255 0 0
-0.289053 0.132868 2.292000 255 0 0
-0.281685 0.132354 2.283000 255 0 0
-0.274484 0.131898 2.275000 255 0 0
-0.267209 0.131383 2.266000 255 0 0
-0.260558 0.131159 2.262000 255 0 0
-0.254040 0.130992 2.259000 255 0 0
-0.247977 0.131057 2.260000 255 0 0
-0.241586 0.130948 2.258000 255 0 0
-0.234996 0.130723 2.254000 255 0 0
-0.228631 0.130613 2.252000 255 0 0
-0.221979 0.130330 2.247000 255 0 0
-0.215546 0.130162 2.244000 255 0 0
-0.208849 0.129820 2.238000 255 0 0
-0.202546 0.129710 2.236000 255 0 0
-0.196077 0.129483 2.232000 255 0 0
-0.189800 0.129373 2.230000 255 0 0
-0.183286 0.129088 2.225000 255 0 0
-0.176958 0.128919 2.222000 255 0 0
-0.170491 0.128634 2.217000 255 0 0
-0.164274 0.128523 2.215000 255 0 0
-0.158138 0.128470 2.214000 255 0 0
-0.152008 0.128416 2.213000 255 0 0
-0.146080 0.128537 2.215000 255 0 0
-0.140014 0.128541 2.215000 255 0 0
-0.133947 0.128545 2.215000 255 0 0
-0.127707 0.128375 2.212000 255 0 0
-0.121703 0.128436 2.213000 255 0 0
-0.115849 0.128672 2.217000 255 0 0
-0.109973 0.128908 2.221000 255 0 0
-0.104028 0.129085 2.224000 255 0 0
-0.098022 0.129204 2.226000 255 0 0
-0.092170 0.129555 2.232000 255 0 0
-0.086207 0.129790 2.236000 255 0 0
-0.080222 0.130025 2.240000 255 0 0
-0.074116 0.130085 2.241000 255 0 0
-0.067943 0.130029 2.240000 255 0 0
-0.061776 0.129973 2.239000 255 0 0
-0.055663 0.130033 2.240000 255 0 0
-0.049589 0.130209 2.243000 255 0 0
-0.043440 0.130210 2.243000 255 0 0
-0.037257 0.130095 2.241000 255 0 0
-0.031099 0.130038 2.240000 255 0 0
-0.024981 0.130155 2.242000 255 0 0
-0.018850 0.130272 2.244000 255 0 0
-0.012709 0.130388 2.246000 255 0 0
-0.006566 0.130679 2.251000 255 0 0
-0.000395 0.130969 2.256000 255 0 0
0.005800 0.131201 2.260000 255 0 0
0.012013 0.131375 2.263000 255 0 0
0.018265 0.131723 2.269000 255 0 0
0.024519 0.131897 2.272000 255 0 0
0.030802 0.132128 2.276000 255 0 0
0.037107 0.132359 2.280000 255 0 0
0.043548 0.132939 2.290000 255 0 0
0.050239 0.134040 2.309000 255 0 0
0.084225 0.137861 2.375000 255 0 0
0.090047 0.136814 2.357000 255 0 0
0.096179 0.136347 2.349000 255 0 0
0.102528 0.136228 2.347000 255 0 0
0.108867 0.136108 2.345000 255 0 0
0.115145 0.135931 2.342000 255 0 0
0.121094 0.135405 2.333000 255 0 0
-0.173906 -0.067426 2.465125 255 255 0
-0.164123 -0.067813 2.458336 255 255 0
-0.154353 -0.068194 2.451584 255 255 0
-0.090494 -0.066074 2.428538 255 255 0
-0.066470 -0.062693 2.431693 255 255 0
-0.050079 -0.061261 2.429842 255 255 0
-0.039611 -0.061350 2.424063 255 255 0
-0.051035 -0.067148 2.403379 255 255 0
-0.010315 -0.059304 2.418399 255 255 0
-0.011656 -0.062457 2.404651 255 255 0
0.002111 -0.061634 2.401355 255 255 0
0.010828 -0.062129 2.394610 255 255 0
0.033762 -0.058844 2.397882 255 255 0
0.044951 -0.058654 2.393012 255 255 0
0.038585 -0.063136 2.375749 255 255 0
0.019729 -0.070980 2.349504 255 255 0
0.027585 -0.071685 2.342239 255 255 0
-0.257841 -0.115001 2.386091 0 255 0
-0.277822 -0.105393 2.411965 0 255 0
-0.259572 -0.108257 2.411529 0 255 0
-0.237891 -0.112206 2.408869 0 255 0
-0.232365 -0.110897 2.417272 0 255 0
-0.242183 -0.104637 2.436021 0 255 0
-0.234954 -0.103880 2.443264 0 255 0
-0.223448 -0.104487 2.447689 0 255 0
-0.184568 -0.113829 2.434040 0 255 0
-0.178143 -0.112760 2.442029 0 255 0
-0.183701 -0.107876 2.457894 0 255 0
-0.177273 -0.106806 2.465887 0 255 0
-0.144244 -0.114137 2.456659 0 255 0
-0.355459 0.121411 2.200000 255 0 0
-0.349465 0.121420 2.200000 255 0 0
-0.343471 0.121428 2.200000 255 0 0
-0.336861 0.121216 2.196000 255 0 0
-0.330875 0.121224 2.196000 255 0 0
-0.325332 0.121398 2.199000 255 0 0
-0.320643 0.121903 2.208000 255 0 0
-0.316473 0.122629 2.221000 255 0 0
-0.312931 0.123631 2.239000 255 0 0
-0.306180 0.128514 2.327000 255 0 0
-0.295319 0.126589 2.292000 255 0 0
-0.288557 0.126375 2.288000 255 0 0
-0.281569 0.126051 2.282000 255 0 0
-0.275216 0.126003 2.281000 255 0 0
-0.268042 0.125569 2.273000 255 0 0
-0.261487 0.125410 2.270000 255 0 0
-0.254609 0.125085 2.264000 255 0 0
-0.248203 0.124981 2.262000 255 0 0
-0.241592 0.124767 2.258000 255 0 0
-0.235107 0.124608 2.255000 255 0 0
-0.228536 0.124393 2.251000 255 0 0
-0.221887 0.124123 2.246000 255 0 0
-0.215456 0.123963 2.243000 255 0 0
-0.208948 0.123747 2.239000 255 0 0
-0.202642 0.123642 2.237000 255 0 0
-0.196171 0.123427 2.233000 255 0 0
-0.189805 0.123266 2.230000 255 0 0
-0.183209 0.122940 2.224000 255 0 0
-0.176883 0.122779 2.221000 255 0 0
-0.170419 0.122507 2.216000 255 0 0
-0.164279 0.122457 2.215000 255 0 0
-0.158214 0.122461 2.215000 255 0 0
-0.152218 0.122521 2.216000 255 0 0
-0.146216 0.122580 2.217000 255 0 0
-0.140144 0.122584 2.217000 255 0 0
-0.134072 0.122588 2.217000 255 0 0
-0.128000 0.122592 2.217000 255 0 0
-0.121926 0.122595 2.217000 255 0 0
-0.116114 0.122875 2.222000 255 0 0
-0.110175 0.123044 2.225000 255 0 0
-0.104265 0.123269 2.229000 255 0 0
-0.098201 0.123327 2.230000 255 0 0
-0.092173 0.123440 2.232000 255 0 0
-0.086171 0.123609 2.235000 255 0 0
-0.080082 0.123666 2.236000 255 0 0
-0.073986 0.123724 2.237000 255 0 0
-0.067854 0.123726 2.237000 255 0 0
-0.061722 0.123728 2.237000 255 0 0
-0.055590 0.123729 2.237000 255 0 0
-0.049457 0.123731 2.237000 255 0 0
-0.043325 0.123732 2.237000 255 0 0
-0.037192 0.123733 2.237000 255 0 0
-0.031087 0.123845 2.239000 255 0 0
-0.025004 0.124122 2.244000 255 0 0
-0.018876 0.124289 2.247000 255 0 0
-0.012732 0.124455 2.250000 255 0 0
-0.006578 0.124732 2.255000 255 0 0
-0.000396 0.124954 2.259000 255 0 0
0.005803 0.125064 2.261000 255 0 0
0.012002 0.125064 2.261000 255 0 0
0.018234 0.125285 2.265000 255 0 0
0.024476 0.125450 2.268000 255 0 0
0.030735 0.125615 2.271000 255 0 0
0.036978 0.125669 2.272000 255 0 0
0.043302 0.125945 2.277000 255 0 0
0.049892 0.126828 2.293000 255 0 0
0.084618 0.131963 2.386000 255 0 0
0.090049 0.130356 2.357000 255 0 0
0.096100 0.129801 2.347000 255 0 0
0.102444 0.129687 2.345000 255 0 0
0.108777 0.129573 2.343000 255 0 0
0.115148 0.129515 2.342000 255 0 0
0.121305 0.129235 2.337000 255 0 0
-0.190320 -0.080311 2.469129 255 255 0
-0.174562 -0.079168 2.466100 255 255 0
-0.155860 -0.080118 2.451983 255 255 0
-0.095386 -0.078747 2.426597 255 255 0
-0.072209 -0.075528 2.429151 255 255 0
-0.057502 -0.074502 2.426130 255 255 0
-0.041135 -0.073021 2.424319 255 255 0
-0.018909 -0.069969 2.426603 255 255 0
-0.009324 -0.070240 2.420350 255 255 0
-0.012339 -0.073855 2.405444 255 255 0
0.007293 -0.071434 2.406204 255 255 0
0.021028 -0.070566 2.402971 255 255 0
0.025540 -0.072159 2.393346 255 255 0
0.046762 -0.069247 2.395512 255 255 0
0.032055 -0.076016 2.372338 255 255 0
0.023224 -0.081222 2.353216 255 255 0
0.016918 -0.085762 2.335808 255 255 0
-0.198038 -0.145687 2.346076 0 255 0
-0.262958 -0.121150 2.403036 0 255 0
-0.246403 -0.123492 2.403826 0 255 0
-0.227273 -0.126653 2.402961 0 255 0
-0.238766 -0.119784 2.422920 0 255 0
-0.253693 -0.111823 2.445085 0 255 0
-0.235387 -0.114686 2.444884 0 255 0
-0.217909 -0.117254 2.445343 0 255 0
-0.204678 -0.118423 2.448716 0 255 0
-0.186298 -0.121231 2.448770 0 255 0
-0.181586 -0.119623 2.457885 0 255 0
-0.176870 -0.118013 2.467009 0 255 0
-0.153289 -0.122423 2.463923 0 255 0
-0.123666 -0.128719 2.457088 0 255 0
-0.057924 -0.146434 2.427294 0 255 0
-0.059983 -0.142572 2.441151 0 255 0
-0.355144 0.115291 2.198000 255 0 0
-0.349791 0.115509 2.202000 255 0 0
-0.343947 0.115569 2.203000 255 0 0
-0.337023 0.115263 2.197000 255 0 0
-0.330883 0.115218 2.196000 255 0 0
-0.325192 0.115331 2.198000 255 0 0
-0.320360 0.115758 2.206000 255 0 0
-0.316054 0.116396 2.218000 255 0 0
-0.312240 0.117243 2.234000 255 0 0
-0.305662 0.121937 2.323000 255 0 0
-0.294811 0.120107 2.288000 255 0 0
-0.288312 0.120009 2.286000 255 0 0
-0.281823 0.119911 2.284000 255 0 0
-0.275826 0.120023 2.286000 255 0 0
-0.268992 0.119767 2.281000 255 0 0
-0.262184 0.119512 2.276000 255 0 0
-0.255403 0.119256 2.271000 255 0 0
-0.248977 0.119157 2.269000 255 0 0
-0.242241 0.118901 2.264000 255 0 0
-0.235426 0.118592 2.258000 255 0 0
-0.228643 0.118282 2.252000 255 0 0
-0.222288 0.118183 2.250000 255 0 0
-0.215846 0.118031 2.247000 255 0 0
-0.209420 0.117879 2.244000 255 0 0
-0.203010 0.117727 2.241000 255 0 0
-0.196703 0.117627 2.239000 255 0 0
-0.190321 0.117475 2.236000 255 0 0
-0.183790 0.117217 2.231000 255 0 0
-0.177286 0.116959 2.226000 255 0 0
-0.170962 0.116806 2.223000 255 0 0
-0.164654 0.116653 2.220000 255 0 0
-0.158647 0.116709 2.221000 255 0 0
-0.152703 0.116819 2.223000 255 0 0
-0.146682 0.116875 2.224000 255 0 0
-0.140591 0.116879 2.224000 255 0 0
-0.134439 0.116830 2.223000 255 0 0
-0.128292 0.116781 2.222000 255 0 0
-0.122260 0.116837 2.223000 255 0 0
-0.116274 0.116945 2.225000 255 0 0
-0.110326 0.117106 2.228000 255 0 0
-0.104315 0.117214 2.230000 255 0 0
-0.098292 0.117322 2.232000 255 0 0
-0.092216 0.117377 2.233000 255 0 0
-0.086212 0.117537 2.236000 255 0 0
-0.080120 0.117592 2.237000 255 0 0
-0.074021 0.117647 2.238000 255 0 0
-0.067856 0.117596 2.237000 255 0 0
-0.061669 0.117493 2.235000 255 0 0
-0.055567 0.117547 2.236000 255 0 0
-0.049459 0.117601 2.237000 255 0 0
-0.043384 0.117760 2.240000 255 0 0
-0.037276 0.117866 2.242000 255 0 0
-0.031157 0.117972 2.244000 255 0 0
-0.025060 0.118236 2.249000 255 0 0
-0.018910 0.118342 2.251000 255 0 0
-0.012750 0.118447 2.253000 255 0 0
-0.006581 0.118605 2.256000 255 0 0
-0.000395 0.118658 2.257000 255 0 0
0.005796 0.118710 2.258000 255 0 0
0.011981 0.118658 2.257000 255 0 0
0.018202 0.118867 2.261000 255 0 0
0.024445 0.119077 2.265000 255 0 0
0.030722 0.119339 2.270000 255 0 0
0.036979 0.119443 2.272000 255 0 0
0.043246 0.119548 2.274000 255 0 0
0.049763 0.120230 2.287000 255 0 0
0.085223 0.126319 2.403000 255 0 0
0.089976 0.123793 2.355000 255 0 0
0.096020 0.123265 2.345000 255 0 0
0.102403 0.123210 2.344000 255 0 0
0.108780 0.123154 2.343000 255 0 0
0.115249 0.123204 2.344000 255 0 0
0.121620 0.123148 2.343000 255 0 0
-0.191410 -0.089326 2.482980 255 255 0
-0.184159 -0.090348 2.474473 255 255 0
-0.164585 -0.091057 2.460815 255 255 0
-0.099426 -0.091240 2.425231 255 255 0
-0.075410 -0.087738 2.428319 255 255 0
-0.048911 -0.083542 2.433234 255 255 0
-0.037606 -0.083365 2.428008 255 255 0
0.001418 -0.075753 2.441754 255 255 0
0.001744 -0.078476 2.429214 255 255 0
0.001238 -0.081428 2.416077 255 255 0
0.008281 -0.082346 2.408144 255 255 0
0.039587 -0.076683 2.417157 255 255 0
0.046589 -0.077581 2.409340 255 255 0
0.032706 -0.084168 2.386828 255 255 0
0.028036 -0.088264 2.370715 255 255 0
0.000052 -0.098770 2.337931 255 255 0
0.007929 -0.099460 2.330589 255 255 0
-0.241747 -0.136004 2.401950 0 255 0
-0.226873 -0.137804 2.404006 0 255 0
-0.233249 -0.132574 2.420510 0 255 0
-0.229004 -0.127739 2.441948 0 255 0
-0.212381 -0.130067 2.443012 0 255 0
-0.211957 -0.127086 2.454889 0 255 0
-0.191882 -0.130500 2.453816 0 255 0
-0.195727 -0.126126 2.468520 0 255 0
-0.182462 -0.127298 2.472037 0 255 0
-0.168323 -0.128733 2.475059 0 255 0
-0.105653 -0.142570 2.459315 0 255 0
-0.062217 -0.153281 2.444034 0 255 0
-0.354991 0.109231 2.197000 255 0 0
-0.349799 0.109487 2.202000 255 0 0
-0.343955 0.109545 2.203000 255 0 0
-0.337337 0.109353 2.199000 255 0 0
-0.331192 0.109311 2.198000 255 0 0
-0.325348 0.109368 2.199000 255 0 0
-0.320223 0.109674 2.205000 255 0 0
-0.315919 0.110278 2.217000 255 0 0
-0.312107 0.111081 2.233000 255 0 0
-0.314785 0.114272 2.297000 255 0 0
-0.294818 0.113846 2.288000 255 0 0
-0.288571 0.113852 2.288000 255 0 0
-0.282200 0.113809 2.287000 255 0 0
-0.275954 0.113816 2.287000 255 0 0
-0.269117 0.113574 2.282000 255 0 0
-0.262306 0.113331 2.277000 255 0 0
-0.255409 0.113039 2.271000 255 0 0
-0.249093 0.112995 2.270000 255 0 0
-0.242354 0.112752 2.265000 255 0 0
-0.235953 0.112658 2.263000 255 0 0
-0.229360 0.112465 2.259000 255 0 0
-0.223084 0.112421 2.258000 255 0 0
-0.216428 0.112177 2.253000 255 0 0
-0.209986 0.112033 2.250000 255 0 0
-0.203468 0.111839 2.246000 255 0 0
-0.197235 0.111794 2.245000 255 0 0
-0.190837 0.111649 2.242000 255 0 0
-0.184372 0.111455 2.238000 255 0 0
-0.177928 0.111260 2.234000 255 0 0
-0.171505 0.111065 2.230000 255 0 0
-0.165252 0.110970 2.228000 255 0 0
-0.159009 0.110874 2.226000 255 0 0
-0.152913 0.110878 2.226000 255 0 0
-0.146817 0.110882 2.226000 255 0 0
-0.140847 0.110985 2.228000 255 0 0
-0.134805 0.111039 2.229000 255 0 0
-0.128699 0.111042 2.229000 255 0 0
-0.122538 0.110996 2.228000 255 0 0
-0.116382 0.110949 2.227000 255 0 0
-0.110478 0.111151 2.231000 255 0 0
-0.104458 0.111253 2.233000 255 0 0
-0.098427 0.111356 2.235000 255 0 0
-0.092260 0.111308 2.234000 255 0 0
-0.086176 0.111360 2.235000 255 0 0
-0.080050 0.111363 2.235000 255 0 0
-0.074023 0.111514 2.238000 255 0 0
-0.067858 0.111466 2.237000 255 0 0
-0.061670 0.111368 2.235000 255 0 0
-0.055518 0.111320 2.234000 255 0 0
-0.049438 0.111421 2.236000 255 0 0
-0.043405 0.111671 2.241000 255 0 0
-0.037310 0.111822 2.244000 255 0 0
-0.031185 0.111922 2.246000 255 0 0
-0.025072 0.112122 2.250000 255 0 0
-0.018919 0.112223 2.252000 255 0 0
-0.012756 0.112323 2.254000 255 0 0
-0.006578 0.112373 2.255000 255 0 0
-0.000395 0.112423 2.256000 255 0 0
0.005793 0.112472 2.257000 255 0 0
0.011982 0.112472 2.257000 255 0 0
0.018194 0.112621 2.260000 255 0 0
0.024424 0.112770 2.263000 255 0 0
0.030655 0.112869 2.265000 255 0 0
0.036915 0.113018 2.268000 255 0 0
0.043133 0.113017 2.268000 255 0 0
0.049634 0.113663 2.281000 255 0 0
0.084977 0.119385 2.396000 255 0 0
0.089940 0.117290 2.354000 255 0 0
0.096105 0.116939 2.347000 255 0 0
0.102493 0.116886 2.346000 255 0 0
0.108829 0.116784 2.344000 255 0 0
0.115252 0.116781 2.344000 255 0 0
-0.158444 -0.101025 2.466170 255 255 0
-0.172435 -0.107610 2.443994 255 255 0
-0.054165 -0.093417 2.443892 255 255 0
-0.036118 -0.091407 2.443169 255 255 0
-0.013897 -0.088246 2.445385 255 255 0
-0.009358 -0.089846 2.435680 255 255 0
0.011123 -0.087110 2.436916 255 255 0
0.008097 -0.090756 2.422070 255 255 0
0.012620 -0.092348 2.412409 255 255 0
0.036380 -0.088661 2.416162 255 255 0
0.043386 -0.089550 2.408327 255 255 0
0.028682 -0.096425 2.385225 255 255 0
0.007348 -0.105165 2.357291 255 255 0
0.001059 -0.109769 2.339880 255 255 0
0.014758 -0.108824 2.336701 255 255 0
0.020126 -0.110189 2.327604 255 255 0
-0.243472 -0.149557 2.392248 0 255 0
-0.248136 -0.144862 2.407618 0 255 0
-0.240069 -0.144431 2.414287 0 255 0
-0.230292 -0.144561 2.419837 0 255 0
-0.230717 -0.141290 2.432288 0 255 0
-0.227741 -0.139152 2.442442 0 255 0
-0.215387 -0.140111 2.446360 0 255 0
-0.208989 -0.139090 2.454284 0 255 0
-0.206856 -0.136663 2.465035 0 255 0
-0.189338 -0.139277 2.465716 0 255 0
-0.182061 -0.138518 2.473164 0 255 0
-0.176490 -0.137197 2.481743 0 255 0
-0.174342 -0.134758 2.492545 0 255 0
-0.113866 -0.151213 2.466010 0 255 0
-0.353705 0.102847 2.189000 255 0 0
-0.349807 0.103465 2.202000 255 0 0
-0.343963 0.103519 2.203000 255 0 0
-0.337498 0.103385 2.200000 255 0 0
-0.331200 0.103299 2.198000 255 0 0
-0.325355 0.103353 2.199000 255 0 0
-0.320230 0.103642 2.205000 255 0 0
-0.315926 0.104212 2.217000 255 0 0
-0.312114 0.104971 2.233000 255 0 0
-0.294567 0.107490 2.286000 255 0 0
-0.288325 0.107496 2.286000 255 0 0
-0.282700 0.107738 2.291000 255 0 0
-0.276684 0.107838 2.293000 255 0 0
-0.269830 0.107609 2.288000 255 0 0
-0.262658 0.107239 2.280000 255 0 0
-0.255640 0.106915 2.273000 255 0 0
-0.249099 0.106780 2.270000 255 0 0
-0.242252 0.106503 2.264000 255 0 0
-0.235855 0.106415 2.262000 255 0 0
-0.229467 0.106326 2.260000 255 0 0
-0.223188 0.106284 2.259000 255 0 0
-0.216529 0.106054 2.254000 255 0 0
-0.209991 0.105871 2.250000 255 0 0
-0.203473 0.105688 2.246000 255 0 0
-0.197328 0.105692 2.246000 255 0 0
-0.191097 0.105650 2.245000 255 0 0
-0.184788 0.105560 2.243000 255 0 0
-0.178569 0.105517 2.242000 255 0 0
-0.172278 0.105427 2.240000 255 0 0
-0.166072 0.105384 2.239000 255 0 0
-0.159798 0.105294 2.237000 255 0 0
-0.153535 0.105204 2.235000 255 0 0
-0.147415 0.105207 2.235000 255 0 0
-0.141357 0.105258 2.236000 255 0 0
-0.135292 0.105308 2.237000 255 0 0
-0.129107 0.105264 2.236000 255 0 0
-0.122926 0.105220 2.235000 255 0 0
-0.116698 0.105129 2.233000 255 0 0
-0.110629 0.105179 2.234000 255 0 0
-0.104507 0.105182 2.234000 255 0 0
-0.098473 0.105278 2.236000 255 0 0
-0.092428 0.105375 2.238000 255 0 0
-0.086332 0.105424 2.239000 255 0 0
-0.080160 0.105379 2.238000 255 0 0
-0.073992 0.105334 2.237000 255 0 0
-0.067829 0.105288 2.236000 255 0 0
-0.061672 0.105243 2.235000 255 0 0
-0.055619 0.105386 2.238000 255 0 0
-0.049550 0.105528 2.241000 255 0 0
-0.043502 0.105765 2.246000 255 0 0
-0.037361 0.105813 2.247000 255 0 0
-0.031214 0.105861 2.248000 255 0 0
-0.025061 0.105908 2.249000 255 0 0
-0.018903 0.105956 2.250000 255 0 0
-0.012745 0.106051 2.252000 255 0 0
-0.006573 0.106098 2.253000 255 0 0
-0.000395 0.106192 2.255000 255 0 0
0.005791 0.106239 2.256000 255 0 0
0.011982 0.106286 2.257000 255 0 0
0.018203 0.106474 2.261000 255 0 0
0.024424 0.106568 2.263000 255 0 0
0.030643 0.106614 2.264000 255 0 0
0.036834 0.106566 2.263000 255 0 0
0.043134 0.106801 2.268000 255 0 0
0.049526 0.107176 2.276000 255 0 0
0.056134 0.107881 2.291000 255 0 0
0.085369 0.113337 2.407000 255 0 0
0.089980 0.110886 2.355000 255 0 0
0.096189 0.110601 2.349000 255 0 0
0.102583 0.110552 2.348000 255 0 0
0.108971 0.110502 2.347000 255 0 0
0.115305 0.110405 2.345000 255 0 0
-0.046420 -0.102639 2.450400 255 255 0
-0.040166 -0.103792 2.441742 255 255 0
-0.042324 -0.107241 2.427403 255 255 0
-0.016762 -0.103096 2.431915 255 255 0
-0.010538 -0.104235 2.423339 255 255 0
-0.006834 -0.106064 2.413046 255 255 0
0.000218 -0.106966 2.405074 255 255 0
0.009770 -0.107169 2.398869 255 255 0
0.016804 -0.108062 2.390946 255 255 0
0.011317 -0.112446 2.374235 255 255 0
0.015017 -0.114272 2.363956 255 255 0
0.016218 -0.116799 2.351902 255 255 0
0.025740 -0.116986 2.345781 255 255 0
-0.256214 -0.153120 2.414437 0 255 0
-0.245609 -0.153568 2.419363 0 255 0
-0.244338 -0.150863 2.430646 0 255 0
-0.227761 -0.153295 2.431636 0 255 0
-0.215416 -0.154285 2.435550 0 255 0
-0.201351 -0.155832 2.438387 0 255 0
-0.207733 -0.150559 2.454814 0 255 0
-0.199623 -0.150109 2.461648 0 255 0
-0.182960 -0.152478 2.462928 0 255 0
-0.169693 -0.153702 2.466512 0 255 0
-0.164967 -0.152098 2.475691 0 255 0
-0.146075 -0.151968 2.488047 0 255 0
-0.353874 0.096905 2.190000 255 0 0
-0.349496 0.097354 2.200000 255 0 0
-0.343814 0.097449 2.202000 255 0 0
-0.337659 0.097412 2.201000 255 0 0
-0.331056 0.097241 2.197000 255 0 0
-0.325362 0.097337 2.199000 255 0 0
-0.320091 0.097564 2.204000 255 0 0
-0.315790 0.098102 2.216000 255 0 0
-0.302919 0.101935 2.302000 255 0 0
-0.294444 0.101189 2.285000 255 0 0
-0.288332 0.101239 2.286000 255 0 0
-0.282582 0.101422 2.290000 255 0 0
-0.276449 0.101473 2.291000 255 0 0
-0.269718 0.101301 2.287000 255 0 0
-0.262894 0.101085 2.282000 255 0 0
-0.255983 0.100825 2.276000 255 0 0
-0.249105 0.100565 2.270000 255 0 0
-0.242151 0.100260 2.263000 255 0 0
-0.235756 0.100177 2.261000 255 0 0
-0.229472 0.100137 2.260000 255 0 0
-0.223193 0.100098 2.259000 255 0 0
-0.216342 0.099793 2.252000 255 0 0
-0.209809 0.099620 2.248000 255 0 0
-0.203387 0.099492 2.245000 255 0 0
-0.197244 0.099496 2.245000 255 0 0
-0.191186 0.099545 2.246000 255 0 0
-0.184875 0.099460 2.244000 255 0 0
-0.178733 0.099464 2.244000 255 0 0
-0.172436 0.099380 2.242000 255 0 0
-0.166298 0.099383 2.242000 255 0 0
-0.160016 0.099298 2.240000 255 0 0
-0.153814 0.099258 2.239000 255 0 0
-0.147616 0.099217 2.238000 255 0 0
-0.141486 0.099220 2.238000 255 0 0
-0.135417 0.099267 2.239000 255 0 0
-0.129225 0.099226 2.238000 255 0 0
-0.123039 0.099185 2.237000 255 0 0
-0.116858 0.099143 2.236000 255 0 0
-0.110830 0.099234 2.238000 255 0 0
-0.104790 0.099325 2.240000 255 0 0
-0.098564 0.099239 2.238000 255 0 0
-0.092389 0.099197 2.237000 255 0 0
-0.086142 0.099066 2.234000 255 0 0
-0.080018 0.099068 2.234000 255 0 0
-0.073894 0.099070 2.234000 255 0 0
-0.067801 0.099116 2.235000 255 0 0
-0.061673 0.099117 2.235000 255 0 0
-0.055645 0.099296 2.239000 255 0 0
-0.049551 0.099386 2.241000 255 0 0
-0.043504 0.099609 2.246000 255 0 0
-0.037329 0.099565 2.245000 255 0 0
-0.031201 0.099655 2.247000 255 0 0
-0.025040 0.099655 2.247000 255 0 0
-0.018895 0.099745 2.249000 255 0 0
-0.012739 0.099834 2.251000 255 0 0
-0.006573 0.099923 2.253000 255 0 0
-0.000395 0.100056 2.256000 255 0 0
0.005793 0.100100 2.257000 255 0 0
0.011993 0.100189 2.259000 255 0 0
0.018220 0.100366 2.263000 255 0 0
0.024436 0.100409 2.264000 255 0 0
0.030643 0.100409 2.264000 255 0 0
0.036835 0.100364 2.263000 255 0 0
0.043135 0.100584 2.268000 255 0 0
0.049440 0.100761 2.272000 255 0 0
0.055841 0.101070 2.279000 255 0 0
0.084698 0.105897 2.388000 255 0 0
0.090059 0.104521 2.357000 255 0 0
0.096314 0.104297 2.352000 255 0 0
0.102629 0.104161 2.349000 255 0 0
0.108974 0.104070 2.347000 255 0 0
0.115307 0.103979 2.345000 255 0 0
-0.181856 -0.124627 2.480182 255 255 0
-0.170776 -0.127509 2.461012 255 255 0
-0.163548 -0.128488 2.452541 255 255 0
-0.061869 -0.121086 2.428425 255 255 0
-0.056438 -0.122473 2.419143 255 255 0
-0.045976 -0.122460 2.413301 255 255 0
-0.033014 -0.121739 2.409223 255 255 0
-0.027609 -0.123113 2.400011 255 255 0
-0.012170 -0.121674 2.397760 255 255 0
-0.010961 -0.124211 2.385692 255 255 0
-0.004739 -0.125340 2.377115 255 255 0
0.011482 -0.123640 2.375594 255 255 0
0.026010 -0.122398 2.372971 255 255 0
0.024707 -0.125637 2.359170 255 255 0
0.053333 -0.120352 2.366734 255 255 0
-0.234210 -0.174773 2.388507 0 255 0
-0.223592 -0.175233 2.393499 0 255 0
-0.241384 -0.162861 2.429976 0 255 0
-0.235860 -0.161589 2.438408 0 255 0
-0.218423 -0.164336 2.438905 0 255 0
-0.204365 -0.165918 2.441748 0 255 0
-0.198811 -0.164624 2.450285 0 255 0
-0.194959 -0.162755 2.459958 0 255 0
-0.186837 -0.162310 2.466847 0 255 0
-0.170161 -0.164705 2.468214 0 255 0
-0.160302 -0.164811 2.474082 0 255 0
-0.161560 -0.161222 2.487144 0 255 0
-0.149117 -0.162165 2.491418 0 255 0
-0.353881 0.090915 2.190000 255 0 0
-0.349662 0.091378 2.201000 255 0 0
-0.343820 0.091426 2.202000 255 0 0
-0.337205 0.091266 2.198000 255 0 0
-0.330761 0.091148 2.195000 255 0 0
-0.324924 0.091196 2.196000 255 0 0
-0.319952 0.091493 2.203000 255 0 0
-0.315511 0.091955 2.214000 255 0 0
-0.311987 0.092709 2.232000 255 0 0
-0.305162 0.096341 2.319000 255 0 0
-0.295223 0.095184 2.291000 255 0 0
-0.288590 0.095065 2.288000 255 0 0
-0.282465 0.095112 2.289000 255 0 0
-0.276575 0.095242 2.292000 255 0 0
-0.270078 0.095165 2.290000 255 0 0
-0.263245 0.094962 2.285000 255 0 0
-0.256551 0.094801 2.281000 255 0 0
-0.249549 0.094515 2.274000 255 0 0
-0.242477 0.094188 2.266000 255 0 0
-0.235865 0.094026 2.262000 255 0 0
-0.229375 0.093906 2.259000 255 0 0
-0.223099 0.093870 2.258000 255 0 0
-0.216443 0.093666 2.253000 255 0 0
-0.210000 0.093546 2.250000 255 0 0
-0.203573 0.093425 2.247000 255 0 0
-0.197512 0.093471 2.248000 255 0 0
-0.191446 0.093517 2.249000 255 0 0
-0.185126 0.093438 2.247000 255 0 0
-0.178896 0.093400 2.246000 255 0 0
-0.172670 0.093362 2.245000 255 0 0
-0.166524 0.093366 2.245000 255 0 0
-0.160234 0.093286 2.243000 255 0 0
-0.154023 0.093248 2.242000 255 0 0
-0.147883 0.093251 2.242000 255 0 0
-0.141679 0.093212 2.241000 255 0 0
-0.135540 0.093215 2.241000 255 0 0
-0.129344 0.093176 2.240000 255 0 0
-0.123152 0.093138 2.239000 255 0 0
-0.117069 0.093182 2.240000 255 0 0
-0.110931 0.093184 2.240000 255 0 0
-0.104793 0.093186 2.240000 255 0 0
-0.098434 0.092981 2.235000 255 0 0
-0.092267 0.092941 2.234000 255 0 0
-0.086066 0.092860 2.232000 255 0 0
-0.080020 0.092945 2.234000 255 0 0
-0.073896 0.092947 2.234000 255 0 0
-0.067832 0.093031 2.236000 255 0 0
-0.061785 0.093157 2.239000 255 0 0
-0.055721 0.093284 2.242000 255 0 0
-0.049618 0.093368 2.244000 255 0 0
-0.043505 0.093452 2.246000 255 0 0
-0.037346 0.093453 2.246000 255 0 0
-0.031202 0.093495 2.247000 255 0 0
-0.025040 0.093496 2.247000 255 0 0
-0.018895 0.093580 2.249000 255 0 0
-0.012740 0.093663 2.251000 255 0 0
-0.006573 0.093747 2.253000 255 0 0
-0.000395 0.093788 2.254000 255 0 0
0.005788 0.093830 2.255000 255 0 0
0.011988 0.093955 2.258000 255 0 0
0.018220 0.094162 2.263000 255 0 0
0.024447 0.094245 2.265000 255 0 0
0.030658 0.094244 2.265000 255 0 0
0.036901 0.094327 2.267000 255 0 0
0.043231 0.094576 2.273000 255 0 0
0.049485 0.094616 2.274000 255 0 0
0.055744 0.094657 2.275000 255 0 0
0.062090 0.094822 2.279000 255 0 0
0.069358 0.096235 2.313000 255 0 0
0.084061 0.098603 2.370000 255 0 0
0.090099 0.098102 2.358000 255 0 0
0.096357 0.097892 2.353000 255 0 0
0.102675 0.097765 2.350000 255 0 0
0.109116 0.097763 2.350000 255 0 0
0.115556 0.097760 2.350000 255 0 0
0.121891 0.097675 2.348000 255 0 0
-0.214415 -0.142134 2.474109 255 255 0
-0.185901 -0.137372 2.479025 255 255 0
-0.178656 -0.138350 2.470502 255 255 0
-0.179049 -0.141403 2.457087 255 255 0
-0.069257 -0.134538 2.424767 255 255 0
-0.063817 -0.135923 2.415455 255 255 0
-0.060059 -0.137778 2.405012 255 255 0
-0.043734 -0.136092 2.403173 255 255 0
-0.032458 -0.135812 2.397955 255 255 0
-0.013674 -0.133391 2.397990 255 255 0
-0.002439 -0.133090 2.392887 255 255 0
0.001271 -0.134920 2.382577 255 255 0
0.026648 -0.130558 2.387507 255 255 0
0.036161 -0.130705 2.381384 255 255 0
0.044830 -0.131086 2.374706 255 255 0
0.055149 -0.130981 2.369246 255 255 0
-0.242290 -0.183056 2.395353 0 255 0
-0.236766 -0.181791 2.403798 0 255 0
-0.234629 -0.179358 2.414557 0 255 0
-0.246074 -0.172271 2.434466 0 255 0
-0.244803 -0.169557 2.445742 0 255 0
-0.232481 -0.170614 2.449633 0 255 0
-0.206528 -0.176287 2.444544 0 255 0
-0.185645 -0.180199 2.442965 0 255 0
-0.187747 -0.176307 2.456601 0 255 0
-0.199244 -0.169255 2.476335 0 255 0
-0.183439 -0.171411 2.478236 0 255 0
-0.146630 -0.177392 2.478971 0 255 0
-0.124761 -0.181495 2.477288 0 255 0
-0.353887 0.084925 2.190000 255 0 0
-0.349350 0.085280 2.199000 255 0 0
-0.343514 0.085325 2.200000 255 0 0
-0.337058 0.085214 2.197000 255 0 0
-0.330616 0.085104 2.194000 255 0 0
-0.324634 0.085110 2.194000 255 0 0
-0.319377 0.085309 2.199000 255 0 0
-0.314947 0.085742 2.210000 255 0 0
-0.311154 0.086368 2.226000 255 0 0
-0.306862 0.086878 2.239000 255 0 0
-0.303984 0.089644 2.310000 255 0 0
-0.294714 0.088757 2.287000 255 0 0
-0.288469 0.088763 2.287000 255 0 0
-0.282224 0.088768 2.287000 255 0 0
-0.276339 0.088890 2.290000 255 0 0
-0.269847 0.088817 2.288000 255 0 0
-0.263250 0.088706 2.285000 255 0 0
-0.256669 0.088594 2.282000 255 0 0
-0.249883 0.088405 2.277000 255 0 0
-0.242910 0.088138 2.270000 255 0 0
-0.236182 0.087948 2.265000 255 0 0
-0.229583 0.087797 2.261000 255 0 0
-0.223202 0.087724 2.259000 255 0 0
-0.216639 0.087573 2.255000 255 0 0
-0.210191 0.087460 2.252000 255 0 0
-0.203848 0.087387 2.250000 255 0 0
-0.197604 0.087352 2.249000 255 0 0
-0.191365 0.087317 2.248000 255 0 0
-0.185130 0.087282 2.247000 255 0 0
-0.178899 0.087246 2.246000 255 0 0
-0.172597 0.087172 2.244000 255 0 0
-0.166231 0.087059 2.241000 255 0 0
-0.160023 0.087023 2.240000 255 0 0
-0.153889 0.087026 2.240000 255 0 0
-0.147886 0.087107 2.242000 255 0 0
-0.141745 0.087110 2.242000 255 0 0
-0.135422 0.086996 2.239000 255 0 0
-0.129231 0.086960 2.238000 255 0 0
-0.122989 0.086885 2.236000 255 0 0
-0.116967 0.086965 2.238000 255 0 0
-0.110785 0.086928 2.237000 255 0 0
-0.104701 0.086969 2.238000 255 0 0
-0.098304 0.086738 2.232000 255 0 0
-0.092145 0.086701 2.231000 255 0 0
-0.085991 0.086664 2.230000 255 0 0
-0.079986 0.086783 2.233000 255 0 0
-0.073931 0.086862 2.235000 255 0 0
-0.067864 0.086941 2.237000 255 0 0
-0.061759 0.086981 2.238000 255 0 0
-0.055673 0.087060 2.240000 255 0 0
-0.049597 0.087178 2.243000 255 0 0
-0.043505 0.087295 2.246000 255 0 0
-0.037347 0.087296 2.246000 255 0 0
-0.031188 0.087297 2.246000 255 0 0
-0.025030 0.087297 2.246000 255 0 0
-0.018896 0.087414 2.249000 255 0 0
-0.012740 0.087493 2.251000 255 0 0
-0.006573 0.087570 2.253000 255 0 0
-0.000395 0.087532 2.252000 255 0 0
0.005789 0.087648 2.255000 255 0 0
0.011978 0.087687 2.256000 255 0 0
0.018196 0.087842 2.260000 255 0 0
0.024426 0.087958 2.263000 255 0 0
0.030672 0.088074 2.266000 255 0 0
0.036918 0.088151 2.268000 255 0 0
0.043194 0.088267 2.271000 255 0 0
0.049442 0.088305 2.272000 255 0 0
0.055598 0.088187 2.269000 255 0 0
0.061874 0.088264 2.271000 255 0 0
0.068490 0.088768 2.284000 255 0 0
0.090139 0.091678 2.359000 255 0 0
0.096441 0.091520 2.355000 255 0 0
0.102677 0.091324 2.350000 255 0 0
0.109025 0.091244 2.348000 255 0 0
0.115411 0.091203 2.347000 255 0 0
0.121842 0.091201 2.347000 255 0 0
0.126524 0.089955 2.315000 255 0 0
-0.199280 -0.152715 2.471934 255 255 0
-0.191173 -0.153456 2.463906 255 255 0
-0.165281 -0.149285 2.467358 255 255 0
-0.069474 -0.143110 2.438920 255 255 0
-0.058154 -0.142829 2.433563 255 255 0
-0.066152 -0.148006 2.415190 255 255 0
-0.059036 -0.148909 2.407016 255 255 0
-0.046904 -0.148377 2.402301 255 255 0
-0.028098 -0.145924 2.402241 255 255 0
-0.020188 -0.146567 2.394759 255 255 0
0.013588 -0.139768 2.405297 255 255 0
0.026454 -0.138946 2.401443 255 255 0
-0.004009 -0.150636 2.367198 255 255 0
0.031327 -0.143303 2.379202 255 255 0
0.044156 -0.142462 2.375452 255 255 0
0.043681 -0.145485 2.362270 255 255 0
-0.260513 -0.187761 2.409141 0 255 0
-0.258815 -0.182032 2.432268 0 255 0
-0.264333 -0.176970 2.448098 0 255 0
-0.273262 -0.170747 2.466154 0 255 0
-0.260119 -0.172141 2.469407 0 255 0
-0.186967 -0.190915 2.445214 0 255 0
-0.188214 -0.187298 2.458290 0 255 0
-0.193731 -0.182234 2.474122 0 255 0
-0.184755 -0.182107 2.480488 0 255 0
-0.156978 -0.188334 2.474761 0 255 0
-0.141127 -0.190489 2.476863 0 255 0
-0.353247 0.078790 2.186000 255 0 0
-0.349197 0.079229 2.198000 255 0 0
-0.343520 0.079306 2.200000 255 0 0
-0.337370 0.079276 2.199000 255 0 0
-0.330923 0.079173 2.196000 255 0 0
-0.324788 0.079142 2.195000 255 0 0
-0.319237 0.079256 2.198000 255 0 0
-0.314667 0.079622 2.208000 255 0 0
-0.310880 0.080204 2.224000 255 0 0
-0.310431 0.081688 2.265000 255 0 0
-0.300041 0.082239 2.280000 255 0 0
-0.294461 0.082425 2.285000 255 0 0
-0.288222 0.082430 2.285000 255 0 0
-0.282475 0.082579 2.289000 255 0 0
-0.276706 0.082728 2.293000 255 0 0
-0.270206 0.082661 2.291000 255 0 0
-0.263370 0.082485 2.286000 255 0 0
-0.256673 0.082345 2.282000 255 0 0
-0.249888 0.082169 2.277000 255 0 0
-0.243128 0.081993 2.272000 255 0 0
-0.236187 0.081745 2.265000 255 0 0
-0.229790 0.081677 2.263000 255 0 0
-0.223404 0.081609 2.261000 255 0 0
-0.217124 0.081576 2.260000 255 0 0
-0.210661 0.081472 2.257000 255 0 0
-0.204124 0.081331 2.253000 255 0 0
-0.197696 0.081227 2.250000 255 0 0
-0.191283 0.081122 2.247000 255 0 0
-0.185051 0.081089 2.246000 255 0 0
-0.178903 0.081092 2.246000 255 0 0
-0.172600 0.081024 2.244000 255 0 0
-0.166160 0.080882 2.240000 255 0 0
-0.159812 0.080777 2.237000 255 0 0
-0.153617 0.080744 2.236000 255 0 0
-0.147559 0.080783 2.237000 255 0 0
-0.141432 0.080785 2.237000 255 0 0
-0.135243 0.080752 2.236000 255 0 0
-0.129002 0.080682 2.234000 255 0 0
-0.122937 0.080720 2.235000 255 0 0
-0.116917 0.080795 2.237000 255 0 0
-0.110738 0.080761 2.236000 255 0 0
-0.104516 0.080691 2.234000 255 0 0
-0.098261 0.080584 2.231000 255 0 0
-0.092188 0.080622 2.232000 255 0 0
-0.086108 0.080660 2.233000 255 0 0
-0.080059 0.080734 2.235000 255 0 0
-0.073932 0.080735 2.235000 255 0 0
-0.067866 0.080809 2.237000 255 0 0
-0.061760 0.080846 2.238000 255 0 0
-0.055674 0.080919 2.240000 255 0 0
-0.049598 0.081029 2.243000 255 0 0
-0.043487 0.081102 2.245000 255 0 0
-0.037314 0.081067 2.244000 255 0 0
-0.031147 0.081031 2.243000 255 0 0
-0.025019 0.081104 2.245000 255 0 0
-0.018896 0.081249 2.249000 255 0 0
-0.012740 0.081321 2.251000 255 0 0
-0.006570 0.081358 2.252000 255 0 0
-0.000394 0.081213 2.248000 255 0 0
0.005784 0.081394 2.253000 255 0 0
0.011967 0.081430 2.254000 255 0 0
0.018172 0.081538 2.257000 255 0 0
0.024394 0.081646 2.260000 255 0 0
0.030618 0.081718 2.262000 255 0 0
0.036854 0.081789 2.264000 255 0 0
0.043100 0.081861 2.266000 255 0 0
0.049400 0.082004 2.270000 255 0 0
0.055648 0.082039 2.271000 255 0 0
0.061875 0.082038 2.271000 255 0 0
0.068431 0.082434 2.282000 255 0 0
0.076226 0.084131 2.329000 255 0 0
0.084277 0.085827 2.376000 255 0 0
0.090103 0.085175 2.358000 255 0 0
0.096402 0.085029 2.354000 255 0 0
0.102723 0.084919 2.351000 255 0 0
0.109074 0.084845 2.349000 255 0 0
0.115511 0.084843 2.349000 255 0 0
0.121740 0.084696 2.345000 255 0 0
-0.203307 -0.165563 2.470803 255 255 0
-0.189262 -0.164642 2.466550 255 255 0
-0.159148 -0.159221 2.472709 255 255 0
-0.063410 -0.152809 2.444306 255 255 0
-0.068052 -0.157059 2.428225 255 255 0
-0.065128 -0.159154 2.417201 255 255 0
-0.058851 -0.160287 2.408452 255 255 0
-0.009991 -0.154953 2.403088 255 255 0
0.006241 -0.153148 2.401452 255 255 0
0.020779 -0.151816 2.398727 255 255 0
0.009488 -0.158017 2.377938 255 255 0
0.032321 -0.154236 2.381141 255 255 0
0.040162 -0.154831 2.373843 255 255 0
-0.248280 -0.203085 2.402075 0 255 0
-0.266454 -0.193518 2.426647 0 255 0
-0.269421 -0.189317 2.440769 0 255 0
-0.279628 -0.179460 2.471744 0 255 0
-0.263100 -0.182068 2.472730 0 255 0
-0.224451 -0.192316 2.459151 0 255 0
-0.189142 -0.201342 2.448027 0 255 0
-0.193792 -0.196539 2.463333 0 255 0
-0.189081 -0.194967 2.472479 0 255 0
-0.168163 -0.198946 2.471125 0 255 0
-0.158311 -0.199110 2.477037 0 255 0
-0.353091 0.072777 2.185000 255 0 0
-0.348885 0.073149 2.196000 255 0 0
-0.343213 0.073221 2.198000 255 0 0
-0.337529 0.073293 2.200000 255 0 0
-0.330929 0.073164 2.196000 255 0 0
-0.324941 0.073169 2.196000 255 0 0
-0.318952 0.073174 2.196000 255 0 0
-0.314102 0.073446 2.204000 255 0 0
-0.310046 0.073917 2.218000 255 0 0
-0.309477 0.075255 2.258000 255 0 0
-0.294337 0.076136 2.284000 255 0 0
-0.287974 0.076107 2.283000 255 0 0
-0.282603 0.076345 2.290000 255 0 0
-0.276469 0.076383 2.291000 255 0 0
-0.269857 0.076287 2.288000 255 0 0
-0.263029 0.076125 2.283000 255 0 0
-0.256340 0.075996 2.279000 255 0 0
-0.249563 0.075833 2.274000 255 0 0
-0.242918 0.075704 2.270000 255 0 0
-0.236086 0.075508 2.264000 255 0 0
-0.229896 0.075511 2.264000 255 0 0
-0.223605 0.075482 2.263000 255 0 0
-0.217320 0.075452 2.262000 255 0 0
-0.210758 0.075322 2.258000 255 0 0
-0.204218 0.075192 2.254000 255 0 0
-0.197699 0.075062 2.250000 255 0 0
-0.191286 0.074965 2.247000 255 0 0
-0.185136 0.074969 2.247000 255 0 0
-0.178906 0.074938 2.246000 255 0 0
-0.172603 0.074875 2.244000 255 0 0
-0.166088 0.074711 2.239000 255 0 0
-0.159743 0.074613 2.236000 255 0 0
-0.153551 0.074583 2.235000 255 0 0
-0.147364 0.074552 2.234000 255 0 0
-0.141181 0.074521 2.233000 255 0 0
-0.135004 0.074490 2.232000 255 0 0
-0.128831 0.074459 2.231000 255 0 0
-0.122664 0.074428 2.230000 255 0 0
-0.116606 0.074463 2.231000 255 0 0
-0.110492 0.074465 2.231000 255 0 0
-0.104378 0.074467 2.231000 255 0 0
-0.098307 0.074502 2.232000 255 0 0
-0.092231 0.074537 2.233000 255 0 0
-0.086149 0.074572 2.234000 255 0 0
-0.080132 0.074674 2.237000 255 0 0
-0.074000 0.074675 2.237000 255 0 0
-0.067867 0.074676 2.237000 255 0 0
-0.061734 0.074677 2.237000 255 0 0
-0.055650 0.074745 2.239000 255 0 0
-0.049511 0.074746 2.239000 255 0 0
-0.043410 0.074814 2.241000 255 0 0
-0.037265 0.074814 2.241000 255 0 0
-0.031162 0.074915 2.244000 255 0 0
-0.025019 0.074949 2.245000 255 0 0
-0.018871 0.074983 2.246000 255 0 0
-0.012712 0.074983 2.246000 255 0 0
-0.006550 0.074950 2.245000 255 0 0
-0.000393 0.074950 2.245000 255 0 0
0.005776 0.075117 2.250000 255 0 0
0.011936 0.075050 2.248000 255 0 0
0.018116 0.075116 2.250000 255 0 0
0.024340 0.075283 2.255000 255 0 0
0.030592 0.075449 2.260000 255 0 0
0.036822 0.075515 2.262000 255 0 0
0.043043 0.075548 2.263000 255 0 0
0.049314 0.075647 2.266000 255 0 0
0.055625 0.075780 2.270000 255 0 0
0.061822 0.075746 2.269000 255 0 0
0.068312 0.076045 2.278000 255 0 0
0.075540 0.077045 2.308000 255 0 0
0.083782 0.078846 2.362000 255 0 0
0.089951 0.078578 2.354000 255 0 0
0.096281 0.078476 2.351000 255 0 0
0.102594 0.078374 2.348000 255 0 0
0.108936 0.078306 2.346000 255 0 0
0.115317 0.078270 2.345000 255 0 0
0.121587 0.078168 2.342000 255 0 0
0.127403 0.077799 2.331000 255 0 0
-0.199320 -0.173210 2.487974 255 255 0
-0.200543 -0.176544 2.473995 255 255 0
-0.175489 -0.172490 2.476777 255 255 0
-0.167409 -0.173192 2.468804 255 255 0
-0.148347 -0.170778 2.467964 255 255 0
-0.075839 -0.173708 2.411280 255 255 0
-0.051127 -0.169485 2.415015 255 255 0
-0.039845 -0.169140 2.409728 255 255 0
-0.024402 -0.167566 2.407359 255 255 0
-0.012323 -0.166958 2.402753 255 255 0
-0.008600 -0.168792 2.392407 255 255 0
0.000119 -0.169153 2.385552 255 255 0
0.018812 -0.166555 2.385740 255 255 0
0.032485 -0.165420 2.382497 255 255 0
0.038664 -0.166497 2.374012 255 255 0
-0.240684 -0.213651 2.410426 0 255 0
-0.263936 -0.202235 2.438373 0 255 0
-0.260972 -0.200110 2.448484 0 255 0
-0.246140 -0.202158 2.450648 0 255 0
-0.243167 -0.200025 2.460794 0 255 0
-0.257181 -0.191951 2.482191 0 255 0
-0.181497 -0.211975 2.456661 0 255 0
-0.192955 -0.204786 2.476398 0 255 0
-0.175459 -0.207642 2.477263 0 255 0
-0.128438 -0.217412 2.471591 0 255 0
-0.354388 0.067045 2.193000 255 0 0
-0.349367 0.067233 2.199000 255 0 0
-0.343530 0.067269 2.200000 255 0 0
-0.337687 0.067304 2.201000 255 0 0
-0.331235 0.067217 2.198000 255 0 0
-0.325242 0.067221 2.198000 255 0 0
-0.319247 0.067226 2.198000 255 0 0
-0.314107 0.067414 2.204000 255 0 0
-0.309911 0.067816 2.217000 255 0 0
-0.307014 0.068524 2.240000 255 0 0
-0.296532 0.070403 2.301000 255 0 0
-0.289114 0.070132 2.292000 255 0 0
-0.283225 0.070228 2.295000 255 0 0
-0.276594 0.070140 2.292000 255 0 0
-0.270097 0.070083 2.290000 255 0 0
-0.263148 0.069904 2.284000 255 0 0
-0.256569 0.069816 2.281000 255 0 0
-0.249676 0.069636 2.275000 255 0 0
-0.243029 0.069517 2.271000 255 0 0
-0.236299 0.069368 2.266000 255 0 0
-0.230103 0.069371 2.266000 255 0 0
-0.223708 0.069313 2.264000 255 0 0
-0.217515 0.069317 2.264000 255 0 0
-0.210948 0.069197 2.260000 255 0 0
-0.204312 0.069048 2.255000 255 0 0
-0.197790 0.068928 2.251000 255 0 0
-0.191289 0.068809 2.247000 255 0 0
-0.185057 0.068781 2.246000 255 0 0
-0.178829 0.068753 2.245000 255 0 0
-0.172606 0.068725 2.244000 255 0 0
-0.166240 0.068636 2.241000 255 0 0
-0.159889 0.068547 2.238000 255 0 0
-0.153485 0.068427 2.234000 255 0 0
-0.147168 0.068337 2.231000 255 0 0
-0.140994 0.068309 2.230000 255 0 0
-0.134885 0.068311 2.230000 255 0 0
-0.128776 0.068313 2.230000 255 0 0
-0.122666 0.068315 2.230000 255 0 0
-0.116555 0.068317 2.230000 255 0 0
-0.110494 0.068349 2.231000 255 0 0
-0.104426 0.068382 2.232000 255 0 0
-0.098441 0.068475 2.235000 255 0 0
-0.092398 0.068538 2.237000 255 0 0
-0.086343 0.068601 2.239000 255 0 0
-0.080241 0.068633 2.240000 255 0 0
-0.074100 0.068634 2.240000 255 0 0
-0.067959 0.068635 2.240000 255 0 0
-0.061790 0.068606 2.239000 255 0 0
-0.055676 0.068637 2.240000 255 0 0
-0.049490 0.068577 2.238000 255 0 0
-0.043372 0.068608 2.239000 255 0 0
-0.037266 0.068670 2.241000 255 0 0
-0.031176 0.068793 2.245000 255 0 0
-0.025075 0.068947 2.250000 255 0 0
-0.018905 0.068947 2.250000 255 0 0
-0.012724 0.068886 2.248000 255 0 0
-0.006550 0.068794 2.245000 255 0 0
-0.000393 0.068764 2.244000 255 0 0
0.005763 0.068794 2.245000 255 0 0
0.011920 0.068794 2.245000 255 0 0
0.018109 0.068917 2.249000 255 0 0
0.024330 0.069069 2.254000 255 0 0
0.030592 0.069253 2.260000 255 0 0
0.036871 0.069406 2.265000 255 0 0
0.043120 0.069466 2.267000 255 0 0
0.049315 0.069435 2.266000 255 0 0
0.055601 0.069526 2.269000 255 0 0
0.061850 0.069556 2.270000 255 0 0
0.068404 0.069892 2.281000 255 0 0
0.075312 0.070503 2.301000 255 0 0
0.083287 0.071942 2.348000 255 0 0
0.089685 0.071910 2.347000 255 0 0
0.096119 0.071909 2.347000 255 0 0
0.102552 0.071907 2.347000 255 0 0
0.108985 0.071905 2.347000 255 0 0
0.115417 0.071903 2.347000 255 0 0
0.121797 0.071871 2.346000 255 0 0
0.127842 0.071654 2.339000 255 0 0
-0.198256 -0.184652 2.490088 255 255 0
-0.192693 -0.186076 2.480417 255 255 0
-0.188828 -0.187980 2.469676 255 255 0
-0.067267 -0.182693 2.418399 255 255 0
-0.054291 -0.181844 2.414177 255 255 0
-0.032975 -0.178521 2.415723 255 255 0
-0.021719 -0.178141 2.410492 255 255 0
-0.007977 -0.177011 2.407035 255 255 0
-0.006758 -0.179586 2.394960 255 255 0
0.003625 -0.179433 2.389265 255 255 0
0.021475 -0.177036 2.388862 255 255 0
0.040126 -0.174374 2.389131 255 255 0
-0.233084 -0.224252 2.418829 0 255 0
-0.238558 -0.219094 2.434735 0 255 0
-0.236421 -0.216653 2.445487 0 255 0
-0.237679 -0.213013 2.458490 0 255 0
-0.229607 -0.212673 2.465287 0 255 0
-0.193490 -0.222196 2.453654 0 255 0
-0.196826 -0.214595 2.480313 0 255 0
-0.183600 -0.216009 2.483945 0 255 0
-0.128083 -0.228876 2.472804 0 255 0
-0.111363 -0.231417 2.474528 0 255 0
-0.356332 0.061380 2.205000 255 0 0
-0.349530 0.061245 2.200000 255 0 0
-0.343535 0.061249 2.200000 255 0 0
-0.337385 0.061226 2.199000 255 0 0
-0.330938 0.061146 2.196000 255 0 0
-0.324802 0.061123 2.195000 255 0 0
-0.318816 0.061127 2.195000 255 0 0
-0.313541 0.061270 2.200000 255 0 0
-0.308937 0.061553 2.210000 255 0 0
-0.305100 0.062002 2.226000 255 0 0
-0.297825 0.064382 2.311000 255 0 0
-0.290253 0.064107 2.301000 255 0 0
-0.283599 0.064028 2.298000 255 0 0
-0.276477 0.063836 2.291000 255 0 0
-0.269865 0.063756 2.288000 255 0 0
-0.263037 0.063621 2.283000 255 0 0
-0.256685 0.063596 2.282000 255 0 0
-0.249790 0.063433 2.276000 255 0 0
-0.243247 0.063352 2.273000 255 0 0
-0.236511 0.063216 2.268000 255 0 0
-0.230410 0.063247 2.269000 255 0 0
-0.224007 0.063195 2.267000 255 0 0
-0.217614 0.063142 2.265000 255 0 0
-0.211138 0.063061 2.262000 255 0 0
-0.204587 0.062953 2.258000 255 0 0
-0.198145 0.062872 2.255000 255 0 0
-0.191633 0.062763 2.251000 255 0 0
