ply
format ascii 1.0
element vertex 1331
property double x
property double y
property double z
property uchar red
property uchar green
property uchar blue
end_header
-0.016458 0.688508 1.974000 255 0 0
-0.167175 0.684407 1.978000 255 0 0
-0.163105 0.689953 1.994000 255 0 0
-0.157761 0.690308 1.995000 255 0 0
-0.152487 0.691009 1.997000 255 0 0
-0.147350 0.692402 2.001000 255 0 0
-0.142333 0.694487 2.007000 255 0 0
-0.136874 0.694496 2.007000 255 0 0
-0.131218 0.693466 2.004000 255 0 0
-0.125766 0.693474 2.004000 255 0 0
-0.119954 0.691405 1.998000 255 0 0
-0.114347 0.690374 1.995000 255 0 0
-0.108647 0.688650 1.990000 255 0 0
-0.103129 0.687965 1.988000 255 0 0
-0.097523 0.686587 1.984000 255 0 0
-0.092079 0.686247 1.983000 255 0 0
-0.086684 0.686252 1.983000 255 0 0
-0.081411 0.687296 1.986000 255 0 0
-0.076045 0.687647 1.987000 255 0 0
-0.070639 0.687652 1.987000 255 0 0
-0.065166 0.686964 1.985000 255 0 0
-0.059825 0.687660 1.987000 255 0 0
-0.054555 0.689394 1.992000 255 0 0
-0.049233 0.690782 1.996000 255 0 0
-0.043758 0.690092 1.994000 255 0 0
-0.038255 0.688711 1.990000 255 0 0
-0.032625 0.684214 1.977000 255 0 0
-0.011211 0.690795 1.996000 255 0 0
-0.006014 0.718829 2.077000 255 0 0
-0.168453 0.684215 1.993000 255 0 0
-0.164178 0.689031 2.007000 255 0 0
-0.158798 0.689384 2.008000 255 0 0
-0.153260 0.689050 2.007000 255 0 0
-0.147801 0.689059 2.007000 255 0 0
-0.142554 0.690098 2.010000 255 0 0
-0.136882 0.689077 2.007000 255 0 0
-0.131160 0.687712 2.003000 255 0 0
-0.125586 0.687033 2.001000 255 0 0
-0.119962 0.686011 1.998000 255 0 0
-0.114583 0.686361 1.999000 255 0 0
-0.108981 0.685338 1.996000 255 0 0
-0.103447 0.684658 1.994000 255 0 0
-0.097824 0.683291 1.990000 255 0 0
-0.092363 0.682954 1.989000 255 0 0
-0.086995 0.683303 1.990000 255 0 0
-0.081785 0.685025 1.995000 255 0 0
-0.076433 0.685717 1.997000 255 0 0
-0.070963 0.685379 1.996000 255 0 0
-0.065499 0.685040 1.995000 255 0 0
-0.060100 0.685387 1.996000 255 0 0
-0.054778 0.686764 2.000000 255 0 0
-0.049360 0.687111 2.001000 255 0 0
-0.043892 0.686771 2.000000 255 0 0
-0.038372 0.685400 1.996000 255 0 0
-0.032825 0.682998 1.989000 255 0 0
-0.011448 0.699830 2.038000 255 0 0
-0.006063 0.719061 2.094000 255 0 0
-0.175105 0.683591 2.007000 255 0 0
-0.168970 0.680876 1.999000 255 0 0
-0.164760 0.685996 2.014000 255 0 0
-0.159203 0.685665 2.013000 255 0 0
-0.153804 0.686015 2.014000 255 0 0
-0.148326 0.686025 2.014000 255 0 0
-0.142776 0.685693 2.013000 255 0 0
-0.136822 0.683317 2.006000 255 0 0
-0.131300 0.682985 2.005000 255 0 0
-0.125719 0.682312 2.003000 255 0 0
-0.120270 0.682320 2.003000 255 0 0
-0.114648 0.681305 2.000000 255 0 0
-0.109097 0.680631 1.998000 255 0 0
-0.103505 0.679616 1.995000 255 0 0
-0.097929 0.678601 1.992000 255 0 0
-0.092602 0.679288 1.994000 255 0 0
-0.087176 0.679294 1.994000 255 0 0
-0.081954 0.681003 1.999000 255 0 0
-0.076515 0.681008 1.999000 255 0 0
-0.071146 0.681694 2.001000 255 0 0
-0.065700 0.681699 2.001000 255 0 0
-0.060285 0.682044 2.002000 255 0 0
-0.054891 0.682729 2.004000 255 0 0
-0.049437 0.682732 2.004000 255 0 0
-0.043983 0.682736 2.004000 255 0 0
-0.038471 0.681716 2.001000 255 0 0
-0.032992 0.681037 1.999000 255 0 0
-0.027496 0.679676 1.995000 255 0 0
-0.011566 0.701485 2.059000 255 0 0
-0.006078 0.715113 2.099000 255 0 0
-0.178257 0.690335 2.043000 255 0 0
-0.164852 0.680895 2.015000 255 0 0
-0.159450 0.681243 2.016000 255 0 0
-0.154119 0.681929 2.018000 255 0 0
-0.148556 0.681601 2.017000 255 0 0
-0.142785 0.680258 2.013000 255 0 0
-0.136899 0.678239 2.007000 255 0 0
-0.131373 0.677910 2.006000 255 0 0
-0.125916 0.677918 2.006000 255 0 0
-0.120458 0.677926 2.006000 255 0 0
-0.114770 0.676582 2.002000 255 0 0
-0.109268 0.676251 2.001000 255 0 0
-0.103616 0.674907 1.997000 255 0 0
-0.098132 0.674575 1.996000 255 0 0
-0.092747 0.674920 1.997000 255 0 0
-0.087356 0.675263 1.998000 255 0 0
-0.082083 0.676621 2.002000 255 0 0
-0.076673 0.676964 2.003000 255 0 0
-0.071257 0.677307 2.004000 255 0 0
-0.065737 0.676636 2.002000 255 0 0
-0.060319 0.676978 2.003000 255 0 0
-0.054977 0.678334 2.007000 255 0 0
-0.049613 0.679689 2.011000 255 0 0
-0.044139 0.679692 2.011000 255 0 0
-0.038627 0.679019 2.009000 255 0 0
-0.033110 0.678008 2.006000 255 0 0
-0.027622 0.677334 2.004000 255 0 0
-0.022068 0.674294 1.995000 255 0 0
-0.011612 0.698631 2.067000 255 0 0
-0.006087 0.710462 2.102000 255 0 0
-0.179489 0.689511 2.057000 255 0 0
-0.164290 0.673108 2.008000 255 0 0
-0.159698 0.676805 2.019000 255 0 0
-0.154511 0.678156 2.023000 255 0 0
-0.148934 0.677831 2.022000 255 0 0
-0.142936 0.675494 2.015000 255 0 0
-0.137181 0.674162 2.011000 255 0 0
-0.131709 0.674170 2.011000 255 0 0
-0.126300 0.674514 2.012000 255 0 0
-0.120766 0.674187 2.011000 255 0 0
-0.114950 0.672183 2.005000 255 0 0
-0.109330 0.671185 2.002000 255 0 0
-0.103570 0.669180 1.996000 255 0 0
-0.098188 0.669522 1.997000 255 0 0
-0.092800 0.669864 1.998000 255 0 0
-0.087493 0.670876 2.001000 255 0 0
-0.082170 0.671888 2.004000 255 0 0
-0.076793 0.672564 2.006000 255 0 0
-0.071333 0.672569 2.006000 255 0 0
-0.065807 0.671903 2.004000 255 0 0
-0.060413 0.672578 2.006000 255 0 0
-0.055008 0.673252 2.008000 255 0 0
-0.049616 0.674262 2.011000 255 0 0
-0.044164 0.674600 2.012000 255 0 0
-0.038688 0.674603 2.012000 255 0 0
-0.033211 0.674605 2.012000 255 0 0
-0.027693 0.673602 2.009000 255 0 0
-0.011624 0.693723 2.069000 255 0 0
-0.006082 0.704118 2.100000 255 0 0
-0.160024 0.672684 2.023000 255 0 0
-0.154750 0.673691 2.026000 255 0 0
-0.149091 0.673036 2.024000 255 0 0
-0.143087 0.670718 2.017000 255 0 0
-0.137326 0.669397 2.013000 255 0 0
-0.131784 0.669074 2.012000 255 0 0
-0.126372 0.669415 2.013000 255 0 0
-0.120834 0.669091 2.012000 255 0 0
-0.115187 0.668101 2.009000 255 0 0
-0.109501 0.666778 2.005000 255 0 0
-0.103733 0.664790 1.999000 255 0 0
-0.098244 0.664464 1.998000 255 0 0
-0.092852 0.664803 1.999000 255 0 0
-0.087630 0.666472 2.004000 255 0 0
-0.082217 0.666811 2.005000 255 0 0
-0.076836 0.667481 2.007000 255 0 0
-0.071338 0.667154 2.006000 255 0 0
-0.065878 0.667159 2.006000 255 0 0
-0.060447 0.667496 2.007000 255 0 0
-0.055066 0.668497 2.010000 255 0 0
-0.049669 0.669499 2.013000 255 0 0
-0.044255 0.670500 2.016000 255 0 0
-0.038787 0.670835 2.017000 255 0 0
-0.033296 0.670838 2.017000 255 0 0
-0.027709 0.668512 2.010000 255 0 0
-0.011647 0.689469 2.073000 255 0 0
-0.160272 0.668211 2.026000 255 0 0
-0.154913 0.668881 2.028000 255 0 0
-0.149395 0.668891 2.028000 255 0 0
-0.143380 0.666592 2.021000 255 0 0
-0.137608 0.665282 2.017000 255 0 0
-0.131923 0.664301 2.014000 255 0 0
-0.126380 0.663980 2.013000 255 0 0
-0.120902 0.663989 2.013000 255 0 0
-0.115366 0.663667 2.012000 255 0 0
-0.109672 0.662355 2.008000 255 0 0
-0.103844 0.660053 2.001000 255 0 0
-0.098250 0.659071 1.998000 255 0 0
-0.092905 0.659737 2.000000 255 0 0
-0.087724 0.661723 2.006000 255 0 0
-0.082305 0.662058 2.007000 255 0 0
-0.076918 0.662724 2.009000 255 0 0
-0.071450 0.662729 2.009000 255 0 0
-0.066046 0.663393 2.011000 255 0 0
-0.060602 0.663728 2.012000 255 0 0
-0.055180 0.664392 2.014000 255 0 0
-0.049722 0.664725 2.015000 255 0 0
-0.044280 0.665388 2.017000 255 0 0
-0.038828 0.666051 2.019000 255 0 0
-0.033331 0.666054 2.019000 255 0 0
-0.027628 0.661107 2.004000 255 0 0
-0.011671 0.685194 2.077000 255 0 0
-0.160283 0.662740 2.026000 255 0 0
-0.154923 0.663405 2.028000 255 0 0
-0.149331 0.663088 2.027000 255 0 0
-0.143532 0.661789 2.023000 255 0 0
-0.137754 0.660490 2.019000 255 0 0
-0.132063 0.659518 2.016000 255 0 0
-0.126389 0.658546 2.013000 255 0 0
-0.120910 0.658554 2.013000 255 0 0
-0.115432 0.658562 2.013000 255 0 0
-0.109789 0.657589 2.010000 255 0 0
-0.103903 0.654979 2.002000 255 0 0
-0.098306 0.654004 1.999000 255 0 0
-0.093005 0.654992 2.002000 255 0 0
-0.087817 0.656962 2.008000 255 0 0
-0.082433 0.657622 2.010000 255 0 0
-0.076962 0.657628 2.010000 255 0 0
-0.071490 0.657633 2.010000 255 0 0
-0.066117 0.658620 2.013000 255 0 0
-0.060667 0.658951 2.014000 255 0 0
-0.055239 0.659610 2.016000 255 0 0
-0.049799 0.660268 2.018000 255 0 0
-0.044349 0.660926 2.020000 255 0 0
-0.038869 0.661256 2.021000 255 0 0
-0.033301 0.659950 2.017000 255 0 0
-0.011716 0.682205 2.085000 255 0 0
-0.159423 0.653701 2.015000 255 0 0
-0.154781 0.657280 2.026000 255 0 0
-0.149342 0.657615 2.027000 255 0 0
-0.143684 0.656976 2.025000 255 0 0
-0.137968 0.656012 2.022000 255 0 0
-0.132269 0.655048 2.019000 255 0 0
-0.126586 0.654084 2.016000 255 0 0
-0.121159 0.654417 2.017000 255 0 0
-0.115554 0.653777 2.015000 255 0 0
-0.109851 0.652487 2.011000 255 0 0
-0.103807 0.648925 2.000000 255 0 0
-0.098264 0.648283 1.998000 255 0 0
-0.093011 0.649588 2.002000 255 0 0
-0.087911 0.652190 2.010000 255 0 0
-0.082644 0.653819 2.015000 255 0 0
-0.077121 0.653500 2.014000 255 0 0
-0.071638 0.653505 2.014000 255 0 0
-0.066187 0.653835 2.015000 255 0 0
-0.060762 0.654488 2.017000 255 0 0
-0.055297 0.654817 2.018000 255 0 0
-0.049877 0.655794 2.021000 255 0 0
-0.044375 0.655798 2.021000 255 0 0
-0.038872 0.655801 2.021000 255 0 0
-0.033254 0.653532 2.014000 255 0 0
-0.154791 0.651809 2.026000 255 0 0
-0.149499 0.652785 2.029000 255 0 0
-0.143836 0.652152 2.027000 255 0 0
-0.138114 0.651196 2.024000 255 0 0
-0.132475 0.650562 2.022000 255 0 0
-0.126846 0.649928 2.020000 255 0 0
-0.121348 0.649937 2.020000 255 0 0
-0.115735 0.649302 2.018000 255 0 0
-0.109805 0.646736 2.010000 255 0 0
-0.103762 0.643204 1.999000 255 0 0
-0.098173 0.642246 1.996000 255 0 0
-0.092878 0.643218 1.999000 255 0 0
-0.087786 0.645799 2.007000 255 0 0
-0.082691 0.648701 2.016000 255 0 0
-0.077241 0.649028 2.017000 255 0 0
-0.071714 0.648712 2.016000 255 0 0
-0.066225 0.648717 2.016000 255 0 0
-0.060766 0.649044 2.017000 255 0 0
-0.055356 0.650013 2.020000 255 0 0
-0.049930 0.650982 2.023000 255 0 0
-0.044466 0.651629 2.025000 255 0 0
-0.038913 0.650989 2.023000 255 0 0
-0.033289 0.648739 2.016000 255 0 0
-0.154726 0.646020 2.025000 255 0 0
-0.149804 0.648582 2.033000 255 0 0
-0.144129 0.647955 2.031000 255 0 0
-0.138329 0.646688 2.027000 255 0 0
-0.132746 0.646379 2.026000 255 0 0
-0.127232 0.646388 2.026000 255 0 0
-0.121657 0.646078 2.025000 255 0 0
-0.116030 0.645449 2.023000 255 0 0
-0.110031 0.642585 2.014000 255 0 0
-0.103873 0.638445 2.001000 255 0 0
-0.098180 0.636857 1.996000 255 0 0
-0.092885 0.637821 1.999000 255 0 0
-0.087705 0.639742 2.005000 255 0 0
-0.082697 0.643258 2.016000 255 0 0
-0.077400 0.644860 2.021000 255 0 0
-0.071897 0.644865 2.021000 255 0 0
-0.066361 0.644551 2.020000 255 0 0
-0.060861 0.644556 2.020000 255 0 0
-0.055443 0.645517 2.023000 255 0 0
-0.050008 0.646479 2.026000 255 0 0
-0.044513 0.646801 2.027000 255 0 0
-0.038974 0.646485 2.026000 255 0 0
-0.033291 0.643297 2.016000 255 0 0
-0.154660 0.640235 2.024000 255 0 0
-0.149962 0.643725 2.035000 255 0 0
-0.144353 0.643419 2.034000 255 0 0
-0.138612 0.642480 2.031000 255 0 0
-0.132887 0.641541 2.028000 255 0 0
-0.127304 0.641234 2.027000 255 0 0
-0.121666 0.640610 2.025000 255 0 0
-0.116038 0.639986 2.023000 255 0 0
-0.110203 0.638097 2.017000 255 0 0
-0.104296 0.635573 2.009000 255 0 0
-0.098531 0.633683 2.003000 255 0 0
-0.093078 0.633690 2.003000 255 0 0
-0.087799 0.634962 2.007000 255 0 0
-0.082744 0.638132 2.017000 255 0 0
-0.077482 0.640036 2.023000 255 0 0
-0.072045 0.640674 2.025000 255 0 0
-0.066465 0.640047 2.023000 255 0 0
-0.060986 0.640368 2.024000 255 0 0
-0.055556 0.641322 2.027000 255 0 0
-0.050086 0.641958 2.029000 255 0 0
-0.044604 0.642595 2.031000 255 0 0
-0.039015 0.641649 2.028000 255 0 0
-0.033310 0.638171 2.017000 255 0 0
-0.150120 0.638857 2.037000 255 0 0
-0.144505 0.638554 2.036000 255 0 0
-0.138758 0.637623 2.033000 255 0 0
-0.133027 0.636692 2.030000 255 0 0
-0.127376 0.636074 2.028000 255 0 0
-0.121614 0.634829 2.024000 255 0 0
-0.115989 0.634210 2.022000 255 0 0
-0.110320 0.633278 2.019000 255 0 0
-0.104615 0.632031 2.015000 255 0 0
-0.098981 0.631097 2.012000 255 0 0
-0.093456 0.630791 2.011000 255 0 0
-0.088156 0.632052 2.015000 255 0 0
-0.082874 0.633627 2.020000 255 0 0
-0.077526 0.634888 2.024000 255 0 0
-0.072121 0.635835 2.027000 255 0 0
-0.066601 0.635840 2.027000 255 0 0
-0.061171 0.636786 2.030000 255 0 0
-0.055670 0.637104 2.031000 255 0 0
-0.050213 0.638049 2.034000 255 0 0
-0.044673 0.638053 2.034000 255 0 0
-0.039037 0.636487 2.029000 255 0 0
-0.150057 0.633045 2.036000 255 0 0
-0.144728 0.633988 2.039000 255 0 0
-0.139110 0.633688 2.038000 255 0 0
-0.133299 0.632454 2.034000 255 0 0
-0.127636 0.631842 2.032000 255 0 0
-0.121743 0.629985 2.026000 255 0 0
-0.116170 0.629683 2.025000 255 0 0
-0.110383 0.628137 2.020000 255 0 0
-0.104831 0.627834 2.019000 255 0 0
-0.099333 0.627841 2.019000 255 0 0
-0.093789 0.627538 2.018000 255 0 0
-0.088381 0.628166 2.020000 255 0 0
-0.082921 0.628484 2.021000 255 0 0
-0.077570 0.629734 2.025000 255 0 0
-0.072127 0.630362 2.027000 255 0 0
-0.066639 0.630678 2.028000 255 0 0
-0.061236 0.631927 2.032000 255 0 0
-0.055811 0.633175 2.036000 255 0 0
-0.050340 0.634112 2.039000 255 0 0
-0.044786 0.634116 2.039000 255 0 0
-0.039079 0.631631 2.031000 255 0 0
-0.150363 0.628779 2.040000 255 0 0
-0.145307 0.630947 2.047000 255 0 0
-0.139734 0.630958 2.047000 255 0 0
-0.133833 0.629427 2.042000 255 0 0
-0.128085 0.628512 2.039000 255 0 0
-0.122113 0.626363 2.032000 255 0 0
-0.116408 0.625448 2.029000 255 0 0
-0.110555 0.623606 2.023000 255 0 0
-0.104891 0.622690 2.020000 255 0 0
-0.099439 0.623006 2.021000 255 0 0
-0.093982 0.623321 2.022000 255 0 0
-0.088563 0.623945 2.024000 255 0 0
-0.083009 0.623643 2.023000 255 0 0
-0.077576 0.624266 2.025000 255 0 0
-0.072168 0.625197 2.028000 255 0 0
-0.066743 0.626127 2.031000 255 0 0
-0.061361 0.627673 2.036000 255 0 0
-0.055953 0.629219 2.041000 255 0 0
-0.050492 0.630456 2.045000 255 0 0
-0.044922 0.630460 2.045000 255 0 0
-0.039159 0.627380 2.035000 255 0 0
-0.151185 0.626630 2.051000 255 0 0
-0.146098 0.628779 2.058000 255 0 0
-0.140222 0.627568 2.054000 255 0 0
-0.134171 0.625439 2.047000 255 0 0
-0.128472 0.624838 2.045000 255 0 0
-0.122723 0.623931 2.042000 255 0 0
-0.116933 0.622718 2.038000 255 0 0
-0.110892 0.619976 2.029000 255 0 0
-0.105158 0.618762 2.025000 255 0 0
-0.099594 0.618465 2.024000 255 0 0
-0.094221 0.619389 2.027000 255 0 0
-0.088788 0.620007 2.029000 255 0 0
-0.083303 0.620319 2.030000 255 0 0
-0.077850 0.620937 2.032000 255 0 0
-0.072387 0.621553 2.034000 255 0 0
-0.066945 0.622476 2.037000 255 0 0
-0.061457 0.623092 2.039000 255 0 0
-0.056067 0.624930 2.045000 255 0 0
-0.050570 0.625851 2.048000 255 0 0
-0.045057 0.626771 2.051000 255 0 0
-0.039335 0.624636 2.044000 255 0 0
-0.157392 0.623501 2.059000 255 0 0
-0.152302 0.625632 2.066000 255 0 0
-0.146890 0.626552 2.069000 255 0 0
-0.140711 0.624140 2.061000 255 0 0
-0.134575 0.621727 2.053000 255 0 0
-0.128796 0.620829 2.050000 255 0 0
-0.123093 0.620233 2.048000 255 0 0
-0.117286 0.619031 2.044000 255 0 0
-0.111283 0.616616 2.036000 255 0 0
-0.105530 0.615413 2.032000 255 0 0
-0.099897 0.614816 2.030000 255 0 0
-0.094461 0.615429 2.032000 255 0 0
-0.088970 0.615739 2.033000 255 0 0
-0.083556 0.616654 2.036000 255 0 0
-0.078048 0.616963 2.037000 255 0 0
-0.072642 0.618181 2.041000 255 0 0
-0.067180 0.619095 2.044000 255 0 0
-0.061642 0.619403 2.045000 255 0 0
-0.056153 0.620316 2.048000 255 0 0
-0.050673 0.621532 2.052000 255 0 0
-0.045192 0.623050 2.057000 255 0 0
-0.039781 0.626082 2.067000 255 0 0
-0.034662 0.635475 2.098000 255 0 0
-0.154599 0.629355 2.097000 255 0 0
-0.147895 0.625164 2.083000 255 0 0
-0.141268 0.620973 2.069000 255 0 0
-0.135109 0.618583 2.061000 255 0 0
-0.129183 0.617092 2.056000 255 0 0
-0.123463 0.616502 2.054000 255 0 0
-0.117582 0.615010 2.049000 255 0 0
-0.111674 0.613218 2.043000 255 0 0
-0.105850 0.611726 2.038000 255 0 0
-0.100053 0.610233 2.033000 255 0 0
-0.094654 0.611141 2.036000 255 0 0
-0.089240 0.612049 2.039000 255 0 0
-0.083767 0.612656 2.041000 255 0 0
-0.078284 0.613263 2.043000 255 0 0
-0.072825 0.614169 2.046000 255 0 0
-0.067383 0.615375 2.050000 255 0 0
-0.061828 0.615681 2.051000 255 0 0
-0.056268 0.615985 2.052000 255 0 0
-0.050800 0.617491 2.057000 255 0 0
-0.045460 0.621097 2.069000 255 0 0
-0.040419 0.630406 2.100000 255 0 0
-0.035342 0.642117 2.139000 255 0 0
-0.161296 0.800460 2.207835 0 255 0
-0.171018 0.642402 2.160000 255 0 0
-0.163226 0.634979 2.135000 255 0 0
-0.156454 0.631125 2.122000 255 0 0
-0.149469 0.626080 2.105000 255 0 0
-0.142098 0.618953 2.081000 255 0 0
-0.135644 0.615395 2.069000 255 0 0
-0.129507 0.613025 2.061000 255 0 0
-0.123593 0.611548 2.056000 255 0 0
-0.117764 0.610368 2.052000 255 0 0
-0.111846 0.608592 2.046000 255 0 0
-0.106014 0.607113 2.041000 255 0 0
-0.100257 0.605931 2.037000 255 0 0
-0.094801 0.606534 2.039000 255 0 0
-0.089334 0.607136 2.041000 255 0 0
-0.083856 0.607738 2.043000 255 0 0
-0.078405 0.608637 2.046000 255 0 0
-0.073009 0.610130 2.051000 255 0 0
-0.067585 0.611623 2.056000 255 0 0
-0.062044 0.612223 2.058000 255 0 0
-0.056491 0.612823 2.060000 255 0 0
-0.051125 0.615802 2.070000 255 0 0
-0.045881 0.621161 2.088000 255 0 0
-0.040961 0.633064 2.128000 255 0 0
-0.035642 0.641694 2.157000 255 0 0
-0.029875 0.644077 2.165000 255 0 0
-0.024042 0.645864 2.171000 255 0 0
-0.169764 0.631850 2.144000 255 0 0
-0.163544 0.630390 2.139000 255 0 0
-0.157498 0.629518 2.136000 255 0 0
-0.150900 0.626288 2.125000 255 0 0
-0.143338 0.618636 2.099000 255 0 0
-0.136310 0.612752 2.079000 255 0 0
-0.129894 0.609226 2.067000 255 0 0
-0.123843 0.607172 2.060000 255 0 0
-0.117945 0.605708 2.055000 255 0 0
-0.112129 0.604538 2.051000 255 0 0
-0.106282 0.603073 2.046000 255 0 0
-0.100511 0.601902 2.042000 255 0 0
-0.094948 0.601910 2.042000 255 0 0
-0.089473 0.602507 2.044000 255 0 0
-0.084027 0.603398 2.047000 255 0 0
-0.078565 0.604289 2.050000 255 0 0
-0.073086 0.605179 2.053000 255 0 0
-0.067689 0.606953 2.059000 255 0 0
-0.062260 0.608727 2.065000 255 0 0
-0.056880 0.611385 2.074000 255 0 0
-0.051624 0.616106 2.090000 255 0 0
-0.046412 0.622595 2.112000 255 0 0
-0.041273 0.632032 2.144000 255 0 0
-0.035794 0.638521 2.166000 255 0 0
-0.029919 0.639113 2.168000 255 0 0
-0.023977 0.638231 2.165000 255 0 0
-0.176188 0.628088 2.151000 255 0 0
-0.169143 0.623721 2.136000 255 0 0
-0.163556 0.624610 2.139000 255 0 0
-0.157953 0.625498 2.142000 255 0 0
-0.151977 0.624926 2.140000 255 0 0
-0.144988 0.619973 2.123000 255 0 0
-0.137763 0.613560 2.101000 255 0 0
-0.130972 0.608606 2.084000 255 0 0
-0.124574 0.605111 2.072000 255 0 0
-0.118471 0.602784 2.064000 255 0 0
-0.112465 0.600749 2.057000 255 0 0
-0.106654 0.599589 2.053000 255 0 0
-0.100815 0.598137 2.048000 255 0 0
-0.095188 0.597853 2.047000 255 0 0
-0.089699 0.598445 2.049000 255 0 0
-0.084239 0.599328 2.052000 255 0 0
-0.078801 0.600503 2.056000 255 0 0
-0.073305 0.601385 2.059000 255 0 0
-0.067958 0.603727 2.067000 255 0 0
-0.062657 0.606945 2.078000 255 0 0
-0.057406 0.611332 2.093000 255 0 0
-0.052146 0.616593 2.111000 255 0 0
-0.046789 0.621855 2.129000 255 0 0
-0.041507 0.629745 2.156000 255 0 0
-0.035896 0.634422 2.172000 255 0 0
-0.030004 0.635008 2.174000 255 0 0
-0.024001 0.632966 2.167000 255 0 0
-0.018095 0.632968 2.167000 255 0 0
-0.191409 0.633819 2.191000 255 0 0
-0.183920 0.628626 2.173000 255 0 0
-0.176283 0.622564 2.152000 255 0 0
-0.169394 0.618817 2.139000 255 0 0
-0.163569 0.618829 2.139000 255 0 0
-0.157891 0.619421 2.141000 255 0 0
-0.152131 0.619722 2.142000 255 0 0
-0.145956 0.618287 2.137000 255 0 0
-0.139348 0.614826 2.125000 255 0 0
-0.132617 0.610497 2.110000 255 0 0
-0.125907 0.605878 2.094000 255 0 0
-0.119513 0.602415 2.082000 255 0 0
-0.113240 0.599242 2.071000 255 0 0
-0.107286 0.597514 2.065000 255 0 0
-0.101364 0.595787 2.059000 255 0 0
-0.095661 0.595216 2.057000 255 0 0
-0.090144 0.595802 2.059000 255 0 0
-0.084656 0.596677 2.062000 255 0 0
-0.079152 0.597552 2.065000 255 0 0
-0.073703 0.599005 2.070000 255 0 0
-0.068456 0.602483 2.082000 255 0 0
-0.063235 0.606829 2.097000 255 0 0
-0.057904 0.610885 2.111000 255 0 0
-0.052447 0.614362 2.123000 255 0 0
-0.046991 0.618707 2.138000 255 0 0
-0.041587 0.625077 2.160000 255 0 0
-0.035948 0.629421 2.175000 255 0 0
-0.030061 0.630292 2.178000 255 0 0
-0.024025 0.627690 2.169000 255 0 0
-0.018072 0.626245 2.164000 255 0 0
-0.202890 0.626434 2.186000 255 0 0
-0.196308 0.624443 2.179000 255 0 0
-0.190288 0.624171 2.178000 255 0 0
-0.183681 0.621893 2.170000 255 0 0
-0.176707 0.618181 2.157000 255 0 0
-0.169724 0.614182 2.143000 255 0 0
-0.163582 0.613049 2.139000 255 0 0
-0.157977 0.613921 2.142000 255 0 0
-0.152356 0.614793 2.145000 255 0 0
-0.146513 0.614805 2.145000 255 0 0
-0.140146 0.612523 2.137000 255 0 0
-0.133759 0.609954 2.128000 255 0 0
-0.127240 0.606525 2.116000 255 0 0
-0.120901 0.603668 2.106000 255 0 0
-0.114507 0.600238 2.094000 255 0 0
-0.108489 0.598527 2.088000 255 0 0
-0.102505 0.596816 2.082000 255 0 0
-0.096785 0.596537 2.081000 255 0 0
-0.091158 0.596831 2.082000 255 0 0
-0.085607 0.597698 2.085000 255 0 0
-0.080079 0.598852 2.089000 255 0 0
-0.074670 0.601151 2.097000 255 0 0
-0.069317 0.604311 2.108000 255 0 0
-0.063873 0.607183 2.118000 255 0 0
-0.058293 0.609195 2.125000 255 0 0
-0.052674 0.611206 2.132000 255 0 0
-0.047104 0.614363 2.143000 255 0 0
-0.041571 0.618954 2.159000 255 0 0
-0.035918 0.622971 2.173000 255 0 0
-0.030078 0.624694 2.179000 255 0 0
-0.024061 0.622689 2.172000 255 0 0
-0.018057 0.619824 2.162000 255 0 0
-0.012130 0.618105 2.156000 255 0 0
-0.144124 0.755508 2.237879 0 255 0
-0.213924 0.617939 2.177000 255 0 0
-0.207997 0.617954 2.177000 255 0 0
-0.201792 0.617118 2.174000 255 0 0
-0.195783 0.616850 2.173000 255 0 0
-0.189691 0.616297 2.171000 255 0 0
-0.183441 0.615176 2.167000 255 0 0
-0.177130 0.613770 2.162000 255 0 0
-0.170371 0.610661 2.151000 255 0 0
-0.163747 0.607835 2.141000 255 0 0
-0.157768 0.607280 2.139000 255 0 0
-0.152297 0.608711 2.144000 255 0 0
-0.146662 0.609575 2.147000 255 0 0
-0.140419 0.607883 2.141000 255 0 0
-0.134146 0.605906 2.134000 255 0 0
-0.127911 0.603929 2.127000 255 0 0
-0.121829 0.602519 2.122000 255 0 0
-0.115719 0.600825 2.116000 255 0 0
-0.109693 0.599415 2.111000 255 0 0
-0.103941 0.599423 2.111000 255 0 0
-0.098002 0.598296 2.107000 255 0 0
-0.092260 0.598303 2.107000 255 0 0
-0.086477 0.598027 2.106000 255 0 0
-0.080967 0.599737 2.112000 255 0 0
-0.075353 0.600880 2.116000 255 0 0
-0.069783 0.602589 2.122000 255 0 0
-0.064120 0.603731 2.126000 255 0 0
-0.058490 0.605440 2.132000 255 0 0
-0.052826 0.607148 2.138000 255 0 0
-0.047174 0.609424 2.146000 255 0 0
-0.041575 0.613119 2.159000 255 0 0
-0.035888 0.616530 2.171000 255 0 0
-0.030053 0.618237 2.177000 255 0 0
-0.024040 0.616251 2.170000 255 0 0
-0.018016 0.612561 2.157000 255 0 0
-0.012102 0.610859 2.151000 255 0 0
-0.006282 0.615119 2.166000 255 0 0
-0.086921 0.715700 2.062155 0 255 0
-0.232356 0.613689 2.183000 255 0 0
-0.225273 0.610614 2.172000 255 0 0
-0.219058 0.609787 2.169000 255 0 0
-0.212859 0.608960 2.166000 255 0 0
-0.207249 0.609820 2.169000 255 0 0
-0.201343 0.609835 2.169000 255 0 0
-0.195527 0.610132 2.170000 255 0 0
-0.189618 0.610147 2.170000 255 0 0
-0.183286 0.608755 2.165000 255 0 0
-0.177226 0.608207 2.163000 255 0 0
-0.170780 0.606252 2.156000 255 0 0
-0.164066 0.603172 2.145000 255 0 0
-0.157928 0.602060 2.141000 255 0 0
-0.152238 0.602635 2.143000 255 0 0
-0.146810 0.604334 2.149000 255 0 0
-0.140693 0.603220 2.145000 255 0 0
-0.134471 0.601544 2.139000 255 0 0
-0.128282 0.599867 2.133000 255 0 0
-0.122298 0.599034 2.130000 255 0 0
-0.116220 0.597637 2.125000 255 0 0
-0.110378 0.597365 2.124000 255 0 0
-0.104589 0.597374 2.124000 255 0 0
-0.098708 0.596819 2.122000 255 0 0
-0.092968 0.597108 2.123000 255 0 0
-0.087141 0.596835 2.122000 255 0 0
-0.081472 0.597685 2.125000 255 0 0
-0.075680 0.597692 2.125000 255 0 0
-0.070019 0.598823 2.129000 255 0 0
-0.064306 0.599672 2.132000 255 0 0
-0.058686 0.601646 2.139000 255 0 0
-0.053028 0.603620 2.146000 255 0 0
-0.047332 0.605593 2.153000 255 0 0
-0.041617 0.607847 2.161000 255 0 0
-0.035841 0.609819 2.168000 255 0 0
-0.030027 0.611790 2.175000 255 0 0
-0.023976 0.608699 2.164000 255 0 0
-0.017959 0.604762 2.150000 255 0 0
-0.012070 0.603357 2.145000 255 0 0
-0.006265 0.607577 2.160000 255 0 0
-0.000379 0.612641 2.178000 255 0 0
0.005594 0.616579 2.192000 255 0 0
-0.102144 0.701746 2.049760 0 255 0
-0.243473 0.605802 2.176000 255 0 0
-0.237333 0.605263 2.174000 255 0 0
-0.230990 0.604167 2.170000 255 0 0
-0.224564 0.602792 2.165000 255 0 0
-0.218469 0.602252 2.163000 255 0 0
-0.212482 0.601990 2.162000 255 0 0
-0.206691 0.602285 2.163000 255 0 0
-0.200894 0.602579 2.164000 255 0 0
-0.195092 0.602872 2.165000 255 0 0
-0.189109 0.602609 2.164000 255 0 0
-0.182877 0.601509 2.160000 255 0 0
-0.176830 0.600966 2.158000 255 0 0
-0.170793 0.600423 2.156000 255 0 0
-0.164156 0.597651 2.146000 255 0 0
-0.157867 0.595993 2.140000 255 0 0
-0.152108 0.596284 2.141000 255 0 0
-0.146753 0.598246 2.148000 255 0 0
-0.140966 0.598536 2.149000 255 0 0
-0.134859 0.597433 2.145000 255 0 0
-0.128654 0.595772 2.139000 255 0 0
-0.122653 0.594947 2.136000 255 0 0
-0.116503 0.593285 2.130000 255 0 0
-0.110595 0.592737 2.128000 255 0 0
-0.104746 0.592467 2.127000 255 0 0
-0.098855 0.591919 2.125000 255 0 0
-0.093063 0.591927 2.125000 255 0 0
-0.087312 0.592212 2.126000 255 0 0
-0.081632 0.593055 2.129000 255 0 0
-0.075864 0.593340 2.130000 255 0 0
-0.070156 0.594182 2.133000 255 0 0
-0.064432 0.595023 2.136000 255 0 0
-0.058774 0.596700 2.142000 255 0 0
-0.053107 0.598654 2.149000 255 0 0
-0.047380 0.600330 2.155000 255 0 0
-0.041640 0.602284 2.162000 255 0 0
-0.035828 0.603680 2.167000 255 0 0
-0.029961 0.604518 2.170000 255 0 0
-0.023900 0.600899 2.157000 255 0 0
-0.017911 0.597279 2.144000 255 0 0
-0.012059 0.597002 2.143000 255 0 0
-0.006257 0.600903 2.157000 255 0 0
-0.000378 0.604525 2.170000 255 0 0
0.005554 0.606196 2.176000 255 0 0
0.011492 0.606474 2.177000 255 0 0
0.017460 0.607587 2.181000 255 0 0
-0.089766 0.692614 2.054192 0 255 0
-0.088535 0.694881 2.065814 0 255 0
-0.254161 0.597124 2.166000 255 0 0
-0.248382 0.597418 2.167000 255 0 0
-0.242484 0.597437 2.167000 255 0 0
-0.236477 0.597179 2.166000 255 0 0
-0.230368 0.596645 2.164000 255 0 0
-0.224270 0.596111 2.162000 255 0 0
-0.218182 0.595576 2.160000 255 0 0
-0.212105 0.595041 2.158000 255 0 0
-0.206038 0.594505 2.156000 255 0 0
-0.200260 0.594797 2.157000 255 0 0
-0.194566 0.595364 2.159000 255 0 0
-0.188774 0.595654 2.160000 255 0 0
-0.182722 0.595117 2.158000 255 0 0
-0.176598 0.594304 2.155000 255 0 0
-0.170728 0.594318 2.155000 255 0 0
-0.164092 0.591573 2.145000 255 0 0
-0.157658 0.589380 2.137000 255 0 0
-0.151907 0.589668 2.138000 255 0 0
-0.146560 0.591610 2.145000 255 0 0
-0.140912 0.592449 2.148000 255 0 0
-0.134933 0.591909 2.146000 255 0 0
-0.128845 0.590816 2.142000 255 0 0
-0.122892 0.590275 2.140000 255 0 0
-0.116786 0.588905 2.135000 255 0 0
-0.110915 0.588639 2.134000 255 0 0
-0.104951 0.587820 2.131000 255 0 0
-0.099143 0.587829 2.131000 255 0 0
-0.093334 0.587837 2.131000 255 0 0
-0.087648 0.588672 2.134000 255 0 0
-0.081869 0.588954 2.135000 255 0 0
-0.076084 0.589237 2.136000 255 0 0
-0.070360 0.590070 2.139000 255 0 0
-0.064588 0.590628 2.141000 255 0 0
-0.058861 0.591736 2.145000 255 0 0
-0.053136 0.593120 2.150000 255 0 0
-0.047428 0.595056 2.157000 255 0 0
-0.041643 0.596439 2.162000 255 0 0
-0.035798 0.597270 2.165000 255 0 0
-0.029881 0.596996 2.164000 255 0 0
-0.023836 0.593412 2.151000 255 0 0
-0.017895 0.590931 2.142000 255 0 0
-0.012060 0.591208 2.143000 255 0 0
-0.006260 0.595347 2.158000 255 0 0
-0.000377 0.597279 2.165000 255 0 0
0.005534 0.598106 2.168000 255 0 0
0.011446 0.598105 2.168000 255 0 0
0.017397 0.599484 2.173000 255 0 0
0.023355 0.600310 2.176000 255 0 0
0.029382 0.602238 2.183000 255 0 0
0.035448 0.604167 2.190000 255 0 0
-0.093331 0.684804 2.070626 0 255 0
-0.273492 0.594756 2.179000 255 0 0
-0.265967 0.591228 2.166000 255 0 0
-0.259834 0.590701 2.164000 255 0 0
-0.253593 0.589901 2.161000 255 0 0
-0.247827 0.590192 2.162000 255 0 0
-0.241719 0.589665 2.160000 255 0 0
-0.235949 0.589956 2.161000 255 0 0
-0.229853 0.589427 2.159000 255 0 0
-0.224080 0.589717 2.160000 255 0 0
-0.217997 0.589188 2.158000 255 0 0
-0.211826 0.588386 2.155000 255 0 0
-0.205672 0.587583 2.152000 255 0 0
-0.199811 0.587598 2.152000 255 0 0
-0.194221 0.588433 2.155000 255 0 0
-0.188352 0.588448 2.155000 255 0 0
-0.182567 0.588735 2.156000 255 0 0
-0.176284 0.587384 2.151000 255 0 0
-0.170424 0.587398 2.151000 255 0 0
-0.163646 0.584134 2.139000 255 0 0
-0.157376 0.582508 2.133000 255 0 0
-0.151564 0.582521 2.133000 255 0 0
-0.146230 0.584445 2.140000 255 0 0
-0.140858 0.586368 2.147000 255 0 0
-0.135007 0.586379 2.147000 255 0 0
-0.128975 0.585570 2.144000 255 0 0
-0.122960 0.584761 2.141000 255 0 0
-0.117015 0.584225 2.139000 255 0 0
-0.111184 0.584234 2.139000 255 0 0
-0.105206 0.583424 2.136000 255 0 0
-0.099244 0.582613 2.133000 255 0 0
-0.093341 0.582074 2.131000 255 0 0
-0.087655 0.582901 2.134000 255 0 0
-0.081952 0.583728 2.137000 255 0 0
-0.076233 0.584554 2.140000 255 0 0
-0.070497 0.585379 2.143000 255 0 0
-0.064714 0.585931 2.145000 255 0 0
-0.058921 0.586483 2.147000 255 0 0
-0.053116 0.587034 2.149000 255 0 0
-0.047388 0.588677 2.155000 255 0 0
-0.041589 0.589774 2.159000 255 0 0
-0.035718 0.590050 2.160000 255 0 0
-0.029759 0.588687 2.155000 255 0 0
-0.023749 0.585411 2.143000 255 0 0
-0.017864 0.584047 2.138000 255 0 0
-0.012073 0.585960 2.145000 255 0 0
-0.006261 0.589512 2.158000 255 0 0
-0.000377 0.591152 2.164000 255 0 0
0.005522 0.590878 2.163000 255 0 0
0.011425 0.591151 2.164000 255 0 0
0.017335 0.591423 2.165000 255 0 0
0.023260 0.591967 2.167000 255 0 0
0.029237 0.593331 2.172000 255 0 0
0.035256 0.594967 2.178000 255 0 0
0.041290 0.596330 2.183000 255 0 0
0.047329 0.597419 2.187000 255 0 0
-0.086968 0.671360 2.054530 0 255 0
-0.102551 0.675137 2.078740 0 255 0
-0.101329 0.677410 2.090311 0 255 0
-0.286285 0.590713 2.186000 255 0 0
-0.278542 0.586950 2.172000 255 0 0
-0.272382 0.586430 2.170000 255 0 0
-0.265619 0.584558 2.163000 255 0 0
-0.259373 0.583766 2.160000 255 0 0
-0.252908 0.582434 2.155000 255 0 0
-0.247272 0.582993 2.157000 255 0 0
-0.241401 0.583011 2.157000 255 0 0
-0.235639 0.583299 2.158000 255 0 0
-0.229764 0.583317 2.158000 255 0 0
-0.223785 0.583064 2.157000 255 0 0
-0.217812 0.582811 2.156000 255 0 0
-0.211646 0.582016 2.153000 255 0 0
-0.205592 0.581492 2.151000 255 0 0
-0.199641 0.581237 2.150000 255 0 0
-0.193876 0.581523 2.151000 255 0 0
-0.187929 0.581267 2.150000 255 0 0
-0.182158 0.581552 2.151000 255 0 0
-0.176052 0.580755 2.148000 255 0 0
-0.170042 0.580229 2.146000 255 0 0
-0.163353 0.577268 2.135000 255 0 0
-0.156946 0.575117 2.127000 255 0 0
-0.151079 0.574859 2.126000 255 0 0
-0.145832 0.577035 2.134000 255 0 0
-0.140607 0.579480 2.143000 255 0 0
-0.135081 0.580843 2.148000 255 0 0
-0.129166 0.580583 2.147000 255 0 0
-0.123199 0.580053 2.145000 255 0 0
-0.117188 0.579252 2.142000 255 0 0
-0.111401 0.579531 2.143000 255 0 0
-0.105461 0.578999 2.141000 255 0 0
-0.099531 0.578467 2.139000 255 0 0
-0.093568 0.577664 2.136000 255 0 0
-0.087868 0.578483 2.139000 255 0 0
-0.082113 0.579031 2.141000 255 0 0
-0.076382 0.579849 2.144000 255 0 0
-0.070602 0.580396 2.146000 255 0 0
-0.064720 0.580131 2.145000 255 0 0
-0.058925 0.580677 2.147000 255 0 0
-0.053170 0.581763 2.151000 255 0 0
-0.047436 0.583390 2.157000 255 0 0
-0.041592 0.583935 2.159000 255 0 0
-0.035671 0.583397 2.157000 255 0 0
-0.029651 0.580695 2.147000 255 0 0
-0.023651 0.577182 2.134000 255 0 0
-0.017823 0.576913 2.133000 255 0 0
-0.012062 0.579619 2.143000 255 0 0
-0.006256 0.583136 2.156000 255 0 0
-0.000376 0.584218 2.160000 255 0 0
0.005517 0.584488 2.161000 255 0 0
0.011410 0.584487 2.161000 255 0 0
0.017304 0.584486 2.161000 255 0 0
0.023197 0.584485 2.161000 255 0 0
0.029145 0.585564 2.165000 255 0 0
0.035130 0.586914 2.170000 255 0 0
0.041142 0.588263 2.175000 255 0 0
0.047117 0.588800 2.177000 255 0 0
0.053127 0.589607 2.180000 255 0 0
-0.111432 0.667868 2.099047 0 255 0
-0.109334 0.670061 2.109920 0 255 0
-0.109899 0.672494 2.122744 0 255 0
-0.097721 0.676171 2.138593 0 255 0
-0.113116 0.682271 2.174440 0 255 0
-0.290246 0.580765 2.171000 255 0 0
-0.283686 0.579448 2.166000 255 0 0
-0.277408 0.578666 2.163000 255 0 0
-0.271147 0.577883 2.160000 255 0 0
-0.264656 0.576565 2.155000 255 0 0
-0.258551 0.576050 2.153000 255 0 0
-0.252457 0.575533 2.151000 255 0 0
-0.246603 0.575552 2.151000 255 0 0
-0.240748 0.575570 2.151000 255 0 0
-0.235329 0.576659 2.155000 255 0 0
-0.229569 0.576944 2.156000 255 0 0
-0.223595 0.576694 2.155000 255 0 0
-0.217626 0.576443 2.154000 255 0 0
-0.211564 0.575925 2.152000 255 0 0
-0.205608 0.575673 2.151000 255 0 0
-0.199471 0.574886 2.148000 255 0 0
-0.193620 0.574901 2.148000 255 0 0
-0.187420 0.573846 2.144000 255 0 0
-0.181664 0.574128 2.145000 255 0 0
-0.175574 0.573339 2.142000 255 0 0
-0.169659 0.573085 2.141000 255 0 0
-0.163137 0.570690 2.132000 255 0 0
-0.156884 0.569096 2.126000 255 0 0
-0.150878 0.568306 2.123000 255 0 0
-0.145570 0.570192 2.130000 255 0 0
-0.140421 0.572880 2.140000 255 0 0
-0.135092 0.575033 2.148000 255 0 0
-0.129237 0.575044 2.148000 255 0 0
-0.123267 0.574519 2.146000 255 0 0
-0.117308 0.573993 2.144000 255 0 0
-0.111411 0.573735 2.143000 255 0 0
-0.105470 0.573209 2.141000 255 0 0
-0.099539 0.572682 2.139000 255 0 0
-0.093664 0.572422 2.138000 255 0 0
-0.087916 0.572965 2.140000 255 0 0
-0.082196 0.573775 2.143000 255 0 0
-0.076424 0.574317 2.145000 255 0 0
-0.070607 0.574591 2.146000 255 0 0
-0.064755 0.574597 2.146000 255 0 0
-0.058985 0.575405 2.149000 255 0 0
-0.053224 0.576481 2.153000 255 0 0
-0.047462 0.577824 2.158000 255 0 0
-0.041596 0.578096 2.159000 255 0 0
-0.035592 0.576225 2.152000 255 0 0
-0.029515 0.572211 2.137000 255 0 0
-0.023565 0.569268 2.126000 255 0 0
-0.017783 0.569805 2.128000 255 0 0
-0.012058 0.573555 2.142000 255 0 0
-0.006250 0.576769 2.154000 255 0 0
-0.000376 0.577573 2.157000 255 0 0
0.005507 0.577572 2.157000 255 0 0
0.011385 0.577304 2.156000 255 0 0
0.017257 0.577035 2.155000 255 0 0
0.023135 0.577033 2.155000 255 0 0
0.029093 0.578638 2.161000 255 0 0
0.035084 0.580242 2.167000 255 0 0
0.041070 0.581309 2.171000 255 0 0
0.046948 0.580770 2.169000 255 0 0
0.052936 0.581569 2.172000 255 0 0
0.058887 0.581832 2.173000 255 0 0
0.064932 0.582898 2.177000 255 0 0
-0.108249 0.657125 2.097898 0 255 0
-0.100832 0.658829 2.104851 0 255 0
-0.100500 0.661197 2.117048 0 255 0
-0.099285 0.663481 2.128575 0 255 0
-0.099851 0.665927 2.141384 0 255 0
-0.099534 0.668290 2.153523 0 255 0
-0.109896 0.671611 2.173354 0 255 0
-0.113160 0.674281 2.187985 0 255 0
-0.102177 0.675681 2.192377 0 255 0
-0.084939 0.676543 2.192369 0 255 0
-0.087910 0.681572 2.219037 0 255 0
-0.296172 0.574870 2.171000 255 0 0
-0.288662 0.571713 2.159000 255 0 0
-0.282789 0.571734 2.159000 255 0 0
-0.276659 0.571225 2.157000 255 0 0
-0.270665 0.570980 2.156000 255 0 0
-0.264061 0.569410 2.150000 255 0 0
-0.257970 0.568900 2.148000 255 0 0
-0.252006 0.568654 2.147000 255 0 0
-0.246277 0.568938 2.148000 255 0 0
-0.240654 0.569486 2.150000 255 0 0
-0.234910 0.569769 2.151000 255 0 0
-0.229373 0.570581 2.154000 255 0 0
-0.223405 0.570334 2.153000 255 0 0
-0.217643 0.570616 2.154000 255 0 0
-0.211580 0.570102 2.152000 255 0 0
-0.205624 0.569854 2.151000 255 0 0
-0.199394 0.568810 2.147000 255 0 0
-0.193185 0.567766 2.143000 255 0 0
-0.186910 0.566456 2.138000 255 0 0
-0.181085 0.566470 2.138000 255 0 0
-0.175096 0.565955 2.136000 255 0 0
-0.169356 0.566234 2.137000 255 0 0
-0.163073 0.564657 2.131000 255 0 0
-0.156823 0.563080 2.125000 255 0 0
-0.150890 0.562563 2.123000 255 0 0
-0.145377 0.563635 2.127000 255 0 0
-0.140236 0.566296 2.137000 255 0 0
-0.134914 0.568428 2.145000 255 0 0
-0.129368 0.569763 2.150000 255 0 0
-0.123449 0.569509 2.149000 255 0 0
-0.117481 0.568989 2.147000 255 0 0
-0.111472 0.568203 2.144000 255 0 0
-0.105577 0.567947 2.143000 255 0 0
-0.099734 0.567956 2.143000 255 0 0
-0.093890 0.567964 2.143000 255 0 0
-0.088088 0.568236 2.144000 255 0 0
-0.082280 0.568509 2.145000 255 0 0
-0.076466 0.568780 2.146000 255 0 0
-0.070613 0.568786 2.146000 255 0 0
-0.064761 0.568792 2.146000 255 0 0
-0.059018 0.569857 2.150000 255 0 0
-0.053253 0.570922 2.154000 255 0 0
-0.047466 0.571987 2.158000 255 0 0
-0.041541 0.571460 2.156000 255 0 0
-0.035479 0.568548 2.145000 255 0 0
-0.029421 0.564575 2.130000 255 0 0
-0.023511 0.562192 2.121000 255 0 0
-0.017768 0.563519 2.126000 255 0 0
-0.012048 0.567231 2.140000 255 0 0
-0.006239 0.569882 2.150000 255 0 0
-0.000375 0.570413 2.152000 255 0 0
0.005497 0.570678 2.153000 255 0 0
0.011370 0.570677 2.153000 255 0 0
0.017235 0.570411 2.152000 255 0 0
0.023105 0.570409 2.152000 255 0 0
0.029042 0.571732 2.157000 255 0 0
0.034990 0.572789 2.161000 255 0 0
0.040922 0.573316 2.163000 255 0 0
0.046779 0.572783 2.161000 255 0 0
0.052673 0.572778 2.161000 255 0 0
0.058566 0.572774 2.161000 255 0 0
0.064550 0.573564 2.164000 255 0 0
0.070712 0.575678 2.172000 255 0 0
-0.093574 0.645236 2.088212 0 255 0
-0.087916 0.647109 2.096524 0 255 0
-0.088456 0.649580 2.109412 0 255 0
-0.092549 0.652384 2.124874 0 255 0
-0.096655 0.655182 2.140291 0 255 0
-0.105215 0.658388 2.158885 0 255 0
-0.104905 0.660755 2.170991 0 255 0
-0.111718 0.663777 2.188192 0 255 0
-0.098956 0.664994 2.191325 0 255 0
-0.086178 0.666224 2.194512 0 255 0
-0.084089 0.668433 2.205331 0 255 0
-0.082894 0.670722 2.216771 0 255 0
-0.301542 0.567925 2.167000 255 0 0
-0.294420 0.565588 2.158000 255 0 0
-0.287614 0.563774 2.151000 255 0 0
-0.281500 0.563270 2.149000 255 0 0
-0.275525 0.563028 2.148000 255 0 0
-0.269554 0.562786 2.147000 255 0 0
-0.263343 0.562020 2.144000 255 0 0
-0.257388 0.561777 2.143000 255 0 0
-0.251556 0.561796 2.143000 255 0 0
-0.245952 0.562339 2.145000 255 0 0
-0.240448 0.563144 2.148000 255 0 0
-0.234710 0.563424 2.149000 255 0 0
-0.229071 0.563966 2.151000 255 0 0
-0.223318 0.564246 2.152000 255 0 0
-0.217458 0.564263 2.152000 255 0 0
-0.211597 0.564279 2.152000 255 0 0
-0.205449 0.563509 2.149000 255 0 0
-0.199131 0.562214 2.144000 255 0 0
-0.193020 0.561443 2.141000 255 0 0
-0.186750 0.560147 2.136000 255 0 0
-0.181015 0.560423 2.137000 255 0 0
-0.175028 0.559913 2.135000 255 0 0
-0.169369 0.560452 2.137000 255 0 0
-0.163163 0.559154 2.132000 255 0 0
-0.156910 0.557593 2.126000 255 0 0
-0.150831 0.556556 2.122000 255 0 0
-0.145252 0.557355 2.125000 255 0 0
-0.139919 0.559203 2.132000 255 0 0
-0.134674 0.561575 2.141000 255 0 0
-0.129198 0.563159 2.147000 255 0 0
-0.123402 0.563432 2.148000 255 0 0
-0.117546 0.563442 2.148000 255 0 0
-0.111533 0.562665 2.145000 255 0 0
-0.105635 0.562411 2.144000 255 0 0
-0.099742 0.562158 2.143000 255 0 0
-0.093942 0.562428 2.144000 255 0 0
-0.088054 0.562173 2.143000 255 0 0
-0.082210 0.562181 2.143000 255 0 0
-0.076437 0.562712 2.145000 255 0 0
-0.070619 0.562980 2.146000 255 0 0
-0.064827 0.563511 2.148000 255 0 0
-0.059078 0.564565 2.152000 255 0 0
-0.053257 0.565095 2.154000 255 0 0
-0.047404 0.565361 2.155000 255 0 0
-0.041429 0.564053 2.150000 255 0 0
-0.035416 0.561696 2.141000 255 0 0
-0.029382 0.558025 2.127000 255 0 0
-0.023513 0.556454 2.121000 255 0 0
-0.017761 0.557505 2.125000 255 0 0
-0.012037 0.560917 2.138000 255 0 0
-0.006228 0.563016 2.146000 255 0 0
-0.000374 0.563541 2.148000 255 0 0
0.005488 0.563803 2.149000 255 0 0
0.011361 0.564327 2.151000 255 0 0
0.017244 0.564851 2.153000 255 0 0
0.023128 0.565111 2.154000 255 0 0
0.029031 0.565634 2.156000 255 0 0
0.034912 0.565631 2.156000 255 0 0
0.040812 0.565890 2.157000 255 0 0
0.046674 0.565624 2.156000 255 0 0
0.052555 0.565620 2.156000 255 0 0
0.058409 0.565353 2.155000 255 0 0
0.064346 0.565873 2.157000 255 0 0
0.070360 0.566916 2.161000 255 0 0
0.076501 0.568747 2.168000 255 0 0
0.082755 0.571101 2.177000 255 0 0
-0.084596 0.643544 2.132741 0 255 0
-0.105566 0.647993 2.160378 0 255 0
-0.112948 0.653507 2.190320 0 255 0
-0.104642 0.655118 2.196641 0 255 0
-0.096327 0.656736 2.202990 0 255 0
-0.090678 0.658611 2.211260 0 255 0
-0.306464 0.560223 2.160000 255 0 0
-0.300172 0.559466 2.157000 255 0 0
-0.293895 0.558709 2.154000 255 0 0
-0.287367 0.557433 2.149000 255 0 0
-0.280996 0.556416 2.145000 255 0 0
-0.274904 0.555918 2.143000 255 0 0
-0.269072 0.555938 2.143000 255 0 0
-0.262995 0.555439 2.141000 255 0 0
-0.257047 0.555199 2.140000 255 0 0
-0.251457 0.555737 2.142000 255 0 0
-0.245856 0.556274 2.144000 255 0 0
-0.240243 0.556812 2.146000 255 0 0
-0.234400 0.556830 2.146000 255 0 0
-0.228770 0.557367 2.148000 255 0 0
-0.223024 0.557644 2.149000 255 0 0
-0.217374 0.558180 2.151000 255 0 0
-0.211318 0.557677 2.149000 255 0 0
-0.205274 0.557175 2.147000 255 0 0
-0.198961 0.555893 2.142000 255 0 0
-0.193035 0.555649 2.141000 255 0 0
-0.186940 0.554886 2.138000 255 0 0
-0.181114 0.554900 2.138000 255 0 0
-0.175206 0.554655 2.137000 255 0 0
-0.169383 0.554669 2.137000 255 0 0
-0.163100 0.553125 2.131000 255 0 0
-0.156701 0.551061 2.123000 255 0 0
-0.150772 0.550555 2.121000 255 0 0
-0.145128 0.551086 2.123000 255 0 0
-0.139734 0.552655 2.129000 255 0 0
-0.134433 0.554743 2.137000 255 0 0
-0.129088 0.556831 2.145000 255 0 0
-0.123470 0.557880 2.149000 255 0 0
-0.117665 0.558149 2.150000 255 0 0
-0.111698 0.557639 2.148000 255 0 0
-0.105693 0.556870 2.145000 255 0 0
-0.099844 0.556878 2.145000 255 0 0
-0.093994 0.556886 2.145000 255 0 0
-0.088185 0.557154 2.146000 255 0 0
-0.082217 0.556382 2.143000 255 0 0
-0.076479 0.557167 2.146000 255 0 0
-0.070592 0.556914 2.145000 255 0 0
-0.064802 0.557439 2.147000 255 0 0
-0.059000 0.557964 2.149000 255 0 0
-0.053188 0.558488 2.151000 255 0 0
-0.047276 0.557973 2.149000 255 0 0
-0.041279 0.556159 2.142000 255 0 0
-0.035303 0.554085 2.134000 255 0 0
-0.029357 0.551751 2.125000 255 0 0
-0.023515 0.550714 2.121000 255 0 0
-0.017762 0.551755 2.125000 255 0 0
-0.012021 0.554353 2.135000 255 0 0
-0.006217 0.556171 2.142000 255 0 0
-0.000374 0.556950 2.145000 255 0 0
0.005483 0.557469 2.147000 255 0 0
0.011356 0.558247 2.150000 255 0 0
0.017246 0.559025 2.153000 255 0 0
0.023130 0.559283 2.154000 255 0 0
0.029006 0.559281 2.154000 255 0 0
0.034850 0.558759 2.152000 255 0 0
0.040759 0.559275 2.154000 255 0 0
0.046613 0.559012 2.153000 255 0 0
0.052462 0.558748 2.152000 255 0 0
0.058305 0.558483 2.151000 255 0 0
0.064203 0.558738 2.152000 255 0 0
0.070203 0.559771 2.156000 255 0 0
0.076225 0.560803 2.160000 255 0 0
0.082268 0.561835 2.164000 255 0 0
0.088374 0.563126 2.169000 255 0 0
0.094463 0.564157 2.173000 255 0 0
-0.125138 0.641906 2.188069 0 255 0
-0.118623 0.643669 2.195636 0 255 0
-0.112102 0.645436 2.203220 0 255 0
-0.102014 0.646864 2.208290 0 255 0
-0.091916 0.648302 2.213399 0 255 0
-0.081805 0.649750 2.218545 0 255 0
-0.314818 0.558717 2.177000 255 0 0
-0.305776 0.553092 2.155000 255 0 0
-0.299497 0.552344 2.152000 255 0 0
-0.293370 0.551852 2.150000 255 0 0
-0.286987 0.550846 2.146000 255 0 0
-0.280493 0.549583 2.141000 255 0 0
-0.274411 0.549090 2.139000 255 0 0
-0.268715 0.549367 2.140000 255 0 0
-0.262891 0.549387 2.140000 255 0 0
-0.257067 0.549406 2.140000 255 0 0
-0.251241 0.549425 2.140000 255 0 0
-0.245301 0.549188 2.139000 255 0 0
-0.239701 0.549719 2.141000 255 0 0
-0.233981 0.549994 2.142000 255 0 0
-0.228574 0.551039 2.146000 255 0 0
-0.222522 0.550543 2.144000 255 0 0
-0.216986 0.551331 2.147000 255 0 0
-0.211138 0.551347 2.147000 255 0 0
-0.205290 0.551364 2.147000 255 0 0
-0.198976 0.550096 2.142000 255 0 0
-0.192960 0.549598 2.140000 255 0 0
-0.187129 0.549613 2.140000 255 0 0
-0.181213 0.549371 2.139000 255 0 0
-0.175302 0.549128 2.138000 255 0 0
-0.169397 0.548885 2.137000 255 0 0
-0.163113 0.547357 2.131000 255 0 0
-0.156714 0.545316 2.123000 255 0 0
-0.150642 0.544301 2.119000 255 0 0
-0.144934 0.544570 2.120000 255 0 0
-0.139352 0.545352 2.123000 255 0 0
-0.134130 0.547675 2.132000 255 0 0
-0.128858 0.549998 2.141000 255 0 0
-0.123365 0.551550 2.147000 255 0 0
-0.117620 0.552074 2.149000 255 0 0
-0.111708 0.551826 2.148000 255 0 0
-0.105751 0.551321 2.146000 255 0 0
-0.099805 0.550816 2.144000 255 0 0
-0.093958 0.550824 2.144000 255 0 0
-0.088151 0.551089 2.145000 255 0 0
-0.082262 0.550839 2.144000 255 0 0
-0.076485 0.551360 2.146000 255 0 0
-0.070598 0.551109 2.145000 255 0 0
-0.064747 0.551115 2.145000 255 0 0
-0.058923 0.551377 2.146000 255 0 0
-0.053044 0.551125 2.145000 255 0 0
-0.047104 0.550101 2.141000 255 0 0
-0.041128 0.548306 2.134000 255 0 0
-0.035240 0.547282 2.130000 255 0 0
-0.029318 0.545229 2.122000 255 0 0
-0.023528 0.545231 2.122000 255 0 0
-0.017764 0.546004 2.125000 255 0 0
-0.012022 0.548575 2.135000 255 0 0
-0.006206 0.549346 2.138000 255 0 0
-0.000373 0.550374 2.142000 255 0 0
0.005484 0.551659 2.147000 255 0 0
0.011368 0.552943 2.152000 255 0 0
0.017247 0.553199 2.153000 255 0 0
0.023111 0.552940 2.152000 255 0 0
0.028969 0.552681 2.151000 255 0 0
0.034821 0.552421 2.150000 255 0 0
0.040724 0.552932 2.152000 255 0 0
0.046596 0.552928 2.152000 255 0 0
0.052418 0.552410 2.150000 255 0 0
0.058175 0.551378 2.146000 255 0 0
0.064059 0.551629 2.147000 255 0 0
0.070013 0.552394 2.150000 255 0 0
0.076019 0.553416 2.154000 255 0 0
0.081933 0.553666 2.155000 255 0 0
0.087892 0.554173 2.157000 255 0 0
0.093906 0.554936 2.160000 255 0 0
0.100167 0.556983 2.168000 255 0 0
-0.137903 0.632824 2.198506 0 255 0
-0.130510 0.634480 2.205405 0 255 0
-0.126667 0.636500 2.214866 0 255 0
-0.111257 0.637369 2.216112 0 255 0
-0.101169 0.638783 2.221204 0 255 0
-0.093742 0.640470 2.228214 0 255 0
-0.311803 0.547490 2.156000 255 0 0
-0.305088 0.545989 2.150000 255 0 0
-0.299101 0.545756 2.149000 255 0 0
-0.293119 0.545524 2.148000 255 0 0
-0.286740 0.544529 2.144000 255 0 0
-0.280513 0.543787 2.141000 255 0 0
-0.274559 0.543554 2.140000 255 0 0
-0.268735 0.543574 2.140000 255 0 0
-0.262911 0.543594 2.140000 255 0 0
-0.257086 0.543613 2.140000 255 0 0
-0.251378 0.543886 2.141000 255 0 0
-0.245205 0.543143 2.138000 255 0 0
-0.239496 0.543416 2.139000 255 0 0
-0.233671 0.543434 2.139000 255 0 0
-0.228272 0.544468 2.143000 255 0 0
-0.222228 0.543977 2.141000 255 0 0
-0.216700 0.544757 2.144000 255 0 0
-0.210860 0.544773 2.144000 255 0 0
-0.205115 0.545044 2.145000 255 0 0
-0.198992 0.544298 2.142000 255 0 0
-0.192976 0.543805 2.140000 255 0 0
-0.187057 0.543566 2.139000 255 0 0
-0.181059 0.543072 2.137000 255 0 0
-0.175153 0.542833 2.136000 255 0 0
-0.169172 0.542338 2.134000 255 0 0
-0.163050 0.541335 2.130000 255 0 0
-0.156653 0.539315 2.122000 255 0 0
-0.150655 0.538565 2.119000 255 0 0
-0.144809 0.538323 2.118000 255 0 0
-0.139101 0.538589 2.119000 255 0 0
-0.133637 0.539871 2.124000 255 0 0
-0.128448 0.542424 2.134000 255 0 0
-0.123260 0.545230 2.145000 255 0 0
-0.117685 0.546511 2.150000 255 0 0
-0.111821 0.546521 2.150000 255 0 0
-0.105908 0.546275 2.149000 255 0 0
-0.099907 0.545521 2.146000 255 0 0
-0.094010 0.545275 2.145000 255 0 0
-0.088200 0.545537 2.146000 255 0 0
-0.082384 0.545799 2.147000 255 0 0
-0.076527 0.545805 2.147000 255 0 0
-0.070604 0.545303 2.145000 255 0 0
-0.064692 0.544800 2.143000 255 0 0
-0.058818 0.544551 2.142000 255 0 0
-0.052925 0.544048 2.140000 255 0 0
-0.046998 0.543035 2.136000 255 0 0
-0.041016 0.541005 2.128000 255 0 0
-0.035127 0.539737 2.123000 255 0 0
-0.029251 0.538214 2.117000 255 0 0
-0.023508 0.538979 2.120000 255 0 0
-0.017774 0.540507 2.126000 255 0 0
-0.012029 0.543050 2.136000 255 0 0
-0.006207 0.543559 2.138000 255 0 0
-0.000373 0.544322 2.141000 255 0 0
0.005479 0.545339 2.145000 255 0 0
0.011353 0.546355 2.149000 255 0 0
0.017225 0.546608 2.150000 255 0 0
0.023070 0.546098 2.148000 255 0 0
0.028931 0.546096 2.148000 255 0 0
0.034791 0.546093 2.148000 255 0 0
0.040671 0.546344 2.149000 255 0 0
0.046513 0.546086 2.148000 255 0 0
0.052325 0.545574 2.146000 255 0 0
0.058125 0.545061 2.144000 255 0 0
0.064034 0.545564 2.146000 255 0 0
0.069987 0.546321 2.149000 255 0 0
0.076026 0.547586 2.154000 255 0 0
0.081864 0.547325 2.153000 255 0 0
0.087737 0.547318 2.153000 255 0 0
0.093610 0.547310 2.153000 255 0 0
0.099852 0.549336 2.161000 255 0 0
0.106235 0.551869 2.171000 255 0 0
