ply
format ascii 1.0
element vertex 1322
property double x
property double y
property double z
property uchar red
property uchar green
property uchar blue
end_header
0.067827 0.100313 2.262000 255 0 0
0.074061 0.100356 2.263000 255 0 0
0.080370 0.100487 2.266000 255 0 0
0.086735 0.100663 2.270000 255 0 0
0.093407 0.101148 2.281000 255 0 0
0.100226 0.101723 2.294000 255 0 0
0.125261 0.101624 2.292000 255 0 0
0.131139 0.101310 2.285000 255 0 0
0.136978 0.100997 2.278000 255 0 0
0.142652 0.100595 2.269000 255 0 0
0.148604 0.100414 2.265000 255 0 0
0.154670 0.100322 2.263000 255 0 0
0.160583 0.100141 2.259000 255 0 0
0.165218 0.099207 2.238000 255 0 0
0.170656 0.098804 2.229000 255 0 0
-0.203570 -0.127498 2.479543 255 255 0
-0.192056 -0.127358 2.473683 255 255 0
-0.172918 -0.125157 2.472767 255 255 0
-0.145330 -0.120655 2.477409 255 255 0
-0.070215 -0.117613 2.448710 255 255 0
-0.048782 -0.114603 2.450132 255 255 0
-0.028229 -0.111806 2.451093 255 255 0
0.019170 -0.101552 2.470369 255 255 0
-0.003178 -0.110582 2.442457 255 255 0
0.008900 -0.110072 2.437932 255 255 0
0.014260 -0.111424 2.428846 255 255 0
0.031327 -0.109493 2.427880 255 255 0
0.034996 -0.111304 2.417687 255 255 0
0.036994 -0.113584 2.406326 255 255 0
0.036495 -0.116573 2.393196 255 255 0
0.038503 -0.118858 2.381809 255 255 0
-0.192597 -0.182616 2.384724 0 255 0
-0.192126 -0.179584 2.396742 0 255 0
-0.206960 -0.171374 2.419013 0 255 0
-0.232035 -0.159740 2.447992 0 255 0
-0.235020 -0.155596 2.462102 0 255 0
-0.190289 -0.167485 2.444657 0 255 0
-0.178752 -0.168182 2.449312 0 255 0
-0.175738 -0.166017 2.459596 0 255 0
-0.156489 -0.169259 2.459330 0 255 0
-0.137211 -0.172480 2.459159 0 255 0
-0.128177 -0.172279 2.465688 0 255 0
-0.113992 -0.173767 2.468966 0 255 0
-0.315796 0.092039 2.216000 255 0 0
-0.311987 0.092709 2.232000 255 0 0
-0.306582 0.092923 2.237000 255 0 0
-0.300746 0.093012 2.239000 255 0 0
-0.294240 0.092893 2.236000 255 0 0
-0.288780 0.093106 2.241000 255 0 0
-0.283418 0.093361 2.247000 255 0 0
-0.251744 0.095347 2.294000 255 0 0
-0.245473 0.095352 2.294000 255 0 0
-0.238889 0.095232 2.291000 255 0 0
-0.232929 0.095361 2.294000 255 0 0
-0.226261 0.095200 2.290000 255 0 0
-0.219709 0.095080 2.287000 255 0 0
-0.212987 0.094876 2.282000 255 0 0
-0.206381 0.094714 2.278000 255 0 0
-0.199797 0.094552 2.274000 255 0 0
-0.193233 0.094390 2.270000 255 0 0
-0.186774 0.094269 2.267000 255 0 0
-0.180250 0.094107 2.263000 255 0 0
-0.173747 0.093944 2.259000 255 0 0
-0.167340 0.093823 2.256000 255 0 0
-0.161020 0.093743 2.254000 255 0 0
-0.154779 0.093705 2.253000 255 0 0
-0.148477 0.093625 2.251000 255 0 0
-0.142248 0.093587 2.250000 255 0 0
-0.135903 0.093465 2.247000 255 0 0
-0.129517 0.093301 2.243000 255 0 0
-0.123207 0.093179 2.240000 255 0 0
-0.117017 0.093140 2.239000 255 0 0
-0.110832 0.093101 2.238000 255 0 0
-0.104652 0.093062 2.237000 255 0 0
-0.098390 0.092939 2.234000 255 0 0
-0.092102 0.092775 2.230000 255 0 0
-0.086028 0.092818 2.231000 255 0 0
-0.080020 0.092945 2.234000 255 0 0
-0.073962 0.093030 2.236000 255 0 0
-0.067802 0.092990 2.235000 255 0 0
-0.061675 0.092991 2.235000 255 0 0
-0.055572 0.093034 2.236000 255 0 0
-0.049375 0.092910 2.233000 255 0 0
-0.043233 0.092870 2.232000 255 0 0
-0.037080 0.092787 2.230000 255 0 0
-0.030952 0.092746 2.229000 255 0 0
-0.024851 0.092789 2.230000 255 0 0
-0.018753 0.092872 2.232000 255 0 0
-0.012655 0.093039 2.236000 255 0 0
-0.006532 0.093164 2.239000 255 0 0
-0.000393 0.093206 2.240000 255 0 0
0.005755 0.093289 2.242000 255 0 0
0.011914 0.093372 2.244000 255 0 0
0.018091 0.093497 2.247000 255 0 0
0.024274 0.093579 2.249000 255 0 0
0.030482 0.093704 2.252000 255 0 0
0.036706 0.093828 2.255000 255 0 0
0.042908 0.093868 2.256000 255 0 0
0.049137 0.093951 2.258000 255 0 0
0.055352 0.093991 2.259000 255 0 0
0.061600 0.094073 2.261000 255 0 0
0.067799 0.094072 2.261000 255 0 0
0.074062 0.094153 2.263000 255 0 0
0.080408 0.094318 2.267000 255 0 0
0.086775 0.094483 2.271000 255 0 0
0.093573 0.095063 2.285000 255 0 0
0.100666 0.095851 2.304000 255 0 0
0.125155 0.095259 2.290000 255 0 0
0.131199 0.095090 2.286000 255 0 0
0.136981 0.094755 2.278000 255 0 0
0.142718 0.094419 2.270000 255 0 0
0.148804 0.094333 2.268000 255 0 0
0.154947 0.094288 2.267000 255 0 0
0.160800 0.094076 2.262000 255 0 0
0.164336 0.092576 2.226000 255 0 0
0.168746 0.091657 2.204000 255 0 0
-0.187600 -0.137833 2.477944 255 255 0
-0.164229 -0.134430 2.479741 255 255 0
-0.158703 -0.135858 2.470190 255 255 0
-0.059933 -0.126152 2.456890 255 255 0
-0.042726 -0.124252 2.455505 255 255 0
-0.039838 -0.126326 2.444579 255 255 0
-0.015958 -0.122525 2.447863 255 255 0
-0.005541 -0.122469 2.442132 255 255 0
-0.002680 -0.124530 2.431279 255 255 0
0.004367 -0.125410 2.423303 255 255 0
0.038160 -0.118707 2.433863 255 255 0
0.046833 -0.119090 2.427172 255 255 0
0.047988 -0.121607 2.415259 255 255 0
0.034148 -0.128414 2.392782 255 255 0
0.027004 -0.133330 2.374909 255 255 0
0.032357 -0.134672 2.365839 255 255 0
-0.207494 -0.188684 2.396162 0 255 0
-0.203637 -0.186816 2.405851 0 255 0
-0.214222 -0.180010 2.425231 0 255 0
-0.223548 -0.170501 2.455838 0 255 0
-0.195865 -0.176734 2.449710 0 255 0
-0.184337 -0.177459 2.454362 0 255 0
-0.170235 -0.179037 2.457394 0 255 0
-0.152697 -0.181749 2.458273 0 255 0
-0.146245 -0.180717 2.466414 0 255 0
-0.135510 -0.181111 2.471828 0 255 0
-0.006323 -0.204484 2.465206 0 255 0
-0.316799 0.086246 2.223000 255 0 0
-0.312273 0.086679 2.234000 255 0 0
-0.306999 0.086917 2.240000 255 0 0
-0.301155 0.087000 2.242000 255 0 0
-0.294641 0.086889 2.239000 255 0 0
-0.288786 0.086972 2.241000 255 0 0
-0.283550 0.087249 2.248000 255 0 0
-0.251639 0.089026 2.293000 255 0 0
-0.245585 0.089108 2.295000 255 0 0
-0.238998 0.088996 2.292000 255 0 0
-0.233137 0.089156 2.296000 255 0 0
-0.226562 0.089044 2.293000 255 0 0
-0.219810 0.088854 2.288000 255 0 0
-0.212898 0.088587 2.281000 255 0 0
-0.206295 0.088435 2.277000 255 0 0
-0.199889 0.088362 2.275000 255 0 0
-0.193322 0.088210 2.271000 255 0 0
-0.187025 0.088175 2.270000 255 0 0
-0.180572 0.088062 2.267000 255 0 0
-0.174058 0.087910 2.263000 255 0 0
-0.167566 0.087758 2.259000 255 0 0
-0.161095 0.087606 2.255000 255 0 0
-0.154713 0.087493 2.252000 255 0 0
-0.148480 0.087457 2.251000 255 0 0
-0.142377 0.087499 2.252000 255 0 0
-0.136027 0.087385 2.249000 255 0 0
-0.129693 0.087271 2.246000 255 0 0
-0.123374 0.087157 2.243000 255 0 0
-0.117176 0.087120 2.242000 255 0 0
-0.110983 0.087084 2.241000 255 0 0
-0.104795 0.087047 2.240000 255 0 0
-0.098524 0.086933 2.237000 255 0 0
-0.092269 0.086818 2.234000 255 0 0
-0.086184 0.086859 2.235000 255 0 0
-0.080201 0.087016 2.239000 255 0 0
-0.074129 0.087095 2.241000 255 0 0
-0.067925 0.087019 2.239000 255 0 0
-0.061704 0.086903 2.236000 255 0 0
-0.055548 0.086866 2.235000 255 0 0
-0.049332 0.086711 2.231000 255 0 0
-0.043176 0.086635 2.229000 255 0 0
-0.037081 0.086674 2.230000 255 0 0
-0.030994 0.086753 2.232000 255 0 0
-0.024896 0.086831 2.234000 255 0 0
-0.018787 0.086909 2.236000 255 0 0
-0.012666 0.086987 2.238000 255 0 0
-0.006538 0.087104 2.241000 255 0 0
-0.000393 0.087065 2.240000 255 0 0
0.005750 0.087065 2.240000 255 0 0
0.011898 0.087104 2.241000 255 0 0
0.018067 0.087220 2.244000 255 0 0
0.024275 0.087414 2.249000 255 0 0
0.030469 0.087491 2.251000 255 0 0
0.036674 0.087568 2.253000 255 0 0
0.042851 0.087567 2.253000 255 0 0
0.049029 0.087567 2.253000 255 0 0
0.055280 0.087682 2.256000 255 0 0
0.061601 0.087875 2.261000 255 0 0
0.067920 0.088029 2.265000 255 0 0
0.074162 0.088067 2.266000 255 0 0
0.080409 0.088104 2.267000 255 0 0
0.086700 0.088180 2.269000 255 0 0
0.093657 0.088878 2.287000 255 0 0
0.125485 0.089217 2.296000 255 0 0
0.131087 0.088748 2.284000 255 0 0
0.136923 0.088473 2.277000 255 0 0
0.142721 0.088198 2.270000 255 0 0
0.148742 0.088079 2.267000 255 0 0
0.154814 0.087998 2.265000 255 0 0
0.160732 0.087840 2.261000 255 0 0
0.163527 0.086049 2.215000 255 0 0
-0.163181 -0.145760 2.481821 255 255 0
-0.150877 -0.145313 2.476629 255 255 0
-0.045926 -0.136480 2.454681 255 255 0
-0.042192 -0.138321 2.444306 255 255 0
-0.025032 -0.136360 2.443019 255 255 0
-0.004548 -0.133431 2.444095 255 255 0
0.006689 -0.133108 2.438971 255 255 0
0.017908 -0.132778 2.433892 255 255 0
0.034125 -0.131002 2.432328 255 255 0
0.042802 -0.131371 2.425615 255 255 0
0.048133 -0.132697 2.416601 255 255 0
0.041799 -0.137392 2.399401 255 255 0
0.054622 -0.136548 2.395666 255 255 0
-0.224069 -0.194086 2.408728 0 255 0
-0.218530 -0.192817 2.417231 0 255 0
-0.218080 -0.189788 2.429163 0 255 0
-0.225282 -0.184130 2.446179 0 255 0
-0.220597 -0.182571 2.455237 0 255 0
-0.203991 -0.185088 2.456444 0 255 0
-0.179695 -0.190206 2.452701 0 255 0
-0.167299 -0.191233 2.456874 0 255 0
-0.153179 -0.192827 2.459995 0 255 0
-0.142457 -0.193251 2.465388 0 255 0
-0.136851 -0.191933 2.474118 0 255 0
-0.122685 -0.193493 2.477402 0 255 0
-0.025468 -0.213033 2.466002 0 255 0
0.000003 -0.218209 2.462800 0 255 0
-0.004591 -0.213384 2.478315 0 255 0
-0.318088 0.080487 2.232000 255 0 0
-0.312558 0.080637 2.236000 255 0 0
-0.307005 0.080786 2.240000 255 0 0
-0.301026 0.080828 2.241000 255 0 0
-0.294514 0.080724 2.238000 255 0 0
-0.288662 0.080801 2.240000 255 0 0
-0.283555 0.081095 2.248000 255 0 0
-0.252521 0.083035 2.301000 255 0 0
-0.245910 0.082931 2.298000 255 0 0
-0.239315 0.082827 2.295000 255 0 0
-0.233243 0.082904 2.297000 255 0 0
-0.226665 0.082800 2.294000 255 0 0
-0.219910 0.082623 2.289000 255 0 0
-0.213275 0.082483 2.285000 255 0 0
-0.206661 0.082342 2.281000 255 0 0
-0.200244 0.082274 2.279000 255 0 0
-0.193581 0.082097 2.274000 255 0 0
-0.187110 0.081992 2.271000 255 0 0
-0.180735 0.081923 2.269000 255 0 0
-0.174216 0.081782 2.265000 255 0 0
-0.167717 0.081640 2.261000 255 0 0
-0.161241 0.081499 2.257000 255 0 0
-0.154716 0.081321 2.252000 255 0 0
-0.148417 0.081252 2.250000 255 0 0
-0.142191 0.081219 2.249000 255 0 0
-0.136030 0.081221 2.249000 255 0 0
-0.129695 0.081115 2.246000 255 0 0
-0.123432 0.081045 2.244000 255 0 0
-0.117178 0.080975 2.242000 255 0 0
-0.110985 0.080941 2.241000 255 0 0
-0.104797 0.080907 2.240000 255 0 0
-0.098526 0.080801 2.237000 255 0 0
-0.092312 0.080730 2.235000 255 0 0
-0.086186 0.080732 2.235000 255 0 0
-0.080202 0.080878 2.239000 255 0 0
-0.074064 0.080880 2.239000 255 0 0
-0.067866 0.080809 2.237000 255 0 0
-0.061650 0.080702 2.234000 255 0 0
-0.055500 0.080667 2.233000 255 0 0
-0.049311 0.080559 2.230000 255 0 0
-0.043196 0.080560 2.230000 255 0 0
-0.037115 0.080633 2.232000 255 0 0
-0.031036 0.080742 2.235000 255 0 0
-0.024919 0.080779 2.236000 255 0 0
-0.018812 0.080888 2.239000 255 0 0
-0.012672 0.080888 2.239000 255 0 0
-0.006538 0.080960 2.241000 255 0 0
-0.000392 0.080888 2.239000 255 0 0
0.005750 0.080924 2.240000 255 0 0
0.011903 0.080996 2.242000 255 0 0
0.018068 0.081068 2.244000 255 0 0
0.024254 0.081176 2.247000 255 0 0
0.030429 0.081212 2.248000 255 0 0
0.036642 0.081320 2.251000 255 0 0
0.042833 0.081355 2.252000 255 0 0
0.049030 0.081390 2.253000 255 0 0
0.055281 0.081498 2.256000 255 0 0
0.061575 0.081641 2.260000 255 0 0
0.067951 0.081856 2.266000 255 0 0
0.074229 0.081927 2.268000 255 0 0
0.080517 0.081998 2.270000 255 0 0
0.086855 0.082105 2.273000 255 0 0
0.093577 0.082537 2.285000 255 0 0
0.125324 0.082815 2.293000 255 0 0
0.130803 0.082307 2.279000 255 0 0
0.136866 0.082197 2.276000 255 0 0
0.142849 0.082050 2.272000 255 0 0
0.148941 0.081975 2.270000 255 0 0
0.154885 0.081827 2.266000 255 0 0
0.160806 0.081680 2.262000 255 0 0
0.165597 0.080991 2.243000 255 0 0
0.171356 0.080807 2.238000 255 0 0
-0.145164 -0.158269 2.468627 255 255 0
-0.082311 -0.155259 2.444664 255 255 0
-0.058367 -0.151373 2.447680 255 255 0
-0.051259 -0.152262 2.439521 255 255 0
-0.030740 -0.149302 2.440461 255 255 0
-0.006905 -0.145361 2.443782 255 255 0
0.021907 -0.139951 2.450658 255 255 0
0.033108 -0.139589 2.445614 255 255 0
0.035106 -0.141881 2.434265 255 255 0
0.035440 -0.144660 2.421748 255 255 0
0.033279 -0.148171 2.407463 255 255 0
0.049444 -0.146333 2.406012 255 255 0
0.063088 -0.145213 2.402875 255 255 0
-0.218148 -0.204071 2.418315 0 255 0
-0.223634 -0.198964 2.434232 0 255 0
-0.217246 -0.197997 2.442175 0 255 0
-0.212553 -0.196438 2.451265 0 255 0
-0.205304 -0.195758 2.458681 0 255 0
-0.186980 -0.198886 2.458866 0 255 0
-0.185673 -0.196138 2.470256 0 255 0
-0.161340 -0.201285 2.466701 0 255 0
-0.140385 -0.205237 2.465474 0 255 0
-0.134777 -0.203925 2.474219 0 255 0
-0.022578 -0.225593 2.465709 0 255 0
-0.322438 0.073974 2.220000 255 0 0
-0.318520 0.074479 2.235000 255 0 0
-0.312563 0.074517 2.236000 255 0 0
-0.306873 0.074622 2.239000 255 0 0
-0.300628 0.074593 2.238000 255 0 0
-0.294387 0.074565 2.237000 255 0 0
-0.288538 0.074636 2.239000 255 0 0
-0.283686 0.074974 2.249000 255 0 0
-0.253184 0.076934 2.307000 255 0 0
-0.246343 0.076771 2.302000 255 0 0
-0.239736 0.076675 2.299000 255 0 0
-0.233247 0.076612 2.297000 255 0 0
-0.226668 0.076516 2.294000 255 0 0
-0.220010 0.076386 2.290000 255 0 0
-0.213372 0.076256 2.286000 255 0 0
-0.206755 0.076126 2.282000 255 0 0
-0.200247 0.076030 2.279000 255 0 0
-0.193670 0.075900 2.275000 255 0 0
-0.187196 0.075803 2.272000 255 0 0
-0.180658 0.075672 2.268000 255 0 0
-0.174142 0.075542 2.264000 255 0 0
-0.167720 0.075445 2.261000 255 0 0
-0.161315 0.075347 2.258000 255 0 0
-0.154856 0.075217 2.254000 255 0 0
-0.148485 0.075119 2.251000 255 0 0
-0.142193 0.075055 2.249000 255 0 0
-0.135972 0.075024 2.248000 255 0 0
-0.129698 0.074959 2.246000 255 0 0
-0.123379 0.074861 2.243000 255 0 0
-0.117076 0.074763 2.240000 255 0 0
-0.110839 0.074699 2.238000 255 0 0
-0.104659 0.074667 2.237000 255 0 0
-0.098483 0.074636 2.236000 255 0 0
-0.092355 0.074637 2.236000 255 0 0
-0.086226 0.074639 2.236000 255 0 0
-0.080168 0.074707 2.238000 255 0 0
-0.073967 0.074642 2.236000 255 0 0
-0.067745 0.074543 2.233000 255 0 0
-0.061540 0.074444 2.230000 255 0 0
-0.055401 0.074411 2.229000 255 0 0
-0.049268 0.074379 2.228000 255 0 0
-0.043197 0.074446 2.230000 255 0 0
-0.037149 0.074581 2.234000 255 0 0
-0.031065 0.074681 2.237000 255 0 0
-0.024941 0.074715 2.238000 255 0 0
-0.018813 0.074749 2.239000 255 0 0
-0.012667 0.074716 2.238000 255 0 0
-0.006535 0.074783 2.240000 255 0 0
-0.000392 0.074749 2.239000 255 0 0
0.005750 0.074783 2.240000 255 0 0
0.011893 0.074783 2.240000 255 0 0
0.018052 0.074849 2.242000 255 0 0
0.024243 0.074982 2.246000 255 0 0
0.030443 0.075082 2.249000 255 0 0
0.036643 0.075148 2.251000 255 0 0
0.042853 0.075214 2.253000 255 0 0
0.049074 0.075280 2.255000 255 0 0
0.055355 0.075413 2.259000 255 0 0
0.061631 0.075512 2.262000 255 0 0
0.068013 0.075711 2.268000 255 0 0
0.074198 0.075677 2.267000 255 0 0
0.080519 0.075775 2.270000 255 0 0
0.086780 0.075807 2.271000 255 0 0
0.093373 0.076106 2.280000 255 0 0
0.100147 0.076505 2.292000 255 0 0
0.124998 0.076330 2.287000 255 0 0
0.130633 0.075961 2.276000 255 0 0
0.136748 0.075892 2.274000 255 0 0
0.142726 0.075756 2.270000 255 0 0
0.148878 0.075720 2.269000 255 0 0
0.154888 0.075617 2.266000 255 0 0
0.160809 0.075481 2.262000 255 0 0
0.166191 0.075111 2.251000 255 0 0
0.172048 0.074975 2.247000 255 0 0
-0.131852 -0.169066 2.465569 255 255 0
-0.074993 -0.167565 2.437893 255 255 0
-0.052762 -0.164088 2.439832 255 255 0
-0.033086 -0.161319 2.440182 255 255 0
-0.000047 -0.154640 2.449737 255 255 0
0.022055 -0.151099 2.452036 255 255 0
0.029911 -0.151690 2.444685 255 255 0
0.020230 -0.157415 2.425247 255 255 0
0.028086 -0.158006 2.417894 255 255 0
0.040097 -0.157365 2.413476 255 255 0
0.044603 -0.158928 2.403852 255 255 0
0.051600 -0.159752 2.395993 255 255 0
-0.219463 -0.214743 2.420544 0 255 0
-0.216464 -0.212591 2.430779 0 255 0
-0.227043 -0.205678 2.450056 0 255 0
-0.200274 -0.211852 2.444497 0 255 0
-0.182815 -0.214734 2.445239 0 255 0
-0.215530 -0.200137 2.478962 0 255 0
-0.192103 -0.205082 2.475842 0 255 0
-0.180573 -0.205873 2.480578 0 255 0
-0.154526 -0.211657 2.476016 0 255 0
-0.133561 -0.215649 2.474875 0 255 0
-0.029984 -0.234690 2.471841 0 255 0
-0.323169 0.068052 2.225000 255 0 0
-0.318525 0.068362 2.235000 255 0 0
-0.312567 0.068397 2.236000 255 0 0
-0.306740 0.068463 2.238000 255 0 0
-0.300364 0.068406 2.236000 255 0 0
-0.294260 0.068410 2.236000 255 0 0
-0.288542 0.068506 2.239000 255 0 0
-0.283564 0.068786 2.248000 255 0 0
-0.279152 0.069218 2.262000 255 0 0
-0.254066 0.070860 2.315000 255 0 0
-0.246882 0.070619 2.307000 255 0 0
-0.240053 0.070470 2.302000 255 0 0
-0.233250 0.070320 2.297000 255 0 0
-0.226672 0.070232 2.294000 255 0 0
-0.220109 0.070143 2.291000 255 0 0
-0.213562 0.070055 2.288000 255 0 0
-0.206758 0.069874 2.282000 255 0 0
-0.200163 0.069755 2.278000 255 0 0
-0.193588 0.069636 2.274000 255 0 0
-0.187034 0.069516 2.270000 255 0 0
-0.180582 0.069427 2.267000 255 0 0
-0.174221 0.069368 2.265000 255 0 0
-0.167946 0.069341 2.264000 255 0 0
-0.161460 0.069221 2.260000 255 0 0
-0.154928 0.069070 2.255000 255 0 0
-0.148488 0.068950 2.251000 255 0 0
-0.142195 0.068891 2.249000 255 0 0
-0.135913 0.068832 2.247000 255 0 0
-0.129642 0.068773 2.245000 255 0 0
-0.123381 0.068713 2.243000 255 0 0
-0.117026 0.068593 2.239000 255 0 0
-0.110840 0.068564 2.238000 255 0 0
-0.104613 0.068504 2.236000 255 0 0
-0.098441 0.068475 2.235000 255 0 0
-0.092315 0.068477 2.235000 255 0 0
-0.086189 0.068478 2.235000 255 0 0
-0.080062 0.068480 2.235000 255 0 0
-0.073902 0.068450 2.234000 255 0 0
-0.067686 0.068359 2.231000 255 0 0
-0.061541 0.068330 2.230000 255 0 0
-0.055377 0.068269 2.228000 255 0 0
-0.049291 0.068301 2.229000 255 0 0
-0.043198 0.068332 2.230000 255 0 0
-0.037149 0.068456 2.234000 255 0 0
-0.031051 0.068517 2.236000 255 0 0
-0.024942 0.068579 2.238000 255 0 0
-0.018804 0.068579 2.238000 255 0 0
-0.012673 0.068610 2.239000 255 0 0
-0.006535 0.068641 2.240000 255 0 0
-0.000393 0.068641 2.240000 255 0 0
0.005758 0.068733 2.243000 255 0 0
0.011904 0.068702 2.242000 255 0 0
0.018076 0.068794 2.245000 255 0 0
0.024265 0.068886 2.248000 255 0 0
0.030484 0.069008 2.252000 255 0 0
0.036692 0.069068 2.254000 255 0 0
0.042930 0.069160 2.257000 255 0 0
0.049293 0.069404 2.265000 255 0 0
0.055528 0.069434 2.266000 255 0 0
0.061741 0.069433 2.266000 255 0 0
0.067954 0.069432 2.266000 255 0 0
0.074166 0.069431 2.266000 255 0 0
0.080556 0.069583 2.271000 255 0 0
0.086896 0.069673 2.274000 255 0 0
0.093293 0.069794 2.278000 255 0 0
0.099930 0.070069 2.287000 255 0 0
0.125219 0.070184 2.291000 255 0 0
0.130750 0.069784 2.278000 255 0 0
0.136931 0.069751 2.277000 255 0 0
0.142917 0.069626 2.273000 255 0 0
0.149078 0.069593 2.272000 255 0 0
0.155095 0.069499 2.269000 255 0 0
0.161096 0.069405 2.266000 255 0 0
0.166489 0.069065 2.255000 255 0 0
0.172204 0.068879 2.249000 255 0 0
-0.099129 -0.168315 2.501164 255 255 0
-0.084043 -0.181671 2.433183 255 255 0
-0.060971 -0.177895 2.435640 255 255 0
-0.024537 -0.170171 2.447269 255 255 0
-0.001563 -0.166348 2.449999 255 255 0
0.017187 -0.163736 2.449989 255 255 0
0.011210 -0.171323 2.420287 255 255 0
0.036576 -0.166703 2.425050 255 255 0
0.046079 -0.166775 2.418902 255 255 0
0.043095 -0.170571 2.404037 255 255 0
-0.217394 -0.226624 2.420497 0 255 0
-0.202444 -0.222260 2.447305 0 255 0
-0.203685 -0.218607 2.460366 0 255 0
-0.192178 -0.219438 2.465049 0 255 0
-0.216400 -0.207742 2.493061 0 255 0
-0.189563 -0.213927 2.487807 0 255 0
-0.140883 -0.224430 2.481004 0 255 0
-0.049617 -0.246174 2.460431 0 255 0
-0.043931 -0.244820 2.469458 0 255 0
-0.036527 -0.244050 2.477432 0 255 0
-0.322011 0.061740 2.217000 255 0 0
-0.317674 0.062078 2.229000 255 0 0
-0.312152 0.062193 2.233000 255 0 0
-0.306333 0.062253 2.235000 255 0 0
-0.300233 0.062257 2.235000 255 0 0
-0.294133 0.062261 2.235000 255 0 0
-0.288546 0.062376 2.239000 255 0 0
-0.283316 0.062575 2.246000 255 0 0
-0.278663 0.062913 2.258000 255 0 0
-0.262422 0.065018 2.333000 255 0 0
-0.254180 0.064547 2.316000 255 0 0
-0.246992 0.064328 2.308000 255 0 0
-0.240369 0.064248 2.305000 255 0 0
-0.233457 0.064084 2.299000 255 0 0
-0.226972 0.064031 2.297000 255 0 0
-0.220209 0.063895 2.292000 255 0 0
-0.213658 0.063814 2.289000 255 0 0
-0.206761 0.063622 2.282000 255 0 0
-0.200166 0.063513 2.278000 255 0 0
-0.193591 0.063405 2.274000 255 0 0
-0.187120 0.063324 2.271000 255 0 0
-0.180664 0.063243 2.268000 255 0 0
-0.174301 0.063189 2.266000 255 0 0
-0.167948 0.063136 2.264000 255 0 0
-0.161463 0.063027 2.260000 255 0 0
-0.154999 0.062917 2.256000 255 0 0
-0.148622 0.062836 2.253000 255 0 0
-0.142324 0.062782 2.251000 255 0 0
-0.135916 0.062673 2.247000 255 0 0
-0.129586 0.062591 2.244000 255 0 0
-0.123273 0.062509 2.241000 255 0 0
-0.116871 0.062371 2.236000 255 0 0
-0.110743 0.062373 2.236000 255 0 0
-0.104428 0.062263 2.232000 255 0 0
-0.098354 0.062292 2.233000 255 0 0
-0.092110 0.062210 2.230000 255 0 0
-0.086036 0.062239 2.231000 255 0 0
-0.079920 0.062240 2.231000 255 0 0
-0.073803 0.062242 2.231000 255 0 0
-0.067687 0.062243 2.231000 255 0 0
-0.061570 0.062244 2.231000 255 0 0
-0.055428 0.062217 2.230000 255 0 0
-0.049336 0.062245 2.231000 255 0 0
-0.043199 0.062218 2.230000 255 0 0
-0.037150 0.062330 2.234000 255 0 0
-0.031052 0.062386 2.236000 255 0 0
-0.024953 0.062471 2.239000 255 0 0
-0.018805 0.062443 2.238000 255 0 0
-0.012679 0.062499 2.240000 255 0 0
-0.006539 0.062527 2.241000 255 0 0
-0.000393 0.062555 2.242000 255 0 0
0.005756 0.062555 2.242000 255 0 0
0.011904 0.062555 2.242000 255 0 0
0.018085 0.062666 2.246000 255 0 0
0.024309 0.062833 2.252000 255 0 0
0.030566 0.063000 2.258000 255 0 0
0.036741 0.062972 2.257000 255 0 0
0.042969 0.063027 2.259000 255 0 0
0.049250 0.063138 2.263000 255 0 0
0.055504 0.063193 2.265000 255 0 0
0.061742 0.063220 2.266000 255 0 0
0.067985 0.063247 2.267000 255 0 0
0.074331 0.063358 2.271000 255 0 0
0.080628 0.063412 2.273000 255 0 0
0.086935 0.063467 2.275000 255 0 0
0.093335 0.063577 2.279000 255 0 0
0.099976 0.063827 2.288000 255 0 0
0.125658 0.064127 2.299000 255 0 0
0.131096 0.063707 2.284000 255 0 0
0.136933 0.063510 2.277000 255 0 0
0.142793 0.063340 2.271000 255 0 0
0.148883 0.063282 2.269000 255 0 0
0.155098 0.063280 2.269000 255 0 0
0.161098 0.063194 2.266000 255 0 0
0.166639 0.062941 2.257000 255 0 0
-0.142467 -0.189360 2.487646 255 255 0
-0.155540 -0.196133 2.466120 255 255 0
-0.090153 -0.192003 2.443494 255 255 0
-0.077136 -0.191146 2.439139 255 255 0
-0.024740 -0.178638 2.461300 255 255 0
-0.005945 -0.176004 2.461133 255 255 0
0.005288 -0.175591 2.455947 255 255 0
0.005642 -0.178407 2.443391 255 255 0
0.012681 -0.179230 2.435399 255 255 0
0.007205 -0.183799 2.418797 255 255 0
0.038396 -0.177361 2.427572 255 255 0
0.054550 -0.175408 2.426064 255 255 0
0.059874 -0.176707 2.417054 255 255 0
-0.218587 -0.224479 2.471552 0 255 0
-0.228762 -0.214476 2.502496 0 255 0
-0.192585 -0.224041 2.491168 0 255 0
-0.161462 -0.231767 2.483330 0 255 0
-0.154166 -0.231088 2.490947 0 255 0
-0.125526 -0.237863 2.485003 0 255 0
-0.041905 -0.257106 2.469693 0 255 0
-0.034500 -0.256347 2.477684 0 255 0
-0.021944 -0.257357 2.482515 0 255 0
-0.013661 -0.256879 2.490045 0 255 0
-0.316110 0.055701 2.218000 255 0 0
-0.311597 0.055981 2.229000 255 0 0
-0.306200 0.056110 2.234000 255 0 0
-0.300372 0.056164 2.236000 255 0 0
-0.294400 0.056192 2.237000 255 0 0
-0.288421 0.056221 2.238000 255 0 0
-0.283067 0.056375 2.244000 255 0 0
-0.277926 0.056579 2.252000 255 0 0
-0.274067 0.057060 2.271000 255 0 0
-0.261525 0.058427 2.325000 255 0 0
-0.254402 0.058254 2.318000 255 0 0
-0.247209 0.058056 2.310000 255 0 0
-0.240581 0.057984 2.307000 255 0 0
-0.233968 0.057911 2.304000 255 0 0
-0.227370 0.057839 2.301000 255 0 0
-0.220500 0.057691 2.295000 255 0 0
-0.213661 0.057543 2.289000 255 0 0
-0.206764 0.057369 2.282000 255 0 0
-0.200256 0.057296 2.279000 255 0 0
-0.193849 0.057249 2.277000 255 0 0
-0.187287 0.057151 2.273000 255 0 0
-0.180826 0.057077 2.270000 255 0 0
-0.174226 0.056954 2.265000 255 0 0
-0.168025 0.056956 2.265000 255 0 0
-0.161465 0.056833 2.260000 255 0 0
-0.155070 0.056759 2.257000 255 0 0
-0.148558 0.056635 2.252000 255 0 0
-0.142326 0.056612 2.251000 255 0 0
-0.135978 0.056539 2.248000 255 0 0
-0.129588 0.056440 2.244000 255 0 0
-0.123219 0.056341 2.240000 255 0 0
-0.116872 0.056242 2.236000 255 0 0
-0.110695 0.056218 2.235000 255 0 0
-0.104429 0.056144 2.232000 255 0 0
-0.098268 0.056120 2.231000 255 0 0
-0.092111 0.056096 2.230000 255 0 0
-0.086075 0.056148 2.232000 255 0 0
-0.079957 0.056149 2.232000 255 0 0
-0.073904 0.056200 2.234000 255 0 0
-0.067779 0.056201 2.234000 255 0 0
-0.061654 0.056202 2.234000 255 0 0
-0.055553 0.056228 2.235000 255 0 0
-0.049425 0.056229 2.235000 255 0 0
-0.043296 0.056229 2.235000 255 0 0
-0.037200 0.056280 2.237000 255 0 0
-0.031052 0.056255 2.236000 255 0 0
-0.024965 0.056356 2.240000 255 0 0
-0.018822 0.056357 2.240000 255 0 0
-0.012707 0.056483 2.245000 255 0 0
-0.006547 0.056458 2.244000 255 0 0
-0.000393 0.056432 2.243000 255 0 0
0.005756 0.056407 2.242000 255 0 0
0.011910 0.056432 2.243000 255 0 0
0.018093 0.056533 2.247000 255 0 0
0.024288 0.056608 2.250000 255 0 0
0.030539 0.056759 2.256000 255 0 0
0.036775 0.056834 2.259000 255 0 0
0.043026 0.056909 2.262000 255 0 0
0.049273 0.056958 2.264000 255 0 0
0.055481 0.056958 2.264000 255 0 0
0.061688 0.056957 2.264000 255 0 0
0.067896 0.056956 2.264000 255 0 0
0.074332 0.057131 2.271000 255 0 0
0.080629 0.057180 2.273000 255 0 0
0.087051 0.057305 2.278000 255 0 0
0.093296 0.057304 2.278000 255 0 0
0.099890 0.057504 2.286000 255 0 0
0.106620 0.057754 2.296000 255 0 0
0.121021 0.058631 2.331000 255 0 0
0.125496 0.057749 2.296000 255 0 0
0.130983 0.057396 2.282000 255 0 0
0.136875 0.057243 2.276000 255 0 0
0.142795 0.057115 2.271000 255 0 0
0.148885 0.057063 2.269000 255 0 0
0.155031 0.057036 2.268000 255 0 0
0.160887 0.056908 2.263000 255 0 0
0.166198 0.056604 2.251000 255 0 0
-0.054299 -0.195843 2.455726 255 255 0
-0.017033 -0.187677 2.467791 255 255 0
0.021834 -0.178973 2.481188 255 255 0
0.028020 -0.180029 2.472669 255 255 0
0.012484 -0.187625 2.449349 255 255 0
-0.000128 -0.197322 2.415016 255 255 0
0.036052 -0.189283 2.427208 255 255 0
0.059689 -0.185012 2.430898 255 255 0
-0.241571 -0.236992 2.451626 0 255 0
-0.226282 -0.236068 2.465817 0 255 0
-0.221595 -0.234532 2.474906 0 255 0
-0.219453 -0.232084 2.485673 0 255 0
-0.220711 -0.228423 2.498644 0 255 0
-0.206666 -0.230215 2.501685 0 255 0
-0.174719 -0.238337 2.493286 0 255 0
-0.158062 -0.240995 2.494874 0 255 0
-0.143087 -0.243033 2.497630 0 255 0
-0.010501 -0.272988 2.476965 0 255 0
-0.004781 -0.271625 2.486121 0 255 0
-0.316114 0.049630 2.218000 255 0 0
-0.311880 0.049924 2.231000 255 0 0
-0.306752 0.050084 2.238000 255 0 0
-0.300644 0.050087 2.238000 255 0 0
-0.294271 0.050045 2.236000 255 0 0
-0.288167 0.050048 2.236000 255 0 0
-0.282818 0.050186 2.242000 255 0 0
-0.277682 0.050368 2.250000 255 0 0
-0.272984 0.050639 2.262000 255 0 0
-0.268338 0.050933 2.275000 255 0 0
-0.262316 0.052215 2.332000 255 0 0
-0.253747 0.051770 2.312000 255 0 0
-0.246891 0.051661 2.307000 255 0 0
-0.240271 0.051597 2.304000 255 0 0
-0.233970 0.051599 2.304000 255 0 0
-0.227076 0.051468 2.298000 255 0 0
-0.220118 0.051313 2.291000 255 0 0
-0.213384 0.051204 2.286000 255 0 0
-0.206948 0.051161 2.284000 255 0 0
-0.200522 0.051119 2.282000 255 0 0
-0.194192 0.051099 2.281000 255 0 0
-0.187866 0.051078 2.280000 255 0 0
-0.181226 0.050968 2.275000 255 0 0
-0.174382 0.050791 2.267000 255 0 0
-0.168101 0.050771 2.266000 255 0 0
-0.161681 0.050705 2.263000 255 0 0
-0.155484 0.050707 2.263000 255 0 0
-0.148890 0.050575 2.257000 255 0 0
-0.142517 0.050509 2.254000 255 0 0
-0.136040 0.050399 2.249000 255 0 0
-0.129647 0.050311 2.245000 255 0 0
-0.123276 0.050222 2.241000 255 0 0
-0.116978 0.050157 2.238000 255 0 0
-0.110746 0.050113 2.236000 255 0 0
-0.104524 0.050069 2.234000 255 0 0
-0.098357 0.050048 2.233000 255 0 0
-0.092195 0.050027 2.232000 255 0 0
-0.086115 0.050050 2.233000 255 0 0
-0.080029 0.050074 2.234000 255 0 0
-0.073971 0.050120 2.236000 255 0 0
-0.067901 0.050165 2.238000 255 0 0
-0.061765 0.050166 2.238000 255 0 0
-0.055628 0.050167 2.238000 255 0 0
-0.049492 0.050167 2.238000 255 0 0
-0.043355 0.050168 2.238000 255 0 0
-0.037218 0.050168 2.238000 255 0 0
-0.031066 0.050146 2.237000 255 0 0
-0.024965 0.050214 2.240000 255 0 0
-0.018839 0.050259 2.242000 255 0 0
-0.012707 0.050326 2.245000 255 0 0
-0.006547 0.050304 2.244000 255 0 0
-0.000393 0.050259 2.242000 255 0 0
0.005753 0.050237 2.241000 255 0 0
0.011899 0.050237 2.241000 255 0 0
0.018053 0.050259 2.242000 255 0 0
0.024266 0.050393 2.248000 255 0 0
0.030553 0.050595 2.257000 255 0 0
0.036808 0.050684 2.261000 255 0 0
0.043008 0.050683 2.261000 255 0 0
0.049186 0.050661 2.260000 255 0 0
0.055432 0.050705 2.262000 255 0 0
0.061716 0.050771 2.265000 255 0 0
0.067987 0.050815 2.267000 255 0 0
0.074366 0.050927 2.272000 255 0 0
0.080666 0.050971 2.274000 255 0 0
0.087052 0.051059 2.278000 255 0 0
0.093256 0.051036 2.277000 255 0 0
0.099716 0.051147 2.282000 255 0 0
0.106296 0.051302 2.289000 255 0 0
0.113454 0.051704 2.307000 255 0 0
0.119621 0.051636 2.304000 255 0 0
0.125115 0.051298 2.289000 255 0 0
0.130928 0.051118 2.281000 255 0 0
0.136756 0.050959 2.274000 255 0 0
0.142734 0.050868 2.270000 255 0 0
0.148887 0.050844 2.269000 255 0 0
0.155033 0.050820 2.268000 255 0 0
0.160960 0.050728 2.264000 255 0 0
-0.199777 -0.217353 2.506667 255 255 0
-0.189128 -0.217273 2.500180 255 255 0
-0.149668 -0.214744 2.485846 255 255 0
-0.054119 -0.207227 2.457183 255 255 0
0.019471 -0.190903 2.480891 255 255 0
0.027331 -0.191444 2.473492 255 255 0
0.017652 -0.197321 2.454164 255 255 0
-0.002004 -0.206268 2.427896 255 255 0
0.011706 -0.205034 2.424459 255 255 0
0.046194 -0.197398 2.435503 255 255 0
0.068148 -0.193571 2.438044 255 255 0
-0.242433 -0.244558 2.465717 0 255 0
-0.241147 -0.241807 2.477009 0 255 0
-0.225449 -0.244274 2.478818 0 255 0
-0.208032 -0.247337 2.479592 0 255 0
-0.187191 -0.251605 2.478244 0 255 0
-0.187962 -0.244840 2.503223 0 255 0
-0.181544 -0.243897 2.511326 0 255 0
-0.157218 -0.249325 2.508065 0 255 0
-0.136268 -0.253514 2.507090 0 255 0
-0.061255 -0.270166 2.497359 0 255 0
0.004084 -0.286437 2.482217 0 255 0
-0.014198 -0.276676 2.506105 0 255 0
-0.312582 0.043915 2.236000 255 0 0
-0.307029 0.043996 2.240000 255 0 0
-0.300915 0.043999 2.240000 255 0 0
-0.294801 0.044002 2.240000 255 0 0
-0.288427 0.043965 2.238000 255 0 0
-0.282821 0.044047 2.242000 255 0 0
-0.277068 0.044108 2.245000 255 0 0
-0.271901 0.044268 2.253000 255 0 0
-0.266453 0.044388 2.259000 255 0 0
-0.264659 0.045138 2.297000 255 0 0
-0.254408 0.045555 2.318000 255 0 0
-0.247322 0.045420 2.311000 255 0 0
-0.240586 0.045344 2.307000 255 0 0
-0.233973 0.045287 2.304000 255 0 0
-0.226881 0.045132 2.296000 255 0 0
-0.219736 0.044957 2.287000 255 0 0
-0.213013 0.044861 2.282000 255 0 0
-0.206678 0.044844 2.281000 255 0 0
-0.200349 0.044826 2.280000 255 0 0
-0.194109 0.044828 2.280000 255 0 0
-0.187621 0.044771 2.277000 255 0 0
-0.181308 0.044753 2.276000 255 0 0
-0.174538 0.044617 2.269000 255 0 0
-0.168474 0.044658 2.271000 255 0 0
-0.161897 0.044562 2.266000 255 0 0
-0.155898 0.044622 2.269000 255 0 0
-0.149287 0.044506 2.263000 255 0 0
-0.142962 0.044468 2.261000 255 0 0
-0.136283 0.044312 2.253000 255 0 0
-0.129880 0.044235 2.249000 255 0 0
-0.123552 0.044177 2.246000 255 0 0
-0.117398 0.044178 2.246000 255 0 0
-0.111193 0.044160 2.245000 255 0 0
-0.104946 0.044122 2.243000 255 0 0
-0.098755 0.044103 2.242000 255 0 0
-0.092568 0.044084 2.241000 255 0 0
-0.086502 0.044125 2.243000 255 0 0
-0.080388 0.044145 2.244000 255 0 0
-0.074170 0.044106 2.242000 255 0 0
-0.068023 0.044107 2.242000 255 0 0
-0.061848 0.044088 2.241000 255 0 0
-0.055728 0.044109 2.242000 255 0 0
-0.049603 0.044129 2.243000 255 0 0
-0.043452 0.044129 2.243000 255 0 0
-0.037334 0.044169 2.245000 255 0 0
-0.031136 0.044110 2.242000 255 0 0
-0.025010 0.044150 2.244000 255 0 0
-0.018864 0.044170 2.245000 255 0 0
-0.012707 0.044170 2.245000 255 0 0
-0.006545 0.044131 2.243000 255 0 0
-0.000393 0.044111 2.242000 255 0 0
0.005756 0.044111 2.242000 255 0 0
0.011910 0.044131 2.243000 255 0 0
0.018061 0.044131 2.243000 255 0 0
0.024267 0.044229 2.248000 255 0 0
0.030540 0.044386 2.256000 255 0 0
0.036808 0.044484 2.261000 255 0 0
0.042989 0.044464 2.260000 255 0 0
0.049165 0.044444 2.259000 255 0 0
0.055408 0.044482 2.261000 255 0 0
0.061662 0.044521 2.263000 255 0 0
0.067927 0.044560 2.265000 255 0 0
0.074367 0.044697 2.272000 255 0 0
0.080737 0.044775 2.276000 255 0 0
0.087130 0.044852 2.280000 255 0 0
0.093257 0.044793 2.277000 255 0 0
0.099630 0.044851 2.280000 255 0 0
0.106018 0.044909 2.283000 255 0 0
0.112669 0.045065 2.291000 255 0 0
0.118532 0.044906 2.283000 255 0 0
0.125007 0.044984 2.287000 255 0 0
0.130814 0.044825 2.279000 255 0 0
0.136818 0.044745 2.275000 255 0 0
0.142799 0.044665 2.271000 255 0 0
0.149020 0.044663 2.271000 255 0 0
0.155103 0.044622 2.269000 255 0 0
0.160962 0.044523 2.264000 255 0 0
-0.200407 -0.229320 2.507731 255 255 0
-0.151994 -0.227109 2.485770 255 255 0
-0.043045 -0.215305 2.465906 255 255 0
-0.006660 -0.207179 2.477383 255 255 0
0.011261 -0.204650 2.476657 255 255 0
0.012447 -0.207234 2.464694 255 255 0
0.006130 -0.212134 2.447600 255 255 0
0.011502 -0.213440 2.438444 255 255 0
0.011874 -0.216292 2.425857 255 255 0
0.046347 -0.208560 2.436872 255 255 0
-0.212065 -0.270070 2.434632 0 255 0
-0.236523 -0.254597 2.475321 0 255 0
-0.225911 -0.255242 2.480500 0 255 0
-0.186450 -0.266378 2.466887 0 255 0
-0.214836 -0.252805 2.497612 0 255 0
-0.209291 -0.251581 2.506190 0 255 0
-0.196089 -0.253119 2.509865 0 255 0
-0.196487 -0.249737 2.522304 0 255 0
-0.184964 -0.250646 2.527143 0 255 0
-0.164048 -0.254906 2.526106 0 255 0
-0.146515 -0.257923 2.527322 0 255 0
-0.120773 -0.260558 2.535855 0 255 0
-0.312445 0.037777 2.235000 255 0 0
-0.307031 0.037864 2.240000 255 0 0
-0.300649 0.037832 2.238000 255 0 0
-0.294408 0.037818 2.237000 255 0 0
-0.288043 0.037786 2.235000 255 0 0
-0.282571 0.037873 2.240000 255 0 0
-0.276700 0.037909 2.242000 255 0 0
-0.271300 0.038013 2.248000 255 0 0
-0.265748 0.038100 2.253000 255 0 0
-0.261781 0.038423 2.272000 255 0 0
-0.260859 0.039220 2.319000 255 0 0
-0.254300 0.039189 2.317000 255 0 0
-0.247217 0.039072 2.310000 255 0 0
-0.240171 0.038956 2.303000 255 0 0
-0.233467 0.038890 2.299000 255 0 0
-0.226587 0.038791 2.293000 255 0 0
-0.219738 0.038691 2.287000 255 0 0
-0.213295 0.038659 2.285000 255 0 0
-0.206952 0.038644 2.284000 255 0 0
-0.200350 0.038578 2.280000 255 0 0
-0.194025 0.038563 2.279000 255 0 0
-0.187622 0.038531 2.277000 255 0 0
-0.181309 0.038515 2.276000 255 0 0
-0.174694 0.038432 2.271000 255 0 0
-0.168327 0.038400 2.269000 255 0 0
-0.161970 0.038367 2.267000 255 0 0
-0.155899 0.038403 2.269000 255 0 0
-0.149420 0.038336 2.265000 255 0 0
-0.143026 0.038287 2.262000 255 0 0
-0.136466 0.038186 2.256000 255 0 0
-0.130112 0.038137 2.253000 255 0 0
-0.123884 0.038121 2.252000 255 0 0
-0.117556 0.038071 2.249000 255 0 0
-0.111293 0.038038 2.247000 255 0 0
-0.104994 0.037989 2.244000 255 0 0
-0.098844 0.037990 2.244000 255 0 0
-0.092651 0.037973 2.243000 255 0 0
-0.086541 0.037991 2.244000 255 0 0
-0.080425 0.038009 2.245000 255 0 0
-0.074171 0.037959 2.242000 255 0 0
-0.067963 0.037926 2.240000 255 0 0
-0.061821 0.037926 2.240000 255 0 0
-0.055679 0.037927 2.240000 255 0 0
-0.049559 0.037944 2.241000 255 0 0
-0.043375 0.037911 2.239000 255 0 0
-0.037268 0.037945 2.241000 255 0 0
-0.031095 0.037911 2.239000 255 0 0
-0.024988 0.037962 2.242000 255 0 0
-0.018822 0.037929 2.240000 255 0 0
-0.012668 0.037895 2.238000 255 0 0
-0.006533 0.037912 2.239000 255 0 0
-0.000393 0.037963 2.242000 255 0 0
0.005758 0.037980 2.243000 255 0 0
0.011905 0.037963 2.242000 255 0 0
0.018070 0.037996 2.244000 255 0 0
0.024278 0.038081 2.249000 255 0 0
0.030500 0.038148 2.253000 255 0 0
0.036711 0.038182 2.255000 255 0 0
0.042876 0.038165 2.254000 255 0 0
0.049057 0.038164 2.254000 255 0 0
0.055335 0.038231 2.258000 255 0 0
0.061690 0.038333 2.264000 255 0 0
0.068048 0.038417 2.269000 255 0 0
0.074400 0.038484 2.273000 255 0 0
0.080703 0.038517 2.275000 255 0 0
0.087169 0.038618 2.281000 255 0 0
0.093504 0.038651 2.283000 255 0 0
0.099893 0.038701 2.286000 255 0 0
0.106159 0.038700 2.286000 255 0 0
0.112670 0.038783 2.291000 255 0 0
0.118845 0.038749 2.289000 255 0 0
0.124844 0.038663 2.284000 255 0 0
0.130815 0.038577 2.279000 255 0 0
0.136759 0.038491 2.274000 255 0 0
0.142737 0.038422 2.270000 255 0 0
0.148890 0.038404 2.269000 255 0 0
0.155036 0.038386 2.268000 255 0 0
0.160964 0.038317 2.264000 255 0 0
0.166351 0.038129 2.253000 255 0 0
0.169534 0.037468 2.214000 255 0 0
-0.202729 -0.241808 2.507738 255 255 0
-0.194618 -0.242448 2.499623 255 255 0
-0.173835 -0.239277 2.499563 255 255 0
-0.163224 -0.239137 2.493153 255 255 0
-0.150097 -0.238227 2.488405 255 255 0
-0.073440 -0.233068 2.460000 255 255 0
-0.041193 -0.226160 2.468478 255 255 0
-0.015700 -0.221287 2.472644 255 255 0
-0.001954 -0.220012 2.469059 255 255 0
0.002589 -0.221575 2.459316 255 255 0
-0.000375 -0.225473 2.444467 255 255 0
-0.001659 -0.228858 2.430719 255 255 0
0.013708 -0.227040 2.428403 255 255 0
0.013258 -0.230165 2.415224 255 255 0
-0.005448 -0.239042 2.389303 255 255 0
-0.230610 -0.264661 2.484966 0 255 0
-0.239488 -0.258160 2.502915 0 255 0
-0.241600 -0.254161 2.516387 0 255 0
-0.225040 -0.256996 2.517766 0 255 0
-0.226304 -0.253307 2.530687 0 255 0
-0.218218 -0.253026 2.537607 0 255 0
-0.202462 -0.255517 2.539691 0 255 0
-0.179015 -0.260766 2.537010 0 255 0
-0.170882 -0.260451 2.544091 0 255 0
-0.157619 -0.261973 2.548004 0 255 0
-0.133232 -0.267467 2.545081 0 255 0
-0.312028 0.031616 2.232000 255 0 0
-0.306485 0.031675 2.236000 255 0 0
-0.300383 0.031677 2.236000 255 0 0
-0.294147 0.031664 2.235000 255 0 0
-0.288045 0.031666 2.235000 255 0 0
-0.282068 0.031683 2.236000 255 0 0
-0.276208 0.031713 2.238000 255 0 0
-0.270578 0.031771 2.242000 255 0 0
-0.264924 0.031830 2.246000 255 0 0
-0.259824 0.031959 2.255000 255 0 0
-0.258048 0.032514 2.294000 255 0 0
-0.253973 0.032799 2.314000 255 0 0
-0.246684 0.032673 2.305000 255 0 0
-0.239756 0.032590 2.299000 255 0 0
-0.233164 0.032549 2.296000 255 0 0
-0.226984 0.032565 2.297000 255 0 0
-0.220124 0.032481 2.291000 255 0 0
-0.213576 0.032440 2.288000 255 0 0
-0.207135 0.032413 2.286000 255 0 0
-0.200616 0.032372 2.283000 255 0 0
-0.194197 0.032345 2.281000 255 0 0
-0.187542 0.032276 2.276000 255 0 0
-0.181391 0.032291 2.277000 255 0 0
-0.174926 0.032250 2.274000 255 0 0
-0.168402 0.032195 2.270000 255 0 0
-0.161900 0.032139 2.266000 255 0 0
-0.155626 0.032126 2.265000 255 0 0
-0.149290 0.032099 2.263000 255 0 0
-0.143027 0.032086 2.262000 255 0 0
-0.136649 0.032044 2.259000 255 0 0
-0.130286 0.032003 2.256000 255 0 0
-0.123995 0.031975 2.254000 255 0 0
-0.117609 0.031919 2.250000 255 0 0
-0.111294 0.031878 2.247000 255 0 0
-0.104902 0.031808 2.242000 255 0 0
-0.098712 0.031794 2.241000 255 0 0
-0.092528 0.031781 2.240000 255 0 0
-0.086465 0.031810 2.242000 255 0 0
-0.080390 0.031839 2.244000 255 0 0
-0.074138 0.031797 2.241000 255 0 0
-0.067964 0.031783 2.240000 255 0 0
-0.061767 0.031755 2.238000 255 0 0
-0.055630 0.031756 2.238000 255 0 0
-0.049515 0.031770 2.239000 255 0 0
-0.043356 0.031756 2.238000 255 0 0
-0.037269 0.031799 2.241000 255 0 0
-0.031095 0.031771 2.239000 255 0 0
-0.024988 0.031814 2.242000 255 0 0
-0.018814 0.031771 2.239000 255 0 0
-0.012685 0.031800 2.241000 255 0 0
-0.006539 0.031800 2.241000 255 0 0
-0.000393 0.031814 2.242000 255 0 0
0.005756 0.031814 2.242000 255 0 0
0.011910 0.031828 2.243000 255 0 0
0.018110 0.031913 2.249000 255 0 0
0.024332 0.031984 2.254000 255 0 0
0.030486 0.031956 2.252000 255 0 0
0.036646 0.031941 2.251000 255 0 0
0.042838 0.031955 2.252000 255 0 0
0.049100 0.032011 2.256000 255 0 0
0.055360 0.032054 2.259000 255 0 0
0.061664 0.032110 2.263000 255 0 0
0.067959 0.032152 2.266000 255 0 0
0.074335 0.032222 2.271000 255 0 0
0.080703 0.032279 2.275000 255 0 0
0.087284 0.032406 2.284000 255 0 0
0.093668 0.032448 2.287000 255 0 0
0.100287 0.032560 2.295000 255 0 0
0.106763 0.032616 2.299000 255 0 0
0.113950 0.032871 2.317000 255 0 0
0.118742 0.032444 2.287000 255 0 0
0.124681 0.032358 2.281000 255 0 0
0.130529 0.032258 2.274000 255 0 0
0.136640 0.032229 2.272000 255 0 0
0.142613 0.032171 2.268000 255 0 0
0.148760 0.032156 2.267000 255 0 0
0.154833 0.032126 2.265000 255 0 0
0.160752 0.032068 2.261000 255 0 0
0.166131 0.031911 2.250000 255 0 0
0.168387 0.031187 2.199000 255 0 0
-0.195364 -0.248335 2.526984 255 255 0
-0.199964 -0.252790 2.510931 255 255 0
-0.187628 -0.252135 2.505476 255 255 0
-0.175310 -0.251472 2.500072 255 255 0
-0.156257 -0.248745 2.499019 255 255 0
-0.041015 -0.237536 2.469937 255 255 0
-0.024729 -0.235464 2.467923 255 255 0
0.001551 -0.230243 2.472733 255 255 0
0.001920 -0.233110 2.460170 255 255 0
0.005630 -0.234933 2.449857 255 255 0
0.011003 -0.236230 2.440685 255 255 0
0.011384 -0.239102 2.428090 255 255 0
0.013433 -0.241452 2.416625 255 255 0
0.000549 -0.248552 2.394758 255 255 0
-0.168621 -0.305484 2.420851 0 255 0
-0.192629 -0.293217 2.449113 0 255 0
-0.174369 -0.296710 2.449453 0 255 0
-0.243331 -0.267844 2.506807 0 255 0
-0.234420 -0.267906 2.513119 0 255 0
-0.250955 -0.258573 2.535892 0 255 0
-0.239498 -0.259573 2.540564 0 255 0
-0.224624 -0.261810 2.543115 0 255 0
-0.194416 -0.269635 2.536018 0 255 0
-0.178637 -0.272143 2.538220 0 255 0
-0.169653 -0.272153 2.544777 0 255 0
-0.166630 -0.269988 2.555097 0 255 0
-0.149093 -0.273078 2.556410 0 255 0
0.002702 -0.314427 2.513165 0 255 0
-0.308285 0.024715 2.163000 255 0 0
-0.311470 0.025460 2.228000 255 0 0
-0.305939 0.025507 2.232000 255 0 0
-0.299847 0.025509 2.232000 255 0 0
-0.293491 0.025488 2.230000 255 0 0
-0.287403 0.025489 2.230000 255 0 0
-0.281439 0.025502 2.231000 255 0 0
-0.275963 0.025561 2.236000 255 0 0
-0.270338 0.025608 2.240000 255 0 0
-0.264926 0.025678 2.246000 255 0 0
-0.259710 0.025771 2.254000 255 0 0
-0.256138 0.026035 2.277000 255 0 0
-0.254084 0.026471 2.315000 255 0 0
-0.245508 0.026233 2.294000 255 0 0
-0.239132 0.026223 2.293000 255 0 0
-0.232963 0.026235 2.294000 255 0 0
-0.227282 0.026305 2.300000 255 0 0
-0.220798 0.026284 2.298000 255 0 0
-0.213951 0.026216 2.292000 255 0 0
-0.207317 0.026172 2.288000 255 0 0
-0.200441 0.026093 2.281000 255 0 0
-0.194113 0.026083 2.280000 255 0 0
-0.187625 0.026049 2.277000 255 0 0
-0.181392 0.026050 2.277000 255 0 0
-0.175081 0.026040 2.276000 255 0 0
-0.168552 0.025995 2.272000 255 0 0
-0.162044 0.025951 2.268000 255 0 0
-0.155489 0.025894 2.263000 255 0 0
-0.148895 0.025826 2.257000 255 0 0
-0.142586 0.025804 2.255000 255 0 0
-0.136408 0.025805 2.255000 255 0 0
-0.130229 0.025806 2.255000 255 0 0
-0.123885 0.025773 2.252000 255 0 0
-0.117557 0.025739 2.249000 255 0 0
-0.111097 0.025671 2.243000 255 0 0
-0.104762 0.025626 2.239000 255 0 0
-0.098537 0.025603 2.237000 255 0 0
-0.092487 0.025627 2.239000 255 0 0
-0.086465 0.025662 2.242000 255 0 0
-0.080426 0.025697 2.245000 255 0 0
-0.074271 0.025697 2.245000 255 0 0
-0.068025 0.025663 2.242000 255 0 0
-0.061795 0.025629 2.239000 255 0 0
-0.055630 0.025618 2.238000 255 0 0
-0.049449 0.025596 2.236000 255 0 0
-0.043317 0.025596 2.236000 255 0 0
-0.037235 0.025630 2.239000 255 0 0
-0.031067 0.025608 2.237000 255 0 0
-0.024977 0.025654 2.241000 255 0 0
-0.018814 0.025631 2.239000 255 0 0
-0.012679 0.025643 2.240000 255 0 0
-0.006530 0.025620 2.238000 255 0 0
-0.000393 0.025654 2.241000 255 0 0
0.005761 0.025688 2.244000 255 0 0
0.011915 0.025688 2.244000 255 0 0
0.018110 0.025745 2.249000 255 0 0
0.024310 0.025780 2.252000 255 0 0
0.030514 0.025802 2.254000 255 0 0
0.036662 0.025779 2.252000 255 0 0
0.042857 0.025791 2.253000 255 0 0
0.049035 0.025790 2.253000 255 0 0
0.055312 0.025836 2.257000 255 0 0
0.061609 0.025881 2.261000 255 0 0
0.067899 0.025915 2.264000 255 0 0
0.074237 0.025960 2.268000 255 0 0
0.080562 0.025994 2.271000 255 0 0
0.087055 0.026074 2.278000 255 0 0
0.093505 0.026131 2.283000 255 0 0
0.100419 0.026302 2.298000 255 0 0
0.107646 0.026530 2.318000 255 0 0
0.114049 0.026541 2.319000 255 0 0
0.118639 0.026151 2.285000 255 0 0
0.124299 0.026024 2.274000 255 0 0
0.130186 0.025955 2.268000 255 0 0
0.136340 0.025943 2.267000 255 0 0
0.142425 0.025919 2.265000 255 0 0
0.148630 0.025918 2.265000 255 0 0
0.154902 0.025929 2.266000 255 0 0
0.160824 0.025882 2.262000 255 0 0
0.166354 0.025778 2.253000 255 0 0
-0.182436 -0.256195 2.536488 255 255 0
-0.183658 -0.259637 2.522591 255 255 0
-0.182333 -0.262309 2.510261 255 255 0
-0.054199 -0.247076 2.488375 255 255 0
-0.042908 -0.246557 2.482925 255 255 0
-0.038326 -0.248133 2.473069 255 255 0
-0.016199 -0.244176 2.474962 255 255 0
0.005054 -0.240464 2.476406 255 255 0
0.005423 -0.243340 2.463849 255 255 0
0.017459 -0.242513 2.459209 255 255 0
0.045286 -0.236639 2.465436 255 255 0
0.035659 -0.242691 2.446080 255 255 0
0.035194 -0.245831 2.432961 255 255 0
0.022297 -0.252973 2.411166 255 255 0
-0.263271 -0.265054 2.545230 0 255 0
-0.239945 -0.270496 2.542256 0 255 0
-0.227626 -0.271825 2.546448 0 255 0
-0.198287 -0.279420 2.539911 0 255 0
-0.180815 -0.282596 2.541045 0 255 0
-0.178649 -0.280122 2.551881 0 255 0
-0.173928 -0.278586 2.561117 0 255 0
-0.170056 -0.276736 2.570893 0 255 0
-0.151664 -0.280175 2.571722 0 255 0
-0.121281 -0.287945 2.565308 0 255 0
-0.010708 -0.321342 2.522868 0 255 0
-0.310913 0.019325 2.224000 255 0 0
-0.305666 0.019379 2.230000 255 0 0
-0.299849 0.019398 2.232000 255 0 0
-0.293624 0.019390 2.231000 255 0 0
-0.287533 0.019391 2.231000 255 0 0
-0.281188 0.019375 2.229000 255 0 0
-0.275594 0.019411 2.233000 255 0 0
-0.269977 0.019447 2.237000 255 0 0
-0.264573 0.019500 2.243000 255 0 0
-0.259251 0.019562 2.250000 255 0 0
-0.254677 0.019685 2.264000 255 0 0
-0.255622 0.020251 2.329000 255 0 0
-0.246473 0.020026 2.303000 255 0 0
-0.239446 0.019966 2.296000 255 0 0
-0.232964 0.019950 2.294000 255 0 0
-0.227283 0.020003 2.300000 255 0 0
-0.220703 0.019978 2.297000 255 0 0
-0.214046 0.019944 2.293000 255 0 0
-0.207228 0.019893 2.287000 255 0 0
-0.200442 0.019842 2.281000 255 0 0
-0.194284 0.019851 2.282000 255 0 0
-0.187791 0.019826 2.279000 255 0 0
-0.181632 0.019836 2.280000 255 0 0
-0.175159 0.019810 2.277000 255 0 0
-0.168701 0.019785 2.274000 255 0 0
-0.161974 0.019725 2.267000 255 0 0
-0.155421 0.019682 2.262000 255 0 0
-0.148896 0.019639 2.257000 255 0 0
-0.142776 0.019648 2.258000 255 0 0
-0.136590 0.019649 2.258000 255 0 0
-0.130288 0.019632 2.256000 255 0 0
-0.123831 0.019589 2.251000 255 0 0
-0.117558 0.019573 2.249000 255 0 0
-0.111048 0.019512 2.242000 255 0 0
-0.104762 0.019486 2.239000 255 0 0
-0.098581 0.019478 2.238000 255 0 0
-0.092612 0.019514 2.242000 255 0 0
-0.086581 0.019540 2.245000 255 0 0
-0.080570 0.019575 2.249000 255 0 0
-0.074371 0.019567 2.248000 255 0 0
-0.068116 0.019541 2.245000 255 0 0
-0.061795 0.019489 2.239000 255 0 0
-0.055606 0.019472 2.237000 255 0 0
-0.049383 0.019437 2.233000 255 0 0
-0.043318 0.019464 2.236000 255 0 0
-0.037219 0.019481 2.238000 255 0 0
-0.031068 0.019473 2.237000 255 0 0
-0.024944 0.019482 2.238000 255 0 0
-0.018806 0.019482 2.238000 255 0 0
-0.012691 0.019517 2.242000 255 0 0
-0.006536 0.019499 2.240000 255 0 0
-0.000393 0.019508 2.241000 255 0 0
0.005761 0.019534 2.244000 255 0 0
0.011926 0.019551 2.246000 255 0 0
0.018118 0.019586 2.250000 255 0 0
0.024310 0.019604 2.252000 255 0 0
0.030541 0.019638 2.256000 255 0 0
0.036744 0.019647 2.257000 255 0 0
0.042972 0.019664 2.259000 255 0 0
0.049145 0.019655 2.258000 255 0 0
0.055361 0.019664 2.259000 255 0 0
0.061555 0.019663 2.259000 255 0 0
0.067809 0.019680 2.261000 255 0 0
0.074205 0.019732 2.267000 255 0 0
0.080598 0.019775 2.272000 255 0 0
0.086941 0.019801 2.275000 255 0 0
0.093055 0.019775 2.272000 255 0 0
0.100201 0.019957 2.293000 255 0 0
0.107693 0.020183 2.319000 255 0 0
0.113459 0.020078 2.307000 255 0 0
0.118276 0.019825 2.278000 255 0 0
0.124081 0.019755 2.270000 255 0 0
0.129900 0.019693 2.263000 255 0 0
0.136100 0.019693 2.263000 255 0 0
0.142237 0.019683 2.262000 255 0 0
0.148696 0.019718 2.266000 255 0 0
0.154903 0.019717 2.266000 255 0 0
0.160967 0.019699 2.264000 255 0 0
0.166281 0.019594 2.252000 255 0 0
