ply
format ascii 1.0
element vertex 1328
property double x
property double y
property double z
property uchar red
property uchar green
property uchar blue
end_header
0.072598 0.274757 2.221000 255 0 0
0.078785 0.275124 2.224000 255 0 0
0.085026 0.275614 2.228000 255 0 0
0.091412 0.276475 2.235000 255 0 0
0.097792 0.277211 2.241000 255 0 0
0.104205 0.277947 2.247000 255 0 0
0.110895 0.279302 2.258000 255 0 0
0.117957 0.281398 2.275000 255 0 0
0.122654 0.277927 2.247000 255 0 0
0.128287 0.276807 2.238000 255 0 0
0.134051 0.276057 2.232000 255 0 0
0.139907 0.275554 2.228000 255 0 0
0.145609 0.274804 2.222000 255 0 0
0.151346 0.274177 2.217000 255 0 0
0.156984 0.273426 2.211000 255 0 0
0.162737 0.272922 2.207000 255 0 0
0.168543 0.272542 2.204000 255 0 0
0.174491 0.272408 2.203000 255 0 0
0.180432 0.272275 2.202000 255 0 0
0.185944 0.271522 2.196000 255 0 0
0.189587 0.268173 2.169000 255 0 0
-0.106836 0.213372 2.450556 255 255 0
-0.097958 0.212436 2.443647 255 255 0
-0.087374 0.211813 2.437914 255 255 0
-0.071660 0.212124 2.435668 255 255 0
-0.049974 0.213532 2.437533 255 255 0
-0.035174 0.213718 2.434869 255 255 0
-0.022107 0.213603 2.431106 255 255 0
-0.009914 0.213344 2.426815 255 255 0
0.000555 0.212780 2.421402 255 255 0
0.012712 0.212538 2.417207 255 255 0
0.023149 0.211990 2.411880 255 255 0
0.036123 0.211924 2.408378 255 255 0
0.047376 0.211551 2.403738 255 255 0
0.050977 0.209757 2.393746 255 255 0
0.053729 0.207804 2.383153 255 255 0
0.053943 0.205371 2.370742 255 255 0
0.058394 0.203736 2.361347 255 255 0
0.060307 0.201621 2.350130 255 255 0
0.055471 0.198215 2.334003 255 255 0
0.115234 0.182441 2.239035 255 255 0
0.128824 0.182657 2.236770 255 255 0
0.139063 0.182216 2.231986 255 255 0
0.141805 0.180275 2.221416 255 255 0
-0.246950 0.134957 2.324118 0 255 0
-0.230235 0.133610 2.324440 0 255 0
-0.204015 0.129907 2.318206 0 255 0
-0.185520 0.128171 2.317514 0 255 0
-0.167861 0.126669 2.317510 0 255 0
-0.170915 0.130328 2.331886 0 255 0
-0.178304 0.135047 2.349191 0 255 0
-0.187443 0.140181 2.367614 0 255 0
-0.194003 0.144662 2.384201 0 255 0
-0.199714 0.148919 2.400146 0 255 0
-0.190685 0.149571 2.406129 0 255 0
-0.179910 0.149808 2.410987 0 255 0
-0.163905 0.148793 2.412421 0 255 0
-0.160059 0.150733 2.421986 0 255 0
-0.154469 0.152255 2.430410 0 255 0
-0.152362 0.154617 2.441129 0 255 0
-0.144149 0.155520 2.447869 0 255 0
-0.135055 0.156223 2.454074 0 255 0
-0.120708 0.155690 2.456939 0 255 0
-0.303917 0.273628 2.265000 255 0 0
-0.301026 0.276664 2.290000 255 0 0
-0.295037 0.276921 2.292000 255 0 0
-0.288658 0.276815 2.291000 255 0 0
-0.282407 0.276830 2.291000 255 0 0
-0.276396 0.277087 2.293000 255 0 0
-0.270727 0.277706 2.298000 255 0 0
-0.264914 0.278203 2.302000 255 0 0
-0.259191 0.278822 2.307000 255 0 0
-0.253440 0.279440 2.312000 255 0 0
-0.247660 0.280058 2.317000 255 0 0
-0.242061 0.280917 2.324000 255 0 0
-0.236626 0.282018 2.333000 255 0 0
-0.230252 0.282031 2.333000 255 0 0
-0.221958 0.279626 2.313000 255 0 0
-0.214332 0.277945 2.299000 255 0 0
-0.207506 0.277231 2.293000 255 0 0
-0.200448 0.276155 2.284000 255 0 0
-0.193439 0.275077 2.275000 255 0 0
-0.185820 0.273033 2.258000 255 0 0
-0.178612 0.271471 2.245000 255 0 0
-0.171704 0.270271 2.235000 255 0 0
-0.165147 0.269555 2.229000 255 0 0
-0.158765 0.269081 2.225000 255 0 0
-0.152199 0.268243 2.218000 255 0 0
-0.145735 0.267526 2.212000 255 0 0
-0.139178 0.266566 2.204000 255 0 0
-0.132906 0.266090 2.200000 255 0 0
-0.126598 0.265493 2.195000 255 0 0
-0.120371 0.265016 2.191000 255 0 0
-0.114113 0.264418 2.186000 255 0 0
-0.107982 0.264062 2.183000 255 0 0
-0.101866 0.263705 2.180000 255 0 0
-0.095855 0.263590 2.179000 255 0 0
-0.089848 0.263474 2.178000 255 0 0
-0.083847 0.263358 2.177000 255 0 0
-0.077779 0.263000 2.174000 255 0 0
-0.071760 0.262762 2.172000 255 0 0
-0.065752 0.262524 2.170000 255 0 0
-0.059810 0.262528 2.170000 255 0 0
-0.053893 0.262652 2.171000 255 0 0
-0.047992 0.262897 2.173000 255 0 0
-0.042079 0.263142 2.175000 255 0 0
-0.036106 0.263023 2.174000 255 0 0
-0.030152 0.263025 2.174000 255 0 0
-0.024220 0.263269 2.176000 255 0 0
-0.018286 0.263633 2.179000 255 0 0
-0.012334 0.263997 2.182000 255 0 0
-0.006367 0.264360 2.185000 255 0 0
-0.000383 0.264965 2.190000 255 0 0
0.005620 0.265207 2.192000 255 0 0
0.011640 0.265570 2.195000 255 0 0
0.017684 0.266053 2.199000 255 0 0
0.023739 0.266415 2.202000 255 0 0
0.029797 0.266655 2.204000 255 0 0
0.035882 0.267016 2.207000 255 0 0
0.042021 0.267619 2.212000 255 0 0
0.048166 0.268100 2.216000 255 0 0
0.054332 0.268581 2.220000 255 0 0
0.060439 0.268699 2.221000 255 0 0
0.066610 0.269058 2.224000 255 0 0
0.072765 0.269296 2.226000 255 0 0
0.079037 0.269896 2.231000 255 0 0
0.085260 0.270254 2.234000 255 0 0
0.091581 0.270854 2.239000 255 0 0
0.097885 0.271332 2.243000 255 0 0
0.104118 0.271568 2.245000 255 0 0
0.110509 0.272167 2.250000 255 0 0
0.118015 0.275306 2.276000 255 0 0
0.123207 0.273000 2.257000 255 0 0
0.128467 0.271058 2.241000 255 0 0
0.134179 0.270204 2.234000 255 0 0
0.139978 0.269591 2.229000 255 0 0
0.145748 0.268978 2.224000 255 0 0
0.151491 0.268365 2.219000 255 0 0
0.157064 0.267510 2.212000 255 0 0
0.162746 0.266896 2.207000 255 0 0
0.168476 0.266403 2.203000 255 0 0
0.174342 0.266151 2.201000 255 0 0
0.180442 0.266262 2.202000 255 0 0
0.186039 0.265648 2.197000 255 0 0
0.191433 0.264791 2.190000 255 0 0
0.194625 0.261032 2.159000 255 0 0
-0.100693 0.203398 2.455906 255 255 0
-0.091822 0.202480 2.449006 255 255 0
-0.081247 0.201881 2.443280 255 255 0
-0.062972 0.202703 2.442760 255 255 0
-0.039591 0.204485 2.445785 255 255 0
-0.023094 0.205025 2.444296 255 255 0
-0.013461 0.204312 2.438231 255 255 0
-0.003840 0.203606 2.432202 255 255 0
0.011736 0.204022 2.430315 255 255 0
0.024730 0.203971 2.426731 255 255 0
0.031749 0.202810 2.419064 255 255 0
0.037911 0.201492 2.410824 255 255 0
0.047462 0.200821 2.404984 255 255 0
0.045976 0.198057 2.391394 255 255 0
0.051278 0.196585 2.382587 255 255 0
0.053191 0.194464 2.371374 255 255 0
0.059333 0.193157 2.363184 255 255 0
0.053648 0.189567 2.346483 255 255 0
0.044608 0.185312 2.327282 255 255 0
0.068354 0.164760 2.217072 255 255 0
0.114510 0.171555 2.239558 255 255 0
0.126431 0.171463 2.235995 255 255 0
0.138335 0.171380 2.232483 255 255 0
0.146896 0.170627 2.226433 255 255 0
-0.243044 0.123295 2.322589 0 255 0
-0.223751 0.121254 2.321123 0 255 0
-0.192371 0.116176 2.311317 0 255 0
-0.171287 0.113748 2.308877 0 255 0
-0.173468 0.117211 2.322675 0 255 0
-0.179976 0.121753 2.339415 0 255 0
-0.183044 0.125417 2.353728 0 255 0
-0.190447 0.130153 2.370953 0 255 0
-0.192674 0.133586 2.384593 0 255 0
-0.195776 0.137227 2.398787 0 255 0
-0.185879 0.137650 2.404209 0 255 0
-0.175971 0.138081 2.409672 0 255 0
-0.159100 0.136817 2.410558 0 255 0
-0.156988 0.139184 2.421292 0 255 0
-0.153136 0.141126 2.430877 0 255 0
-0.151896 0.143703 2.442175 0 255 0
-0.143685 0.144592 2.448927 0 255 0
-0.138955 0.146329 2.457966 0 255 0
-0.127236 0.146391 2.462520 0 255 0
-0.076308 0.148730 2.490993 0 255 0
-0.304067 0.267565 2.266000 255 0 0
-0.301436 0.270769 2.293000 255 0 0
-0.295052 0.270666 2.292000 255 0 0
-0.288547 0.270445 2.290000 255 0 0
-0.282299 0.270460 2.290000 255 0 0
-0.276531 0.270947 2.294000 255 0 0
-0.270859 0.271551 2.299000 255 0 0
-0.265274 0.272274 2.305000 255 0 0
-0.259317 0.272642 2.308000 255 0 0
-0.253563 0.273247 2.313000 255 0 0
-0.247674 0.273733 2.317000 255 0 0
-0.242283 0.274809 2.326000 255 0 0
-0.236740 0.275767 2.334000 255 0 0
-0.230363 0.275780 2.334000 255 0 0
-0.222738 0.274256 2.321000 255 0 0
-0.214996 0.272495 2.306000 255 0 0
-0.207789 0.271325 2.296000 255 0 0
-0.200547 0.270036 2.285000 255 0 0
-0.193620 0.269102 2.277000 255 0 0
-0.186324 0.267576 2.264000 255 0 0
-0.179020 0.265931 2.250000 255 0 0
-0.171868 0.264404 2.237000 255 0 0
-0.165231 0.263586 2.230000 255 0 0
-0.158774 0.263004 2.225000 255 0 0
-0.152413 0.262540 2.221000 255 0 0
-0.145941 0.261839 2.215000 255 0 0
-0.139312 0.260783 2.206000 255 0 0
-0.132914 0.260081 2.200000 255 0 0
-0.126662 0.259616 2.196000 255 0 0
-0.120488 0.259268 2.193000 255 0 0
-0.114277 0.258802 2.189000 255 0 0
-0.108037 0.258217 2.184000 255 0 0
-0.101872 0.257750 2.180000 255 0 0
-0.095816 0.257519 2.178000 255 0 0
-0.089853 0.257524 2.178000 255 0 0
-0.083852 0.257411 2.177000 255 0 0
-0.077855 0.257298 2.176000 255 0 0
-0.071831 0.257065 2.174000 255 0 0
-0.065847 0.256951 2.173000 255 0 0
-0.059869 0.256836 2.172000 255 0 0
-0.053970 0.257076 2.174000 255 0 0
-0.048061 0.257316 2.176000 255 0 0
-0.042101 0.257318 2.176000 255 0 0
-0.036125 0.257202 2.175000 255 0 0
-0.030181 0.257322 2.176000 255 0 0
-0.024244 0.257560 2.178000 255 0 0
-0.018312 0.258035 2.182000 255 0 0
-0.012352 0.258390 2.185000 255 0 0
-0.006373 0.258627 2.187000 255 0 0
-0.000384 0.259100 2.191000 255 0 0
0.005625 0.259455 2.194000 255 0 0
0.011656 0.259928 2.198000 255 0 0
0.017701 0.260282 2.201000 255 0 0
0.023751 0.260517 2.203000 255 0 0
0.029839 0.260988 2.207000 255 0 0
0.035900 0.261105 2.208000 255 0 0
0.042042 0.261694 2.213000 255 0 0
0.048190 0.262164 2.217000 255 0 0
0.054409 0.262871 2.223000 255 0 0
0.060551 0.263104 2.225000 255 0 0
0.066764 0.263573 2.229000 255 0 0
0.072966 0.263924 2.232000 255 0 0
0.079219 0.264393 2.236000 255 0 0
0.085456 0.264743 2.239000 255 0 0
0.091668 0.264974 2.241000 255 0 0
0.097891 0.265205 2.243000 255 0 0
0.103985 0.265081 2.242000 255 0 0
0.110319 0.265548 2.246000 255 0 0
0.117555 0.268025 2.267000 255 0 0
0.123324 0.267072 2.259000 255 0 0
0.128703 0.265410 2.245000 255 0 0
0.134367 0.264456 2.237000 255 0 0
0.139985 0.263503 2.229000 255 0 0
0.145626 0.262668 2.222000 255 0 0
0.151432 0.262186 2.218000 255 0 0
0.157073 0.261469 2.212000 255 0 0
0.162608 0.260632 2.205000 255 0 0
0.168179 0.259914 2.199000 255 0 0
0.174035 0.259668 2.197000 255 0 0
0.180206 0.259895 2.199000 255 0 0
0.185880 0.259412 2.195000 255 0 0
0.190745 0.257865 2.182000 255 0 0
-0.109451 0.193250 2.464230 255 255 0
-0.094554 0.193449 2.461250 255 255 0
-0.083115 0.193026 2.456063 255 255 0
-0.067405 0.193407 2.453777 255 255 0
-0.049151 0.194281 2.453282 255 255 0
-0.031783 0.195009 2.452298 255 255 0
-0.017010 0.195271 2.449660 255 255 0
-0.005676 0.194902 2.444766 255 255 0
0.002229 0.193895 2.437584 255 255 0
0.020349 0.194835 2.437457 255 255 0
0.027374 0.193681 2.429770 255 255 0
0.036090 0.192857 2.423284 255 255 0
0.041398 0.191385 2.414456 255 255 0
0.049248 0.190407 2.407426 255 255 0
0.048612 0.187792 2.394439 255 255 0
0.049678 0.185503 2.382628 255 255 0
0.051594 0.183376 2.371407 255 255 0
0.054360 0.181413 2.360782 255 255 0
0.050374 0.178123 2.345285 255 255 0
0.096292 0.157057 2.226678 255 255 0
0.140935 0.161218 2.235558 255 255 0
0.150324 0.160653 2.230153 255 255 0
-0.246020 0.113374 2.325923 0 255 0
-0.215558 0.108403 2.316611 0 255 0
-0.181198 0.105400 2.317048 0 255 0
-0.182520 0.108653 2.330220 0 255 0
-0.185576 0.112341 2.344555 0 255 0
-0.187779 0.115802 2.358261 0 255 0
-0.188263 0.118821 2.370757 0 255 0
-0.190482 0.122271 2.384405 0 255 0
-0.190980 0.125281 2.396853 0 255 0
-0.181948 0.125904 2.402883 0 255 0
-0.178111 0.127831 2.412422 0 255 0
-0.169064 0.128466 2.418506 0 255 0
-0.169565 0.131475 2.430938 0 255 0
-0.161375 0.132335 2.437636 0 255 0
-0.155787 0.133843 2.446070 0 255 0
-0.147580 0.134715 2.452820 0 255 0
-0.144596 0.136871 2.462982 0 255 0
-0.132014 0.136692 2.466972 0 255 0
-0.305827 0.262880 2.279000 255 0 0
-0.301451 0.264511 2.293000 255 0 0
-0.295325 0.264641 2.294000 255 0 0
-0.288814 0.264425 2.292000 255 0 0
-0.282437 0.264324 2.291000 255 0 0
-0.276425 0.264569 2.293000 255 0 0
-0.270755 0.265160 2.298000 255 0 0
-0.265287 0.265982 2.305000 255 0 0
-0.259443 0.266457 2.309000 255 0 0
-0.253686 0.267047 2.314000 255 0 0
-0.247901 0.267637 2.319000 255 0 0
-0.242712 0.268920 2.330000 255 0 0
-0.237361 0.270087 2.340000 255 0 0
-0.230277 0.269291 2.333000 255 0 0
-0.223134 0.268380 2.325000 255 0 0
-0.215474 0.266775 2.311000 255 0 0
-0.207800 0.265055 2.296000 255 0 0
-0.200295 0.263450 2.282000 255 0 0
-0.193460 0.262652 2.275000 255 0 0
-0.186499 0.261623 2.266000 255 0 0
-0.179507 0.260478 2.256000 255 0 0
-0.172338 0.258987 2.243000 255 0 0
-0.165388 0.257726 2.232000 255 0 0
-0.158783 0.256927 2.225000 255 0 0
-0.152490 0.256589 2.222000 255 0 0
-0.146081 0.256019 2.217000 255 0 0
-0.139573 0.255219 2.210000 255 0 0
-0.133163 0.254533 2.204000 255 0 0
-0.126900 0.254079 2.200000 255 0 0
-0.120659 0.253624 2.196000 255 0 0
-0.114440 0.253168 2.192000 255 0 0
-0.108241 0.252712 2.188000 255 0 0
-0.102018 0.252141 2.183000 255 0 0
-0.095909 0.251800 2.180000 255 0 0
-0.089858 0.251574 2.178000 255 0 0
-0.083856 0.251463 2.177000 255 0 0
-0.077859 0.251352 2.176000 255 0 0
-0.071901 0.251356 2.176000 255 0 0
-0.065972 0.251476 2.177000 255 0 0
-0.059982 0.251364 2.176000 255 0 0
-0.054073 0.251598 2.178000 255 0 0
-0.048085 0.251485 2.177000 255 0 0
-0.042142 0.251603 2.178000 255 0 0
-0.036160 0.251490 2.177000 255 0 0
-0.030211 0.251608 2.178000 255 0 0
-0.024267 0.251840 2.180000 255 0 0
-0.018330 0.252303 2.184000 255 0 0
-0.012375 0.252882 2.189000 255 0 0
-0.006385 0.253113 2.191000 255 0 0
-0.000384 0.253576 2.195000 255 0 0
0.005628 0.253576 2.195000 255 0 0
0.011662 0.254037 2.199000 255 0 0
0.017710 0.254383 2.202000 255 0 0
0.023774 0.254728 2.205000 255 0 0
0.029881 0.255304 2.210000 255 0 0
0.035951 0.255418 2.211000 255 0 0
0.042102 0.255993 2.216000 255 0 0
0.048280 0.256569 2.221000 255 0 0
0.054485 0.257143 2.226000 255 0 0
0.060636 0.257371 2.228000 255 0 0
0.066858 0.257830 2.232000 255 0 0
0.073166 0.258519 2.238000 255 0 0
0.079507 0.259207 2.244000 255 0 0
0.085690 0.259318 2.245000 255 0 0
0.091837 0.259313 2.245000 255 0 0
0.098027 0.259424 2.246000 255 0 0
0.104083 0.259187 2.244000 255 0 0
0.110423 0.259643 2.248000 255 0 0
0.117614 0.261947 2.268000 255 0 0
0.123440 0.261132 2.261000 255 0 0
0.128825 0.259508 2.247000 255 0 0
0.134374 0.258346 2.237000 255 0 0
0.139868 0.257183 2.227000 255 0 0
0.145502 0.256367 2.220000 255 0 0
0.151235 0.255781 2.215000 255 0 0
0.156940 0.255196 2.210000 255 0 0
0.162543 0.254494 2.204000 255 0 0
0.168112 0.253792 2.198000 255 0 0
0.173965 0.253552 2.196000 255 0 0
0.180134 0.253773 2.198000 255 0 0
0.185806 0.253302 2.194000 255 0 0
0.190405 0.251444 2.178000 255 0 0
-0.105026 0.182969 2.468439 255 255 0
-0.090997 0.183043 2.464893 255 255 0
-0.074415 0.183613 2.463113 255 255 0
-0.056147 0.184521 2.462548 255 255 0
-0.040480 0.184957 2.460352 255 255 0
-0.027403 0.184918 2.456502 255 255 0
-0.016056 0.184564 2.451554 255 255 0
-0.003019 0.184545 2.447812 255 255 0
0.014261 0.185356 2.447038 255 255 0
0.028105 0.185525 2.444006 255 255 0
0.031717 0.183725 2.433982 255 255 0
0.037029 0.182257 2.425140 255 255 0
0.039789 0.180293 2.414530 255 255 0
0.046792 0.179161 2.406892 255 255 0
0.046162 0.176531 2.393896 255 255 0
0.053159 0.175402 2.386276 255 255 0
0.055920 0.173440 2.375664 255 255 0
0.058683 0.171476 2.365047 255 255 0
0.054698 0.168164 2.349564 255 255 0
0.078927 0.142606 2.214466 255 255 0
0.115837 0.147776 2.229985 255 255 0
0.133563 0.148962 2.230917 255 255 0
0.146278 0.149112 2.228063 255 255 0
-0.245560 0.102559 2.326832 0 255 0
-0.185933 0.095760 2.321614 0 255 0
-0.191564 0.100137 2.337756 0 255 0
-0.194622 0.103837 2.352065 0 255 0
-0.189059 0.105317 2.360427 0 255 0
-0.187812 0.107904 2.371745 0 255 0
-0.188297 0.110931 2.384224 0 255 0
-0.187058 0.113513 2.395515 0 255 0
-0.182356 0.115217 2.404471 0 255 0
-0.178519 0.117143 2.414015 0 255 0
-0.175547 0.119288 2.424139 0 255 0
-0.174313 0.121869 2.435409 0 255 0
-0.162652 0.121843 2.439820 0 255 0
-0.157065 0.123344 2.448259 0 255 0
-0.149732 0.124416 2.455580 0 255 0
-0.145006 0.126141 2.464616 0 255 0
-0.131555 0.125719 2.468058 0 255 0
-0.073666 0.126144 2.492202 0 255 0
-0.065375 0.127067 2.499253 0 255 0
-0.306647 0.257336 2.285000 255 0 0
-0.301466 0.258252 2.293000 255 0 0
-0.295469 0.258492 2.295000 255 0 0
-0.288955 0.258281 2.293000 255 0 0
-0.282574 0.258182 2.292000 255 0 0
-0.276439 0.258309 2.293000 255 0 0
-0.270651 0.258773 2.297000 255 0 0
-0.265071 0.259463 2.303000 255 0 0
-0.259457 0.260152 2.309000 255 0 0
-0.253918 0.260954 2.316000 255 0 0
-0.248127 0.261530 2.321000 255 0 0
-0.242829 0.262670 2.331000 255 0 0
-0.236968 0.263245 2.336000 255 0 0
-0.230387 0.263032 2.334000 255 0 0
-0.223529 0.262480 2.329000 255 0 0
-0.216045 0.261140 2.317000 255 0 0
-0.208263 0.259347 2.301000 255 0 0
-0.200568 0.257555 2.285000 255 0 0
-0.193726 0.256776 2.278000 255 0 0
-0.186838 0.255884 2.270000 255 0 0
-0.179994 0.254992 2.262000 255 0 0
-0.172885 0.253649 2.250000 255 0 0
-0.165842 0.252305 2.238000 255 0 0
-0.158934 0.251074 2.227000 255 0 0
-0.152498 0.250518 2.222000 255 0 0
-0.146155 0.250075 2.218000 255 0 0
-0.139770 0.249519 2.213000 255 0 0
-0.133412 0.248963 2.208000 255 0 0
-0.126965 0.248180 2.201000 255 0 0
-0.120721 0.247736 2.197000 255 0 0
-0.114602 0.247517 2.195000 255 0 0
-0.108495 0.247298 2.193000 255 0 0
-0.102257 0.246739 2.188000 255 0 0
-0.096091 0.246294 2.184000 255 0 0
-0.089987 0.245961 2.181000 255 0 0
-0.083938 0.245740 2.179000 255 0 0
-0.078007 0.245857 2.180000 255 0 0
-0.072004 0.245748 2.179000 255 0 0
-0.066067 0.245865 2.180000 255 0 0
-0.060069 0.245756 2.179000 255 0 0
-0.054100 0.245759 2.179000 255 0 0
-0.048132 0.245762 2.179000 255 0 0
-0.042164 0.245764 2.179000 255 0 0
-0.036195 0.245766 2.179000 255 0 0
-0.030240 0.245881 2.180000 255 0 0
-0.024291 0.246108 2.182000 255 0 0
-0.018356 0.246673 2.187000 255 0 0
-0.012393 0.247238 2.192000 255 0 0
-0.006397 0.247577 2.195000 255 0 0
-0.000385 0.247915 2.198000 255 0 0
0.005636 0.247915 2.198000 255 0 0
0.011668 0.248140 2.200000 255 0 0
0.017703 0.248252 2.201000 255 0 0
0.023797 0.248928 2.207000 255 0 0
0.029910 0.249490 2.212000 255 0 0
0.036018 0.249827 2.215000 255 0 0
0.042161 0.250276 2.219000 255 0 0
0.048326 0.250724 2.223000 255 0 0
0.054562 0.251398 2.229000 255 0 0
0.060748 0.251734 2.232000 255 0 0
0.066981 0.252181 2.236000 255 0 0
0.073268 0.252741 2.241000 255 0 0
0.079582 0.253301 2.246000 255 0 0
0.085809 0.253522 2.248000 255 0 0
0.092087 0.253855 2.251000 255 0 0
0.098382 0.254189 2.254000 255 0 0
0.104553 0.254183 2.254000 255 0 0
0.110822 0.254403 2.256000 255 0 0
0.117465 0.255411 2.265000 255 0 0
0.123501 0.255066 2.262000 255 0 0
0.128832 0.253368 2.247000 255 0 0
0.134441 0.252346 2.238000 255 0 0
0.139938 0.251211 2.228000 255 0 0
0.145576 0.250414 2.221000 255 0 0
0.151107 0.249504 2.213000 255 0 0
0.156806 0.248933 2.208000 255 0 0
0.162330 0.248135 2.201000 255 0 0
0.168121 0.247788 2.198000 255 0 0
0.173895 0.247441 2.195000 255 0 0
0.179980 0.247544 2.196000 255 0 0
0.185561 0.246971 2.191000 255 0 0
-0.115507 0.172443 2.475693 255 255 0
-0.104041 0.172050 2.470397 255 255 0
-0.088300 0.172484 2.467971 255 255 0
-0.068296 0.173749 2.468451 255 255 0
-0.051754 0.174375 2.466750 255 255 0
-0.036951 0.174686 2.463981 255 255 0
-0.023026 0.174842 2.460704 255 255 0
-0.013395 0.174182 2.454603 255 255 0
0.005609 0.175356 2.454914 255 255 0
0.016909 0.175047 2.450076 255 255 0
0.027342 0.174580 2.444701 255 255 0
0.024153 0.171439 2.429974 255 255 0
0.030323 0.170139 2.421692 255 255 0
0.039882 0.169517 2.415795 255 255 0
0.049427 0.168901 2.409933 255 255 0
0.055573 0.167614 2.401719 255 255 0
0.058329 0.165651 2.391122 255 255 0
0.060242 0.163518 2.379919 255 255 0
0.059626 0.160871 2.366891 255 255 0
0.061549 0.158734 2.355661 255 255 0
0.039892 0.151791 2.327351 255 255 0
0.105979 0.134892 2.223476 255 255 0
0.122048 0.135762 2.223080 255 255 0
0.139751 0.137001 2.224047 255 255 0
-0.242905 0.088241 2.314052 0 255 0
-0.194570 0.090085 2.341113 0 255 0
-0.194178 0.092905 2.353042 0 255 0
-0.193791 0.095722 2.364955 0 255 0
-0.188228 0.097195 2.373325 0 255 0
-0.186117 0.099564 2.384050 0 255 0
-0.184008 0.101932 2.394769 0 255 0
-0.179303 0.103633 2.403741 0 255 0
-0.178062 0.106223 2.415034 0 255 0
-0.175088 0.108369 2.425165 0 255 0
-0.175587 0.111397 2.437586 0 255 0
-0.163930 0.111345 2.442006 0 255 0
-0.158344 0.112838 2.450448 0 255 0
-0.148403 0.113242 2.456081 0 255 0
-0.144547 0.115182 2.465691 0 255 0
-0.125870 0.113425 2.465788 0 255 0
-0.054424 0.113371 2.493890 0 255 0
-0.306394 0.250878 2.283000 255 0 0
-0.301350 0.251882 2.292000 255 0 0
-0.295612 0.252336 2.296000 255 0 0
-0.289095 0.252130 2.294000 255 0 0
-0.282711 0.252034 2.293000 255 0 0
-0.276453 0.252048 2.293000 255 0 0
-0.270547 0.252391 2.296000 255 0 0
-0.264969 0.253064 2.302000 255 0 0
-0.259470 0.253847 2.309000 255 0 0
-0.254151 0.254849 2.318000 255 0 0
-0.248674 0.255741 2.326000 255 0 0
-0.243154 0.256633 2.334000 255 0 0
-0.236777 0.256645 2.334000 255 0 0
-0.229906 0.256107 2.329000 255 0 0
-0.223061 0.255569 2.324000 255 0 0
-0.216056 0.254810 2.317000 255 0 0
-0.208365 0.253172 2.302000 255 0 0
-0.200667 0.251422 2.286000 255 0 0
-0.193736 0.250553 2.278000 255 0 0
-0.186930 0.249793 2.271000 255 0 0
-0.180083 0.248922 2.263000 255 0 0
-0.173125 0.247831 2.253000 255 0 0
-0.166147 0.246630 2.242000 255 0 0
-0.159085 0.245209 2.229000 255 0 0
-0.152369 0.244227 2.220000 255 0 0
-0.146097 0.243905 2.217000 255 0 0
-0.139904 0.243692 2.215000 255 0 0
-0.133660 0.243369 2.212000 255 0 0
-0.127145 0.242496 2.204000 255 0 0
-0.120892 0.242062 2.200000 255 0 0
-0.114713 0.241739 2.197000 255 0 0
-0.108649 0.241635 2.196000 255 0 0
-0.102403 0.241090 2.191000 255 0 0
-0.096316 0.240875 2.189000 255 0 0
-0.090281 0.240770 2.188000 255 0 0
-0.084174 0.240445 2.185000 255 0 0
-0.078118 0.240229 2.183000 255 0 0
-0.072074 0.240013 2.181000 255 0 0
-0.066161 0.240237 2.183000 255 0 0
-0.060127 0.240020 2.181000 255 0 0
-0.054178 0.240133 2.182000 255 0 0
-0.048201 0.240136 2.182000 255 0 0
-0.042224 0.240138 2.182000 255 0 0
-0.036247 0.240141 2.182000 255 0 0
-0.030284 0.240252 2.183000 255 0 0
-0.024337 0.240584 2.186000 255 0 0
-0.018374 0.240915 2.189000 255 0 0
-0.012399 0.241356 2.193000 255 0 0
-0.006403 0.241797 2.197000 255 0 0
-0.000385 0.242238 2.201000 255 0 0
0.005644 0.242237 2.201000 255 0 0
0.011679 0.242347 2.202000 255 0 0
0.017720 0.242456 2.203000 255 0 0
0.023830 0.243226 2.210000 255 0 0
0.029952 0.243774 2.215000 255 0 0
0.036101 0.244323 2.220000 255 0 0
0.042239 0.244651 2.223000 255 0 0
0.048394 0.244979 2.226000 255 0 0
0.054638 0.245636 2.232000 255 0 0
0.060860 0.246073 2.236000 255 0 0
0.067105 0.246510 2.240000 255 0 0
0.073403 0.247056 2.245000 255 0 0
0.079728 0.247603 2.250000 255 0 0
0.086005 0.247928 2.253000 255 0 0
0.092256 0.248144 2.255000 255 0 0
0.098605 0.248579 2.259000 255 0 0
0.104837 0.248683 2.260000 255 0 0
0.111074 0.248787 2.261000 255 0 0
0.118508 0.251422 2.285000 255 0 0
0.123508 0.248885 2.262000 255 0 0
0.128725 0.247008 2.245000 255 0 0
0.134389 0.246121 2.237000 255 0 0
0.139946 0.245123 2.228000 255 0 0
0.145453 0.244126 2.219000 255 0 0
0.150910 0.243128 2.210000 255 0 0
0.156601 0.242570 2.205000 255 0 0
0.162265 0.242011 2.200000 255 0 0
0.168054 0.241672 2.197000 255 0 0
0.173904 0.241444 2.195000 255 0 0
0.179826 0.241324 2.194000 255 0 0
0.185656 0.241095 2.192000 255 0 0
-0.098761 0.161954 2.475164 255 255 0
-0.081314 0.162759 2.473867 255 255 0
-0.062181 0.163911 2.473785 255 255 0
-0.045650 0.164579 2.472087 255 255 0
-0.029147 0.165261 2.470465 255 255 0
-0.018652 0.164782 2.464903 255 255 0
-0.009026 0.164141 2.458806 255 255 0
0.009113 0.165195 2.458533 255 255 0
0.020408 0.164911 2.453696 255 255 0
0.028282 0.163957 2.446568 255 255 0
0.027648 0.161306 2.433602 255 255 0
0.037211 0.160699 2.427680 255 255 0
0.045064 0.159755 2.420611 255 255 0
0.054603 0.159160 2.414755 255 255 0
0.059050 0.157540 2.405357 255 255 0
0.064342 0.156093 2.396563 255 255 0
0.066250 0.153957 2.385373 255 255 0
0.067320 0.151647 2.373570 255 255 0
0.068394 0.149334 2.361752 255 255 0
0.103612 0.123551 2.222738 255 255 0
0.118849 0.124278 2.221679 255 255 0
0.132403 0.124657 2.219401 255 255 0
-0.244170 0.077838 2.316182 0 255 0
-0.194993 0.079355 2.342684 0 255 0
-0.190292 0.081048 2.351655 0 255 0
-0.190760 0.084103 2.364173 0 255 0
-0.186920 0.086023 2.373734 0 255 0
-0.177896 0.086593 2.379792 0 255 0
-0.177507 0.089419 2.391704 0 255 0
-0.177122 0.092243 2.403600 0 255 0
-0.175875 0.094839 2.414903 0 255 0
-0.172899 0.096988 2.425047 0 255 0
-0.166453 0.098246 2.432902 0 255 0
-0.160869 0.099730 2.441347 0 255 0
-0.160494 0.102549 2.453207 0 255 0
-0.156644 0.104480 2.462794 0 255 0
-0.132775 0.101338 2.459469 0 255 0
-0.128035 0.103064 2.468565 0 255 0
-0.301758 0.245945 2.295000 255 0 0
-0.295883 0.246281 2.298000 255 0 0
-0.289361 0.246080 2.296000 255 0 0
-0.282972 0.245987 2.295000 255 0 0
-0.276707 0.246000 2.295000 255 0 0
-0.270796 0.246335 2.298000 255 0 0
-0.264982 0.246777 2.302000 255 0 0
-0.259482 0.247540 2.309000 255 0 0
-0.254163 0.248518 2.318000 255 0 0
-0.248580 0.249280 2.325000 255 0 0
-0.242958 0.250043 2.332000 255 0 0
-0.236484 0.249948 2.331000 255 0 0
-0.229818 0.249638 2.328000 255 0 0
-0.223072 0.249220 2.324000 255 0 0
-0.216347 0.248802 2.320000 255 0 0
-0.208647 0.247204 2.305000 255 0 0
-0.201028 0.245606 2.290000 255 0 0
-0.193746 0.244328 2.278000 255 0 0
-0.187022 0.243695 2.272000 255 0 0
-0.180092 0.242739 2.263000 255 0 0
-0.173441 0.242104 2.257000 255 0 0
-0.166600 0.241147 2.248000 255 0 0
-0.159593 0.239868 2.236000 255 0 0
-0.152720 0.238696 2.225000 255 0 0
-0.146236 0.238060 2.219000 255 0 0
-0.139974 0.237746 2.216000 255 0 0
-0.133788 0.237538 2.214000 255 0 0
-0.127382 0.236901 2.208000 255 0 0
-0.121118 0.236479 2.204000 255 0 0
-0.114771 0.235841 2.198000 255 0 0
-0.108655 0.235632 2.196000 255 0 0
-0.102455 0.235209 2.192000 255 0 0
-0.096409 0.235106 2.191000 255 0 0
-0.090327 0.234897 2.189000 255 0 0
-0.084217 0.234579 2.186000 255 0 0
-0.078230 0.234584 2.186000 255 0 0
-0.072144 0.234266 2.183000 255 0 0
-0.066225 0.234484 2.185000 255 0 0
-0.060185 0.234273 2.183000 255 0 0
-0.054230 0.234383 2.184000 255 0 0
-0.048248 0.234386 2.184000 255 0 0
-0.042265 0.234388 2.184000 255 0 0
-0.036299 0.234498 2.185000 255 0 0
-0.030327 0.234607 2.186000 255 0 0
-0.024372 0.234930 2.189000 255 0 0
-0.018391 0.235146 2.191000 255 0 0
-0.012411 0.235576 2.195000 255 0 0
-0.006412 0.236113 2.200000 255 0 0
-0.000386 0.236542 2.204000 255 0 0
0.005658 0.236757 2.206000 255 0 0
0.011701 0.236757 2.206000 255 0 0
0.017745 0.236756 2.206000 255 0 0
0.023853 0.237399 2.212000 255 0 0
0.029981 0.237934 2.217000 255 0 0
0.036152 0.238576 2.223000 255 0 0
0.042318 0.239003 2.227000 255 0 0
0.048483 0.239323 2.230000 255 0 0
0.054739 0.239964 2.236000 255 0 0
0.061027 0.240605 2.242000 255 0 0
0.067288 0.241031 2.246000 255 0 0
0.073570 0.241456 2.250000 255 0 0
0.079839 0.241774 2.253000 255 0 0
0.086124 0.242092 2.256000 255 0 0
0.092384 0.242302 2.258000 255 0 0
0.098742 0.242726 2.262000 255 0 0
0.105075 0.243042 2.265000 255 0 0
0.111473 0.243466 2.269000 255 0 0
0.117892 0.243889 2.273000 255 0 0
0.123514 0.242703 2.262000 255 0 0
0.128903 0.241194 2.248000 255 0 0
0.134516 0.240221 2.239000 255 0 0
0.139953 0.239034 2.228000 255 0 0
0.145329 0.237847 2.217000 255 0 0
0.150849 0.236981 2.209000 255 0 0
0.156539 0.236437 2.204000 255 0 0
0.162347 0.236107 2.201000 255 0 0
0.168215 0.235884 2.199000 255 0 0
0.174072 0.235660 2.197000 255 0 0
0.179917 0.235437 2.195000 255 0 0
0.185581 0.234998 2.191000 255 0 0
-0.109232 0.151380 2.482422 255 255 0
-0.091767 0.152215 2.481049 255 255 0
-0.073475 0.153233 2.480320 255 255 0
-0.054357 0.154436 2.480245 255 255 0
-0.036983 0.155317 2.479123 255 255 0
-0.023914 0.155362 2.475229 255 255 0
-0.010864 0.155417 2.471392 255 255 0
-0.001248 0.154799 2.465308 255 255 0
0.019434 0.156416 2.466778 255 255 0
0.024756 0.154958 2.457894 255 255 0
0.029224 0.153329 2.448438 255 255 0
0.031990 0.151356 2.437816 255 255 0
0.042396 0.150942 2.432485 255 255 0
0.047700 0.149493 2.423651 255 255 0
0.051307 0.147699 2.413640 255 255 0
0.055760 0.146079 2.404226 255 255 0
0.061055 0.144635 2.395415 255 255 0
0.062126 0.142317 2.383611 255 255 0
0.065732 0.140524 2.373602 255 255 0
0.067653 0.138378 2.362383 255 255 0
0.133351 0.114085 2.221203 255 255 0
-0.251432 0.069061 2.322561 0 255 0
-0.240772 0.069090 2.327168 0 255 0
-0.212150 0.070160 2.343642 0 255 0
-0.192839 0.067925 2.342477 0 255 0
-0.187274 0.069385 2.350870 0 255 0
-0.195490 0.074515 2.368701 0 255 0
-0.190791 0.076202 2.377668 0 255 0
-0.179183 0.076068 2.381972 0 255 0
-0.176200 0.078219 2.392141 0 255 0
-0.180998 0.082414 2.407518 0 255 0
-0.179753 0.085015 2.418814 0 255 0
-0.172447 0.086032 2.426084 0 255 0
-0.166868 0.087506 2.434520 0 255 0
-0.158682 0.088309 2.441266 0 255 0
-0.168721 0.093829 2.459929 0 255 0
-0.153580 0.092845 2.462173 0 255 0
-0.142767 0.092992 2.467293 0 255 0
-0.129329 0.092481 2.470784 0 255 0
-0.307630 0.239351 2.292000 255 0 0
-0.301773 0.239678 2.295000 255 0 0
-0.295897 0.240005 2.298000 255 0 0
-0.289375 0.239810 2.296000 255 0 0
-0.282862 0.239615 2.294000 255 0 0
-0.276600 0.239628 2.294000 255 0 0
-0.270809 0.240058 2.298000 255 0 0
-0.265110 0.240593 2.303000 255 0 0
-0.259720 0.241442 2.311000 255 0 0
-0.254285 0.242290 2.319000 255 0 0
-0.248806 0.243138 2.327000 255 0 0
-0.242969 0.243672 2.332000 255 0 0
-0.236293 0.243370 2.329000 255 0 0
-0.229534 0.242964 2.325000 255 0 0
-0.222795 0.242557 2.321000 255 0 0
-0.216171 0.242254 2.318000 255 0 0
-0.208748 0.241010 2.306000 255 0 0
-0.201126 0.239452 2.291000 255 0 0
-0.193585 0.237894 2.276000 255 0 0
-0.186867 0.237277 2.270000 255 0 0
-0.180022 0.236450 2.262000 255 0 0
-0.173527 0.236040 2.258000 255 0 0
-0.166905 0.235422 2.252000 255 0 0
-0.159958 0.234280 2.241000 255 0 0
-0.153003 0.233033 2.229000 255 0 0
-0.146310 0.232100 2.220000 255 0 0
-0.139981 0.231689 2.216000 255 0 0
-0.133856 0.231591 2.215000 255 0 0
-0.127619 0.231284 2.212000 255 0 0
-0.121234 0.230663 2.206000 255 0 0
-0.114829 0.229937 2.199000 255 0 0
-0.108611 0.229525 2.195000 255 0 0
-0.102460 0.229216 2.192000 255 0 0
-0.096370 0.229012 2.190000 255 0 0
-0.090331 0.228912 2.189000 255 0 0
-0.084298 0.228812 2.188000 255 0 0
-0.078306 0.228816 2.188000 255 0 0
-0.072247 0.228611 2.186000 255 0 0
-0.066229 0.228510 2.185000 255 0 0
-0.060216 0.228409 2.184000 255 0 0
-0.054283 0.228621 2.186000 255 0 0
-0.048295 0.228624 2.186000 255 0 0
-0.042306 0.228626 2.186000 255 0 0
-0.036317 0.228628 2.186000 255 0 0
-0.030342 0.228734 2.187000 255 0 0
-0.024384 0.229049 2.190000 255 0 0
-0.018409 0.229364 2.193000 255 0 0
-0.012429 0.229888 2.198000 255 0 0
-0.006424 0.230516 2.204000 255 0 0
-0.000387 0.230935 2.208000 255 0 0
0.005668 0.231144 2.210000 255 0 0
0.011723 0.231143 2.210000 255 0 0
0.017786 0.231247 2.211000 255 0 0
0.023898 0.231769 2.216000 255 0 0
0.030036 0.232291 2.221000 255 0 0
0.036186 0.232707 2.225000 255 0 0
0.042358 0.233123 2.229000 255 0 0
0.048529 0.233435 2.232000 255 0 0
0.054815 0.234164 2.239000 255 0 0
0.061139 0.234893 2.246000 255 0 0
0.067471 0.235518 2.252000 255 0 0
0.073770 0.235932 2.256000 255 0 0
0.080091 0.236347 2.260000 255 0 0
0.086281 0.236342 2.260000 255 0 0
0.092389 0.236129 2.258000 255 0 0
0.098659 0.236333 2.260000 255 0 0
0.105080 0.236850 2.265000 255 0 0
0.111724 0.237786 2.274000 255 0 0
0.118054 0.237989 2.276000 255 0 0
0.123575 0.236624 2.263000 255 0 0
0.128738 0.234735 2.245000 255 0 0
0.134342 0.233788 2.236000 255 0 0
0.139834 0.232735 2.226000 255 0 0
0.145140 0.231473 2.214000 255 0 0
0.150652 0.230629 2.206000 255 0 0
0.156404 0.230204 2.202000 255 0 0
0.162282 0.229987 2.200000 255 0 0
0.168071 0.229665 2.197000 255 0 0
0.173843 0.229342 2.194000 255 0 0
0.179762 0.229229 2.193000 255 0 0
0.185590 0.229011 2.191000 255 0 0
-0.104807 0.141114 2.486623 255 255 0
-0.085637 0.142335 2.486367 255 255 0
-0.068214 0.143229 2.485078 255 255 0
-0.050820 0.144138 2.483871 255 255 0
-0.036022 0.144546 2.481041 255 255 0
-0.020394 0.145138 2.478848 255 255 0
-0.013326 0.144012 2.471001 255 255 0
0.002260 0.144625 2.468926 255 255 0
0.017821 0.145252 2.466923 255 255 0
0.025698 0.144321 2.459768 255 255 0
0.030166 0.142695 2.450309 255 255 0
0.041424 0.142474 2.445538 255 255 0
0.050969 0.141909 2.439637 255 255 0
0.053724 0.139941 2.429051 255 255 0
0.051402 0.136912 2.414903 255 255 0
0.052474 0.134586 2.403102 255 255 0
0.059463 0.133501 2.395471 255 255 0
0.064757 0.132063 2.386661 255 255 0
0.068362 0.130271 2.376655 255 255 0
0.078969 0.096354 2.205973 255 255 0
0.097540 0.097880 2.207373 255 255 0
0.123534 0.101095 2.214649 255 255 0
0.138723 0.101914 2.213670 255 255 0
-0.263822 0.061726 2.332567 0 255 0
-0.256602 0.062665 2.339564 0 255 0
-0.206559 0.057817 2.341034 0 255 0
-0.200145 0.059029 2.348804 0 255 0
-0.192005 0.059781 2.355411 0 255 0
-0.194189 0.063320 2.369106 0 255 0
-0.192936 0.065929 2.380427 0 255 0
-0.201173 0.071072 2.398151 0 255 0
-0.205114 0.075052 2.412906 0 255 0
-0.193513 0.074892 2.417213 0 255 0
-0.186222 0.075887 2.424449 0 255 0
-0.200562 0.082601 2.446034 0 255 0
-0.177681 0.079491 2.442987 0 255 0
-0.172974 0.081183 2.451982 0 255 0
-0.163924 0.081742 2.458161 0 255 0
-0.158339 0.083215 2.466626 0 255 0
-0.138840 0.081079 2.466142 0 255 0
-0.134974 0.083018 2.475793 0 255 0
-0.312937 0.232366 2.285000 255 0 0
-0.307913 0.233295 2.294000 255 0 0
-0.302181 0.233715 2.298000 255 0 0
-0.295911 0.233729 2.298000 255 0 0
-0.289514 0.233640 2.297000 255 0 0
-0.282998 0.233450 2.295000 255 0 0
-0.276734 0.233463 2.295000 255 0 0
-0.270704 0.233679 2.297000 255 0 0
-0.265122 0.234302 2.303000 255 0 0
-0.259732 0.235128 2.311000 255 0 0
-0.254407 0.236056 2.320000 255 0 0
-0.248604 0.236576 2.325000 255 0 0
-0.242668 0.236995 2.329000 255 0 0
-0.236203 0.236905 2.328000 255 0 0
-0.229545 0.236610 2.325000 255 0 0
-0.222902 0.236316 2.322000 255 0 0
-0.216181 0.235919 2.318000 255 0 0
-0.208848 0.234810 2.307000 255 0 0
-0.201224 0.233293 2.292000 255 0 0
-0.193510 0.231572 2.275000 255 0 0
-0.186712 0.230869 2.268000 255 0 0
-0.179951 0.230165 2.261000 255 0 0
-0.173612 0.229970 2.259000 255 0 0
-0.167061 0.229469 2.254000 255 0 0
-0.160466 0.228867 2.248000 255 0 0
-0.153628 0.227856 2.238000 255 0 0
-0.146647 0.226540 2.225000 255 0 0
-0.139988 0.225631 2.216000 255 0 0
-0.133681 0.225230 2.212000 255 0 0
-0.127568 0.225135 2.211000 255 0 0
-0.121186 0.224530 2.205000 255 0 0
-0.114783 0.223823 2.198000 255 0 0
-0.108567 0.223421 2.194000 255 0 0
-0.102466 0.223223 2.192000 255 0 0
-0.096419 0.223126 2.191000 255 0 0
-0.090295 0.222825 2.188000 255 0 0
-0.084302 0.222830 2.188000 255 0 0
-0.078310 0.222834 2.188000 255 0 0
-0.072283 0.222736 2.187000 255 0 0
-0.066262 0.222637 2.186000 255 0 0
-0.060274 0.222641 2.186000 255 0 0
-0.054286 0.222643 2.186000 255 0 0
-0.048297 0.222646 2.186000 255 0 0
-0.042347 0.222852 2.188000 255 0 0
-0.036352 0.222854 2.188000 255 0 0
-0.030372 0.222958 2.189000 255 0 0
-0.024385 0.223061 2.190000 255 0 0
-0.018418 0.223469 2.194000 255 0 0
-0.012435 0.223979 2.199000 255 0 0
-0.006428 0.224591 2.205000 255 0 0
-0.000387 0.224999 2.209000 255 0 0
0.005673 0.225304 2.212000 255 0 0
0.011745 0.225507 2.214000 255 0 0
0.017835 0.225812 2.217000 255 0 0
0.023942 0.226117 2.220000 255 0 0
0.030092 0.226624 2.225000 255 0 0
0.036253 0.227030 2.229000 255 0 0
0.042436 0.227436 2.233000 255 0 0
0.048619 0.227739 2.236000 255 0 0
0.054842 0.228144 2.240000 255 0 0
0.061197 0.228956 2.248000 255 0 0
0.067564 0.229665 2.255000 255 0 0
0.073938 0.230273 2.261000 255 0 0
0.080237 0.230574 2.264000 255 0 0
0.086476 0.230672 2.265000 255 0 0
0.092598 0.230464 2.263000 255 0 0
0.098839 0.230561 2.264000 255 0 0
0.105224 0.230963 2.268000 255 0 0
0.111779 0.231671 2.275000 255 0 0
0.118008 0.231665 2.275000 255 0 0
0.123581 0.230437 2.263000 255 0 0
0.128859 0.228801 2.247000 255 0 0
0.134409 0.227777 2.237000 255 0 0
0.139779 0.226548 2.225000 255 0 0
0.145082 0.225319 2.213000 255 0 0
0.150591 0.224497 2.205000 255 0 0
0.156412 0.224184 2.202000 255 0 0
0.162290 0.223973 2.200000 255 0 0
0.168156 0.223761 2.198000 255 0 0
0.173931 0.223448 2.195000 255 0 0
0.179935 0.223439 2.195000 255 0 0
0.185768 0.223226 2.193000 255 0 0
-0.097811 0.131383 2.492491 255 255 0
-0.079512 0.132480 2.491680 255 255 0
-0.065527 0.132724 2.488145 255 255 0
-0.050709 0.133153 2.485237 255 255 0
-0.041899 0.132370 2.478425 255 255 0
-0.030539 0.132119 2.473353 255 255 0
-0.015783 0.132579 2.470616 255 255 0
-0.005312 0.132170 2.465073 255 255 0
0.018765 0.134596 2.468805 255 255 0
0.024089 0.133147 2.459906 255 255 0
0.028561 0.131523 2.450437 255 255 0
0.040667 0.131501 2.446234 255 255 0
0.048516 0.130598 2.439147 255 255 0
0.050428 0.128446 2.427959 255 255 0
0.050653 0.125935 2.415578 255 255 0
0.053419 0.123960 2.404960 255 255 0
0.062094 0.123246 2.398519 255 255 0
0.065700 0.121453 2.388510 255 255 0
0.070990 0.120024 2.379706 255 255 0
0.068704 0.116962 2.365471 255 255 0
0.084420 0.084000 2.198330 255 255 0
0.110417 0.087277 2.205544 255 255 0
0.129751 0.089069 2.207735 255 255 0
-0.265936 0.051597 2.335292 0 255 0
-0.255295 0.051573 2.339881 0 255 0
-0.235216 0.048952 2.337911 0 255 0
-0.210418 0.048021 2.344985 0 255 0
-0.209163 0.050634 2.356307 0 255 0
-0.201892 0.051601 2.363488 0 255 0
-0.204080 0.055150 2.377155 0 255 0
-0.195942 0.055889 2.383772 0 255 0
-0.214518 0.063863 2.408474 0 255 0
-0.202934 0.063668 2.412751 0 255 0
-0.181836 0.060931 2.410726 0 255 0
-0.185772 0.064932 2.425478 0 255 0
-0.189718 0.068926 2.440189 0 255 0
-0.183289 0.070145 2.448021 0 255 0
-0.175120 0.070908 2.454739 0 255 0
-0.121086 0.071420 2.480463 0 255 0
-0.103271 0.069739 2.481328 0 255 0
-0.090661 0.069433 2.485578 0 255 0
-0.308195 0.227227 2.296000 255 0 0
-0.302326 0.227537 2.299000 255 0 0
-0.295795 0.227353 2.297000 255 0 0
-0.289527 0.227366 2.297000 255 0 0
-0.282888 0.227082 2.294000 255 0 0
-0.276867 0.227292 2.296000 255 0 0
-0.270598 0.227304 2.296000 255 0 0
-0.265134 0.228010 2.303000 255 0 0
-0.259744 0.228814 2.311000 255 0 0
-0.254528 0.229815 2.321000 255 0 0
-0.248829 0.230421 2.327000 255 0 0
-0.242992 0.230928 2.332000 255 0 0
-0.236315 0.230641 2.329000 255 0 0
-0.229555 0.230256 2.325000 255 0 0
-0.222624 0.229673 2.319000 255 0 0
-0.215725 0.229089 2.313000 255 0 0
-0.208587 0.228207 2.304000 255 0 0
-0.201145 0.226929 2.291000 255 0 0
-0.193604 0.225452 2.276000 255 0 0
-0.186721 0.224669 2.268000 255 0 0
-0.180039 0.224083 2.262000 255 0 0
-0.173544 0.223695 2.258000 255 0 0
-0.166921 0.223109 2.252000 255 0 0
-0.160474 0.222721 2.248000 255 0 0
-0.153910 0.222134 2.242000 255 0 0
-0.147181 0.221249 2.233000 255 0 0
-0.140311 0.220067 2.221000 255 0 0
-0.133748 0.219281 2.213000 255 0 0
-0.127459 0.218891 2.209000 255 0 0
-0.121191 0.218501 2.205000 255 0 0
-0.114893 0.218011 2.200000 255 0 0
-0.108770 0.217818 2.198000 255 0 0
-0.102658 0.217625 2.196000 255 0 0
-0.096556 0.217432 2.194000 255 0 0
-0.090464 0.217238 2.192000 255 0 0
-0.084422 0.217144 2.191000 255 0 0
-0.078385 0.217048 2.190000 255 0 0
-0.072287 0.216755 2.187000 255 0 0
-0.066296 0.216758 2.187000 255 0 0
-0.060332 0.216860 2.188000 255 0 0
-0.054388 0.217061 2.190000 255 0 0
-0.048366 0.216965 2.189000 255 0 0
-0.042368 0.216967 2.189000 255 0 0
-0.036387 0.217068 2.190000 255 0 0
-0.030415 0.217268 2.192000 255 0 0
-0.024420 0.217369 2.193000 255 0 0
-0.018445 0.217766 2.197000 255 0 0
-0.012453 0.218262 2.202000 255 0 0
-0.006437 0.218858 2.208000 255 0 0
-0.000387 0.219155 2.211000 255 0 0
0.005676 0.219353 2.213000 255 0 0
0.011751 0.219551 2.215000 255 0 0
0.017860 0.220046 2.220000 255 0 0
0.023986 0.220441 2.224000 255 0 0
0.030161 0.221035 2.230000 255 0 0
0.036304 0.221231 2.232000 255 0 0
0.042457 0.221428 2.234000 255 0 0
0.048665 0.221822 2.238000 255 0 0
0.054919 0.222315 2.243000 255 0 0
0.061281 0.223105 2.251000 255 0 0
0.067568 0.223498 2.255000 255 0 0
0.073909 0.223990 2.260000 255 0 0
0.080276 0.224482 2.265000 255 0 0
0.086519 0.224577 2.266000 255 0 0
0.092766 0.224672 2.267000 255 0 0
0.099062 0.224865 2.269000 255 0 0
0.105508 0.225356 2.274000 255 0 0
0.112030 0.225945 2.280000 255 0 0
0.118221 0.225840 2.279000 255 0 0
0.123915 0.224844 2.269000 255 0 0
0.128980 0.222856 2.249000 255 0 0
0.134536 0.221858 2.239000 255 0 0
0.139911 0.220663 2.227000 255 0 0
0.145285 0.219566 2.216000 255 0 0
0.150804 0.218766 2.208000 255 0 0
0.156562 0.218362 2.204000 255 0 0
0.162224 0.217859 2.199000 255 0 0
0.168087 0.217653 2.197000 255 0 0
0.173701 0.217150 2.192000 255 0 0
0.179615 0.217042 2.191000 255 0 0
0.185777 0.217232 2.193000 255 0 0
-0.093962 0.118425 2.483574 255 255 0
-0.067979 0.121163 2.487844 255 255 0
-0.063427 0.119501 2.478147 255 255 0
-0.052895 0.119082 2.472422 255 255 0
-0.035551 0.120093 2.471290 255 255 0
-0.020793 0.120585 2.468525 255 255 0
-0.000949 0.122161 2.469271 255 255 0
0.018859 0.123754 2.470112 255 255 0
0.035234 0.124647 2.468734 255 255 0
0.034600 0.121950 2.455802 255 255 0
0.046698 0.121958 2.451607 255 255 0
0.055387 0.121251 2.445116 255 255 0
0.058987 0.119461 2.435123 255 255 0
0.065969 0.118399 2.427496 255 255 0
0.071254 0.116976 2.418701 255 255 0
0.069786 0.114093 2.405145 255 255 0
0.070858 0.111754 2.393357 255 255 0
0.071092 0.109230 2.380953 255 255 0
0.073015 0.107070 2.369737 255 255 0
0.061485 0.094141 2.310654 255 255 0
0.053409 0.089727 2.291933 255 255 0
0.109727 0.076229 2.206086 255 255 0
-0.270614 0.042189 2.339833 0 255 0
-0.252280 0.039980 2.339001 0 255 0
-0.132401 0.012436 2.279694 0 255 0
-0.191973 0.032036 2.333477 0 255 0
-0.217313 0.042042 2.363208 0 255 0
-0.207473 0.042279 2.368606 0 255 0
-0.200201 0.043237 2.375804 0 255 0
-0.203251 0.047035 2.390037 0 255 0
-0.212342 0.052477 2.408307 0 255 0
-0.201622 0.052493 2.413182 0 255 0
-0.188300 0.051816 2.416373 0 255 0
-0.181006 0.052791 2.423641 0 255 0
-0.190130 0.058210 2.441797 0 255 0
-0.177644 0.057788 2.445653 0 255 0
-0.171203 0.059006 2.453530 0 255 0
-0.098036 0.054361 2.467188 0 255 0
-0.094136 0.056320 2.476960 0 255 0
-0.075423 0.054391 2.477408 0 255 0
-0.308745 0.221340 2.300000 255 0 0
-0.302734 0.221546 2.302000 255 0 0
-0.296324 0.221462 2.301000 255 0 0
-0.289792 0.221283 2.299000 255 0 0
-0.283270 0.221103 2.297000 255 0 0
-0.277361 0.221404 2.300000 255 0 0
-0.271082 0.221416 2.300000 255 0 0
-0.265492 0.222005 2.306000 255 0 0
-0.259756 0.222498 2.311000 255 0 0
-0.254430 0.223376 2.320000 255 0 0
-0.248947 0.224158 2.328000 255 0 0
-0.243108 0.224650 2.333000 255 0 0
-0.236529 0.224468 2.331000 255 0 0
-0.229566 0.223901 2.325000 255 0 0
-0.222731 0.223430 2.320000 255 0 0
-0.216015 0.223055 2.316000 255 0 0
-0.208959 0.222294 2.308000 255 0 0
-0.201506 0.221051 2.295000 255 0 0
-0.194038 0.219712 2.281000 255 0 0
-0.186894 0.218661 2.270000 255 0 0
-0.180207 0.218092 2.264000 255 0 0
-0.173552 0.217522 2.258000 255 0 0
-0.166929 0.216952 2.252000 255 0 0
-0.160553 0.216670 2.249000 255 0 0
-0.154192 0.216389 2.246000 255 0 0
-0.147583 0.215721 2.239000 255 0 0
-0.140697 0.214572 2.227000 255 0 0
-0.133875 0.213422 2.215000 255 0 0
-0.127581 0.213043 2.211000 255 0 0
-0.121197 0.212471 2.205000 255 0 0
-0.114951 0.212091 2.201000 255 0 0
-0.108874 0.212000 2.200000 255 0 0
-0.102803 0.211909 2.199000 255 0 0
-0.096692 0.211721 2.197000 255 0 0
-0.090551 0.211436 2.194000 255 0 0
-0.084503 0.211344 2.193000 255 0 0
-0.078425 0.211155 2.191000 255 0 0
-0.072390 0.211062 2.190000 255 0 0
-0.066421 0.211162 2.191000 255 0 0
-0.060446 0.211261 2.192000 255 0 0
-0.054465 0.211360 2.193000 255 0 0
-0.048412 0.211170 2.191000 255 0 0
-0.042429 0.211269 2.192000 255 0 0
-0.036456 0.211463 2.194000 255 0 0
-0.030458 0.211561 2.195000 255 0 0
-0.024454 0.211659 2.196000 255 0 0
-0.018454 0.211853 2.198000 255 0 0
-0.012471 0.212528 2.205000 255 0 0
-0.006446 0.213107 2.211000 255 0 0
-0.000388 0.213300 2.213000 255 0 0
0.005684 0.213589 2.216000 255 0 0
0.011762 0.213685 2.217000 255 0 0
0.017877 0.214166 2.222000 255 0 0
0.023998 0.214454 2.225000 255 0 0
0.030176 0.215031 2.231000 255 0 0
0.036354 0.215415 2.235000 255 0 0
0.042516 0.215606 2.237000 255 0 0
0.048776 0.216182 2.243000 255 0 0
0.054995 0.216469 2.246000 255 0 0
0.061339 0.217141 2.253000 255 0 0
0.067601 0.217427 2.256000 255 0 0
0.074010 0.218098 2.263000 255 0 0
0.080422 0.218673 2.269000 255 0 0
0.086828 0.219150 2.274000 255 0 0
0.093221 0.219532 2.278000 255 0 0
0.099678 0.220009 2.283000 255 0 0
0.106163 0.220486 2.288000 255 0 0
0.112527 0.220673 2.290000 255 0 0
0.118694 0.220475 2.288000 255 0 0
0.124194 0.219120 2.274000 255 0 0
0.129101 0.216898 2.251000 255 0 0
0.134603 0.215832 2.240000 255 0 0
0.139918 0.214573 2.227000 255 0 0
0.145227 0.213410 2.215000 255 0 0
0.150674 0.212536 2.206000 255 0 0
0.156356 0.212047 2.201000 255 0 0
0.162231 0.211847 2.199000 255 0 0
0.168095 0.211646 2.197000 255 0 0
0.173868 0.211350 2.194000 255 0 0
0.179788 0.211245 2.193000 255 0 0
0.185871 0.211333 2.194000 255 0 0
0.191784 0.211228 2.193000 255 0 0
-0.118139 0.104881 2.481977 255 255 0
-0.099829 0.106056 2.481074 255 255 0
-0.085831 0.106351 2.477454 255 255 0
-0.064160 0.108274 2.478966 255 255 0
-0.047652 0.109135 2.477189 255 255 0
-0.028612 0.110552 2.477194 255 255 0
-0.003640 0.113253 2.481286 255 255 0
0.014477 0.114524 2.480918 255 255 0
0.030010 0.115266 2.478909 255 255 0
0.032776 0.113286 2.468296 255 255 0
0.029604 0.110026 2.453612 255 255 0
0.037465 0.109142 2.446473 255 255 0
0.062252 0.111935 2.451079 255 255 0
0.075151 0.112173 2.447572 255 255 0
0.080426 0.110761 2.438803 255 255 0
0.075568 0.107131 2.422925 255 255 0
0.069884 0.103306 2.406400 255 255 0
0.056639 0.097799 2.384436 255 255 0
0.066989 0.097493 2.379198 255 255 0
0.056312 0.092523 2.358914 255 255 0
0.043437 0.084418 2.324177 255 255 0
0.060489 0.085617 2.323826 255 255 0
0.073326 0.085888 2.320487 255 255 0
0.078622 0.084469 2.311662 255 255 0
0.112347 0.065939 2.209197 255 255 0
0.125057 0.066278 2.206212 255 255 0
-0.250982 0.028840 2.339331 0 255 0
-0.192413 0.021230 2.335065 0 255 0
-0.216876 0.031081 2.364187 0 255 0
-0.203604 0.030339 2.367243 0 255 0
-0.198908 0.032005 2.376221 0 255 0
-0.189047 0.032240 2.381704 0 255 0
-0.188646 0.035106 2.393620 0 255 0
-0.191697 0.038920 2.407834 0 255 0
-0.193895 0.042489 2.421436 0 255 0
-0.189197 0.044159 2.430419 0 255 0
-0.183631 0.045595 2.438840 0 255 0
-0.151717 0.042834 2.442147 0 255 0
-0.107176 0.045752 2.474421 0 255 0
-0.091104 0.044457 2.476465 0 255 0
-0.079362 0.044335 2.481324 0 255 0
-0.312293 0.213174 2.280000 255 0 0
-0.307550 0.214215 2.291000 255 0 0
-0.302352 0.214976 2.299000 255 0 0
-0.296336 0.215175 2.301000 255 0 0
-0.290057 0.215188 2.301000 255 0 0
-0.283529 0.215013 2.299000 255 0 0
-0.277735 0.215399 2.303000 255 0 0
-0.271447 0.215411 2.303000 255 0 0
-0.265849 0.215984 2.309000 255 0 0
-0.260104 0.216463 2.314000 255 0 0
-0.254770 0.217316 2.323000 255 0 0
-0.249814 0.218543 2.336000 255 0 0
-0.243535 0.218647 2.337000 255 0 0
-0.236540 0.218097 2.331000 255 0 0
-0.229576 0.217545 2.325000 255 0 0
-0.223029 0.217368 2.323000 255 0 0
-0.216398 0.217097 2.320000 255 0 0
-0.209421 0.216452 2.313000 255 0 0
-0.202042 0.215338 2.301000 255 0 0
-0.194558 0.214037 2.287000 255 0 0
-0.187396 0.213016 2.276000 255 0 0
-0.180533 0.212275 2.268000 255 0 0
-0.173637 0.211441 2.259000 255 0 0
-0.167011 0.210887 2.253000 255 0 0
-0.160489 0.210427 2.248000 255 0 0
-0.154130 0.210153 2.245000 255 0 0
-0.147656 0.209692 2.240000 255 0 0
-0.141082 0.209043 2.233000 255 0 0
-0.134425 0.208207 2.224000 255 0 0
-0.127760 0.207277 2.214000 255 0 0
-0.121313 0.206627 2.207000 255 0 0
-0.115008 0.206164 2.202000 255 0 0
-0.108978 0.206170 2.202000 255 0 0
-0.102901 0.206081 2.201000 255 0 0
-0.096785 0.205898 2.199000 255 0 0
-0.090638 0.205622 2.196000 255 0 0
-0.084584 0.205532 2.195000 255 0 0
-0.078536 0.205442 2.194000 255 0 0
-0.072525 0.205446 2.194000 255 0 0
-0.066545 0.205543 2.195000 255 0 0
-0.060559 0.205639 2.196000 255 0 0
-0.054542 0.205642 2.196000 255 0 0
-0.048503 0.205551 2.195000 255 0 0
