ply
format ascii 1.0
element vertex 1329
property double x
property double y
property double z
property uchar red
property uchar green
property uchar blue
end_header
-0.108554 0.780040 1.990000 255 0 0
-0.102522 0.775340 1.978000 255 0 0
-0.096310 0.768680 1.961000 255 0 0
-0.090561 0.765156 1.952000 255 0 0
-0.084424 0.757711 1.933000 255 0 0
-0.079415 0.760066 1.939000 255 0 0
-0.074182 0.760461 1.940000 255 0 0
-0.069156 0.763208 1.947000 255 0 0
-0.063239 0.755763 1.928000 255 0 0
-0.058088 0.756941 1.931000 255 0 0
-0.052755 0.755767 1.928000 255 0 0
-0.047735 0.759297 1.937000 255 0 0
-0.042688 0.763219 1.947000 255 0 0
-0.038028 0.776156 1.980000 255 0 0
-0.032365 0.769494 1.963000 255 0 0
-0.026780 0.762439 1.945000 255 0 0
-0.021690 0.769496 1.963000 255 0 0
-0.016061 0.755776 1.928000 255 0 0
-0.010887 0.760481 1.940000 255 0 0
-0.005704 0.773025 1.972000 255 0 0
-0.000349 0.786746 2.007000 255 0 0
0.005151 0.793409 2.024000 255 0 0
-0.163798 0.780059 2.004000 255 0 0
-0.154795 0.762548 1.959000 255 0 0
-0.152980 0.780459 2.005000 255 0 0
-0.145617 0.770344 1.979000 255 0 0
-0.139103 0.764121 1.963000 255 0 0
-0.136084 0.777361 1.997000 255 0 0
-0.129281 0.769191 1.976000 255 0 0
-0.122844 0.762578 1.959000 255 0 0
-0.116918 0.758690 1.949000 255 0 0
-0.111963 0.761030 1.955000 255 0 0
-0.107521 0.767262 1.971000 255 0 0
-0.101593 0.762984 1.960000 255 0 0
-0.095331 0.755592 1.941000 255 0 0
-0.089637 0.752092 1.932000 255 0 0
-0.084253 0.750928 1.929000 255 0 0
-0.079049 0.751320 1.930000 255 0 0
-0.073764 0.750934 1.929000 255 0 0
-0.068377 0.749380 1.925000 255 0 0
-0.062979 0.747436 1.920000 255 0 0
-0.058060 0.751331 1.930000 255 0 0
-0.052894 0.752501 1.933000 255 0 0
-0.047787 0.754839 1.939000 255 0 0
-0.042536 0.755230 1.940000 255 0 0
-0.038107 0.772361 1.984000 255 0 0
-0.033190 0.783652 2.013000 255 0 0
-0.026712 0.755234 1.940000 255 0 0
-0.021260 0.749007 1.924000 255 0 0
-0.011067 0.767694 1.972000 255 0 0
-0.005762 0.775481 1.992000 255 0 0
-0.000349 0.782877 2.011000 255 0 0
0.005144 0.786770 2.021000 255 0 0
0.010655 0.787938 2.024000 255 0 0
-0.162905 0.770386 1.993000 255 0 0
-0.158040 0.773098 2.000000 255 0 0
-0.151459 0.767305 1.985000 255 0 0
-0.145475 0.764218 1.977000 255 0 0
-0.141022 0.769249 1.990000 255 0 0
-0.136430 0.773893 2.002000 255 0 0
-0.130202 0.769259 1.990000 255 0 0
-0.123664 0.762306 1.972000 255 0 0
-0.117583 0.757672 1.960000 255 0 0
-0.112025 0.756130 1.956000 255 0 0
-0.106980 0.758068 1.961000 255 0 0
-0.101234 0.754979 1.953000 255 0 0
-0.095531 0.751891 1.945000 255 0 0
-0.089362 0.744550 1.926000 255 0 0
-0.084038 0.743780 1.924000 255 0 0
-0.079134 0.746876 1.932000 255 0 0
-0.073729 0.745333 1.928000 255 0 0
-0.068309 0.743403 1.923000 255 0 0
-0.063113 0.743792 1.924000 255 0 0
-0.058333 0.749593 1.939000 255 0 0
-0.053033 0.749209 1.938000 255 0 0
-0.047493 0.744959 1.927000 255 0 0
-0.042034 0.741095 1.917000 255 0 0
-0.037244 0.749602 1.939000 255 0 0
-0.033324 0.781304 2.021000 255 0 0
-0.021449 0.750379 1.941000 255 0 0
-0.011342 0.781308 2.021000 255 0 0
-0.005780 0.772416 1.998000 255 0 0
-0.000345 0.767777 1.986000 255 0 0
0.005114 0.776669 2.009000 255 0 0
-0.171031 0.777273 2.025000 255 0 0
-0.164627 0.773057 2.014000 255 0 0
-0.157809 0.766538 1.997000 255 0 0
-0.151160 0.760402 1.981000 255 0 0
-0.147026 0.766933 1.998000 255 0 0
-0.142090 0.769626 2.005000 255 0 0
-0.135822 0.765025 1.993000 255 0 0
-0.129815 0.761576 1.984000 255 0 0
-0.123919 0.758510 1.976000 255 0 0
-0.118187 0.756212 1.970000 255 0 0
-0.112259 0.752378 1.960000 255 0 0
-0.106930 0.752383 1.960000 255 0 0
-0.101342 0.750468 1.955000 255 0 0
-0.096027 0.750472 1.955000 255 0 0
-0.089505 0.740495 1.929000 255 0 0
-0.083867 0.737044 1.920000 255 0 0
-0.079138 0.741654 1.932000 255 0 0
-0.074344 0.746264 1.944000 255 0 0
-0.068667 0.742044 1.933000 255 0 0
-0.063181 0.739360 1.926000 255 0 0
-0.058426 0.745505 1.942000 255 0 0
-0.053200 0.746275 1.944000 255 0 0
-0.047618 0.741671 1.932000 255 0 0
-0.042101 0.737066 1.920000 255 0 0
-0.037034 0.740139 1.928000 255 0 0
-0.031561 0.734766 1.914000 255 0 0
-0.026273 0.732464 1.908000 255 0 0
-0.021593 0.750124 1.954000 255 0 0
-0.005731 0.760491 1.981000 255 0 0
0.004946 0.745903 1.943000 255 0 0
-0.174275 0.761880 1.999000 255 0 0
-0.169264 0.763793 2.004000 255 0 0
-0.163571 0.762656 2.001000 255 0 0
-0.157420 0.759232 1.992000 255 0 0
-0.151700 0.757714 1.988000 255 0 0
-0.146296 0.757720 1.988000 255 0 0
-0.141246 0.759632 1.993000 255 0 0
-0.135214 0.756207 1.984000 255 0 0
-0.129428 0.753926 1.978000 255 0 0
-0.123862 0.752788 1.975000 255 0 0
-0.118252 0.751268 1.971000 255 0 0
-0.112493 0.748605 1.964000 255 0 0
-0.106935 0.747085 1.960000 255 0 0
-0.101450 0.745946 1.957000 255 0 0
-0.095932 0.744426 1.953000 255 0 0
-0.090158 0.740618 1.943000 255 0 0
-0.084962 0.741385 1.945000 255 0 0
-0.079715 0.741769 1.946000 255 0 0
-0.074729 0.744822 1.954000 255 0 0
-0.069061 0.741014 1.944000 255 0 0
-0.063447 0.737205 1.934000 255 0 0
-0.058248 0.737970 1.936000 255 0 0
-0.053230 0.741403 1.945000 255 0 0
-0.047916 0.741024 1.944000 255 0 0
-0.042345 0.736071 1.931000 255 0 0
-0.037017 0.734548 1.927000 255 0 0
-0.031546 0.729213 1.913000 255 0 0
-0.026550 0.734932 1.928000 255 0 0
-0.021572 0.744082 1.952000 255 0 0
-0.010866 0.737984 1.936000 255 0 0
-0.005575 0.734554 1.927000 255 0 0
-0.000341 0.749039 1.965000 255 0 0
0.004931 0.738366 1.937000 255 0 0
-0.173933 0.754962 1.995000 255 0 0
-0.167750 0.751563 1.986000 255 0 0
-0.162025 0.750056 1.982000 255 0 0
-0.157269 0.753090 1.990000 255 0 0
-0.151783 0.752718 1.989000 255 0 0
-0.146523 0.753481 1.991000 255 0 0
-0.140968 0.752731 1.989000 255 0 0
-0.135288 0.751223 1.985000 255 0 0
-0.129695 0.750093 1.982000 255 0 0
-0.123867 0.747450 1.975000 255 0 0
-0.118318 0.746320 1.972000 255 0 0
-0.112669 0.744433 1.967000 255 0 0
-0.107212 0.743681 1.965000 255 0 0
-0.101662 0.742172 1.961000 255 0 0
-0.096133 0.740662 1.957000 255 0 0
-0.090534 0.738396 1.951000 255 0 0
-0.085185 0.738021 1.950000 255 0 0
-0.079923 0.738404 1.951000 255 0 0
-0.074733 0.739543 1.954000 255 0 0
-0.069206 0.737275 1.948000 255 0 0
-0.063745 0.735386 1.943000 255 0 0
-0.058461 0.735389 1.943000 255 0 0
-0.053561 0.740690 1.957000 255 0 0
-0.048165 0.739557 1.954000 255 0 0
-0.042566 0.734639 1.941000 255 0 0
-0.037191 0.732748 1.936000 255 0 0
-0.032075 0.736156 1.945000 255 0 0
-0.026840 0.737672 1.949000 255 0 0
-0.021993 0.753191 1.990000 255 0 0
-0.016623 0.755084 1.995000 255 0 0
-0.011080 0.747137 1.974000 255 0 0
-0.005682 0.743352 1.964000 255 0 0
-0.000339 0.737297 1.948000 255 0 0
0.005107 0.759249 2.006000 255 0 0
0.010636 0.764547 2.020000 255 0 0
-0.172720 0.744308 1.981000 255 0 0
-0.167588 0.745443 1.984000 255 0 0
-0.162113 0.745074 1.983000 255 0 0
-0.157513 0.748838 1.993000 255 0 0
-0.152095 0.748845 1.993000 255 0 0
-0.145867 0.744718 1.982000 255 0 0
-0.140336 0.743973 1.980000 255 0 0
-0.134885 0.743604 1.979000 255 0 0
-0.129635 0.744361 1.981000 255 0 0
-0.123810 0.741737 1.974000 255 0 0
-0.118203 0.740240 1.970000 255 0 0
-0.112675 0.739118 1.967000 255 0 0
-0.107217 0.738371 1.965000 255 0 0
-0.101667 0.736873 1.961000 255 0 0
-0.096236 0.736126 1.959000 255 0 0
-0.090770 0.735003 1.956000 255 0 0
-0.085320 0.733880 1.953000 255 0 0
-0.079968 0.733508 1.952000 255 0 0
-0.074736 0.734264 1.954000 255 0 0
-0.069387 0.733891 1.953000 255 0 0
-0.064109 0.734270 1.954000 255 0 0
-0.058945 0.736152 1.959000 255 0 0
-0.053673 0.736907 1.961000 255 0 0
-0.048044 0.732400 1.949000 255 0 0
-0.042305 0.724886 1.929000 255 0 0
-0.037212 0.727894 1.937000 255 0 0
-0.032109 0.731654 1.947000 255 0 0
-0.027172 0.741426 1.973000 255 0 0
-0.021862 0.743306 1.978000 255 0 0
-0.016649 0.750823 1.998000 255 0 0
-0.005703 0.740678 1.971000 255 0 0
0.005031 0.742557 1.976000 255 0 0
0.010710 0.764352 2.034000 255 0 0
-0.172728 0.738953 1.981000 255 0 0
-0.167342 0.738961 1.981000 255 0 0
-0.162039 0.739341 1.982000 255 0 0
-0.157599 0.743825 1.994000 255 0 0
-0.152025 0.743086 1.992000 255 0 0
-0.146241 0.741228 1.987000 255 0 0
-0.140485 0.739369 1.982000 255 0 0
-0.135096 0.739375 1.982000 255 0 0
-0.129641 0.739009 1.981000 255 0 0
-0.123816 0.736403 1.974000 255 0 0
-0.118269 0.735290 1.971000 255 0 0
-0.112737 0.734176 1.968000 255 0 0
-0.107331 0.733808 1.967000 255 0 0
-0.101775 0.732321 1.963000 255 0 0
-0.096339 0.731580 1.961000 255 0 0
-0.090867 0.730465 1.958000 255 0 0
-0.085455 0.729724 1.956000 255 0 0
-0.080095 0.729355 1.955000 255 0 0
-0.074778 0.729358 1.955000 255 0 0
-0.069426 0.728989 1.954000 255 0 0
-0.064210 0.730112 1.957000 255 0 0
-0.058978 0.731234 1.960000 255 0 0
-0.053621 0.730864 1.959000 255 0 0
-0.048071 0.727508 1.950000 255 0 0
-0.042482 0.722661 1.937000 255 0 0
-0.037214 0.722663 1.937000 255 0 0
-0.032111 0.726395 1.947000 255 0 0
-0.027036 0.732366 1.963000 255 0 0
-0.021852 0.737591 1.977000 255 0 0
-0.016525 0.739830 1.983000 255 0 0
-0.011115 0.738711 1.980000 255 0 0
-0.005724 0.737966 1.978000 255 0 0
0.010474 0.742069 1.989000 255 0 0
-0.174915 0.742857 2.006000 255 0 0
-0.169039 0.741013 2.001000 255 0 0
-0.163027 0.738429 1.994000 255 0 0
-0.158950 0.744732 2.011000 255 0 0
-0.152490 0.739925 1.998000 255 0 0
-0.146322 0.736229 1.988000 255 0 0
-0.140491 0.734013 1.982000 255 0 0
-0.134830 0.732539 1.978000 255 0 0
-0.129320 0.731804 1.976000 255 0 0
-0.123634 0.729959 1.971000 255 0 0
-0.118214 0.729595 1.970000 255 0 0
-0.112743 0.728860 1.968000 255 0 0
-0.107282 0.728124 1.966000 255 0 0
-0.101728 0.726648 1.962000 255 0 0
-0.096344 0.726283 1.961000 255 0 0
-0.090918 0.725547 1.959000 255 0 0
-0.085547 0.725181 1.958000 255 0 0
-0.080099 0.724074 1.955000 255 0 0
-0.074782 0.724078 1.955000 255 0 0
-0.069430 0.723711 1.954000 255 0 0
-0.064181 0.724455 1.956000 255 0 0
-0.058921 0.725199 1.958000 255 0 0
-0.053596 0.725202 1.958000 255 0 0
-0.048221 0.724464 1.956000 255 0 0
-0.042726 0.721503 1.948000 255 0 0
-0.037331 0.719654 1.943000 255 0 0
-0.031964 0.717804 1.938000 255 0 0
-0.027065 0.727805 1.965000 255 0 0
-0.021864 0.732622 1.978000 255 0 0
-0.016542 0.735216 1.985000 255 0 0
-0.011239 0.741513 2.002000 255 0 0
-0.005744 0.735217 1.985000 255 0 0
-0.174400 0.735231 2.000000 255 0 0
-0.170146 0.740385 2.014000 255 0 0
-0.163689 0.735982 2.002000 255 0 0
-0.158167 0.735622 2.001000 255 0 0
-0.152039 0.732321 1.992000 255 0 0
-0.146402 0.731225 1.989000 255 0 0
-0.140569 0.729026 1.983000 255 0 0
-0.134904 0.727563 1.979000 255 0 0
-0.129327 0.726466 1.976000 255 0 0
-0.123765 0.725370 1.973000 255 0 0
-0.118400 0.725376 1.973000 255 0 0
-0.112863 0.724279 1.970000 255 0 0
-0.107451 0.723917 1.969000 255 0 0
-0.101837 0.722084 1.964000 255 0 0
-0.096398 0.721354 1.962000 255 0 0
-0.090923 0.720256 1.959000 255 0 0
-0.085682 0.720996 1.961000 255 0 0
-0.080267 0.720265 1.959000 255 0 0
-0.074862 0.719533 1.957000 255 0 0
-0.069469 0.718802 1.955000 255 0 0
-0.064151 0.718805 1.955000 255 0 0
-0.058924 0.719912 1.958000 255 0 0
-0.053599 0.719915 1.958000 255 0 0
-0.048322 0.720653 1.960000 255 0 0
-0.042925 0.719552 1.957000 255 0 0
-0.037602 0.719554 1.957000 255 0 0
-0.032246 0.718821 1.955000 255 0 0
-0.027108 0.723602 1.968000 255 0 0
-0.021887 0.728016 1.980000 255 0 0
-0.016535 0.729488 1.984000 255 0 0
-0.011082 0.725812 1.974000 255 0 0
-0.005765 0.732430 1.992000 255 0 0
-0.000351 0.743093 2.021000 255 0 0
-0.176065 0.736760 2.019000 255 0 0
-0.170492 0.736403 2.018000 255 0 0
-0.163533 0.729843 2.000000 255 0 0
-0.157542 0.727296 1.993000 255 0 0
-0.152123 0.727304 1.993000 255 0 0
-0.146410 0.725852 1.989000 255 0 0
-0.140576 0.723669 1.983000 255 0 0
-0.134843 0.721852 1.978000 255 0 0
-0.129399 0.721494 1.977000 255 0 0
-0.123897 0.720770 1.975000 255 0 0
-0.118406 0.720047 1.973000 255 0 0
-0.112926 0.719323 1.971000 255 0 0
-0.107511 0.718964 1.970000 255 0 0
-0.101894 0.717145 1.965000 255 0 0
-0.096403 0.716055 1.962000 255 0 0
-0.090974 0.715330 1.960000 255 0 0
-0.085687 0.715700 1.961000 255 0 0
-0.080353 0.715704 1.961000 255 0 0
-0.074943 0.714978 1.959000 255 0 0
-0.069579 0.714617 1.958000 255 0 0
-0.064253 0.714621 1.958000 255 0 0
-0.058958 0.714989 1.959000 255 0 0
-0.053684 0.715722 1.961000 255 0 0
-0.048374 0.716090 1.962000 255 0 0
-0.043037 0.716093 1.962000 255 0 0
-0.037739 0.716825 1.964000 255 0 0
-0.032479 0.718652 1.969000 255 0 0
-0.027247 0.721938 1.978000 255 0 0
-0.021922 0.723765 1.983000 255 0 0
-0.016502 0.722671 1.980000 255 0 0
-0.011156 0.725226 1.987000 255 0 0
-0.005771 0.727782 1.994000 255 0 0
-0.000341 0.716102 1.962000 255 0 0
-0.175376 0.728407 2.011000 255 0 0
-0.169655 0.727329 2.008000 255 0 0
-0.162479 0.719731 1.987000 255 0 0
-0.157076 0.719739 1.987000 255 0 0
-0.151978 0.721196 1.991000 255 0 0
-0.146491 0.720841 1.990000 255 0 0
-0.140583 0.718313 1.983000 255 0 0
-0.135055 0.717596 1.981000 255 0 0
-0.129602 0.717241 1.980000 255 0 0
-0.124092 0.716523 1.978000 255 0 0
-0.118473 0.715080 1.974000 255 0 0
-0.112875 0.713638 1.970000 255 0 0
-0.107572 0.714006 1.971000 255 0 0
-0.101952 0.712200 1.966000 255 0 0
-0.096506 0.711481 1.964000 255 0 0
-0.090979 0.710037 1.960000 255 0 0
-0.085735 0.710767 1.962000 255 0 0
-0.080399 0.710771 1.962000 255 0 0
-0.075024 0.710413 1.961000 255 0 0
-0.069689 0.710417 1.961000 255 0 0
-0.064322 0.710059 1.960000 255 0 0
-0.059051 0.710787 1.962000 255 0 0
-0.053741 0.711152 1.963000 255 0 0
-0.048426 0.711517 1.964000 255 0 0
-0.043106 0.711882 1.965000 255 0 0
-0.037799 0.712609 1.967000 255 0 0
-0.032530 0.714423 1.972000 255 0 0
-0.027193 0.715149 1.974000 255 0 0
-0.021857 0.716237 1.977000 255 0 0
-0.016487 0.716600 1.978000 255 0 0
-0.011100 0.716239 1.977000 255 0 0
-0.005719 0.715877 1.976000 255 0 0
-0.000350 0.728557 2.011000 255 0 0
-0.172682 0.711829 1.980000 255 0 0
-0.167890 0.714355 1.987000 255 0 0
-0.161996 0.712206 1.981000 255 0 0
-0.157084 0.714372 1.987000 255 0 0
-0.152597 0.718694 1.999000 255 0 0
-0.147088 0.718342 1.998000 255 0 0
-0.141016 0.715114 1.989000 255 0 0
-0.135266 0.713324 1.984000 255 0 0
-0.129740 0.712612 1.982000 255 0 0
-0.124161 0.711541 1.979000 255 0 0
-0.118479 0.709749 1.974000 255 0 0
-0.112881 0.708318 1.970000 255 0 0
-0.107578 0.708683 1.971000 255 0 0
-0.102061 0.707610 1.968000 255 0 0
-0.096659 0.707256 1.967000 255 0 0
-0.091077 0.705464 1.962000 255 0 0
-0.085696 0.705109 1.961000 255 0 0
-0.080362 0.705114 1.961000 255 0 0
-0.075066 0.705478 1.962000 255 0 0
-0.069764 0.705842 1.963000 255 0 0
-0.064490 0.706565 1.965000 255 0 0
-0.059115 0.706209 1.964000 255 0 0
-0.053827 0.706931 1.966000 255 0 0
-0.048503 0.707294 1.967000 255 0 0
-0.043218 0.708375 1.970000 255 0 0
-0.037859 0.708377 1.970000 255 0 0
-0.032466 0.707660 1.968000 255 0 0
-0.027126 0.708022 1.969000 255 0 0
-0.021880 0.711619 1.979000 255 0 0
-0.016504 0.711980 1.980000 255 0 0
-0.011134 0.713059 1.983000 255 0 0
-0.005719 0.710543 1.976000 255 0 0
-0.000345 0.712700 1.982000 255 0 0
0.005032 0.710543 1.976000 255 0 0
-0.171470 0.701485 1.966000 255 0 0
-0.165870 0.700424 1.963000 255 0 0
-0.162168 0.707569 1.983000 255 0 0
-0.157171 0.709361 1.988000 255 0 0
-0.152529 0.712938 1.998000 255 0 0
-0.147096 0.712946 1.998000 255 0 0
-0.141237 0.710813 1.992000 255 0 0
-0.135478 0.709037 1.987000 255 0 0
-0.129812 0.707617 1.983000 255 0 0
-0.124043 0.705483 1.977000 255 0 0
-0.118486 0.704419 1.974000 255 0 0
-0.112945 0.703355 1.971000 255 0 0
-0.107747 0.704432 1.974000 255 0 0
-0.102222 0.703367 1.971000 255 0 0
-0.096763 0.702659 1.969000 255 0 0
-0.091175 0.700880 1.964000 255 0 0
-0.085745 0.700172 1.962000 255 0 0
-0.080367 0.699820 1.961000 255 0 0
-0.075109 0.700538 1.963000 255 0 0
-0.069804 0.700899 1.964000 255 0 0
-0.064527 0.701617 1.966000 255 0 0
-0.059178 0.701620 1.966000 255 0 0
-0.053830 0.701624 1.966000 255 0 0
-0.048531 0.702340 1.968000 255 0 0
-0.043242 0.703414 1.971000 255 0 0
-0.037880 0.703416 1.971000 255 0 0
-0.032468 0.702348 1.968000 255 0 0
-0.027141 0.703063 1.970000 255 0 0
-0.021881 0.706277 1.979000 255 0 0
-0.016572 0.709490 1.988000 255 0 0
-0.011174 0.710204 1.990000 255 0 0
-0.005749 0.708777 1.986000 255 0 0
-0.000343 0.704852 1.975000 255 0 0
-0.166555 0.697954 1.971000 255 0 0
-0.163077 0.706108 1.994000 255 0 0
-0.157971 0.707533 1.998000 255 0 0
-0.152766 0.708604 2.001000 255 0 0
-0.147177 0.707904 1.999000 255 0 0
-0.141457 0.706496 1.995000 255 0 0
-0.135554 0.704025 1.988000 255 0 0
-0.129754 0.701908 1.982000 255 0 0
-0.123987 0.699790 1.976000 255 0 0
-0.118432 0.698735 1.973000 255 0 0
-0.113066 0.698741 1.973000 255 0 0
-0.107754 0.699102 1.974000 255 0 0
-0.102332 0.698754 1.973000 255 0 0
-0.096916 0.698405 1.972000 255 0 0
-0.091366 0.696994 1.968000 255 0 0
-0.085837 0.695583 1.964000 255 0 0
-0.080453 0.695234 1.963000 255 0 0
-0.075228 0.696301 1.966000 255 0 0
-0.069879 0.696305 1.966000 255 0 0
-0.064563 0.696663 1.967000 255 0 0
-0.059182 0.696313 1.966000 255 0 0
-0.053860 0.696671 1.967000 255 0 0
-0.048558 0.697382 1.969000 255 0 0
-0.043245 0.698093 1.971000 255 0 0
-0.037940 0.699158 1.974000 255 0 0
-0.032553 0.698806 1.973000 255 0 0
-0.027267 0.700933 1.979000 255 0 0
-0.021982 0.704122 1.988000 255 0 0
-0.016640 0.706957 1.996000 255 0 0
-0.011226 0.708020 1.999000 255 0 0
-0.005781 0.707312 1.997000 255 0 0
-0.000342 0.696687 1.967000 255 0 0
-0.157505 0.700029 1.992000 255 0 0
-0.152240 0.700740 1.994000 255 0 0
-0.146744 0.700398 1.993000 255 0 0
-0.141253 0.700054 1.992000 255 0 0
-0.135562 0.698657 1.988000 255 0 0
-0.129762 0.696556 1.982000 255 0 0
-0.123869 0.693752 1.974000 255 0 0
-0.118379 0.693056 1.972000 255 0 0
-0.113072 0.693414 1.973000 255 0 0
-0.107705 0.693421 1.973000 255 0 0
-0.102286 0.693076 1.972000 255 0 0
-0.096873 0.692730 1.971000 255 0 0
-0.091371 0.691681 1.968000 255 0 0
-0.085974 0.691335 1.967000 255 0 0
-0.080622 0.691340 1.967000 255 0 0
-0.075385 0.692399 1.970000 255 0 0
-0.069990 0.692052 1.969000 255 0 0
-0.064567 0.691354 1.967000 255 0 0
-0.059185 0.691006 1.966000 255 0 0
-0.053864 0.691361 1.967000 255 0 0
-0.048536 0.691715 1.968000 255 0 0
-0.043248 0.692773 1.971000 255 0 0
-0.037942 0.693830 1.974000 255 0 0
-0.032604 0.694535 1.976000 255 0 0
-0.027282 0.695943 1.980000 255 0 0
-0.021972 0.698405 1.987000 255 0 0
-0.016649 0.701921 1.997000 255 0 0
-0.011243 0.703679 2.002000 255 0 0
-0.005807 0.705085 2.006000 255 0 0
-0.000343 0.692432 1.970000 255 0 0
-0.151104 0.690125 1.979000 255 0 0
-0.145574 0.689436 1.977000 255 0 0
-0.140835 0.692583 1.986000 255 0 0
-0.135365 0.692242 1.985000 255 0 0
-0.129835 0.691553 1.983000 255 0 0
-0.124002 0.689119 1.976000 255 0 0
-0.118386 0.687732 1.972000 255 0 0
-0.113022 0.687739 1.972000 255 0 0
-0.107657 0.687745 1.972000 255 0 0
-0.102241 0.687403 1.971000 255 0 0
-0.096878 0.687409 1.971000 255 0 0
-0.091470 0.687066 1.970000 255 0 0
-0.086154 0.687420 1.971000 255 0 0
-0.080791 0.687425 1.971000 255 0 0
-0.075543 0.688477 1.974000 255 0 0
-0.070101 0.687784 1.972000 255 0 0
-0.064670 0.687090 1.970000 255 0 0
-0.059249 0.686396 1.968000 255 0 0
-0.053922 0.686749 1.969000 255 0 0
-0.048589 0.687101 1.970000 255 0 0
-0.043294 0.688150 1.973000 255 0 0
-0.038002 0.689548 1.977000 255 0 0
-0.032672 0.690596 1.980000 255 0 0
-0.027326 0.691645 1.983000 255 0 0
-0.021963 0.692693 1.986000 255 0 0
-0.016625 0.695484 1.994000 255 0 0
-0.011233 0.697578 2.000000 255 0 0
-0.005799 0.698625 2.003000 255 0 0
-0.000345 0.691998 1.984000 255 0 0
-0.139071 0.678570 1.961000 255 0 0
-0.135510 0.687575 1.987000 255 0 0
-0.130039 0.687237 1.986000 255 0 0
-0.124323 0.685514 1.981000 255 0 0
-0.118694 0.684138 1.977000 255 0 0
-0.113201 0.683453 1.975000 255 0 0
-0.107882 0.683806 1.976000 255 0 0
-0.102403 0.683120 1.974000 255 0 0
-0.096983 0.682780 1.973000 255 0 0
-0.091522 0.682094 1.971000 255 0 0
-0.086203 0.682446 1.972000 255 0 0
-0.080878 0.682797 1.973000 255 0 0
-0.075586 0.683494 1.975000 255 0 0
-0.070177 0.683153 1.974000 255 0 0
-0.064772 0.682811 1.973000 255 0 0
-0.059404 0.682815 1.973000 255 0 0
-0.054007 0.682472 1.972000 255 0 0
-0.048641 0.682476 1.972000 255 0 0
-0.043341 0.683517 1.975000 255 0 0
-0.038082 0.685596 1.981000 255 0 0
-0.032757 0.686983 1.985000 255 0 0
-0.027369 0.687331 1.986000 255 0 0
-0.021942 0.686640 1.984000 255 0 0
-0.016568 0.687680 1.987000 255 0 0
-0.011160 0.687680 1.987000 255 0 0
-0.005773 0.690104 1.994000 255 0 0
-0.000345 0.686297 1.983000 255 0 0
-0.140498 0.680142 1.981000 255 0 0
-0.135791 0.683583 1.991000 255 0 0
-0.130244 0.682905 1.989000 255 0 0
-0.124770 0.682569 1.988000 255 0 0
-0.119241 0.681890 1.986000 255 0 0
-0.113953 0.682584 1.988000 255 0 0
-0.108435 0.681905 1.986000 255 0 0
-0.102824 0.680538 1.982000 255 0 0
-0.097235 0.679171 1.978000 255 0 0
-0.091713 0.678147 1.975000 255 0 0
-0.086383 0.678496 1.976000 255 0 0
-0.081006 0.678501 1.976000 255 0 0
-0.075629 0.678506 1.976000 255 0 0
-0.070323 0.679198 1.978000 255 0 0
-0.065006 0.679889 1.980000 255 0 0
-0.059739 0.681266 1.984000 255 0 0
-0.054230 0.679897 1.980000 255 0 0
-0.048817 0.679557 1.979000 255 0 0
-0.043431 0.679560 1.979000 255 0 0
-0.038238 0.682996 1.989000 255 0 0
-0.032874 0.684029 1.992000 255 0 0
-0.027467 0.684374 1.993000 255 0 0
-0.021954 0.681629 1.985000 255 0 0
-0.016510 0.679913 1.980000 255 0 0
-0.011066 0.676480 1.970000 255 0 0
-0.005713 0.677511 1.973000 255 0 0
-0.000346 0.683348 1.990000 255 0 0
0.005164 0.696054 2.027000 255 0 0
-0.146337 0.676828 1.987000 255 0 0
-0.141570 0.679902 1.996000 255 0 0
-0.136072 0.679570 1.995000 255 0 0
-0.130383 0.678216 1.991000 255 0 0
-0.124841 0.677543 1.989000 255 0 0
-0.119489 0.677891 1.990000 255 0 0
-0.114247 0.678921 1.993000 255 0 0
-0.108879 0.679269 1.994000 255 0 0
-0.103246 0.677913 1.990000 255 0 0
-0.097585 0.676216 1.985000 255 0 0
-0.091998 0.674859 1.981000 255 0 0
-0.086520 0.674184 1.979000 255 0 0
-0.081175 0.674530 1.980000 255 0 0
-0.075864 0.675217 1.982000 255 0 0
-0.070612 0.676584 1.986000 255 0 0
-0.065339 0.677951 1.990000 255 0 0
-0.060044 0.679318 1.994000 255 0 0
-0.054535 0.678300 1.991000 255 0 0
-0.049042 0.677281 1.988000 255 0 0
-0.043610 0.676944 1.987000 255 0 0
-0.038375 0.680013 1.996000 255 0 0
-0.032992 0.681037 1.999000 255 0 0
-0.027538 0.680698 1.998000 255 0 0
-0.022022 0.678315 1.991000 255 0 0
-0.016528 0.675250 1.982000 255 0 0
-0.000348 0.681384 2.000000 255 0 0
0.005254 0.702507 2.062000 255 0 0
-0.151828 0.671791 1.988000 255 0 0
-0.147525 0.676870 2.003000 255 0 0
-0.142147 0.677217 2.004000 255 0 0
-0.136558 0.676550 2.002000 255 0 0
-0.130718 0.674531 1.996000 255 0 0
-0.125100 0.673525 1.993000 255 0 0
-0.119617 0.673195 1.992000 255 0 0
-0.114311 0.673878 1.994000 255 0 0
-0.108940 0.674224 1.995000 255 0 0
-0.103512 0.674231 1.995000 255 0 0
-0.097886 0.672885 1.991000 255 0 0
-0.092329 0.671878 1.988000 255 0 0
-0.086744 0.670532 1.984000 255 0 0
-0.081468 0.671551 1.987000 255 0 0
-0.076213 0.672909 1.991000 255 0 0
-0.070937 0.674265 1.995000 255 0 0
-0.065540 0.674608 1.996000 255 0 0
-0.060078 0.674274 1.995000 255 0 0
-0.054511 0.672588 1.990000 255 0 0
-0.049095 0.672592 1.990000 255 0 0
-0.043700 0.672933 1.991000 255 0 0
-0.038454 0.675977 2.000000 255 0 0
-0.033027 0.676318 2.001000 255 0 0
-0.027581 0.676320 2.001000 255 0 0
-0.022112 0.675646 1.999000 255 0 0
-0.016646 0.674633 1.996000 255 0 0
-0.011151 0.670916 1.985000 255 0 0
-0.000350 0.681056 2.015000 255 0 0
0.005279 0.700322 2.072000 255 0 0
-0.148271 0.674814 2.013000 255 0 0
-0.142581 0.673817 2.010000 255 0 0
-0.136976 0.673156 2.008000 255 0 0
-0.131382 0.672494 2.006000 255 0 0
-0.125735 0.671497 2.003000 255 0 0
-0.120105 0.670499 2.000000 255 0 0
-0.114434 0.669166 1.996000 255 0 0
-0.108948 0.668838 1.995000 255 0 0
-0.103519 0.668845 1.995000 255 0 0
-0.098040 0.668517 1.994000 255 0 0
-0.092567 0.668188 1.993000 255 0 0
-0.086969 0.666853 1.989000 255 0 0
-0.081596 0.667194 1.990000 255 0 0
-0.076295 0.668205 1.993000 255 0 0
-0.070977 0.669216 1.996000 255 0 0
-0.065578 0.669556 1.997000 255 0 0
-0.060052 0.668554 1.994000 255 0 0
-0.054542 0.667552 1.991000 255 0 0
-0.049123 0.667556 1.991000 255 0 0
-0.043813 0.669235 1.996000 255 0 0
-0.038534 0.671921 2.004000 255 0 0
-0.033096 0.672258 2.005000 255 0 0
-0.027638 0.672260 2.005000 255 0 0
-0.022191 0.672597 2.006000 255 0 0
-0.016722 0.672263 2.005000 255 0 0
-0.011220 0.669582 1.997000 255 0 0
-0.000349 0.673271 2.008000 255 0 0
0.005290 0.696071 2.076000 255 0 0
-0.148796 0.671706 2.020000 255 0 0
-0.142945 0.670053 2.015000 255 0 0
-0.137326 0.669397 2.013000 255 0 0
-0.131653 0.668409 2.010000 255 0 0
-0.126309 0.669082 2.012000 255 0 0
-0.120654 0.668093 2.009000 255 0 0
-0.114900 0.666438 2.004000 255 0 0
-0.109228 0.665115 2.000000 255 0 0
-0.103629 0.664125 1.997000 255 0 0
-0.098145 0.663799 1.996000 255 0 0
-0.092620 0.663141 1.994000 255 0 0
-0.087149 0.662814 1.993000 255 0 0
-0.081766 0.663152 1.994000 255 0 0
-0.076492 0.664488 1.998000 255 0 0
-0.071089 0.664826 1.999000 255 0 0
-0.065648 0.664831 1.999000 255 0 0
-0.060176 0.664502 1.998000 255 0 0
-0.054656 0.663509 1.995000 255 0 0
-0.049274 0.664177 1.997000 255 0 0
-0.043904 0.665178 2.000000 255 0 0
-0.038556 0.666844 2.005000 255 0 0
-0.033081 0.666514 2.004000 255 0 0
-0.027667 0.667514 2.007000 255 0 0
-0.022237 0.668513 2.010000 255 0 0
-0.016773 0.668848 2.011000 255 0 0
-0.011271 0.667185 2.006000 255 0 0
0.005303 0.692131 2.081000 255 0 0
-0.148658 0.665593 2.018000 255 0 0
-0.142955 0.664613 2.015000 255 0 0
-0.137404 0.664292 2.014000 255 0 0
-0.131792 0.663642 2.012000 255 0 0
-0.126443 0.664310 2.014000 255 0 0
-0.120902 0.663989 2.013000 255 0 0
-0.115194 0.662677 2.009000 255 0 0
-0.109454 0.661036 2.004000 255 0 0
-0.103688 0.659064 1.998000 255 0 0
-0.098103 0.658081 1.995000 255 0 0
-0.092626 0.657758 1.994000 255 0 0
-0.087243 0.658094 1.995000 255 0 0
-0.081854 0.658430 1.996000 255 0 0
-0.076574 0.659755 2.000000 255 0 0
-0.071165 0.660090 2.001000 255 0 0
-0.065784 0.660754 2.003000 255 0 0
-0.060301 0.660429 2.002000 255 0 0
-0.054879 0.660763 2.003000 255 0 0
-0.049401 0.660437 2.002000 255 0 0
-0.043995 0.661100 2.004000 255 0 0
-0.038559 0.661433 2.005000 255 0 0
-0.033100 0.661435 2.005000 255 0 0
-0.027683 0.662427 2.008000 255 0 0
-0.022238 0.663088 2.010000 255 0 0
-0.016766 0.663090 2.010000 255 0 0
-0.011266 0.661441 2.005000 255 0 0
0.005306 0.686844 2.082000 255 0 0
-0.148226 0.658181 2.012000 255 0 0
-0.142893 0.658845 2.014000 255 0 0
-0.137413 0.658855 2.014000 255 0 0
-0.131801 0.658210 2.012000 255 0 0
-0.126326 0.658218 2.012000 255 0 0
-0.120850 0.658227 2.012000 255 0 0
-0.115317 0.657908 2.011000 255 0 0
-0.109680 0.656934 2.008000 255 0 0
-0.104007 0.655633 2.004000 255 0 0
-0.098405 0.654659 2.001000 255 0 0
-0.092726 0.653029 1.996000 255 0 0
-0.087336 0.653363 1.997000 255 0 0
-0.081982 0.654023 1.999000 255 0 0
-0.076694 0.655338 2.003000 255 0 0
-0.071277 0.655670 2.004000 255 0 0
-0.065821 0.655675 2.004000 255 0 0
-0.060426 0.656334 2.006000 255 0 0
-0.055019 0.656992 2.008000 255 0 0
-0.049577 0.657323 2.009000 255 0 0
-0.044020 0.656018 2.005000 255 0 0
-0.038561 0.656021 2.005000 255 0 0
-0.033103 0.656023 2.005000 255 0 0
-0.027699 0.657334 2.009000 255 0 0
-0.022251 0.657990 2.011000 255 0 0
-0.016768 0.657665 2.010000 255 0 0
-0.000357 0.671082 2.051000 255 0 0
0.005309 0.681552 2.083000 255 0 0
-0.147868 0.651126 2.007000 255 0 0
-0.142903 0.653407 2.014000 255 0 0
-0.137491 0.653741 2.015000 255 0 0
-0.131941 0.653426 2.014000 255 0 0
-0.126460 0.653435 2.014000 255 0 0
-0.120919 0.653119 2.013000 255 0 0
-0.115382 0.652803 2.012000 255 0 0
-0.109797 0.652162 2.010000 255 0 0
-0.104326 0.652170 2.010000 255 0 0
-0.098658 0.650879 2.006000 255 0 0
-0.092918 0.648939 2.000000 255 0 0
-0.087299 0.647648 1.996000 255 0 0
-0.081947 0.648303 1.998000 255 0 0
-0.076623 0.649282 2.001000 255 0 0
-0.071282 0.650261 2.004000 255 0 0
-0.065924 0.651239 2.007000 255 0 0
-0.060551 0.652217 2.010000 255 0 0
-0.055078 0.652221 2.010000 255 0 0
-0.049630 0.652549 2.011000 255 0 0
-0.044111 0.651904 2.009000 255 0 0
-0.038660 0.652231 2.010000 255 0 0
-0.033204 0.652558 2.011000 255 0 0
-0.027770 0.653534 2.014000 255 0 0
-0.022286 0.653536 2.014000 255 0 0
-0.016752 0.651590 2.008000 255 0 0
-0.000359 0.669764 2.064000 255 0 0
-0.143339 0.649900 2.020000 255 0 0
-0.137705 0.649266 2.018000 255 0 0
-0.132082 0.648632 2.016000 255 0 0
-0.126532 0.648319 2.015000 255 0 0
-0.121047 0.648328 2.015000 255 0 0
-0.115563 0.648336 2.015000 255 0 0
-0.109914 0.647379 2.012000 255 0 0
-0.104489 0.647709 2.013000 255 0 0
-0.098861 0.646751 2.010000 255 0 0
-0.093111 0.644827 2.004000 255 0 0
-0.087524 0.643868 2.001000 255 0 0
-0.082117 0.644196 2.002000 255 0 0
-0.076705 0.644524 2.003000 255 0 0
-0.071358 0.645494 2.006000 255 0 0
-0.065896 0.645499 2.006000 255 0 0
-0.060585 0.647113 2.011000 255 0 0
-0.055110 0.647117 2.011000 255 0 0
-0.049708 0.648086 2.014000 255 0 0
-0.044202 0.647768 2.013000 255 0 0
-0.038721 0.647771 2.013000 255 0 0
-0.033272 0.648417 2.015000 255 0 0
-0.027841 0.649707 2.019000 255 0 0
-0.022365 0.650352 2.021000 255 0 0
-0.016795 0.647779 2.013000 255 0 0
-0.143704 0.646040 2.025000 255 0 0
-0.138056 0.645412 2.023000 255 0 0
-0.132353 0.644465 2.020000 255 0 0
-0.126792 0.644155 2.019000 255 0 0
-0.121176 0.643526 2.017000 255 0 0
-0.115686 0.643534 2.017000 255 0 0
-0.110031 0.642585 2.014000 255 0 0
-0.104652 0.643231 2.016000 255 0 0
-0.099016 0.642281 2.013000 255 0 0
-0.093164 0.639736 2.005000 255 0 0
-0.087530 0.638466 2.001000 255 0 0
-0.082082 0.638472 2.001000 255 0 0
-0.076749 0.639435 2.004000 255 0 0
-0.071541 0.641674 2.011000 255 0 0
-0.066065 0.641679 2.011000 255 0 0
-0.060680 0.642641 2.014000 255 0 0
-0.055196 0.642646 2.014000 255 0 0
-0.049810 0.643926 2.018000 255 0 0
-0.044293 0.643610 2.017000 255 0 0
-0.038801 0.643613 2.017000 255 0 0
-0.033324 0.643935 2.018000 255 0 0
-0.027898 0.645533 2.023000 255 0 0
-0.022411 0.646173 2.025000 255 0 0
-0.016846 0.644260 2.019000 255 0 0
-0.143714 0.640572 2.025000 255 0 0
-0.138407 0.641531 2.028000 255 0 0
-0.132625 0.640276 2.024000 255 0 0
-0.126990 0.639652 2.022000 255 0 0
-0.121365 0.639029 2.020000 255 0 0
-0.115809 0.638721 2.019000 255 0 0
-0.110257 0.638413 2.018000 255 0 0
-0.104712 0.638104 2.017000 255 0 0
-0.099072 0.637163 2.014000 255 0 0
-0.093171 0.634322 2.005000 255 0 0
-0.087580 0.633380 2.002000 255 0 0
-0.082129 0.633386 2.002000 255 0 0
-0.076831 0.634658 2.006000 255 0 0
-0.071618 0.636878 2.013000 255 0 0
-0.066202 0.637516 2.015000 255 0 0
-0.060775 0.638153 2.017000 255 0 0
-0.055255 0.637841 2.016000 255 0 0
-0.049839 0.638794 2.019000 255 0 0
-0.044318 0.638481 2.018000 255 0 0
-0.038823 0.638485 2.018000 255 0 0
-0.033343 0.638804 2.019000 255 0 0
-0.027900 0.640072 2.023000 255 0 0
-0.022424 0.641023 2.026000 255 0 0
-0.016864 0.639442 2.021000 255 0 0
-0.138349 0.635741 2.027000 255 0 0
-0.132765 0.635438 2.026000 255 0 0
-0.127187 0.635133 2.025000 255 0 0
-0.121554 0.634515 2.023000 255 0 0
-0.115989 0.634210 2.022000 255 0 0
-0.110430 0.633905 2.021000 255 0 0
-0.104875 0.633599 2.020000 255 0 0
-0.099129 0.632038 2.015000 255 0 0
-0.093131 0.628595 2.004000 255 0 0
-0.087456 0.627034 1.999000 255 0 0
-0.082053 0.627354 2.000000 255 0 0
-0.076837 0.629242 2.006000 255 0 0
-0.071730 0.632384 2.016000 255 0 0
-0.066371 0.633644 2.020000 255 0 0
-0.060900 0.633963 2.021000 255 0 0
-0.055369 0.633653 2.020000 255 0 0
-0.049917 0.634285 2.022000 255 0 0
-0.044410 0.634288 2.022000 255 0 0
-0.038941 0.634919 2.024000 255 0 0
-0.033445 0.635235 2.025000 255 0 0
-0.027971 0.636179 2.028000 255 0 0
-0.022414 0.635239 2.025000 255 0 0
-0.138290 0.629956 2.026000 255 0 0
-0.132972 0.630899 2.029000 255 0 0
-0.127385 0.630598 2.028000 255 0 0
-0.121743 0.629985 2.026000 255 0 0
-0.116170 0.629683 2.025000 255 0 0
-0.110602 0.629380 2.024000 255 0 0
-0.104987 0.628767 2.022000 255 0 0
-0.099235 0.627219 2.017000 255 0 0
-0.093324 0.624428 2.008000 255 0 0
-0.087681 0.623191 2.004000 255 0 0
-0.082223 0.623197 2.004000 255 0 0
-0.076996 0.625069 2.010000 255 0 0
-0.071806 0.627563 2.018000 255 0 0
-0.066475 0.629123 2.023000 255 0 0
-0.061055 0.630061 2.026000 255 0 0
-0.055482 0.629443 2.024000 255 0 0
-0.049994 0.629758 2.025000 255 0 0
-0.044501 0.630073 2.026000 255 0 0
-0.039040 0.631009 2.029000 255 0 0
-0.033563 0.631945 2.032000 255 0 0
-0.028042 0.632258 2.033000 255 0 0
-0.022438 0.630394 2.027000 255 0 0
-0.138164 0.623868 2.024000 255 0 0
-0.133113 0.626036 2.031000 255 0 0
-0.127708 0.626662 2.033000 255 0 0
-0.121993 0.625747 2.030000 255 0 0
-0.116351 0.625139 2.028000 255 0 0
-0.110719 0.624531 2.026000 255 0 0
-0.105098 0.623923 2.024000 255 0 0
-0.099439 0.623006 2.021000 255 0 0
-0.093749 0.621780 2.017000 255 0 0
-0.088169 0.621170 2.015000 255 0 0
-0.082681 0.621177 2.015000 255 0 0
-0.077270 0.621800 2.017000 255 0 0
-0.071919 0.623039 2.021000 255 0 0
-0.066480 0.623660 2.023000 255 0 0
-0.061090 0.624898 2.027000 255 0 0
-0.055596 0.625211 2.028000 255 0 0
-0.050097 0.625524 2.029000 255 0 0
-0.044614 0.626144 2.031000 255 0 0
-0.039197 0.627997 2.037000 255 0 0
-0.033698 0.628925 2.040000 255 0 0
-0.028182 0.629852 2.043000 255 0 0
-0.022517 0.627079 2.034000 255 0 0
-0.138106 0.618096 2.023000 255 0 0
-0.133647 0.622995 2.039000 255 0 0
-0.128095 0.623005 2.039000 255 0 0
-0.122363 0.622098 2.036000 255 0 0
-0.116704 0.621496 2.034000 255 0 0
-0.110946 0.620282 2.030000 255 0 0
-0.105262 0.619374 2.027000 255 0 0
-0.099643 0.618770 2.025000 255 0 0
-0.094128 0.618778 2.025000 255 0 0
-0.088657 0.619090 2.026000 255 0 0
-0.083057 0.618486 2.024000 255 0 0
-0.077506 0.618186 2.023000 255 0 0
-0.072031 0.618498 2.024000 255 0 0
-0.066551 0.618809 2.025000 255 0 0
-0.061185 0.620342 2.030000 255 0 0
-0.055710 0.620957 2.032000 255 0 0
-0.050274 0.622184 2.036000 255 0 0
-0.044793 0.623104 2.039000 255 0 0
-0.039354 0.624941 2.045000 255 0 0
-0.033866 0.626472 2.050000 255 0 0
-0.028295 0.626780 2.051000 255 0 0
-0.022608 0.624031 2.042000 255 0 0
-0.138799 0.615660 2.033000 255 0 0
-0.134116 0.619608 2.046000 255 0 0
-0.128607 0.619920 2.047000 255 0 0
-0.122853 0.619021 2.044000 255 0 0
-0.117057 0.617819 2.040000 255 0 0
-0.111228 0.616314 2.035000 255 0 0
-0.105426 0.614808 2.030000 255 0 0
-0.099651 0.613301 2.025000 255 0 0
-0.094089 0.613006 2.024000 255 0 0
-0.088576 0.613013 2.024000 255 0 0
-0.083063 0.613020 2.024000 255 0 0
-0.077588 0.613329 2.025000 255 0 0
-0.072143 0.613940 2.027000 255 0 0
-0.066654 0.614249 2.028000 255 0 0
-0.061250 0.615465 2.032000 255 0 0
-0.055770 0.616076 2.034000 255 0 0
-0.050377 0.617897 2.040000 255 0 0
-0.044929 0.619415 2.045000 255 0 0
-0.039492 0.621539 2.052000 255 0 0
-0.034001 0.623359 2.058000 255 0 0
-0.028421 0.623967 2.060000 255 0 0
-0.022776 0.623061 2.057000 255 0 0
-0.017280 0.627000 2.070000 255 0 0
-0.139902 0.614971 2.049000 255 0 0
-0.134913 0.617683 2.058000 255 0 0
-0.129120 0.616792 2.055000 255 0 0
-0.123343 0.615901 2.052000 255 0 0
-0.117410 0.614110 2.046000 255 0 0
-0.111564 0.612618 2.041000 255 0 0
-0.105694 0.610825 2.035000 255 0 0
-0.099856 0.609032 2.029000 255 0 0
-0.094189 0.608139 2.026000 255 0 0
-0.088627 0.607846 2.025000 255 0 0
-0.083070 0.607553 2.024000 255 0 0
-0.077671 0.608460 2.027000 255 0 0
-0.072327 0.609966 2.032000 255 0 0
-0.066890 0.610873 2.035000 255 0 0
-0.061406 0.611478 2.037000 255 0 0
-0.055911 0.612083 2.039000 255 0 0
-0.050529 0.614188 2.046000 255 0 0
-0.045086 0.615993 2.052000 255 0 0
-0.039630 0.618098 2.059000 255 0 0
-0.034102 0.619602 2.064000 255 0 0
-0.028493 0.619905 2.065000 255 0 0
-0.022999 0.623509 2.077000 255 0 0
-0.017674 0.635519 2.117000 255 0 0
-0.141620 0.616871 2.074000 255 0 0
-0.135906 0.616584 2.073000 255 0 0
-0.129821 0.614513 2.066000 255 0 0
-0.123894 0.613035 2.061000 255 0 0
-0.117821 0.610665 2.053000 255 0 0
-0.111956 0.609187 2.048000 255 0 0
-0.106066 0.607410 2.042000 255 0 0
-0.100208 0.605634 2.036000 255 0 0
-0.094336 0.603559 2.029000 255 0 0
-0.088721 0.602971 2.027000 255 0 0
-0.083199 0.602978 2.027000 255 0 0
-0.077830 0.604174 2.031000 255 0 0
-0.072404 0.605073 2.034000 255 0 0
-0.067059 0.606863 2.040000 255 0 0
-0.061531 0.607166 2.041000 255 0 0
-0.055998 0.607468 2.042000 255 0 0
-0.050533 0.608662 2.046000 255 0 0
-0.045134 0.611046 2.054000 255 0 0
-0.039729 0.614024 2.064000 255 0 0
-0.034204 0.615812 2.070000 255 0 0
-0.028660 0.617897 2.077000 255 0 0
-0.023311 0.626229 2.105000 255 0 0
-0.017925 0.638726 2.147000 255 0 0
-0.012165 0.643487 2.163000 255 0 0
-0.144909 0.625415 2.122000 255 0 0
-0.137818 0.619531 2.102000 255 0 0
-0.131088 0.614826 2.086000 255 0 0
-0.124564 0.610709 2.072000 255 0 0
-0.118232 0.607182 2.060000 255 0 0
-0.112293 0.605422 2.054000 255 0 0
-0.106334 0.603368 2.047000 255 0 0
-0.100511 0.601902 2.042000 255 0 0
-0.094902 0.601615 2.041000 255 0 0
-0.089298 0.601328 2.040000 255 0 0
-0.083781 0.601629 2.041000 255 0 0
-0.078220 0.601636 2.041000 255 0 0
-0.072730 0.602231 2.043000 255 0 0
-0.067196 0.602532 2.044000 255 0 0
-0.061657 0.602831 2.045000 255 0 0
-0.056112 0.603131 2.046000 255 0 0
-0.050660 0.604609 2.051000 255 0 0
-0.045335 0.608151 2.063000 255 0 0
-0.039964 0.611986 2.076000 255 0 0
-0.034472 0.614937 2.086000 255 0 0
-0.028939 0.618182 2.097000 255 0 0
-0.023634 0.629092 2.134000 255 0 0
-0.018027 0.636464 2.159000 255 0 0
-0.012183 0.638528 2.166000 255 0 0
-0.006274 0.637939 2.164000 255 0 0
-0.152403 0.626678 2.146000 255 0 0
-0.146081 0.624646 2.139000 255 0 0
-0.139730 0.622321 2.131000 255 0 0
-0.132795 0.617075 2.113000 255 0 0
-0.125536 0.609784 2.088000 255 0 0
-0.118815 0.604537 2.070000 255 0 0
-0.112684 0.601917 2.061000 255 0 0
-0.106602 0.599297 2.052000 255 0 0
-0.100667 0.597261 2.045000 255 0 0
-0.094956 0.596393 2.042000 255 0 0
-0.089348 0.596108 2.041000 255 0 0
-0.083910 0.596991 2.044000 255 0 0
-0.078341 0.596998 2.044000 255 0 0
-0.072878 0.597880 2.047000 255 0 0
-0.067300 0.597886 2.047000 255 0 0
-0.061782 0.598475 2.049000 255 0 0
-0.056308 0.599648 2.053000 255 0 0
-0.050911 0.601989 2.061000 255 0 0
-0.045558 0.605498 2.073000 255 0 0
-0.040179 0.609591 2.087000 255 0 0
-0.034722 0.613683 2.101000 255 0 0
-0.029245 0.618943 2.119000 255 0 0
-0.023813 0.628000 2.150000 255 0 0
-0.018095 0.632968 2.167000 255 0 0
-0.012201 0.633553 2.169000 255 0 0
-0.006275 0.632093 2.164000 255 0 0
-0.158997 0.623760 2.156000 255 0 0
-0.152060 0.619433 2.141000 255 0 0
-0.146570 0.620891 2.146000 255 0 0
-0.140594 0.620323 2.144000 255 0 0
-0.134314 0.618309 2.137000 255 0 0
-0.126929 0.610796 2.111000 255 0 0
-0.119800 0.603862 2.087000 255 0 0
-0.113130 0.598663 2.069000 255 0 0
-0.106818 0.594910 2.056000 255 0 0
-0.100823 0.592604 2.048000 255 0 0
-0.095149 0.592033 2.046000 255 0 0
-0.089531 0.591751 2.045000 255 0 0
-0.084081 0.592626 2.048000 255 0 0
-0.078539 0.592922 2.049000 255 0 0
-0.073133 0.594375 2.054000 255 0 0
-0.067536 0.594380 2.054000 255 0 0
-0.061999 0.594965 2.056000 255 0 0
-0.056532 0.596416 2.061000 255 0 0
-0.051187 0.599604 2.072000 255 0 0
-0.045870 0.603949 2.087000 255 0 0
-0.040490 0.608582 2.103000 255 0 0
-0.034989 0.612637 2.117000 255 0 0
-0.029426 0.616980 2.132000 255 0 0
-0.023859 0.623349 2.154000 255 0 0
-0.018130 0.628270 2.171000 255 0 0
-0.012224 0.628850 2.173000 255 0 0
-0.006272 0.625957 2.163000 255 0 0
-0.000376 0.624221 2.157000 255 0 0
-0.166488 0.623940 2.177000 255 0 0
-0.158199 0.614781 2.145000 255 0 0
-0.151788 0.612500 2.137000 255 0 0
-0.146445 0.614518 2.144000 255 0 0
-0.140933 0.615962 2.149000 255 0 0
-0.135016 0.615687 2.148000 255 0 0
-0.128382 0.611971 2.135000 255 0 0
-0.121245 0.605388 2.112000 255 0 0
-0.114178 0.598518 2.088000 255 0 0
-0.107502 0.593081 2.069000 255 0 0
-0.101274 0.589649 2.057000 255 0 0
-0.095390 0.587937 2.051000 255 0 0
-0.089713 0.587371 2.049000 255 0 0
-0.084211 0.587952 2.051000 255 0 0
-0.078699 0.588532 2.053000 255 0 0
-0.073246 0.589685 2.057000 255 0 0
-0.067771 0.590837 2.061000 255 0 0
-0.062305 0.592276 2.066000 255 0 0
-0.056976 0.595434 2.077000 255 0 0
-0.051636 0.599165 2.090000 255 0 0
-0.046269 0.603469 2.105000 255 0 0
-0.040763 0.606913 2.117000 255 0 0
-0.035125 0.609210 2.125000 255 0 0
-0.029512 0.612939 2.138000 255 0 0
-0.023861 0.617529 2.154000 255 0 0
-0.018132 0.622404 2.171000 255 0 0
-0.012231 0.623265 2.174000 255 0 0
-0.006276 0.620399 2.164000 255 0 0
-0.000375 0.617533 2.154000 255 0 0
0.005494 0.617246 2.153000 255 0 0
-0.131170 0.750081 2.204422 0 255 0
-0.179588 0.622287 2.192000 255 0 0
-0.172984 0.620029 2.184000 255 0 0
-0.166271 0.617204 2.174000 255 0 0
-0.158801 0.611254 2.153000 255 0 0
-0.151800 0.606724 2.137000 255 0 0
-0.146047 0.607020 2.138000 255 0 0
-0.140944 0.610154 2.149000 255 0 0
-0.135341 0.611301 2.153000 255 0 0
-0.129234 0.610176 2.149000 255 0 0
-0.122518 0.605927 2.134000 255 0 0
-0.115610 0.600257 2.114000 255 0 0
-0.108758 0.594304 2.093000 255 0 0
-0.102316 0.590053 2.078000 255 0 0
-0.096235 0.587505 2.069000 255 0 0
-0.090421 0.586377 2.065000 255 0 0
-0.084834 0.586668 2.066000 255 0 0
-0.079318 0.587527 2.069000 255 0 0
-0.073857 0.588953 2.074000 255 0 0
-0.068402 0.590662 2.080000 255 0 0
-0.063004 0.593224 2.089000 255 0 0
-0.057666 0.596920 2.102000 255 0 0
-0.052159 0.599481 2.111000 255 0 0
-0.046581 0.601756 2.119000 255 0 0
-0.040939 0.603748 2.126000 255 0 0
-0.035227 0.605171 2.131000 255 0 0
-0.029556 0.608014 2.141000 255 0 0
-0.023852 0.611424 2.153000 255 0 0
-0.018100 0.615401 2.167000 255 0 0
-0.012221 0.616822 2.172000 255 0 0
-0.006268 0.613699 2.161000 255 0 0
-0.000374 0.610292 2.149000 255 0 0
0.005474 0.609156 2.145000 255 0 0
0.011422 0.614550 2.164000 255 0 0
-0.143348 0.738432 2.202282 0 255 0
-0.199312 0.621941 2.212000 255 0 0
-0.191279 0.615489 2.189000 255 0 0
-0.184725 0.613535 2.182000 255 0 0
-0.178618 0.612987 2.180000 255 0 0
-0.172443 0.612157 2.177000 255 0 0
-0.165978 0.610202 2.170000 255 0 0
-0.159330 0.607403 2.160000 255 0 0
-0.152167 0.602353 2.142000 255 0 0
-0.146058 0.601240 2.138000 255 0 0
-0.140824 0.603783 2.147000 255 0 0
-0.135414 0.605762 2.154000 255 0 0
-0.129485 0.605492 2.153000 255 0 0
-0.123045 0.602690 2.143000 255 0 0
-0.116549 0.599324 2.131000 255 0 0
-0.110118 0.595959 2.119000 255 0 0
-0.103851 0.593155 2.109000 255 0 0
-0.097731 0.590913 2.101000 255 0 0
-0.091830 0.589796 2.097000 255 0 0
-0.085991 0.588959 2.094000 255 0 0
-0.080398 0.589810 2.097000 255 0 0
-0.074789 0.590660 2.100000 255 0 0
-0.069263 0.592354 2.106000 255 0 0
-0.063763 0.594609 2.114000 255 0 0
-0.058247 0.597146 2.123000 255 0 0
-0.052559 0.598275 2.127000 255 0 0
-0.046782 0.598561 2.128000 255 0 0
-0.041020 0.599127 2.130000 255 0 0
-0.035296 0.600537 2.135000 255 0 0
-0.029599 0.603071 2.144000 255 0 0
-0.023876 0.606167 2.155000 255 0 0
-0.018110 0.609826 2.168000 255 0 0
-0.012222 0.610952 2.172000 255 0 0
-0.006262 0.607296 2.159000 255 0 0
-0.000374 0.603640 2.146000 255 0 0
0.005469 0.602795 2.143000 255 0 0
0.011391 0.607014 2.158000 255 0 0
0.017386 0.610951 2.172000 255 0 0
0.023437 0.614325 2.184000 255 0 0
-0.106849 0.734767 2.226077 0 255 0
-0.209940 0.611752 2.197000 255 0 0
-0.203215 0.609540 2.189000 255 0 0
-0.196624 0.607606 2.182000 255 0 0
-0.190420 0.606786 2.179000 255 0 0
-0.184231 0.605965 2.176000 255 0 0
-0.178223 0.605701 2.175000 255 0 0
-0.172140 0.605157 2.173000 255 0 0
-0.165838 0.603778 2.168000 255 0 0
-0.159637 0.602677 2.164000 255 0 0
-0.152961 0.599626 2.153000 255 0 0
-0.146275 0.596296 2.141000 255 0 0
-0.140638 0.597143 2.144000 255 0 0
-0.135237 0.599104 2.151000 255 0 0
-0.129736 0.600785 2.157000 255 0 0
-0.123456 0.598846 2.150000 255 0 0
-0.117160 0.596628 2.142000 255 0 0
-0.110906 0.594408 2.134000 255 0 0
-0.104844 0.593025 2.129000 255 0 0
-0.098809 0.591640 2.124000 255 0 0
-0.092932 0.591091 2.122000 255 0 0
-0.087066 0.590541 2.120000 255 0 0
-0.081287 0.590548 2.120000 255 0 0
-0.075544 0.590833 2.121000 255 0 0
-0.069827 0.591396 2.123000 255 0 0
-0.064130 0.592237 2.126000 255 0 0
-0.058362 0.592521 2.127000 255 0 0
-0.052563 0.592526 2.127000 255 0 0
-0.046786 0.592808 2.128000 255 0 0
-0.041081 0.594205 2.133000 255 0 0
-0.035381 0.596158 2.140000 255 0 0
-0.029643 0.598111 2.147000 255 0 0
-0.023889 0.600620 2.156000 255 0 0
-0.018086 0.603129 2.165000 255 0 0
-0.012200 0.603966 2.168000 255 0 0
-0.006242 0.599510 2.152000 255 0 0
-0.000373 0.596446 2.141000 255 0 0
0.005457 0.595610 2.138000 255 0 0
0.011365 0.599788 2.153000 255 0 0
0.017316 0.602572 2.163000 255 0 0
0.023310 0.605078 2.172000 255 0 0
0.029285 0.606190 2.176000 255 0 0
0.035332 0.608137 2.183000 255 0 0
-0.221516 0.604675 2.193000 255 0 0
-0.214857 0.602762 2.186000 255 0 0
-0.208618 0.601950 2.183000 255 0 0
-0.202581 0.601691 2.182000 255 0 0
-0.196188 0.600327 2.177000 255 0 0
-0.190085 0.599791 2.175000 255 0 0
-0.183907 0.598978 2.172000 255 0 0
-0.177909 0.598717 2.171000 255 0 0
-0.171758 0.597903 2.168000 255 0 0
-0.165622 0.597089 2.165000 255 0 0
-0.159650 0.596826 2.164000 255 0 0
-0.153186 0.594632 2.156000 255 0 0
-0.146492 0.591335 2.144000 255 0 0
-0.140453 0.590519 2.141000 255 0 0
-0.135059 0.592461 2.148000 255 0 0
-0.129626 0.594402 2.155000 255 0 0
-0.123696 0.594136 2.154000 255 0 0
-0.117443 0.592215 2.147000 255 0 0
-0.111227 0.590294 2.140000 255 0 0
-0.105148 0.588924 2.135000 255 0 0
-0.099236 0.588380 2.133000 255 0 0
-0.093378 0.588112 2.132000 255 0 0
-0.087484 0.587568 2.130000 255 0 0
-0.081600 0.587023 2.128000 255 0 0
-0.075835 0.587306 2.129000 255 0 0
-0.069998 0.587036 2.128000 255 0 0
-0.064226 0.587317 2.129000 255 0 0
-0.058367 0.586771 2.127000 255 0 0
-0.052592 0.587051 2.128000 255 0 0
-0.046856 0.587883 2.131000 255 0 0
-0.041142 0.589266 2.136000 255 0 0
-0.035417 0.590925 2.142000 255 0 0
-0.029687 0.593134 2.150000 255 0 0
-0.023913 0.595343 2.158000 255 0 0
-0.018071 0.596725 2.163000 255 0 0
-0.012156 0.595898 2.160000 255 0 0
-0.006223 0.591761 2.145000 255 0 0
-0.000372 0.589554 2.137000 255 0 0
0.005460 0.590106 2.139000 255 0 0
0.011372 0.594243 2.154000 255 0 0
0.017301 0.596173 2.161000 255 0 0
0.023226 0.596999 2.164000 255 0 0
0.029140 0.597273 2.165000 255 0 0
0.035075 0.597822 2.167000 255 0 0
0.041022 0.598370 2.169000 255 0 0
0.047044 0.599746 2.174000 255 0 0
-0.095795 0.680261 2.047391 0 255 0
-0.233367 0.598436 2.192000 255 0 0
-0.227088 0.597635 2.189000 255 0 0
-0.220825 0.596833 2.186000 255 0 0
-0.214382 0.595484 2.181000 255 0 0
-0.208252 0.594955 2.179000 255 0 0
-0.202225 0.594698 2.178000 255 0 0
-0.195933 0.593621 2.174000 255 0 0
-0.189575 0.592271 2.169000 255 0 0
-0.183413 0.591466 2.166000 255 0 0
-0.177513 0.591480 2.166000 255 0 0
-0.171375 0.590675 2.163000 255 0 0
-0.165482 0.590688 2.163000 255 0 0
-0.159442 0.590155 2.161000 255 0 0
-0.153269 0.589075 2.157000 255 0 0
-0.146367 0.584991 2.142000 255 0 0
-0.140333 0.584183 2.139000 255 0 0
-0.134818 0.585560 2.144000 255 0 0
-0.129517 0.588028 2.153000 255 0 0
-0.123821 0.588858 2.156000 255 0 0
-0.117671 0.587502 2.151000 255 0 0
-0.111496 0.585873 2.145000 255 0 0
-0.105354 0.584243 2.139000 255 0 0
-0.099430 0.583705 2.137000 255 0 0
-0.093473 0.582894 2.134000 255 0 0
-0.087614 0.582628 2.133000 255 0 0
-0.081722 0.582089 2.131000 255 0 0
-0.075912 0.582095 2.131000 255 0 0
-0.070069 0.581828 2.130000 255 0 0
-0.064292 0.582107 2.131000 255 0 0
-0.058481 0.582112 2.131000 255 0 0
-0.052696 0.582390 2.132000 255 0 0
-0.046948 0.583214 2.135000 255 0 0
-0.041184 0.584037 2.138000 255 0 0
-0.035470 0.585952 2.145000 255 0 0
-0.029704 0.587594 2.151000 255 0 0
-0.023904 0.589235 2.157000 255 0 0
-0.018031 0.589510 2.158000 255 0 0
-0.012101 0.587326 2.150000 255 0 0
-0.006194 0.583229 2.135000 255 0 0
-0.000372 0.582956 2.134000 255 0 0
0.005460 0.584322 2.139000 255 0 0
0.011367 0.588146 2.153000 255 0 0
0.017271 0.589237 2.157000 255 0 0
0.023185 0.590055 2.160000 255 0 0
