ply
format ascii 1.0
element vertex 1328
property double x
property double y
property double z
property uchar red
property uchar green
property uchar blue
end_header
-0.252008 0.328182 2.300000 255 0 0
-0.246157 0.328768 2.304000 255 0 0
-0.240387 0.329497 2.309000 255 0 0
-0.234690 0.330368 2.315000 255 0 0
-0.229354 0.331809 2.325000 255 0 0
-0.225210 0.335106 2.348000 255 0 0
-0.222990 0.341542 2.393000 255 0 0
-0.208673 0.329281 2.307000 255 0 0
-0.199125 0.324013 2.270000 255 0 0
-0.191987 0.322455 2.259000 255 0 0
-0.184826 0.320754 2.247000 255 0 0
-0.178128 0.319767 2.240000 255 0 0
-0.171238 0.318350 2.230000 255 0 0
-0.164327 0.316791 2.219000 255 0 0
-0.157476 0.315231 2.208000 255 0 0
-0.150821 0.313956 2.199000 255 0 0
-0.144413 0.313109 2.193000 255 0 0
-0.138037 0.312261 2.187000 255 0 0
-0.131754 0.311556 2.182000 255 0 0
-0.125555 0.310993 2.178000 255 0 0
-0.119378 0.310430 2.174000 255 0 0
-0.113275 0.310009 2.171000 255 0 0
-0.107236 0.309731 2.169000 255 0 0
-0.101349 0.309880 2.170000 255 0 0
-0.095323 0.309601 2.168000 255 0 0
-0.089474 0.309893 2.170000 255 0 0
-0.083459 0.309613 2.168000 255 0 0
-0.077490 0.309476 2.167000 255 0 0
-0.071460 0.309052 2.164000 255 0 0
-0.065568 0.309199 2.165000 255 0 0
-0.059615 0.309061 2.164000 255 0 0
-0.053618 0.308636 2.161000 255 0 0
-0.047636 0.308211 2.158000 255 0 0
-0.041671 0.307785 2.155000 255 0 0
-0.035806 0.308074 2.157000 255 0 0
-0.029915 0.308219 2.158000 255 0 0
-0.024019 0.308363 2.159000 255 0 0
-0.018117 0.308508 2.160000 255 0 0
-0.012210 0.308651 2.161000 255 0 0
-0.006303 0.309080 2.164000 255 0 0
-0.000379 0.309224 2.165000 255 0 0
0.005553 0.309509 2.167000 255 0 0
0.011496 0.309794 2.169000 255 0 0
0.017458 0.310222 2.172000 255 0 0
0.023436 0.310649 2.175000 255 0 0
0.029417 0.310933 2.177000 255 0 0
0.035474 0.311787 2.183000 255 0 0
0.041544 0.312499 2.188000 255 0 0
0.047685 0.313496 2.195000 255 0 0
0.053816 0.314207 2.200000 255 0 0
0.060109 0.315631 2.210000 255 0 0
0.066487 0.317198 2.221000 255 0 0
0.072893 0.318621 2.231000 255 0 0
0.079140 0.319187 2.235000 255 0 0
0.085409 0.319753 2.239000 255 0 0
0.091822 0.320747 2.246000 255 0 0
0.098491 0.322455 2.258000 255 0 0
0.105040 0.323590 2.266000 255 0 0
0.111534 0.324440 2.272000 255 0 0
0.210457 0.323561 2.267000 255 0 0
0.217605 0.324975 2.277000 255 0 0
0.225004 0.326673 2.289000 255 0 0
0.231659 0.327230 2.293000 255 0 0
0.238024 0.327358 2.294000 255 0 0
0.243968 0.326915 2.291000 255 0 0
0.249786 0.326329 2.287000 255 0 0
0.255804 0.326028 2.285000 255 0 0
0.261696 0.325584 2.282000 255 0 0
0.267806 0.325426 2.281000 255 0 0
0.273669 0.324981 2.278000 255 0 0
0.279146 0.324109 2.272000 255 0 0
-0.095398 0.282671 2.398049 255 255 0
-0.085675 0.281776 2.391841 255 255 0
-0.081112 0.280063 2.382152 255 255 0
-0.078266 0.278075 2.371291 255 255 0
-0.066856 0.277471 2.366339 255 255 0
-0.052043 0.277430 2.363807 255 255 0
-0.041524 0.276705 2.358360 255 255 0
-0.031874 0.275848 2.352355 255 255 0
-0.017121 0.275839 2.349993 255 255 0
0.001866 0.276545 2.350717 255 255 0
0.014865 0.276281 2.347286 255 255 0
0.024444 0.275461 2.341476 255 255 0
0.028917 0.273795 2.332033 255 255 0
0.035932 0.272559 2.324437 255 255 0
0.039551 0.270755 2.314396 255 255 0
0.128973 0.266887 2.279885 255 255 0
0.182029 0.273788 2.307720 255 255 0
0.195587 0.273817 2.305702 255 255 0
0.197401 0.271787 2.294729 255 255 0
-0.252250 0.215997 2.343341 0 255 0
-0.240670 0.216125 2.347225 0 255 0
-0.216936 0.213511 2.342718 0 255 0
-0.190563 0.210334 2.336529 0 255 0
-0.168493 0.208164 2.333465 0 255 0
-0.159431 0.208947 2.339442 0 255 0
-0.150358 0.209737 2.345455 0 255 0
-0.153467 0.213252 2.359765 0 255 0
-0.149613 0.215212 2.369336 0 255 0
-0.144886 0.216981 2.378327 0 255 0
-0.134045 0.217405 2.383248 0 255 0
-0.132802 0.219950 2.394596 0 255 0
-0.127189 0.221537 2.403044 0 255 0
-0.302487 0.322060 2.302000 255 0 0
-0.296724 0.322637 2.306000 255 0 0
-0.290309 0.322514 2.305000 255 0 0
-0.283775 0.322251 2.303000 255 0 0
-0.277131 0.321848 2.300000 255 0 0
-0.271208 0.322284 2.303000 255 0 0
-0.265154 0.322580 2.305000 255 0 0
-0.258975 0.322736 2.306000 255 0 0
-0.252790 0.322891 2.307000 255 0 0
-0.246813 0.323326 2.310000 255 0 0
-0.240714 0.323621 2.312000 255 0 0
-0.234907 0.324336 2.317000 255 0 0
-0.229467 0.325610 2.326000 255 0 0
-0.225128 0.328563 2.347000 255 0 0
-0.219742 0.330117 2.358000 255 0 0
-0.209591 0.324390 2.317000 255 0 0
-0.200190 0.319503 2.282000 255 0 0
-0.192339 0.316855 2.263000 255 0 0
-0.184838 0.314626 2.247000 255 0 0
-0.178060 0.313518 2.239000 255 0 0
-0.171325 0.312409 2.231000 255 0 0
-0.164411 0.310879 2.220000 255 0 0
-0.157557 0.309349 2.209000 255 0 0
-0.150968 0.308238 2.201000 255 0 0
-0.144554 0.307407 2.195000 255 0 0
-0.138172 0.306576 2.189000 255 0 0
-0.131823 0.305744 2.183000 255 0 0
-0.125621 0.305192 2.179000 255 0 0
-0.119496 0.304780 2.176000 255 0 0
-0.113438 0.304507 2.174000 255 0 0
-0.107342 0.304094 2.171000 255 0 0
-0.101449 0.304241 2.172000 255 0 0
-0.095418 0.303967 2.170000 255 0 0
-0.089521 0.304113 2.171000 255 0 0
-0.083464 0.303699 2.168000 255 0 0
-0.077531 0.303704 2.168000 255 0 0
-0.071498 0.303289 2.165000 255 0 0
-0.065572 0.303293 2.165000 255 0 0
-0.059564 0.302877 2.162000 255 0 0
-0.053596 0.302600 2.160000 255 0 0
-0.047640 0.302323 2.158000 255 0 0
-0.041713 0.302186 2.157000 255 0 0
-0.035825 0.302329 2.158000 255 0 0
-0.029945 0.302611 2.160000 255 0 0
-0.024032 0.302613 2.160000 255 0 0
-0.018135 0.302895 2.162000 255 0 0
-0.012227 0.303176 2.164000 255 0 0
-0.006312 0.303597 2.167000 255 0 0
-0.000379 0.303737 2.168000 255 0 0
0.005556 0.303737 2.168000 255 0 0
0.011502 0.304017 2.170000 255 0 0
0.017467 0.304436 2.173000 255 0 0
0.023448 0.304855 2.176000 255 0 0
0.029446 0.305273 2.179000 255 0 0
0.035508 0.306112 2.185000 255 0 0
0.041566 0.306670 2.189000 255 0 0
0.047667 0.307367 2.194000 255 0 0
0.053795 0.308064 2.199000 255 0 0
0.060113 0.309602 2.210000 255 0 0
0.066551 0.311419 2.223000 255 0 0
0.072930 0.312675 2.232000 255 0 0
0.079145 0.313090 2.235000 255 0 0
0.085338 0.313365 2.237000 255 0 0
0.091869 0.314760 2.247000 255 0 0
0.098585 0.316575 2.260000 255 0 0
0.105093 0.317549 2.267000 255 0 0
0.111394 0.317822 2.269000 255 0 0
0.211306 0.318639 2.276000 255 0 0
0.217714 0.318906 2.278000 255 0 0
0.224920 0.320292 2.288000 255 0 0
0.231573 0.320838 2.292000 255 0 0
0.237935 0.320963 2.293000 255 0 0
0.243664 0.320249 2.288000 255 0 0
0.249582 0.319814 2.285000 255 0 0
0.255596 0.319519 2.283000 255 0 0
0.261712 0.319363 2.282000 255 0 0
0.267940 0.319348 2.282000 255 0 0
0.273806 0.318912 2.279000 255 0 0
0.278549 0.317216 2.267000 255 0 0
-0.107594 0.272146 2.403913 255 255 0
-0.094419 0.271817 2.399975 255 255 0
-0.089848 0.270103 2.390262 255 255 0
-0.079278 0.269370 2.384654 255 255 0
-0.071291 0.268223 2.377322 255 255 0
-0.059891 0.267645 2.372379 255 255 0
-0.048508 0.267076 2.367483 255 255 0
-0.037141 0.266515 2.362632 255 255 0
-0.026644 0.265821 2.357228 255 255 0
-0.010197 0.266134 2.356071 255 255 0
0.007925 0.266746 2.356195 255 255 0
0.024316 0.267088 2.355194 255 255 0
0.028787 0.265426 2.345753 255 255 0
0.033257 0.263765 2.336317 255 255 0
0.037724 0.262105 2.326887 255 255 0
0.043883 0.260738 2.318693 255 255 0
0.039887 0.257623 2.303095 255 255 0
0.129052 0.256327 2.281023 255 255 0
0.175375 0.262185 2.303710 255 255 0
0.197312 0.263740 2.308069 255 255 0
0.200801 0.262006 2.298384 255 255 0
-0.256942 0.206551 2.347863 0 255 0
-0.235847 0.204454 2.345093 0 255 0
-0.206920 0.200585 2.337008 0 255 0
-0.170636 0.197903 2.336220 0 255 0
-0.162446 0.198865 2.342796 0 255 0
-0.154248 0.199834 2.349401 0 255 0
-0.159096 0.203759 2.364881 0 255 0
-0.156117 0.205910 2.375029 0 255 0
-0.147908 0.206888 2.381669 0 255 0
-0.133582 0.206508 2.384265 0 255 0
-0.130589 0.208671 2.394459 0 255 0
-0.125849 0.210446 2.403499 0 255 0
-0.302373 0.315647 2.301000 255 0 0
-0.296484 0.316076 2.304000 255 0 0
-0.289948 0.315819 2.302000 255 0 0
-0.283422 0.315561 2.300000 255 0 0
-0.277147 0.315577 2.300000 255 0 0
-0.271460 0.316280 2.305000 255 0 0
-0.265515 0.316707 2.308000 255 0 0
-0.259440 0.316997 2.310000 255 0 0
-0.253134 0.317012 2.310000 255 0 0
-0.247255 0.317576 2.314000 255 0 0
-0.241249 0.318003 2.317000 255 0 0
-0.235428 0.318703 2.322000 255 0 0
-0.229777 0.319678 2.329000 255 0 0
-0.224375 0.321065 2.339000 255 0 0
-0.218078 0.321215 2.340000 255 0 0
-0.209152 0.317385 2.312000 255 0 0
-0.201079 0.314652 2.292000 255 0 0
-0.192861 0.311506 2.269000 255 0 0
-0.184850 0.308498 2.247000 255 0 0
-0.177912 0.307136 2.237000 255 0 0
-0.171182 0.306048 2.229000 255 0 0
-0.164200 0.304411 2.217000 255 0 0
-0.157424 0.303048 2.207000 255 0 0
-0.150841 0.301959 2.199000 255 0 0
-0.144563 0.301419 2.195000 255 0 0
-0.138181 0.300604 2.189000 255 0 0
-0.131831 0.299789 2.183000 255 0 0
-0.125629 0.299247 2.179000 255 0 0
-0.119503 0.298843 2.176000 255 0 0
-0.113550 0.298851 2.176000 255 0 0
-0.107547 0.298720 2.175000 255 0 0
-0.101549 0.298590 2.174000 255 0 0
-0.095512 0.298321 2.172000 255 0 0
-0.089485 0.298052 2.170000 255 0 0
-0.083508 0.297921 2.169000 255 0 0
-0.077500 0.297651 2.167000 255 0 0
-0.071503 0.297381 2.165000 255 0 0
-0.065577 0.297386 2.165000 255 0 0
-0.059595 0.297115 2.163000 255 0 0
-0.053649 0.296981 2.162000 255 0 0
-0.047665 0.296572 2.159000 255 0 0
-0.041735 0.296438 2.158000 255 0 0
-0.035827 0.296440 2.158000 255 0 0
-0.029961 0.296855 2.161000 255 0 0
-0.024055 0.296994 2.162000 255 0 0
-0.018153 0.297270 2.164000 255 0 0
-0.012234 0.297408 2.165000 255 0 0
-0.006318 0.297958 2.169000 255 0 0
-0.000379 0.297958 2.169000 255 0 0
0.005559 0.297958 2.169000 255 0 0
0.011508 0.298233 2.171000 255 0 0
0.017476 0.298644 2.174000 255 0 0
0.023482 0.299329 2.179000 255 0 0
0.029488 0.299740 2.182000 255 0 0
0.035543 0.300424 2.187000 255 0 0
0.041607 0.300971 2.191000 255 0 0
0.047692 0.301518 2.195000 255 0 0
0.053896 0.302614 2.203000 255 0 0
0.060172 0.303846 2.212000 255 0 0
0.066586 0.305490 2.224000 255 0 0
0.072902 0.306447 2.231000 255 0 0
0.079150 0.306992 2.235000 255 0 0
0.085420 0.307536 2.239000 255 0 0
0.091956 0.308904 2.249000 255 0 0
0.098722 0.310821 2.263000 255 0 0
0.105239 0.311776 2.270000 255 0 0
0.111598 0.312181 2.273000 255 0 0
0.210390 0.311059 2.266000 255 0 0
0.217919 0.312968 2.280000 255 0 0
0.225032 0.314189 2.289000 255 0 0
0.231486 0.314450 2.291000 255 0 0
0.237742 0.314436 2.291000 255 0 0
0.243359 0.313598 2.285000 255 0 0
0.249379 0.313309 2.283000 255 0 0
0.255611 0.313294 2.283000 255 0 0
0.262072 0.313553 2.285000 255 0 0
0.268190 0.313400 2.284000 255 0 0
0.274062 0.312973 2.281000 255 0 0
-0.092580 0.261099 2.402483 255 255 0
-0.088868 0.259245 2.392186 255 255 0
-0.079157 0.258391 2.385986 255 255 0
-0.067746 0.257829 2.380998 255 255 0
-0.055497 0.257420 2.376645 255 255 0
-0.045829 0.256588 2.370565 255 255 0
-0.036175 0.255763 2.364520 255 255 0
-0.021418 0.255814 2.362098 255 255 0
-0.000723 0.256894 2.363941 255 255 0
0.021637 0.258285 2.367092 255 255 0
0.031209 0.257502 2.361275 255 255 0
0.035674 0.255846 2.351849 255 255 0
0.031657 0.252719 2.336327 255 255 0
0.036128 0.251061 2.326887 255 255 0
0.039750 0.249256 2.316835 255 255 0
0.039991 0.246858 2.304314 255 255 0
0.114869 0.243177 2.271365 255 255 0
0.160348 0.249007 2.293336 255 255 0
0.195690 0.253053 2.307876 255 255 0
0.204200 0.252236 2.302037 255 255 0
-0.270590 0.196448 2.346722 0 255 0
-0.253851 0.195294 2.346921 0 255 0
-0.230166 0.192538 2.342368 0 255 0
-0.201249 0.188597 2.334325 0 255 0
-0.177489 0.185897 2.330027 0 255 0
-0.169309 0.186839 2.336588 0 255 0
-0.168934 0.189589 2.348524 0 255 0
-0.165088 0.191538 2.358078 0 255 0
-0.164720 0.194286 2.369990 0 255 0
-0.160003 0.196037 2.378955 0 255 0
-0.147442 0.196008 2.382675 0 255 0
-0.137482 0.196584 2.388194 0 255 0
-0.131873 0.198154 2.396646 0 255 0
-0.129753 0.200514 2.407417 0 255 0
-0.094615 0.206879 2.445413 0 255 0
-0.302916 0.309912 2.305000 255 0 0
-0.296630 0.309929 2.305000 255 0 0
-0.290217 0.309811 2.304000 255 0 0
-0.283931 0.309827 2.304000 255 0 0
-0.277766 0.309978 2.305000 255 0 0
-0.271947 0.310532 2.309000 255 0 0
-0.265760 0.310682 2.310000 255 0 0
-0.259568 0.310832 2.311000 255 0 0
-0.253368 0.310982 2.312000 255 0 0
-0.247590 0.311669 2.317000 255 0 0
-0.241680 0.312221 2.321000 255 0 0
-0.235747 0.312774 2.325000 255 0 0
-0.229791 0.313326 2.329000 255 0 0
-0.224484 0.314819 2.340000 255 0 0
-0.216786 0.312949 2.326000 255 0 0
-0.208803 0.310540 2.308000 255 0 0
-0.201355 0.308803 2.295000 255 0 0
-0.193213 0.305855 2.273000 255 0 0
-0.185025 0.302637 2.249000 255 0 0
-0.177764 0.300764 2.235000 255 0 0
-0.171039 0.299698 2.227000 255 0 0
-0.164210 0.298362 2.217000 255 0 0
-0.157434 0.297026 2.207000 255 0 0
-0.150850 0.295959 2.199000 255 0 0
-0.144572 0.295430 2.195000 255 0 0
-0.138253 0.294766 2.190000 255 0 0
-0.132021 0.294236 2.186000 255 0 0
-0.125868 0.293840 2.183000 255 0 0
-0.119731 0.293444 2.180000 255 0 0
-0.113662 0.293182 2.178000 255 0 0
-0.107603 0.292920 2.176000 255 0 0
-0.101508 0.292522 2.173000 255 0 0
-0.095430 0.292125 2.170000 255 0 0
-0.089450 0.291996 2.169000 255 0 0
-0.083475 0.291867 2.168000 255 0 0
-0.077541 0.291872 2.168000 255 0 0
-0.071507 0.291473 2.165000 255 0 0
-0.065551 0.291342 2.164000 255 0 0
-0.059572 0.291077 2.162000 255 0 0
-0.053628 0.290946 2.161000 255 0 0
-0.047712 0.290949 2.161000 255 0 0
-0.041815 0.291087 2.162000 255 0 0
-0.035912 0.291224 2.163000 255 0 0
-0.030004 0.291361 2.164000 255 0 0
-0.024079 0.291362 2.164000 255 0 0
-0.018171 0.291633 2.166000 255 0 0
-0.012246 0.291769 2.167000 255 0 0
-0.006321 0.292173 2.170000 255 0 0
-0.000380 0.292308 2.171000 255 0 0
0.005570 0.292577 2.173000 255 0 0
0.011530 0.292846 2.175000 255 0 0
0.017501 0.293114 2.177000 255 0 0
0.023516 0.293786 2.182000 255 0 0
0.029544 0.294323 2.186000 255 0 0
0.035627 0.295129 2.192000 255 0 0
0.041666 0.295396 2.194000 255 0 0
0.047760 0.295931 2.198000 255 0 0
0.053949 0.296871 2.205000 255 0 0
0.060230 0.298079 2.214000 255 0 0
0.066590 0.299421 2.224000 255 0 0
0.072907 0.300359 2.231000 255 0 0
0.079155 0.300893 2.235000 255 0 0
0.085540 0.301830 2.242000 255 0 0
0.092167 0.303440 2.254000 255 0 0
0.098903 0.305184 2.267000 255 0 0
0.105338 0.305850 2.272000 255 0 0
0.111998 0.307055 2.281000 255 0 0
0.210125 0.304474 2.263000 255 0 0
0.218506 0.307556 2.286000 255 0 0
0.225439 0.308484 2.293000 255 0 0
0.231803 0.308605 2.294000 255 0 0
0.237653 0.308053 2.290000 255 0 0
0.243267 0.307232 2.284000 255 0 0
0.249284 0.306948 2.282000 255 0 0
0.255514 0.306933 2.282000 255 0 0
0.261972 0.307187 2.284000 255 0 0
0.268206 0.307172 2.284000 255 0 0
0.274318 0.307022 2.283000 255 0 0
-0.103047 0.250794 2.409519 255 255 0
-0.089882 0.250524 2.405571 255 255 0
-0.081884 0.249396 2.398186 255 255 0
-0.069612 0.248998 2.393750 255 255 0
-0.059925 0.248173 2.387604 255 255 0
-0.046832 0.247940 2.383852 255 255 0
-0.037175 0.247130 2.377789 255 255 0
-0.031796 0.245592 2.368788 255 255 0
-0.015343 0.245974 2.367560 255 255 0
0.003636 0.246814 2.368205 255 255 0
0.025983 0.248264 2.371350 255 255 0
0.031302 0.246757 2.362514 255 255 0
0.039163 0.245700 2.355511 255 255 0
0.038538 0.243150 2.342437 255 255 0
0.040462 0.241046 2.331175 255 255 0
0.043235 0.239093 2.320518 255 255 0
0.047700 0.237441 2.311090 255 255 0
0.106574 0.231007 2.266173 255 255 0
0.144501 0.235571 2.282350 255 255 0
0.181518 0.240016 2.298093 255 255 0
0.198401 0.240763 2.298625 255 255 0
-0.268363 0.185404 2.346370 0 255 0
-0.255086 0.185033 2.349018 0 255 0
-0.226224 0.180986 2.340861 0 255 0
-0.163650 0.174736 2.333982 0 255 0
-0.168474 0.178716 2.349499 0 255 0
-0.168101 0.181473 2.361422 0 255 0
-0.168601 0.184429 2.373918 0 255 0
-0.163018 0.185973 2.382294 0 255 0
-0.152205 0.186316 2.387184 0 255 0
-0.139637 0.186269 2.390958 0 255 0
-0.135774 0.188230 2.400568 0 255 0
-0.135402 0.190990 2.412484 0 255 0
-0.105553 0.198461 2.453819 0 255 0
-0.092898 0.198479 2.457879 0 255 0
-0.308145 0.302556 2.297000 255 0 0
-0.302933 0.303626 2.305000 255 0 0
-0.296646 0.303643 2.305000 255 0 0
-0.290233 0.303528 2.304000 255 0 0
-0.284071 0.303676 2.305000 255 0 0
-0.278143 0.304087 2.308000 255 0 0
-0.272198 0.304498 2.311000 255 0 0
-0.266006 0.304645 2.312000 255 0 0
-0.259807 0.304792 2.313000 255 0 0
-0.253602 0.304939 2.314000 255 0 0
-0.247925 0.305744 2.320000 255 0 0
-0.242111 0.306417 2.325000 255 0 0
-0.236471 0.307354 2.332000 255 0 0
-0.230495 0.307895 2.336000 255 0 0
-0.225361 0.309622 2.349000 255 0 0
-0.217731 0.307921 2.336000 255 0 0
-0.208272 0.303452 2.302000 255 0 0
-0.201192 0.302278 2.293000 255 0 0
-0.193479 0.300048 2.276000 255 0 0
-0.185366 0.297028 2.253000 255 0 0
-0.177934 0.294929 2.237000 255 0 0
-0.171127 0.293753 2.228000 255 0 0
-0.164368 0.292576 2.219000 255 0 0
-0.157801 0.291663 2.212000 255 0 0
-0.151134 0.290486 2.203000 255 0 0
-0.144713 0.289704 2.197000 255 0 0
-0.138325 0.288921 2.191000 255 0 0
-0.132150 0.288534 2.188000 255 0 0
-0.125933 0.288014 2.184000 255 0 0
-0.119848 0.287758 2.182000 255 0 0
-0.113721 0.287370 2.179000 255 0 0
-0.107659 0.287113 2.177000 255 0 0
-0.101515 0.286592 2.173000 255 0 0
-0.095436 0.286202 2.170000 255 0 0
-0.089455 0.286076 2.169000 255 0 0
-0.083518 0.286081 2.169000 255 0 0
-0.077617 0.286218 2.170000 255 0 0
-0.071545 0.285695 2.166000 255 0 0
-0.065585 0.285568 2.165000 255 0 0
-0.059603 0.285308 2.163000 255 0 0
-0.053681 0.285311 2.163000 255 0 0
-0.047759 0.285314 2.163000 255 0 0
-0.041856 0.285449 2.164000 255 0 0
-0.035948 0.285583 2.165000 255 0 0
-0.030048 0.285849 2.167000 255 0 0
-0.024103 0.285719 2.166000 255 0 0
-0.018189 0.285984 2.168000 255 0 0
-0.012252 0.285985 2.168000 255 0 0
-0.006322 0.286250 2.170000 255 0 0
-0.000380 0.286382 2.171000 255 0 0
0.005573 0.286777 2.174000 255 0 0
0.011536 0.287041 2.176000 255 0 0
0.017519 0.287436 2.179000 255 0 0
0.023550 0.288226 2.185000 255 0 0
0.029627 0.289147 2.192000 255 0 0
0.035710 0.289805 2.197000 255 0 0
0.041764 0.290066 2.199000 255 0 0
0.047850 0.290459 2.202000 255 0 0
0.054074 0.291511 2.210000 255 0 0
0.060370 0.292695 2.219000 255 0 0
0.066744 0.294010 2.229000 255 0 0
0.072944 0.294401 2.232000 255 0 0
0.079196 0.294924 2.236000 255 0 0
0.085660 0.296106 2.245000 255 0 0
0.092336 0.297815 2.258000 255 0 0
0.098996 0.299260 2.269000 255 0 0
0.105484 0.300045 2.275000 255 0 0
0.112348 0.301753 2.288000 255 0 0
0.211344 0.300014 2.276000 255 0 0
0.219283 0.302374 2.294000 255 0 0
0.225944 0.302888 2.298000 255 0 0
0.232019 0.302611 2.296000 255 0 0
0.237874 0.302070 2.292000 255 0 0
0.243494 0.301265 2.286000 255 0 0
0.249627 0.301119 2.285000 255 0 0
0.255865 0.301104 2.285000 255 0 0
0.262332 0.301353 2.287000 255 0 0
0.268221 0.300943 2.284000 255 0 0
0.274214 0.300664 2.282000 255 0 0
-0.098626 0.240487 2.413763 255 255 0
-0.087186 0.239954 2.408657 255 255 0
-0.073191 0.239871 2.405342 255 255 0
-0.067780 0.238321 2.396250 255 255 0
-0.058952 0.237367 2.389513 255 255 0
-0.045863 0.237162 2.385753 255 255 0
-0.029381 0.237565 2.384413 255 255 0
-0.019746 0.236783 2.378398 255 255 0
-0.009273 0.236159 2.373016 255 255 0
0.004588 0.236145 2.370070 255 255 0
0.022678 0.236898 2.370192 255 255 0
0.029698 0.235696 2.362548 255 255 0
0.038408 0.234803 2.356138 255 255 0
0.038635 0.232392 2.343669 255 255 0
0.043947 0.230894 2.334850 255 255 0
0.045874 0.228786 2.323584 255 255 0
0.044426 0.226061 2.309844 255 255 0
0.030335 0.221018 2.286788 255 255 0
0.137883 0.223755 2.278392 255 255 0
0.172382 0.227827 2.292169 255 255 0
0.186763 0.228135 2.290734 255 255 0
-0.252867 0.173935 2.348694 0 255 0
-0.186477 0.163653 2.326596 0 255 0
-0.165324 0.161461 2.324179 0 255 0
-0.171866 0.165882 2.340913 0 255 0
-0.176690 0.169881 2.356404 0 255 0
-0.178924 0.173257 2.370077 0 255 0
-0.178561 0.176013 2.381957 0 255 0
-0.171247 0.177136 2.389141 0 255 0
-0.155224 0.176232 2.390524 0 255 0
-0.148759 0.177575 2.398362 0 255 0
-0.141417 0.178721 2.405643 0 255 0
-0.139301 0.181082 2.416396 0 255 0
-0.102460 0.186911 2.453218 0 255 0
-0.090685 0.187102 2.457861 0 255 0
-0.308832 0.296936 2.302000 255 0 0
-0.303475 0.297856 2.309000 255 0 0
-0.297178 0.297873 2.309000 255 0 0
-0.290627 0.297631 2.307000 255 0 0
-0.284333 0.297647 2.307000 255 0 0
-0.278400 0.298050 2.310000 255 0 0
-0.272331 0.298323 2.312000 255 0 0
-0.266251 0.298596 2.314000 255 0 0
-0.260159 0.298869 2.316000 255 0 0
-0.254165 0.299271 2.319000 255 0 0
-0.248260 0.299802 2.323000 255 0 0
-0.242333 0.300332 2.327000 255 0 0
-0.236586 0.301120 2.333000 255 0 0
-0.230608 0.301650 2.337000 255 0 0
-0.225470 0.303341 2.350000 255 0 0
-0.216533 0.299869 2.323000 255 0 0
-0.208013 0.296783 2.299000 255 0 0
-0.201203 0.296021 2.293000 255 0 0
-0.193746 0.294225 2.279000 255 0 0
-0.185788 0.291525 2.258000 255 0 0
-0.178263 0.289341 2.241000 255 0 0
-0.171291 0.287931 2.230000 255 0 0
-0.164748 0.287166 2.224000 255 0 0
-0.158238 0.286401 2.218000 255 0 0
-0.151692 0.285506 2.211000 255 0 0
-0.145183 0.284611 2.204000 255 0 0
-0.138775 0.283845 2.198000 255 0 0
-0.132460 0.283207 2.193000 255 0 0
-0.126229 0.282699 2.189000 255 0 0
-0.120130 0.282448 2.187000 255 0 0
-0.113780 0.281551 2.180000 255 0 0
-0.107616 0.281041 2.176000 255 0 0
-0.101521 0.280660 2.173000 255 0 0
-0.095442 0.280278 2.170000 255 0 0
-0.089585 0.280542 2.172000 255 0 0
-0.083562 0.280289 2.170000 255 0 0
-0.077693 0.280552 2.172000 255 0 0
-0.071582 0.279911 2.167000 255 0 0
-0.065619 0.279786 2.166000 255 0 0
-0.059634 0.279532 2.164000 255 0 0
-0.053709 0.279535 2.164000 255 0 0
-0.047806 0.279668 2.165000 255 0 0
-0.041898 0.279799 2.166000 255 0 0
-0.036000 0.280060 2.168000 255 0 0
-0.030063 0.280062 2.168000 255 0 0
-0.024127 0.280064 2.168000 255 0 0
-0.018198 0.280194 2.169000 255 0 0
-0.012276 0.280583 2.172000 255 0 0
-0.006334 0.280842 2.174000 255 0 0
-0.000381 0.281100 2.176000 255 0 0
0.005583 0.281359 2.178000 255 0 0
0.011553 0.281487 2.179000 255 0 0
0.017544 0.281874 2.182000 255 0 0
0.023584 0.282648 2.188000 255 0 0
0.029670 0.283550 2.195000 255 0 0
0.035761 0.284194 2.200000 255 0 0
0.041823 0.284450 2.202000 255 0 0
0.047940 0.284964 2.206000 255 0 0
0.054102 0.285607 2.211000 255 0 0
0.060401 0.286766 2.220000 255 0 0
0.066688 0.287666 2.227000 255 0 0
0.072883 0.288049 2.230000 255 0 0
0.079200 0.288820 2.236000 255 0 0
0.085741 0.290236 2.247000 255 0 0
0.092464 0.292039 2.261000 255 0 0
0.099002 0.293066 2.269000 255 0 0
0.105537 0.293964 2.276000 255 0 0
0.112453 0.295765 2.290000 255 0 0
0.211357 0.293803 2.276000 255 0 0
0.219296 0.296114 2.294000 255 0 0
0.226153 0.296876 2.300000 255 0 0
0.232133 0.296475 2.297000 255 0 0
0.238199 0.296204 2.295000 255 0 0
0.243721 0.295287 2.288000 255 0 0
0.249969 0.295272 2.288000 255 0 0
0.255992 0.295000 2.286000 255 0 0
0.262461 0.295243 2.288000 255 0 0
0.268471 0.294970 2.286000 255 0 0
0.273869 0.294052 2.279000 255 0 0
-0.104799 0.230860 2.423727 255 255 0
-0.091633 0.230642 2.419731 255 255 0
-0.075914 0.230884 2.417526 255 255 0
-0.063648 0.230538 2.413070 255 255 0
-0.059103 0.228847 2.403415 255 255 0
-0.051139 0.227761 2.396110 255 255 0
-0.038916 0.227438 2.391772 255 255 0
-0.021592 0.228034 2.391029 255 255 0
-0.012820 0.227123 2.384435 255 255 0
0.001049 0.227134 2.381446 255 255 0
0.003842 0.225165 2.370740 255 255 0
0.018528 0.225346 2.368441 255 255 0
0.028947 0.224769 2.363191 255 255 0
0.040200 0.224354 2.358587 255 255 0
0.040429 0.221933 2.346121 255 255 0
0.044893 0.220285 2.336690 255 255 0
0.046821 0.218172 2.325423 255 255 0
0.037781 0.214024 2.306142 255 255 0
0.030453 0.210177 2.288022 255 255 0
0.073261 0.203288 2.243166 255 255 0
0.164093 0.215730 2.286898 255 255 0
0.181819 0.216710 2.287990 255 255 0
-0.256167 0.161336 2.340225 0 255 0
-0.253244 0.163442 2.350192 0 255 0
-0.178244 0.150886 2.322155 0 255 0
-0.168341 0.151364 2.327543 0 255 0
-0.174878 0.155813 2.344266 0 255 0
-0.176232 0.159002 2.357380 0 255 0
-0.181063 0.163017 2.372825 0 255 0
-0.185039 0.166815 2.387636 0 255 0
-0.179470 0.168335 2.395979 0 255 0
-0.168678 0.168623 2.400845 0 255 0
-0.157003 0.168717 2.405176 0 255 0
-0.154024 0.170869 2.415326 0 255 0
-0.147557 0.172205 2.423177 0 255 0
-0.099374 0.175329 2.452626 0 255 0
-0.091105 0.176301 2.459526 0 255 0
-0.308447 0.290279 2.299000 255 0 0
-0.303623 0.291684 2.310000 255 0 0
-0.297323 0.291701 2.310000 255 0 0
-0.290769 0.291464 2.308000 255 0 0
-0.284472 0.291480 2.308000 255 0 0
-0.278536 0.291874 2.311000 255 0 0
-0.272582 0.292268 2.314000 255 0 0
-0.266496 0.292536 2.316000 255 0 0
-0.260511 0.292929 2.319000 255 0 0
-0.254508 0.293323 2.322000 255 0 0
-0.248595 0.293842 2.326000 255 0 0
-0.242451 0.294109 2.328000 255 0 0
-0.236701 0.294880 2.334000 255 0 0
-0.230719 0.295399 2.338000 255 0 0
-0.227114 0.299076 2.367000 255 0 0
-0.216265 0.293150 2.320000 255 0 0
-0.207935 0.290382 2.298000 255 0 0
-0.201127 0.289636 2.292000 255 0 0
-0.194097 0.288510 2.283000 255 0 0
-0.186375 0.286246 2.265000 255 0 0
-0.178591 0.283729 2.245000 255 0 0
-0.171301 0.281844 2.230000 255 0 0
-0.164758 0.281095 2.224000 255 0 0
-0.158319 0.280473 2.219000 255 0 0
-0.151906 0.279850 2.214000 255 0 0
-0.145455 0.279100 2.208000 255 0 0
-0.139036 0.278350 2.202000 255 0 0
-0.132830 0.277979 2.199000 255 0 0
-0.126467 0.277228 2.193000 255 0 0
-0.120302 0.276856 2.190000 255 0 0
-0.113891 0.275852 2.182000 255 0 0
-0.107821 0.275606 2.180000 255 0 0
-0.101621 0.274980 2.175000 255 0 0
-0.095623 0.274859 2.174000 255 0 0
-0.089631 0.274738 2.173000 255 0 0
-0.083567 0.274364 2.170000 255 0 0
-0.077627 0.274369 2.170000 255 0 0
-0.071587 0.273994 2.167000 255 0 0
-0.065623 0.273872 2.166000 255 0 0
-0.059665 0.273749 2.165000 255 0 0
-0.053737 0.273753 2.165000 255 0 0
-0.047831 0.273882 2.166000 255 0 0
-0.041919 0.274011 2.167000 255 0 0
-0.036002 0.274140 2.168000 255 0 0
-0.030079 0.274269 2.169000 255 0 0
-0.024150 0.274397 2.170000 255 0 0
-0.018216 0.274525 2.171000 255 0 0
-0.012293 0.275031 2.175000 255 0 0
-0.006343 0.275285 2.177000 255 0 0
-0.000381 0.275411 2.178000 255 0 0
0.005583 0.275411 2.178000 255 0 0
0.011553 0.275537 2.179000 255 0 0
0.017561 0.276169 2.184000 255 0 0
0.023607 0.276926 2.190000 255 0 0
0.029685 0.277683 2.196000 255 0 0
0.035780 0.278313 2.201000 255 0 0
0.041845 0.278564 2.203000 255 0 0
0.047964 0.279067 2.207000 255 0 0
0.054179 0.279949 2.214000 255 0 0
0.060431 0.280831 2.221000 255 0 0
0.066722 0.281712 2.228000 255 0 0
0.072888 0.281961 2.230000 255 0 0
0.079241 0.282841 2.237000 255 0 0
0.085746 0.284100 2.247000 255 0 0
0.092470 0.285865 2.261000 255 0 0
0.098921 0.286618 2.267000 255 0 0
0.105636 0.288003 2.278000 255 0 0
0.112509 0.289640 2.291000 255 0 0
0.119298 0.290897 2.301000 255 0 0
0.205149 0.287604 2.276000 255 0 0
0.211555 0.287845 2.278000 255 0 0
0.219022 0.289475 2.291000 255 0 0
0.225773 0.290094 2.296000 255 0 0
0.231843 0.289828 2.294000 255 0 0
0.238005 0.289689 2.293000 255 0 0
0.243948 0.289296 2.290000 255 0 0
0.250092 0.289156 2.289000 255 0 0
0.256342 0.289142 2.289000 255 0 0
0.262820 0.289380 2.291000 255 0 0
0.268956 0.289239 2.290000 255 0 0
-0.100378 0.220559 2.427962 255 255 0
-0.083787 0.220979 2.426268 255 255 0
-0.071510 0.220652 2.421761 255 255 0
-0.060107 0.220182 2.416727 255 255 0
-0.052998 0.218955 2.408824 255 255 0
-0.039915 0.218806 2.405039 255 255 0
-0.027706 0.218514 2.400723 255 255 0
-0.012105 0.218849 2.398818 255 255 0
0.000063 0.218578 2.394613 255 255 0
0.008810 0.217694 2.388079 255 255 0
0.011596 0.215726 2.377392 255 255 0
0.018629 0.214538 2.369700 255 255 0
0.026502 0.213512 2.362632 255 255 0
0.036908 0.212961 2.357407 255 255 0
0.043914 0.211788 2.349789 255 255 0
0.044995 0.209513 2.337922 255 255 0
0.045236 0.207076 2.325427 255 255 0
0.039580 0.203524 2.308605 255 255 0
0.037314 0.200600 2.294199 255 255 0
0.059983 0.189905 2.234235 255 255 0
0.117147 0.198501 2.264794 255 255 0
0.159992 0.204384 2.284832 255 255 0
0.182724 0.206387 2.289737 255 255 0
-0.252239 0.149763 2.338689 0 255 0
-0.248448 0.151660 2.348068 0 255 0
-0.217899 0.146963 2.338808 0 255 0
-0.162710 0.139155 2.324943 0 255 0
-0.170100 0.143848 2.342274 0 255 0
-0.175777 0.148107 2.358362 0 255 0
-0.176266 0.151096 2.370863 0 255 0
-0.182836 0.155547 2.387447 0 255 0
-0.183343 0.158525 2.399889 0 255 0
-0.169950 0.158163 2.403012 0 255 0
-0.160020 0.158647 2.408511 0 255 0
-0.154430 0.160177 2.416928 0 255 0
-0.152321 0.162537 2.427654 0 255 0
-0.096295 0.163716 2.452043 0 255 0
-0.088901 0.164879 2.459519 0 255 0
-0.082376 0.166251 2.467577 0 255 0
-0.308597 0.284131 2.300000 255 0 0
-0.303771 0.285506 2.311000 255 0 0
-0.297725 0.285769 2.313000 255 0 0
-0.291163 0.285538 2.311000 255 0 0
-0.284734 0.285430 2.310000 255 0 0
-0.278551 0.285569 2.311000 255 0 0
-0.272715 0.286078 2.315000 255 0 0
-0.266741 0.286463 2.318000 255 0 0
-0.260638 0.286725 2.320000 255 0 0
-0.254632 0.287110 2.323000 255 0 0
-0.248716 0.287618 2.327000 255 0 0
-0.242673 0.288002 2.330000 255 0 0
-0.236917 0.288757 2.336000 255 0 0
-0.231522 0.290007 2.346000 255 0 0
-0.227895 0.293604 2.375000 255 0 0
-0.216651 0.287312 2.324000 255 0 0
-0.207947 0.284110 2.298000 255 0 0
-0.200963 0.283132 2.290000 255 0 0
-0.194108 0.282278 2.283000 255 0 0
-0.186797 0.280681 2.270000 255 0 0
-0.179159 0.278466 2.252000 255 0 0
-0.171541 0.276127 2.233000 255 0 0
-0.164842 0.275147 2.225000 255 0 0
-0.158328 0.274414 2.219000 255 0 0
-0.152053 0.274052 2.216000 255 0 0
-0.145661 0.273443 2.211000 255 0 0
-0.139360 0.272956 2.207000 255 0 0
-0.133080 0.272469 2.203000 255 0 0
-0.126590 0.271488 2.195000 255 0 0
-0.120364 0.271000 2.191000 255 0 0
-0.113898 0.269894 2.182000 255 0 0
-0.107778 0.269529 2.179000 255 0 0
-0.101580 0.268917 2.174000 255 0 0
-0.095673 0.269046 2.175000 255 0 0
-0.089678 0.268928 2.174000 255 0 0
-0.083572 0.268438 2.170000 255 0 0
-0.077560 0.268196 2.168000 255 0 0
-0.071558 0.267953 2.166000 255 0 0
-0.065627 0.267957 2.166000 255 0 0
-0.059696 0.267960 2.166000 255 0 0
-0.053790 0.268088 2.167000 255 0 0
-0.047878 0.268214 2.168000 255 0 0
-0.041961 0.268341 2.169000 255 0 0
-0.036037 0.268467 2.170000 255 0 0
-0.030095 0.268469 2.170000 255 0 0
-0.024174 0.268718 2.172000 255 0 0
-0.018234 0.268843 2.173000 255 0 0
-0.012311 0.269462 2.178000 255 0 0
-0.006349 0.269587 2.179000 255 0 0
-0.000382 0.269710 2.180000 255 0 0
0.005589 0.269710 2.180000 255 0 0
0.011575 0.270081 2.183000 255 0 0
0.017594 0.270699 2.188000 255 0 0
0.023651 0.271440 2.194000 255 0 0
0.029727 0.272057 2.199000 255 0 0
0.035831 0.272673 2.204000 255 0 0
0.041904 0.272918 2.206000 255 0 0
0.048054 0.273534 2.211000 255 0 0
0.054207 0.274026 2.215000 255 0 0
0.060489 0.275012 2.223000 255 0 0
0.066666 0.275380 2.226000 255 0 0
0.072859 0.275747 2.229000 255 0 0
0.079316 0.276979 2.239000 255 0 0
0.085904 0.278459 2.251000 255 0 0
0.092557 0.279938 2.263000 255 0 0
0.099058 0.280798 2.270000 255 0 0
0.105828 0.282277 2.282000 255 0 0
0.112663 0.283755 2.294000 255 0 0
0.119460 0.284985 2.304000 255 0 0
0.207234 0.284235 2.299000 255 0 0
0.211752 0.281874 2.280000 255 0 0
0.218652 0.282727 2.287000 255 0 0
0.225491 0.283457 2.293000 255 0 0
0.231755 0.283444 2.293000 255 0 0
0.238019 0.283431 2.293000 255 0 0
0.243855 0.282923 2.289000 255 0 0
0.250106 0.282909 2.289000 255 0 0
0.256244 0.282772 2.288000 255 0 0
0.262491 0.282758 2.288000 255 0 0
0.268736 0.282743 2.288000 255 0 0
-0.093384 0.210736 2.433910 255 255 0
-0.077663 0.211044 2.431646 255 255 0
-0.064538 0.210900 2.427724 255 255 0
-0.054001 0.210302 2.422120 255 255 0
-0.046043 0.209243 2.414810 255 255 0
-0.026993 0.210220 2.415125 255 255 0
-0.015654 0.209804 2.410247 255 255 0
-0.003479 0.209553 2.406006 255 255 0
0.003570 0.208367 2.398263 255 255 0
0.014863 0.207974 2.393514 255 255 0
0.021043 0.206640 2.385229 255 255 0
0.025520 0.204991 2.375759 255 255 0
0.030843 0.203502 2.366898 255 255 0
0.037855 0.202335 2.359255 255 255 0
0.047397 0.201653 2.353455 255 255 0
0.047633 0.199211 2.340985 255 255 0
0.052939 0.197732 2.332167 255 255 0
0.043066 0.193346 2.312297 255 255 0
0.104708 0.185347 2.256437 255 255 0
0.148383 0.191512 2.277040 255 255 0
0.181962 0.195727 2.290208 255 255 0
-0.245385 0.140267 2.347162 0 255 0
-0.221749 0.137213 2.342744 0 255 0
-0.186855 0.131394 2.330670 0 255 0
-0.166595 0.129256 2.328908 0 255 0
-0.167061 0.132269 2.341481 0 255 0
-0.174459 0.136984 2.358756 0 255 0
-0.176677 0.140410 2.372441 0 255 0
-0.179770 0.144042 2.386680 0 255 0
-0.183743 0.147878 2.401466 0 255 0
-0.176435 0.148964 2.408664 0 255 0
-0.158689 0.147530 2.408954 0 255 0
-0.153098 0.149053 2.417384 0 255 0
-0.151857 0.151627 2.428691 0 255 0
-0.146260 0.153155 2.437137 0 255 0
-0.131937 0.152604 2.439921 0 255 0
-0.126324 0.154145 2.448423 0 255 0
-0.114591 0.154239 2.453001 0 255 0
-0.309419 0.278581 2.306000 255 0 0
-0.303918 0.279321 2.312000 255 0 0
-0.297740 0.279458 2.313000 255 0 0
-0.291304 0.279353 2.312000 255 0 0
-0.284996 0.279368 2.312000 255 0 0
-0.278686 0.279383 2.312000 255 0 0
-0.272730 0.279760 2.315000 255 0 0
-0.266640 0.280016 2.317000 255 0 0
-0.260652 0.280393 2.320000 255 0 0
-0.254865 0.281011 2.325000 255 0 0
-0.249157 0.281750 2.331000 255 0 0
-0.243207 0.282247 2.335000 255 0 0
-0.237336 0.282864 2.340000 255 0 0
-0.232324 0.284570 2.354000 255 0 0
-0.228963 0.288451 2.386000 255 0 0
-0.216383 0.280605 2.321000 255 0 0
-0.208049 0.277957 2.299000 255 0 0
-0.200975 0.276880 2.290000 255 0 0
-0.194119 0.276045 2.283000 255 0 0
-0.186972 0.274725 2.272000 255 0 0
-0.179328 0.272559 2.254000 255 0 0
-0.171781 0.270392 2.236000 255 0 0
-0.164925 0.269192 2.226000 255 0 0
-0.158480 0.268597 2.221000 255 0 0
-0.152130 0.268122 2.217000 255 0 0
-0.145735 0.267526 2.212000 255 0 0
-0.139305 0.266808 2.206000 255 0 0
-0.133027 0.266332 2.202000 255 0 0
-0.126655 0.265614 2.196000 255 0 0
-0.120426 0.265137 2.192000 255 0 0
-0.113957 0.264055 2.183000 255 0 0
-0.107833 0.263699 2.180000 255 0 0
-0.101726 0.263342 2.177000 255 0 0
-0.095723 0.263227 2.176000 255 0 0
-0.089683 0.262990 2.174000 255 0 0
-0.083577 0.262511 2.170000 255 0 0
-0.077600 0.262395 2.169000 255 0 0
-0.071562 0.262036 2.166000 255 0 0
-0.065661 0.262161 2.167000 255 0 0
-0.059755 0.262286 2.168000 255 0 0
-0.053818 0.262289 2.168000 255 0 0
-0.047903 0.262413 2.169000 255 0 0
-0.041983 0.262537 2.170000 255 0 0
-0.036056 0.262660 2.171000 255 0 0
-0.030124 0.262783 2.172000 255 0 0
-0.024198 0.263027 2.174000 255 0 0
-0.018252 0.263149 2.175000 255 0 0
-0.012306 0.263392 2.177000 255 0 0
-0.006341 0.263271 2.176000 255 0 0
-0.000381 0.263514 2.178000 255 0 0
0.005592 0.263876 2.181000 255 0 0
0.011597 0.264602 2.187000 255 0 0
0.017627 0.265206 2.192000 255 0 0
0.023696 0.265931 2.198000 255 0 0
0.029756 0.266292 2.201000 255 0 0
0.035849 0.266774 2.205000 255 0 0
0.041945 0.267135 2.208000 255 0 0
0.048122 0.267858 2.214000 255 0 0
0.054308 0.268460 2.219000 255 0 0
0.060547 0.269182 2.225000 255 0 0
0.066730 0.269542 2.228000 255 0 0
0.072994 0.270142 2.233000 255 0 0
0.079463 0.271348 2.243000 255 0 0
0.085985 0.272553 2.253000 255 0 0
0.092481 0.273515 2.261000 255 0 0
0.099151 0.274840 2.272000 255 0 0
0.105927 0.276286 2.284000 255 0 0
0.112866 0.277973 2.298000 255 0 0
0.119415 0.278571 2.303000 255 0 0
0.206074 0.276387 2.286000 255 0 0
0.212414 0.276496 2.287000 255 0 0
0.219142 0.277088 2.292000 255 0 0
0.225503 0.277197 2.293000 255 0 0
0.231768 0.277185 2.293000 255 0 0
0.237928 0.277051 2.292000 255 0 0
0.243869 0.276675 2.289000 255 0 0
0.250010 0.276541 2.288000 255 0 0
0.256370 0.276648 2.289000 255 0 0
0.262619 0.276634 2.289000 255 0 0
0.267928 0.275653 2.281000 255 0 0
-0.102988 0.200451 2.441611 255 255 0
-0.091543 0.200003 2.436423 255 255 0
-0.075829 0.200348 2.434152 255 255 0
-0.060997 0.200549 2.431375 255 255 0
-0.047899 0.200446 2.427508 255 255 0
-0.038239 0.199721 2.421370 255 255 0
-0.020911 0.200431 2.420524 255 255 0
-0.008727 0.200200 2.416241 255 255 0
0.002585 0.199819 2.411419 255 255 0
0.008777 0.198486 2.403095 255 255 0
0.020063 0.198119 2.398351 255 255 0
0.025389 0.196634 2.389477 255 255 0
0.029014 0.194828 2.379416 255 255 0
0.032640 0.193022 2.369355 255 255 0
0.035418 0.191054 2.358691 255 255 0
0.043271 0.190063 2.351661 255 255 0
0.046048 0.188097 2.341003 255 255 0
0.055574 0.187440 2.335232 255 255 0
0.051606 0.184164 2.319673 255 255 0
0.066093 0.169379 2.241070 255 255 0
0.097298 0.173111 2.251904 255 255 0
0.136788 0.178555 2.269268 255 255 0
0.175366 0.183869 2.286208 255 255 0
-0.262477 0.131107 2.348353 0 255 0
-0.249218 0.130591 2.351085 0 255 0
-0.195038 0.122645 2.337611 0 255 0
-0.176522 0.120885 2.337035 0 255 0
-0.173536 0.123038 2.347212 0 255 0
-0.177471 0.126917 2.362106 0 255 0
-0.176223 0.129497 2.373435 0 255 0
-0.173245 0.131646 2.383582 0 255 0
-0.174604 0.134866 2.396641 0 255 0
-0.169026 0.136373 2.405035 0 255 0
-0.156493 0.136178 2.408826 0 255 0
-0.147423 0.136846 2.414972 0 255 0
-0.145303 0.139218 2.425729 0 255 0
-0.142315 0.141378 2.435910 0 255 0
-0.127121 0.140586 2.438154 0 255 0
-0.121505 0.142123 2.446677 0 255 0
-0.112391 0.142824 2.452968 0 255 0
-0.309971 0.272761 2.310000 255 0 0
-0.303934 0.273012 2.312000 255 0 0
-0.297756 0.273146 2.313000 255 0 0
-0.291571 0.273279 2.314000 255 0 0
-0.285011 0.273058 2.312000 255 0 0
-0.278822 0.273191 2.313000 255 0 0
-0.272744 0.273441 2.315000 255 0 0
-0.266885 0.273928 2.319000 255 0 0
-0.261003 0.274414 2.323000 255 0 0
-0.255207 0.275019 2.328000 255 0 0
-0.249384 0.275623 2.333000 255 0 0
-0.243741 0.276463 2.340000 255 0 0
-0.237957 0.277185 2.346000 255 0 0
-0.227536 0.280164 2.371000 255 0 0
-0.216488 0.274386 2.322000 255 0 0
-0.208332 0.272034 2.302000 255 0 0
-0.201074 0.270745 2.291000 255 0 0
-0.194045 0.269692 2.282000 255 0 0
-0.186900 0.268403 2.271000 255 0 0
-0.179497 0.266640 2.256000 255 0 0
-0.172021 0.264641 2.239000 255 0 0
-0.165083 0.263350 2.228000 255 0 0
-0.158703 0.262886 2.224000 255 0 0
-0.152413 0.262540 2.221000 255 0 0
-0.146007 0.261957 2.216000 255 0 0
-0.139376 0.260901 2.207000 255 0 0
-0.133095 0.260436 2.203000 255 0 0
-0.126778 0.259852 2.198000 255 0 0
-0.120488 0.259268 2.193000 255 0 0
-0.114068 0.258329 2.185000 255 0 0
-0.107889 0.257862 2.181000 255 0 0
-0.101825 0.257632 2.179000 255 0 0
-0.095772 0.257401 2.177000 255 0 0
-0.089771 0.257288 2.176000 255 0 0
-0.083697 0.256938 2.173000 255 0 0
-0.077783 0.257061 2.174000 255 0 0
-0.071731 0.256711 2.171000 255 0 0
-0.065756 0.256596 2.170000 255 0 0
-0.059786 0.256482 2.169000 255 0 0
-0.053846 0.256485 2.169000 255 0 0
-0.047906 0.256488 2.169000 255 0 0
-0.041966 0.256490 2.169000 255 0 0
-0.036058 0.256729 2.171000 255 0 0
-0.030140 0.256967 2.173000 255 0 0
-0.024233 0.257442 2.177000 255 0 0
-0.018261 0.257325 2.176000 255 0 0
-0.012313 0.257562 2.178000 255 0 0
-0.006341 0.257326 2.176000 255 0 0
-0.000382 0.257800 2.180000 255 0 0
0.005600 0.258273 2.184000 255 0 0
0.011619 0.259100 2.191000 255 0 0
0.017661 0.259690 2.196000 255 0 0
0.023719 0.260162 2.200000 255 0 0
0.029785 0.260515 2.203000 255 0 0
0.035884 0.260986 2.207000 255 0 0
0.042004 0.261457 2.211000 255 0 0
0.048190 0.262164 2.217000 255 0 0
0.054335 0.262516 2.220000 255 0 0
0.060524 0.262986 2.224000 255 0 0
0.066764 0.263573 2.229000 255 0 0
0.073064 0.264279 2.235000 255 0 0
0.079609 0.265693 2.247000 255 0 0
0.085990 0.266398 2.253000 255 0 0
0.092486 0.267339 2.261000 255 0 0
0.099287 0.268989 2.275000 255 0 0
0.106211 0.270757 2.290000 255 0 0
0.113118 0.272287 2.303000 255 0 0
0.119733 0.272990 2.309000 255 0 0
0.205454 0.269317 2.279000 255 0 0
0.212890 0.270842 2.292000 255 0 0
0.219632 0.271421 2.297000 255 0 0
0.225909 0.271409 2.297000 255 0 0
0.231882 0.271043 2.294000 255 0 0
0.237733 0.270557 2.290000 255 0 0
0.243775 0.270308 2.288000 255 0 0
0.249915 0.270177 2.287000 255 0 0
0.256160 0.270164 2.287000 255 0 0
0.262175 0.269914 2.285000 255 0 0
0.266768 0.268246 2.271000 255 0 0
0.270202 0.265515 2.248000 255 0 0
-0.118054 0.191672 2.458598 255 255 0
-0.104007 0.191709 2.455027 255 255 0
-0.096851 0.190487 2.446972 255 255 0
-0.084557 0.190225 2.442363 255 255 0
-0.069711 0.190450 2.439524 255 255 0
-0.050610 0.191488 2.439631 255 255 0
-0.036672 0.191580 2.436360 255 255 0
-0.030441 0.190234 2.427923 255 255 0
-0.016539 0.190344 2.424751 255 255 0
-0.006068 0.189817 2.419298 255 255 0
0.000133 0.188487 2.410944 255 255 0
0.012280 0.188299 2.406741 255 255 0
0.024409 0.188121 2.402590 255 255 0
0.038217 0.188279 2.399680 255 255 0
0.040982 0.186315 2.389053 255 255 0
0.042903 0.184186 2.377821 255 255 0
0.041444 0.181396 2.364167 255 255 0
0.042531 0.179097 2.352300 255 255 0
0.045310 0.177128 2.341635 255 255 0
0.050621 0.175657 2.332798 255 255 0
0.071236 0.159553 2.246063 255 255 0
0.095742 0.162009 2.251820 255 255 0
0.136884 0.167906 2.270420 255 255 0
0.167947 0.171788 2.281584 255 255 0
-0.266300 0.121473 2.352271 0 255 0
-0.244442 0.118715 2.348988 0 255 0
-0.214797 0.113997 2.340421 0 255 0
-0.196316 0.112172 2.339769 0 255 0
-0.185576 0.112341 2.344555 0 255 0
-0.184324 0.114927 2.355894 0 255 0
-0.178753 0.116420 2.364277 0 255 0
-0.180100 0.119658 2.377366 0 255 0
-0.177123 0.121806 2.387508 0 255 0
-0.173281 0.123737 2.397069 0 255 0
-0.169437 0.125670 2.406632 0 255 0
-0.159513 0.126094 2.412165 0 255 0
-0.153054 0.127389 2.420034 0 255 0
-0.144849 0.128259 2.426779 0 255 0
-0.137506 0.129350 2.434124 0 255 0
-0.128413 0.130019 2.440361 0 255 0
-0.118438 0.130484 2.446070 0 255 0
-0.112814 0.132020 2.454625 0 255 0
-0.309853 0.266341 2.309000 255 0 0
-0.303818 0.266587 2.311000 255 0 0
-0.297642 0.266717 2.312000 255 0 0
-0.291460 0.266848 2.313000 255 0 0
-0.285149 0.266862 2.313000 255 0 0
-0.278957 0.266992 2.314000 255 0 0
-0.272876 0.267237 2.316000 255 0 0
-0.267014 0.267713 2.320000 255 0 0
-0.261241 0.268303 2.325000 255 0 0
-0.255440 0.268894 2.330000 255 0 0
-0.249504 0.269369 2.334000 255 0 0
-0.243962 0.270305 2.342000 255 0 0
-0.238477 0.271356 2.351000 255 0 0
-0.233633 0.273215 2.367000 255 0 0
-0.226685 0.272651 2.362000 255 0 0
-0.216500 0.268045 2.322000 255 0 0
-0.208524 0.265978 2.304000 255 0 0
-0.201172 0.264604 2.292000 255 0 0
-0.193971 0.263345 2.281000 255 0 0
-0.186828 0.262085 2.270000 255 0 0
-0.179348 0.260248 2.254000 255 0 0
-0.172184 0.258756 2.241000 255 0 0
-0.165314 0.257611 2.231000 255 0 0
-0.158926 0.257157 2.227000 255 0 0
-0.152559 0.256704 2.223000 255 0 0
-0.146081 0.256019 2.217000 255 0 0
-0.139510 0.255103 2.209000 255 0 0
-0.133223 0.254649 2.205000 255 0 0
-0.126958 0.254194 2.201000 255 0 0
-0.120659 0.253624 2.196000 255 0 0
-0.114387 0.253053 2.191000 255 0 0
-0.108142 0.252481 2.186000 255 0 0
-0.102111 0.252372 2.185000 255 0 0
-0.095865 0.251684 2.179000 255 0 0
-0.089858 0.251574 2.178000 255 0 0
-0.083779 0.251232 2.175000 255 0 0
-0.077931 0.251583 2.178000 255 0 0
-0.071901 0.251356 2.176000 255 0 0
-0.065911 0.251245 2.175000 255 0 0
-0.059872 0.250902 2.172000 255 0 0
-0.053874 0.250674 2.170000 255 0 0
-0.047931 0.250677 2.170000 255 0 0
-0.042007 0.250795 2.171000 255 0 0
-0.036127 0.251259 2.175000 255 0 0
-0.030183 0.251376 2.176000 255 0 0
-0.024256 0.251725 2.179000 255 0 0
-0.018279 0.251610 2.178000 255 0 0
-0.012325 0.251842 2.180000 255 0 0
-0.006347 0.251612 2.178000 255 0 0
-0.000382 0.252189 2.183000 255 0 0
0.005605 0.252536 2.186000 255 0 0
0.011630 0.253344 2.193000 255 0 0
0.017678 0.253921 2.198000 255 0 0
0.023731 0.254266 2.201000 255 0 0
0.029800 0.254611 2.204000 255 0 0
0.035918 0.255187 2.209000 255 0 0
0.042045 0.255647 2.213000 255 0 0
0.048193 0.256106 2.217000 255 0 0
0.054338 0.256450 2.220000 255 0 0
0.060527 0.256909 2.224000 255 0 0
0.066828 0.257714 2.231000 255 0 0
0.073199 0.258634 2.239000 255 0 0
0.079578 0.259438 2.246000 255 0 0
0.085957 0.260127 2.252000 255 0 0
0.092532 0.261277 2.262000 255 0 0
0.099511 0.263351 2.280000 255 0 0
0.106356 0.264847 2.293000 255 0 0
0.113223 0.266227 2.305000 255 0 0
0.119740 0.266682 2.309000 255 0 0
0.206006 0.263786 2.285000 255 0 0
0.213366 0.265161 2.297000 255 0 0
0.219740 0.265264 2.298000 255 0 0
0.225921 0.265137 2.297000 255 0 0
0.231490 0.264317 2.290000 255 0 0
0.237434 0.263958 2.287000 255 0 0
0.243575 0.263830 2.286000 255 0 0
0.249928 0.263933 2.287000 255 0 0
0.256173 0.263920 2.287000 255 0 0
0.262303 0.263791 2.286000 255 0 0
0.265490 0.260777 2.260000 255 0 0
-0.111905 0.181685 2.463938 255 255 0
-0.103022 0.180791 2.456982 255 255 0
-0.091577 0.180387 2.451760 255 255 0
-0.081862 0.179668 2.445444 255 255 0
-0.064454 0.180415 2.444318 255 255 0
-0.046221 0.181340 2.443849 255 255 0
-0.031436 0.181628 2.441156 255 255 0
-0.020943 0.181110 2.435628 255 255 0
-0.014728 0.179780 2.427227 255 255 0
-0.005964 0.178946 2.420599 255 255 0
-0.001464 0.177294 2.411063 255 255 0
0.013231 0.177627 2.408614 255 255 0
0.028752 0.178138 2.406826 255 255 0
0.038311 0.177498 2.400939 255 255 0
0.045316 0.176365 2.393298 255 255 0
0.045541 0.173898 2.380874 255 255 0
0.047465 0.171763 2.369637 255 255 0
0.046015 0.168955 2.355968 255 255 0
0.049637 0.167153 2.345918 255 255 0
0.051573 0.165014 2.334646 255 255 0
0.091985 0.155506 2.275559 255 255 0
0.088072 0.152162 2.259875 255 255 0
0.105039 0.153136 2.259967 255 255 0
0.148654 0.159674 2.280468 255 255 0
0.168032 0.161213 2.282713 255 255 0
-0.254650 0.107815 2.345320 0 255 0
-0.232792 0.105009 2.342092 0 255 0
-0.209180 0.101781 2.337778 0 255 0
-0.199319 0.102139 2.343121 0 255 0
-0.192897 0.103393 2.350878 0 255 0
-0.185606 0.104431 2.358063 0 255 0
-0.178308 0.105475 2.365272 0 255 0
-0.183973 0.109829 2.381294 0 255 0
-0.183595 0.112634 2.393181 0 255 0
-0.174560 0.113244 2.399244 0 255 0
-0.164647 0.113643 2.404762 0 255 0
-0.161664 0.115797 2.414927 0 255 0
-0.157812 0.117734 2.424518 0 255 0
-0.151352 0.119020 2.432401 0 255 0
-0.142276 0.119662 2.438600 0 255 0
-0.135801 0.120960 2.446531 0 255 0
-0.122349 0.120538 2.449977 0 255 0
-0.116728 0.122065 2.458529 0 255 0
-0.303964 0.260391 2.312000 255 0 0
-0.297657 0.260406 2.312000 255 0 0
-0.291601 0.260646 2.314000 255 0 0
-0.285286 0.260661 2.314000 255 0 0
-0.279333 0.261013 2.317000 255 0 0
-0.273243 0.261252 2.319000 255 0 0
-0.267603 0.261941 2.325000 255 0 0
-0.261704 0.262406 2.329000 255 0 0
-0.255673 0.262757 2.332000 255 0 0
-0.249517 0.262995 2.334000 255 0 0
-0.243975 0.263909 2.342000 255 0 0
-0.239098 0.265612 2.357000 255 0 0
-0.233743 0.266864 2.368000 255 0 0
-0.225449 0.264735 2.349000 255 0 0
-0.216884 0.262154 2.326000 255 0 0
-0.208806 0.260024 2.307000 255 0 0
-0.201183 0.258344 2.292000 255 0 0
-0.193896 0.257001 2.280000 255 0 0
-0.186756 0.255772 2.269000 255 0 0
-0.179357 0.254090 2.254000 255 0 0
-0.172271 0.252747 2.242000 255 0 0
-0.165619 0.251967 2.235000 255 0 0
-0.159220 0.251525 2.231000 255 0 0
-0.152910 0.251195 2.228000 255 0 0
-0.146353 0.250413 2.221000 255 0 0
-0.139770 0.249519 2.213000 255 0 0
-0.133351 0.248850 2.207000 255 0 0
-0.127080 0.248406 2.203000 255 0 0
-0.120831 0.247962 2.199000 255 0 0
-0.114602 0.247517 2.195000 255 0 0
-0.108297 0.246846 2.189000 255 0 0
-0.102117 0.246401 2.185000 255 0 0
-0.095915 0.245843 2.180000 255 0 0
-0.089863 0.245622 2.178000 255 0 0
-0.083822 0.245401 2.176000 255 0 0
-0.077935 0.245631 2.178000 255 0 0
-0.071938 0.245523 2.177000 255 0 0
-0.065945 0.245414 2.176000 255 0 0
-0.059931 0.245192 2.174000 255 0 0
-0.053952 0.245082 2.173000 255 0 0
-0.048022 0.245198 2.174000 255 0 0
-0.042067 0.245200 2.174000 255 0 0
-0.036145 0.245428 2.176000 255 0 0
-0.030185 0.245430 2.176000 255 0 0
-0.024258 0.245770 2.179000 255 0 0
-0.018280 0.245658 2.178000 255 0 0
-0.012331 0.245997 2.181000 255 0 0
-0.006353 0.245885 2.180000 255 0 0
-0.000383 0.246562 2.186000 255 0 0
0.005616 0.247013 2.190000 255 0 0
0.011642 0.247576 2.195000 255 0 0
0.017687 0.248027 2.199000 255 0 0
0.023754 0.248477 2.203000 255 0 0
0.029842 0.248926 2.207000 255 0 0
0.035985 0.249601 2.213000 255 0 0
