ply
format ascii 1.0
element vertex 1327
property double x
property double y
property double z
property uchar red
property uchar green
property uchar blue
end_header
-0.000370 0.458760 2.121000 255 0 0
0.005424 0.458760 2.121000 255 0 0
0.011245 0.459840 2.126000 255 0 0
0.017053 0.459839 2.126000 255 0 0
0.022893 0.460486 2.129000 255 0 0
0.028709 0.460484 2.129000 255 0 0
0.034541 0.460698 2.130000 255 0 0
0.040397 0.461127 2.132000 255 0 0
0.046308 0.461989 2.136000 255 0 0
0.052191 0.462417 2.138000 255 0 0
0.058086 0.462845 2.140000 255 0 0
0.063961 0.463056 2.141000 255 0 0
0.069809 0.463051 2.141000 255 0 0
0.075797 0.463910 2.145000 255 0 0
0.081732 0.464336 2.147000 255 0 0
0.087636 0.464545 2.148000 255 0 0
0.093458 0.464321 2.147000 255 0 0
0.099460 0.464962 2.150000 255 0 0
0.105576 0.466035 2.155000 255 0 0
0.111615 0.466675 2.158000 255 0 0
0.117616 0.467098 2.160000 255 0 0
0.123856 0.468386 2.166000 255 0 0
0.130069 0.469457 2.171000 255 0 0
0.136183 0.470094 2.174000 255 0 0
0.142313 0.470732 2.177000 255 0 0
-0.126436 0.562336 2.279042 255 255 0
-0.111457 0.561374 2.276706 255 255 0
-0.095637 0.560494 2.275051 255 255 0
-0.081571 0.559488 2.272230 255 255 0
-0.063209 0.558845 2.272571 255 255 0
-0.039701 0.558641 2.276735 255 255 0
-0.022267 0.557961 2.276636 255 255 0
-0.020362 0.556009 2.265316 255 255 0
-0.013292 0.554487 2.257767 255 255 0
0.005800 0.553984 2.259098 255 255 0
0.017992 0.552915 2.255436 255 255 0
0.025023 0.551416 2.247997 255 255 0
0.030332 0.549773 2.239296 255 255 0
0.050184 0.549395 2.241534 255 255 0
0.064873 0.548587 2.239993 255 255 0
0.067585 0.546739 2.229446 255 255 0
0.072858 0.545118 2.220845 255 255 0
0.077275 0.543424 2.211599 255 255 0
0.079138 0.541502 2.200391 255 255 0
-0.274997 0.478938 2.231916 0 255 0
-0.269494 0.480598 2.239814 0 255 0
-0.258733 0.481472 2.243870 0 255 0
-0.255847 0.483537 2.253726 0 255 0
-0.248576 0.484951 2.260394 0 255 0
-0.244810 0.486890 2.269621 0 255 0
-0.220834 0.485854 2.264318 0 255 0
-0.211771 0.487036 2.269834 0 255 0
-0.200939 0.487970 2.274128 0 255 0
-0.191855 0.489170 2.279715 0 255 0
-0.176589 0.489488 2.280983 0 255 0
-0.158656 0.489441 2.280463 0 255 0
-0.148646 0.490549 2.285577 0 255 0
-0.139508 0.491792 2.291343 0 255 0
-0.131244 0.493170 2.297755 0 255 0
-0.118545 0.493931 2.301150 0 255 0
-0.104943 0.494581 2.303993 0 255 0
-0.094871 0.495739 2.309311 0 255 0
-0.081236 0.496414 2.312263 0 255 0
-0.331230 0.470246 2.205000 255 0 0
-0.323903 0.468349 2.196000 255 0 0
-0.317348 0.467519 2.192000 255 0 0
-0.310672 0.466475 2.187000 255 0 0
-0.303744 0.465003 2.180000 255 0 0
-0.297263 0.464172 2.176000 255 0 0
-0.291205 0.463980 2.175000 255 0 0
-0.285414 0.464214 2.176000 255 0 0
-0.279231 0.463808 2.174000 255 0 0
-0.272807 0.462975 2.170000 255 0 0
-0.266035 0.461501 2.163000 255 0 0
-0.259542 0.460454 2.158000 255 0 0
-0.253662 0.460473 2.158000 255 0 0
-0.247667 0.460279 2.157000 255 0 0
-0.241340 0.459444 2.153000 255 0 0
-0.235144 0.458821 2.150000 255 0 0
-0.228964 0.458199 2.147000 255 0 0
-0.223007 0.458003 2.146000 255 0 0
-0.216752 0.457166 2.142000 255 0 0
-0.210616 0.456542 2.139000 255 0 0
-0.204592 0.456131 2.137000 255 0 0
-0.198671 0.455934 2.136000 255 0 0
-0.192935 0.456162 2.137000 255 0 0
-0.187018 0.455964 2.136000 255 0 0
-0.181022 0.455551 2.134000 255 0 0
-0.174954 0.454925 2.131000 255 0 0
-0.169060 0.454725 2.130000 255 0 0
-0.163325 0.454952 2.131000 255 0 0
-0.157657 0.455392 2.133000 255 0 0
-0.151978 0.455831 2.135000 255 0 0
-0.146151 0.455843 2.135000 255 0 0
-0.140258 0.455641 2.134000 255 0 0
-0.134432 0.455652 2.134000 255 0 0
-0.128607 0.455663 2.134000 255 0 0
-0.122723 0.455460 2.133000 255 0 0
-0.116899 0.455470 2.133000 255 0 0
-0.110971 0.455052 2.131000 255 0 0
-0.105103 0.454847 2.130000 255 0 0
-0.099100 0.454001 2.126000 255 0 0
-0.093250 0.453796 2.125000 255 0 0
-0.087282 0.452949 2.121000 255 0 0
-0.081374 0.452315 2.118000 255 0 0
-0.075553 0.452108 2.117000 255 0 0
-0.069738 0.451900 2.116000 255 0 0
-0.063988 0.452120 2.117000 255 0 0
-0.058178 0.451911 2.116000 255 0 0
-0.052447 0.452343 2.118000 255 0 0
-0.046705 0.452774 2.120000 255 0 0
-0.040933 0.452991 2.121000 255 0 0
-0.035138 0.452994 2.121000 255 0 0
-0.029344 0.452997 2.121000 255 0 0
-0.023549 0.452999 2.121000 255 0 0
-0.017746 0.452787 2.120000 255 0 0
-0.011954 0.452789 2.120000 255 0 0
-0.006159 0.452576 2.119000 255 0 0
-0.000370 0.453217 2.122000 255 0 0
0.005427 0.453217 2.122000 255 0 0
0.011246 0.454070 2.126000 255 0 0
0.017054 0.454069 2.126000 255 0 0
0.022884 0.454495 2.128000 255 0 0
0.028725 0.454920 2.130000 255 0 0
0.034576 0.455344 2.132000 255 0 0
0.040439 0.455768 2.134000 255 0 0
0.046312 0.456192 2.136000 255 0 0
0.052245 0.457042 2.140000 255 0 0
0.058145 0.457464 2.142000 255 0 0
0.063996 0.457459 2.142000 255 0 0
0.069847 0.457454 2.142000 255 0 0
0.075839 0.458302 2.146000 255 0 0
0.081739 0.458509 2.147000 255 0 0
0.087725 0.459143 2.150000 255 0 0
0.093597 0.459135 2.150000 255 0 0
0.099607 0.459768 2.153000 255 0 0
0.105633 0.460400 2.156000 255 0 0
0.111676 0.461032 2.159000 255 0 0
0.117789 0.461877 2.163000 255 0 0
0.124038 0.463148 2.169000 255 0 0
0.130259 0.464205 2.174000 255 0 0
0.136382 0.464835 2.177000 255 0 0
0.142586 0.465678 2.181000 255 0 0
0.148880 0.466734 2.186000 255 0 0
-0.132654 0.553149 2.288806 255 255 0
-0.116798 0.552283 2.287028 255 255 0
-0.104432 0.551145 2.282871 255 255 0
-0.089489 0.550232 2.280609 255 255 0
-0.078026 0.549043 2.275942 255 255 0
-0.060536 0.548371 2.275660 255 255 0
-0.018753 0.547664 2.280331 255 255 0
-0.010825 0.546226 2.273408 255 255 0
-0.001186 0.544943 2.267771 255 255 0
0.011876 0.543966 2.264696 255 255 0
0.018912 0.542472 2.257233 255 255 0
0.023370 0.540755 2.247877 255 255 0
0.030394 0.539268 2.240445 255 255 0
0.049384 0.538862 2.242025 255 255 0
0.069195 0.538550 2.244339 255 255 0
0.077025 0.537167 2.237686 255 255 0
0.080583 0.535399 2.227807 255 255 0
0.083291 0.533553 2.217275 255 255 0
0.086000 0.531706 2.206736 255 255 0
0.066618 0.527792 2.179099 255 255 0
-0.268318 0.467702 2.228128 0 255 0
-0.261936 0.469225 2.235408 0 255 0
-0.253798 0.470486 2.241422 0 255 0
-0.253533 0.472957 2.253212 0 255 0
-0.245385 0.474227 2.259258 0 255 0
-0.240737 0.476035 2.267867 0 255 0
-0.217647 0.475073 2.263228 0 255 0
-0.207705 0.476110 2.268133 0 255 0
-0.195993 0.476894 2.271824 0 255 0
-0.190428 0.478602 2.279928 0 255 0
-0.175168 0.478886 2.281216 0 255 0
-0.164296 0.479833 2.285663 0 255 0
-0.155176 0.481048 2.291387 0 255 0
-0.145162 0.482143 2.296530 0 255 0
-0.132484 0.482864 2.299881 0 255 0
-0.117136 0.483216 2.301461 0 255 0
-0.105309 0.484091 2.305532 0 255 0
-0.097013 0.485482 2.312066 0 255 0
-0.082498 0.486001 2.314425 0 255 0
-0.070628 0.486911 2.318642 0 255 0
-0.055188 0.487333 2.320526 0 255 0
-0.331103 0.464052 2.204000 255 0 0
-0.323926 0.462391 2.196000 255 0 0
-0.317515 0.461782 2.193000 255 0 0
-0.310694 0.460540 2.187000 255 0 0
-0.303905 0.459299 2.181000 255 0 0
-0.297148 0.458056 2.175000 255 0 0
-0.291226 0.458078 2.175000 255 0 0
-0.285828 0.458941 2.179000 255 0 0
-0.280022 0.459172 2.180000 255 0 0
-0.273707 0.458561 2.177000 255 0 0
-0.266547 0.456474 2.167000 255 0 0
-0.259922 0.455230 2.161000 255 0 0
-0.253916 0.455038 2.160000 255 0 0
-0.247800 0.454636 2.158000 255 0 0
-0.241583 0.454022 2.155000 255 0 0
-0.235272 0.453197 2.151000 255 0 0
-0.229088 0.452583 2.148000 255 0 0
-0.223024 0.452179 2.146000 255 0 0
-0.216768 0.451353 2.142000 255 0 0
-0.210632 0.450737 2.139000 255 0 0
-0.204608 0.450332 2.137000 255 0 0
-0.198779 0.450347 2.137000 255 0 0
-0.192950 0.450362 2.137000 255 0 0
-0.187033 0.450167 2.136000 255 0 0
-0.181121 0.449970 2.135000 255 0 0
-0.175050 0.449352 2.132000 255 0 0
-0.169232 0.449366 2.132000 255 0 0
-0.163491 0.449590 2.133000 255 0 0
-0.157744 0.449813 2.134000 255 0 0
-0.151848 0.449615 2.133000 255 0 0
-0.146094 0.449837 2.134000 255 0 0
-0.140203 0.449638 2.133000 255 0 0
-0.134317 0.449438 2.132000 255 0 0
-0.128497 0.449449 2.132000 255 0 0
-0.122618 0.449248 2.131000 255 0 0
-0.116854 0.449469 2.132000 255 0 0
-0.110876 0.448846 2.129000 255 0 0
-0.105013 0.448644 2.128000 255 0 0
-0.099108 0.448230 2.126000 255 0 0
-0.093345 0.448449 2.127000 255 0 0
-0.087371 0.447613 2.123000 255 0 0
-0.081419 0.446777 2.119000 255 0 0
-0.075595 0.446572 2.118000 255 0 0
-0.069809 0.446578 2.118000 255 0 0
-0.064024 0.446584 2.118000 255 0 0
-0.058210 0.446378 2.117000 255 0 0
-0.052451 0.446593 2.118000 255 0 0
-0.046687 0.446808 2.119000 255 0 0
-0.040936 0.447234 2.121000 255 0 0
-0.035158 0.447448 2.122000 255 0 0
-0.029374 0.447661 2.123000 255 0 0
-0.023574 0.447664 2.123000 255 0 0
-0.017756 0.447243 2.121000 255 0 0
-0.011955 0.447034 2.120000 255 0 0
-0.006163 0.447035 2.120000 255 0 0
-0.000371 0.447668 2.123000 255 0 0
0.005433 0.447878 2.124000 255 0 0
0.011247 0.448299 2.126000 255 0 0
0.017064 0.448509 2.127000 255 0 0
0.022897 0.448929 2.129000 255 0 0
0.028754 0.449559 2.132000 255 0 0
0.034595 0.449768 2.133000 255 0 0
0.040480 0.450397 2.136000 255 0 0
0.046381 0.451026 2.139000 255 0 0
0.052273 0.451444 2.141000 255 0 0
0.058150 0.451650 2.142000 255 0 0
0.064001 0.451645 2.142000 255 0 0
0.069853 0.451639 2.142000 255 0 0
0.075845 0.452477 2.146000 255 0 0
0.081821 0.453103 2.149000 255 0 0
0.087814 0.453728 2.152000 255 0 0
0.093691 0.453721 2.152000 255 0 0
0.099754 0.454556 2.156000 255 0 0
0.105789 0.455180 2.159000 255 0 0
0.111840 0.455804 2.162000 255 0 0
0.117907 0.456427 2.165000 255 0 0
0.124048 0.457261 2.169000 255 0 0
0.130329 0.458515 2.175000 255 0 0
0.136455 0.459137 2.178000 255 0 0
0.142663 0.459969 2.182000 255 0 0
0.148824 0.460590 2.185000 255 0 0
-0.125612 0.542883 2.294948 255 255 0
-0.113234 0.541762 2.290740 255 255 0
-0.098277 0.540873 2.288417 255 255 0
-0.083345 0.539996 2.286160 255 255 0
-0.069299 0.539057 2.283351 255 255 0
-0.050962 0.538506 2.283699 255 255 0
-0.034379 0.537820 2.282887 255 255 0
-0.019545 0.536995 2.280903 255 255 0
-0.008176 0.535876 2.276477 255 255 0
0.006614 0.535074 2.274613 255 255 0
0.017089 0.533896 2.269655 255 255 0
0.024119 0.532415 2.262201 255 255 0
0.031142 0.530937 2.254765 255 255 0
0.036447 0.529306 2.246071 255 255 0
0.050295 0.528471 2.243803 255 255 0
0.066683 0.527888 2.243527 255 255 0
0.076221 0.526677 2.238152 255 255 0
0.081487 0.525069 2.229566 255 255 0
0.086748 0.523463 2.220988 255 255 0
0.084355 0.521125 2.206530 255 255 0
0.067536 0.517384 2.180872 255 255 0
-0.273874 0.458344 2.233395 0 255 0
-0.270992 0.460405 2.243239 0 255 0
-0.261989 0.461510 2.248594 0 255 0
-0.259103 0.463576 2.258448 0 255 0
-0.244828 0.463880 2.260037 0 255 0
-0.235796 0.465009 2.265488 0 255 0
-0.217100 0.464666 2.264037 0 255 0
-0.208917 0.465952 2.270209 0 255 0
-0.196331 0.466578 2.273283 0 255 0
-0.188127 0.467881 2.279525 0 255 0
-0.171990 0.467999 2.280212 0 255 0
-0.162881 0.469190 2.285916 0 255 0
-0.155526 0.470653 2.292884 0 255 0
-0.149929 0.472382 2.301099 0 255 0
-0.139027 0.473335 2.305669 0 255 0
-0.123690 0.473649 2.307243 0 255 0
-0.112757 0.474625 2.311913 0 255 0
-0.100926 0.475483 2.316025 0 255 0
-0.088193 0.476224 2.319585 0 255 0
-0.071007 0.476340 2.320214 0 255 0
-0.056462 0.476855 2.322708 0 255 0
-0.330525 0.457240 2.200000 255 0 0
-0.324243 0.456847 2.198000 255 0 0
-0.317972 0.456454 2.196000 255 0 0
-0.311143 0.455228 2.190000 255 0 0
-0.303927 0.453379 2.181000 255 0 0
-0.296896 0.451738 2.173000 255 0 0
-0.290979 0.451759 2.173000 255 0 0
-0.285718 0.452819 2.178000 255 0 0
-0.280428 0.453879 2.183000 255 0 0
-0.274608 0.454107 2.184000 255 0 0
-0.267551 0.452256 2.175000 255 0 0
-0.260422 0.450196 2.165000 255 0 0
-0.254053 0.449383 2.161000 255 0 0
-0.247934 0.448986 2.159000 255 0 0
-0.241713 0.448381 2.156000 255 0 0
-0.235289 0.447359 2.151000 255 0 0
-0.229212 0.446960 2.149000 255 0 0
-0.223145 0.446561 2.147000 255 0 0
-0.216886 0.445746 2.143000 255 0 0
-0.210944 0.445555 2.142000 255 0 0
-0.204815 0.444947 2.139000 255 0 0
-0.198888 0.444754 2.138000 255 0 0
-0.192875 0.444353 2.136000 255 0 0
-0.187048 0.444368 2.136000 255 0 0
-0.181305 0.444591 2.137000 255 0 0
-0.175392 0.444397 2.136000 255 0 0
-0.169484 0.444202 2.135000 255 0 0
-0.163580 0.444007 2.134000 255 0 0
-0.157682 0.443812 2.133000 255 0 0
-0.151860 0.443824 2.133000 255 0 0
-0.146106 0.444044 2.134000 255 0 0
-0.140215 0.443848 2.133000 255 0 0
-0.134265 0.443442 2.131000 255 0 0
-0.128507 0.443661 2.132000 255 0 0
-0.122570 0.443255 2.130000 255 0 0
-0.116754 0.443265 2.130000 255 0 0
-0.110781 0.442649 2.127000 255 0 0
-0.104972 0.442658 2.127000 255 0 0
-0.099163 0.442667 2.127000 255 0 0
-0.093353 0.442674 2.127000 255 0 0
-0.087461 0.442265 2.125000 255 0 0
-0.081502 0.441440 2.121000 255 0 0
-0.075637 0.441030 2.119000 255 0 0
-0.069881 0.441244 2.120000 255 0 0
-0.064120 0.441458 2.121000 255 0 0
-0.058297 0.441255 2.120000 255 0 0
-0.052505 0.441259 2.120000 255 0 0
-0.046735 0.441471 2.121000 255 0 0
-0.040959 0.441683 2.122000 255 0 0
-0.035177 0.441895 2.123000 255 0 0
-0.029404 0.442313 2.125000 255 0 0
-0.023587 0.442108 2.124000 255 0 0
-0.017758 0.441485 2.121000 255 0 0
-0.011951 0.441070 2.119000 255 0 0
-0.006166 0.441487 2.121000 255 0 0
-0.000371 0.442112 2.124000 255 0 0
0.005443 0.442944 2.128000 255 0 0
0.011258 0.442943 2.128000 255 0 0
0.017081 0.443150 2.129000 255 0 0
0.022909 0.443357 2.130000 255 0 0
0.028756 0.443771 2.132000 255 0 0
0.034631 0.444393 2.135000 255 0 0
0.040521 0.445014 2.138000 255 0 0
0.046450 0.445843 2.142000 255 0 0
0.052302 0.445839 2.142000 255 0 0
0.058182 0.446043 2.143000 255 0 0
0.063977 0.445621 2.141000 255 0 0
0.069924 0.446240 2.144000 255 0 0
0.075922 0.447067 2.148000 255 0 0
0.081942 0.447893 2.152000 255 0 0
0.087984 0.448718 2.156000 255 0 0
0.093917 0.448919 2.157000 255 0 0
0.099947 0.449535 2.160000 255 0 0
0.105945 0.449943 2.162000 255 0 0
0.112004 0.450559 2.165000 255 0 0
0.118080 0.451174 2.168000 255 0 0
0.124229 0.451996 2.172000 255 0 0
0.130400 0.452819 2.176000 255 0 0
0.136592 0.453640 2.180000 255 0 0
0.142805 0.454461 2.184000 255 0 0
0.149108 0.455490 2.189000 255 0 0
-0.118575 0.532647 2.301081 255 255 0
-0.107074 0.531479 2.296275 255 255 0
-0.093858 0.530472 2.292736 255 255 0
-0.072884 0.530171 2.294773 255 255 0
-0.058853 0.529267 2.291982 255 255 0
-0.044845 0.528375 2.289253 255 255 0
-0.037750 0.526867 2.281614 255 255 0
-0.025499 0.525837 2.277737 255 255 0
-0.018424 0.524340 2.270154 255 255 0
-0.000192 0.523885 2.270761 255 255 0
0.008572 0.522563 2.264513 255 255 0
0.019896 0.521489 2.260194 255 255 0
0.029492 0.520262 2.254647 255 255 0
0.034799 0.518634 2.245943 255 255 0
0.047791 0.517747 2.243018 255 255 0
0.060764 0.516871 2.240147 255 255 0
0.073716 0.516005 2.237330 255 255 0
0.078985 0.514400 2.228731 255 255 0
0.085951 0.512964 2.221442 255 255 0
0.084413 0.510690 2.207636 255 255 0
-0.269229 0.444836 2.219106 0 255 0
-0.272446 0.447885 2.233495 0 255 0
-0.273054 0.450508 2.245916 0 255 0
-0.270172 0.452570 2.255755 0 255 0
-0.261169 0.453662 2.261128 0 255 0
-0.251279 0.454624 2.265898 0 255 0
-0.238750 0.455182 2.268811 0 255 0
-0.224449 0.455478 2.270516 0 255 0
-0.215397 0.456609 2.276049 0 255 0
-0.202820 0.457204 2.279116 0 255 0
-0.191986 0.458083 2.283482 0 255 0
-0.174098 0.457892 2.282934 0 255 0
-0.164113 0.458931 2.288023 0 255 0
-0.154997 0.460113 2.293766 0 255 0
-0.152928 0.462371 2.304439 0 255 0
-0.144681 0.463698 2.310839 0 255 0
-0.129355 0.463975 2.312412 0 255 0
-0.120200 0.465189 2.318285 0 255 0
-0.104837 0.465493 2.319979 0 255 0
-0.089454 0.465813 2.321745 0 255 0
-0.069616 0.465498 2.320595 0 255 0
-0.054188 0.465853 2.322514 0 255 0
-0.341582 0.458014 2.233000 255 0 0
-0.330698 0.451473 2.201000 255 0 0
-0.324414 0.451086 2.199000 255 0 0
-0.318284 0.450903 2.198000 255 0 0
-0.311449 0.449694 2.192000 255 0 0
-0.303948 0.447459 2.181000 255 0 0
-0.296644 0.445429 2.171000 255 0 0
-0.291000 0.445860 2.173000 255 0 0
-0.285476 0.446496 2.176000 255 0 0
-0.280448 0.447953 2.183000 255 0 0
-0.275131 0.449000 2.188000 255 0 0
-0.268432 0.447788 2.182000 255 0 0
-0.261283 0.445755 2.172000 255 0 0
-0.254307 0.443927 2.163000 255 0 0
-0.248067 0.443330 2.160000 255 0 0
-0.241955 0.442938 2.158000 255 0 0
-0.235635 0.442135 2.154000 255 0 0
-0.229336 0.441331 2.150000 255 0 0
-0.223058 0.440527 2.146000 255 0 0
-0.216903 0.439928 2.143000 255 0 0
-0.211059 0.439945 2.143000 255 0 0
-0.205022 0.439550 2.141000 255 0 0
-0.199089 0.439360 2.140000 255 0 0
-0.193071 0.438965 2.138000 255 0 0
-0.187150 0.438774 2.137000 255 0 0
-0.181404 0.438994 2.138000 255 0 0
-0.175488 0.438802 2.137000 255 0 0
-0.169656 0.438816 2.137000 255 0 0
-0.163670 0.438418 2.135000 255 0 0
-0.157769 0.438226 2.134000 255 0 0
-0.151801 0.437827 2.132000 255 0 0
-0.146049 0.438044 2.133000 255 0 0
-0.140226 0.438056 2.133000 255 0 0
-0.134339 0.437861 2.132000 255 0 0
-0.128517 0.437872 2.132000 255 0 0
-0.122638 0.437677 2.131000 255 0 0
-0.116763 0.437481 2.130000 255 0 0
-0.110790 0.436874 2.127000 255 0 0
-0.104980 0.436882 2.127000 255 0 0
-0.099171 0.436891 2.127000 255 0 0
-0.093273 0.436488 2.125000 255 0 0
-0.087345 0.435879 2.122000 255 0 0
-0.081509 0.435680 2.121000 255 0 0
-0.075679 0.435481 2.120000 255 0 0
-0.069920 0.435693 2.121000 255 0 0
-0.064155 0.435904 2.122000 255 0 0
-0.058357 0.435909 2.122000 255 0 0
-0.052584 0.436119 2.123000 255 0 0
-0.046761 0.435917 2.122000 255 0 0
-0.040982 0.436126 2.123000 255 0 0
-0.035213 0.436540 2.125000 255 0 0
-0.029407 0.436543 2.125000 255 0 0
-0.023600 0.436545 2.125000 255 0 0
-0.017759 0.435725 2.121000 255 0 0
-0.011957 0.435521 2.120000 255 0 0
-0.006167 0.435727 2.121000 255 0 0
-0.000371 0.436344 2.124000 255 0 0
0.005444 0.437165 2.128000 255 0 0
0.011270 0.437575 2.130000 255 0 0
0.017099 0.437780 2.131000 255 0 0
0.022933 0.437983 2.132000 255 0 0
0.028772 0.438187 2.133000 255 0 0
0.034650 0.438800 2.136000 255 0 0
0.040562 0.439619 2.140000 255 0 0
0.046519 0.440643 2.145000 255 0 0
0.052404 0.440844 2.146000 255 0 0
0.058241 0.440634 2.145000 255 0 0
0.064042 0.440218 2.143000 255 0 0
0.069962 0.440623 2.145000 255 0 0
0.076034 0.441850 2.151000 255 0 0
0.082101 0.442871 2.156000 255 0 0
0.088114 0.443480 2.159000 255 0 0
0.094012 0.443473 2.159000 255 0 0
0.100048 0.444081 2.162000 255 0 0
0.106100 0.444689 2.165000 255 0 0
0.112169 0.445296 2.168000 255 0 0
0.118308 0.446108 2.172000 255 0 0
0.124296 0.446304 2.173000 255 0 0
0.130410 0.446910 2.176000 255 0 0
0.136540 0.447515 2.179000 255 0 0
0.142751 0.448326 2.183000 255 0 0
0.149120 0.449546 2.189000 255 0 0
0.155733 0.451383 2.198000 255 0 0
-0.117609 0.521894 2.302970 255 255 0
-0.107842 0.520591 2.296941 255 255 0
-0.092899 0.519770 2.294609 255 255 0
-0.070206 0.519679 2.297857 255 255 0
-0.053593 0.519048 2.296909 255 255 0
-0.036146 0.518511 2.296654 255 255 0
-0.032505 0.516693 2.286552 255 255 0
-0.021122 0.515609 2.282057 255 255 0
-0.018348 0.513714 2.271353 255 255 0
-0.000122 0.513302 2.271946 255 255 0
0.006068 0.511746 2.263797 255 255 0
0.019963 0.510944 2.261360 255 255 0
0.027846 0.509566 2.254535 255 255 0
0.034865 0.508110 2.247096 255 255 0
0.047000 0.507166 2.243519 255 255 0
0.059969 0.506317 2.240635 255 255 0
0.071216 0.505307 2.236515 255 255 0
0.076487 0.503704 2.227902 255 255 0
0.082606 0.502191 2.219949 255 255 0
0.083623 0.500159 2.208091 255 255 0
-0.276253 0.438263 2.237465 0 255 0
-0.282098 0.441750 2.253729 0 255 0
-0.278349 0.443667 2.262906 0 255 0
-0.271977 0.445161 2.270174 0 255 0
-0.260350 0.445816 2.273655 0 255 0
-0.246956 0.446201 2.275921 0 255 0
-0.231792 0.446321 2.276987 0 255 0
-0.217485 0.446596 2.278749 0 255 0
-0.204037 0.447025 2.281199 0 255 0
-0.192328 0.447743 2.284949 0 255 0
-0.176207 0.447785 2.285655 0 255 0
-0.166226 0.448803 2.290749 0 255 0
-0.152709 0.449285 2.293427 0 255 0
-0.150637 0.451549 2.304109 0 255 0
-0.139742 0.452457 2.308699 0 255 0
-0.127951 0.453242 2.312725 0 255 0
-0.117912 0.454306 2.318008 0 255 0
-0.107862 0.455380 2.323331 0 255 0
-0.096029 0.456197 2.327495 0 255 0
-0.076205 0.455831 2.326346 0 255 0
-0.059014 0.455882 2.327072 0 255 0
-0.343594 0.454583 2.246000 255 0 0
-0.331773 0.446915 2.208000 255 0 0
-0.324879 0.445723 2.202000 255 0 0
-0.318451 0.445138 2.199000 255 0 0
-0.311897 0.444351 2.195000 255 0 0
-0.304667 0.442550 2.186000 255 0 0
-0.297348 0.440547 2.176000 255 0 0
-0.291155 0.440163 2.174000 255 0 0
-0.285496 0.440589 2.176000 255 0 0
-0.280340 0.441824 2.182000 255 0 0
-0.275151 0.443059 2.188000 255 0 0
-0.268820 0.442471 2.185000 255 0 0
-0.261664 0.440466 2.175000 255 0 0
-0.254678 0.438662 2.166000 255 0 0
-0.248315 0.437870 2.162000 255 0 0
-0.242310 0.437686 2.161000 255 0 0
-0.235981 0.436894 2.157000 255 0 0
-0.229567 0.435898 2.152000 255 0 0
-0.223283 0.435105 2.148000 255 0 0
-0.217122 0.434514 2.145000 255 0 0
-0.211173 0.434328 2.144000 255 0 0
-0.205038 0.433736 2.141000 255 0 0
-0.199197 0.433751 2.141000 255 0 0
-0.193176 0.433361 2.139000 255 0 0
-0.187252 0.433173 2.138000 255 0 0
-0.181333 0.432985 2.137000 255 0 0
-0.175337 0.432594 2.135000 255 0 0
-0.169431 0.432405 2.134000 255 0 0
-0.163530 0.432215 2.133000 255 0 0
-0.157781 0.432430 2.134000 255 0 0
-0.151955 0.432442 2.134000 255 0 0
-0.146129 0.432454 2.134000 255 0 0
-0.140237 0.432263 2.133000 255 0 0
-0.134350 0.432071 2.132000 255 0 0
-0.128528 0.432082 2.132000 255 0 0
-0.122763 0.432294 2.133000 255 0 0
-0.116882 0.432101 2.132000 255 0 0
-0.110955 0.431705 2.130000 255 0 0
-0.105038 0.431308 2.128000 255 0 0
-0.099225 0.431317 2.128000 255 0 0
-0.093324 0.430919 2.126000 255 0 0
-0.087393 0.430318 2.123000 255 0 0
-0.081593 0.430325 2.123000 255 0 0
-0.075756 0.430129 2.122000 255 0 0
-0.069991 0.430337 2.123000 255 0 0
-0.064160 0.430140 2.122000 255 0 0
-0.058389 0.430348 2.123000 255 0 0
-0.052588 0.430352 2.123000 255 0 0
-0.046765 0.430154 2.122000 255 0 0
-0.040966 0.430157 2.122000 255 0 0
-0.035183 0.430363 2.123000 255 0 0
-0.029381 0.430366 2.123000 255 0 0
-0.023590 0.430571 2.124000 255 0 0
-0.017777 0.430370 2.123000 255 0 0
-0.011969 0.430168 2.122000 255 0 0
-0.006173 0.430371 2.123000 255 0 0
-0.000371 0.430575 2.124000 255 0 0
0.005444 0.431385 2.128000 255 0 0
0.011276 0.431993 2.131000 255 0 0
0.017124 0.432600 2.134000 255 0 0
0.022967 0.432801 2.135000 255 0 0
0.028829 0.433204 2.137000 255 0 0
0.034701 0.433607 2.139000 255 0 0
0.040623 0.434415 2.143000 255 0 0
0.046566 0.435222 2.147000 255 0 0
0.052457 0.435421 2.148000 255 0 0
0.058300 0.435213 2.147000 255 0 0
0.064047 0.434398 2.143000 255 0 0
0.070000 0.435000 2.146000 255 0 0
0.076111 0.436413 2.153000 255 0 0
0.082260 0.437826 2.160000 255 0 0
0.088284 0.438427 2.163000 255 0 0
0.094150 0.438217 2.162000 255 0 0
0.100195 0.438817 2.165000 255 0 0
0.106354 0.439822 2.170000 255 0 0
0.112436 0.440421 2.173000 255 0 0
0.118426 0.440615 2.174000 255 0 0
0.124306 0.440402 2.173000 255 0 0
0.130361 0.440798 2.175000 255 0 0
0.136614 0.441800 2.180000 255 0 0
0.142893 0.442802 2.185000 255 0 0
0.149336 0.444209 2.192000 255 0 0
0.155746 0.445413 2.198000 255 0 0
-0.114044 0.511377 2.306675 255 255 0
-0.102551 0.510256 2.301861 255 255 0
-0.065802 0.509357 2.302165 255 255 0
-0.051786 0.508518 2.299372 255 255 0
-0.033485 0.508106 2.299725 255 255 0
-0.025542 0.506707 2.292725 255 255 0
-0.016747 0.505396 2.286374 255 255 0
-0.016553 0.503246 2.273804 255 255 0
-0.001766 0.502539 2.271877 255 255 0
0.005283 0.501074 2.264348 255 255 0
0.016607 0.500044 2.260001 255 255 0
0.024492 0.498676 2.253157 255 255 0
0.035787 0.497662 2.248889 255 255 0
0.047064 0.496656 2.244664 255 255 0
0.060030 0.495835 2.241769 255 255 0
0.068719 0.494583 2.235704 255 255 0
0.076547 0.493249 2.229021 255 255 0
0.081816 0.491653 2.220412 255 255 0
0.081988 0.489522 2.207898 255 255 0
-0.277445 0.428215 2.239501 0 255 0
-0.278922 0.431003 2.252553 0 255 0
-0.276916 0.433210 2.263021 0 255 0
-0.271417 0.434841 2.270937 0 255 0
-0.259793 0.435472 2.274431 0 255 0
-0.247279 0.435971 2.277343 0 255 0
-0.229494 0.435629 2.276537 0 255 0
-0.215190 0.435874 2.278319 0 255 0
-0.199990 0.435992 2.279541 0 255 0
-0.191794 0.437252 2.285799 0 255 0
-0.180074 0.437958 2.289612 0 255 0
-0.170979 0.439095 2.295321 0 255 0
-0.158351 0.439683 2.298610 0 255 0
-0.151875 0.441255 2.306228 0 255 0
-0.136575 0.441451 2.307785 0 255 0
-0.124785 0.442213 2.311833 0 255 0
-0.113863 0.443123 2.316533 0 255 0
-0.107349 0.444727 2.324279 0 255 0
-0.096404 0.445655 2.329055 0 255 0
-0.079247 0.445647 2.329708 0 255 0
-0.062951 0.445792 2.331034 0 255 0
-0.047521 0.446088 2.333025 0 255 0
-0.339792 0.443493 2.221000 255 0 0
-0.332096 0.441320 2.210000 255 0 0
-0.325049 0.439944 2.203000 255 0 0
-0.318618 0.439367 2.200000 255 0 0
-0.312345 0.438990 2.198000 255 0 0
-0.305524 0.437813 2.192000 255 0 0
-0.298463 0.436236 2.184000 255 0 0
-0.291979 0.435458 2.180000 255 0 0
-0.286042 0.435479 2.180000 255 0 0
-0.280489 0.436098 2.183000 255 0 0
-0.274919 0.436718 2.186000 255 0 0
-0.269086 0.436937 2.187000 255 0 0
-0.262284 0.435558 2.180000 255 0 0
-0.255167 0.433579 2.170000 255 0 0
-0.248678 0.432598 2.165000 255 0 0
-0.242664 0.432417 2.164000 255 0 0
-0.236436 0.431835 2.161000 255 0 0
-0.230011 0.430853 2.156000 255 0 0
-0.223508 0.429671 2.150000 255 0 0
-0.217138 0.428689 2.145000 255 0 0
-0.211091 0.428305 2.143000 255 0 0
-0.205149 0.428121 2.142000 255 0 0
-0.199399 0.428336 2.143000 255 0 0
-0.193371 0.427951 2.141000 255 0 0
-0.187266 0.427366 2.138000 255 0 0
-0.181178 0.426781 2.135000 255 0 0
-0.175269 0.426595 2.134000 255 0 0
-0.169365 0.426408 2.133000 255 0 0
-0.163619 0.426621 2.134000 255 0 0
-0.157793 0.426634 2.134000 255 0 0
-0.152039 0.426846 2.135000 255 0 0
-0.146209 0.426858 2.135000 255 0 0
-0.140314 0.426669 2.134000 255 0 0
-0.134423 0.426480 2.133000 255 0 0
-0.128538 0.426290 2.132000 255 0 0
-0.122830 0.426700 2.134000 255 0 0
-0.117001 0.426710 2.134000 255 0 0
-0.111120 0.426519 2.133000 255 0 0
-0.105145 0.425928 2.130000 255 0 0
-0.099233 0.425536 2.128000 255 0 0
-0.093376 0.425344 2.127000 255 0 0
-0.087441 0.424751 2.124000 255 0 0
-0.081638 0.424758 2.124000 255 0 0
-0.075763 0.424364 2.122000 255 0 0
-0.069964 0.424370 2.122000 255 0 0
-0.064135 0.424175 2.121000 255 0 0
-0.058339 0.424180 2.121000 255 0 0
-0.052592 0.424585 2.123000 255 0 0
-0.046812 0.424789 2.124000 255 0 0
-0.041008 0.424792 2.124000 255 0 0
-0.035170 0.424396 2.122000 255 0 0
-0.029398 0.424798 2.124000 255 0 0
-0.023592 0.424800 2.124000 255 0 0
-0.017787 0.424802 2.124000 255 0 0
-0.011976 0.424603 2.123000 255 0 0
-0.006173 0.424604 2.123000 255 0 0
-0.000371 0.424804 2.124000 255 0 0
0.005442 0.425404 2.127000 255 0 0
0.011282 0.426403 2.132000 255 0 0
0.017141 0.427202 2.136000 255 0 0
0.022990 0.427401 2.137000 255 0 0
0.028871 0.427998 2.140000 255 0 0
0.034737 0.428196 2.141000 255 0 0
0.040702 0.429393 2.147000 255 0 0
0.046635 0.429989 2.150000 255 0 0
0.052535 0.430185 2.151000 255 0 0
0.058359 0.429781 2.149000 255 0 0
0.064142 0.429176 2.146000 255 0 0
0.070039 0.429370 2.147000 255 0 0
0.076153 0.430764 2.154000 255 0 0
0.082381 0.432558 2.163000 255 0 0
0.088455 0.433351 2.167000 255 0 0
0.094375 0.433344 2.167000 255 0 0
0.100342 0.433536 2.168000 255 0 0
0.106460 0.434327 2.172000 255 0 0
0.112549 0.434918 2.175000 255 0 0
0.118545 0.435109 2.176000 255 0 0
0.124431 0.434900 2.175000 255 0 0
0.130431 0.435089 2.176000 255 0 0
0.136562 0.435679 2.179000 255 0 0
0.142839 0.436667 2.184000 255 0 0
0.149280 0.438055 2.191000 255 0 0
0.155829 0.439643 2.199000 255 0 0
-0.113318 0.502807 2.321253 255 255 0
-0.105287 0.501372 2.314002 255 255 0
-0.092941 0.500362 2.309810 255 255 0
-0.074567 0.499953 2.309932 255 255 0
-0.061401 0.499050 2.306470 255 255 0
-0.050841 0.497902 2.301220 255 255 0
-0.035991 0.497191 2.299094 255 255 0
-0.020304 0.496578 2.297653 255 255 0
-0.010657 0.495372 2.291929 255 255 0
-0.011324 0.493127 2.278751 255 255 0
0.000023 0.492104 2.274321 255 255 0
0.007071 0.490650 2.266790 255 255 0
0.019245 0.489731 2.263068 255 255 0
0.030547 0.488734 2.258763 255 255 0
0.041832 0.487745 2.254502 255 255 0
0.052248 0.486674 2.249646 255 255 0
0.060946 0.485432 2.243546 255 255 0
0.073037 0.484558 2.240054 255 255 0
0.080009 0.483147 2.232729 255 255 0
0.086124 0.481649 2.224774 255 255 0
0.082902 0.479140 2.209664 255 255 0
-0.273974 0.412244 2.214056 0 255 0
-0.276301 0.415205 2.227813 0 255 0
-0.282121 0.418754 2.244109 0 255 0
-0.281855 0.421259 2.255867 0 255 0
-0.278977 0.423321 2.265693 0 255 0
-0.268241 0.424066 2.269797 0 255 0
-0.256618 0.424674 2.273312 0 255 0
-0.243231 0.425004 2.275615 0 255 0
-0.229826 0.425347 2.277975 0 255 0
-0.212900 0.425126 2.277894 0 255 0
-0.195950 0.424924 2.277893 0 255 0
-0.183365 0.425456 2.281071 0 255 0
-0.176912 0.426999 2.288625 0 255 0
-0.171332 0.428690 2.296813 0 255 0
-0.163109 0.429960 2.303176 0 255 0
-0.156638 0.431520 2.310788 0 255 0
-0.137822 0.431117 2.309916 0 255 0
-0.126919 0.431994 2.314577 0 255 0
-0.115119 0.432742 2.318679 0 255 0
-0.110374 0.434613 2.327629 0 255 0
-0.096782 0.435103 2.330616 0 255 0
-0.081402 0.435331 2.332474 0 255 0
-0.065115 0.435437 2.333809 0 255 0
-0.050579 0.435834 2.336399 0 255 0
-0.339815 0.437462 2.221000 255 0 0
-0.332118 0.435318 2.210000 255 0 0
-0.325366 0.434356 2.205000 255 0 0
-0.318785 0.433590 2.201000 255 0 0
-0.312793 0.433612 2.201000 255 0 0
-0.305964 0.432451 2.195000 255 0 0
-0.299030 0.431093 2.188000 255 0 0
-0.292402 0.430129 2.183000 255 0 0
-0.286718 0.430543 2.185000 255 0 0
-0.280894 0.430761 2.186000 255 0 0
-0.275442 0.431569 2.190000 255 0 0
-0.269598 0.431786 2.191000 255 0 0
-0.263146 0.431016 2.187000 255 0 0
-0.255891 0.428867 2.176000 255 0 0
-0.249156 0.427506 2.169000 255 0 0
-0.242907 0.426933 2.166000 255 0 0
-0.236782 0.426557 2.164000 255 0 0
-0.230135 0.425194 2.157000 255 0 0
-0.223629 0.424028 2.151000 255 0 0
-0.217357 0.423256 2.147000 255 0 0
-0.211304 0.422878 2.145000 255 0 0
-0.205356 0.422697 2.144000 255 0 0
-0.199414 0.422515 2.143000 255 0 0
-0.193476 0.422333 2.142000 255 0 0
-0.187368 0.421756 2.139000 255 0 0
-0.181276 0.421178 2.136000 255 0 0
-0.175282 0.420798 2.134000 255 0 0
-0.169457 0.420811 2.134000 255 0 0
-0.163632 0.420824 2.134000 255 0 0
-0.157880 0.421033 2.135000 255 0 0
-0.152193 0.421440 2.137000 255 0 0
-0.146289 0.421254 2.136000 255 0 0
-0.140391 0.421068 2.135000 255 0 0
-0.134560 0.421079 2.135000 255 0 0
-0.128729 0.421090 2.135000 255 0 0
-0.122955 0.421297 2.136000 255 0 0
-0.117120 0.421306 2.136000 255 0 0
-0.111285 0.421315 2.136000 255 0 0
-0.105302 0.420732 2.133000 255 0 0
-0.099335 0.420149 2.130000 255 0 0
-0.093427 0.419762 2.128000 255 0 0
-0.087530 0.419374 2.126000 255 0 0
-0.081721 0.419381 2.126000 255 0 0
-0.075840 0.418993 2.124000 255 0 0
-0.070036 0.418999 2.124000 255 0 0
-0.064201 0.418807 2.123000 255 0 0
-0.058371 0.418615 2.122000 255 0 0
-0.052597 0.418816 2.123000 255 0 0
-0.046794 0.418820 2.123000 255 0 0
-0.040972 0.418627 2.122000 255 0 0
-0.035156 0.418432 2.121000 255 0 0
-0.029414 0.419224 2.125000 255 0 0
-0.023605 0.419226 2.125000 255 0 0
-0.017797 0.419228 2.125000 255 0 0
-0.011983 0.419032 2.124000 255 0 0
-0.006180 0.419230 2.125000 255 0 0
-0.000371 0.419427 2.126000 255 0 0
0.005448 0.420019 2.129000 255 0 0
0.011294 0.421005 2.134000 255 0 0
0.017159 0.421793 2.138000 255 0 0
0.023003 0.421791 2.138000 255 0 0
0.028887 0.422381 2.141000 255 0 0
0.034788 0.422970 2.144000 255 0 0
0.040724 0.423756 2.148000 255 0 0
0.046660 0.424345 2.151000 255 0 0
0.052539 0.424341 2.151000 255 0 0
0.058445 0.424533 2.152000 255 0 0
0.064237 0.423937 2.149000 255 0 0
0.070175 0.424326 2.151000 255 0 0
0.076265 0.425504 2.157000 255 0 0
0.082540 0.427470 2.167000 255 0 0
0.088625 0.428252 2.171000 255 0 0
0.094557 0.428245 2.171000 255 0 0
0.100535 0.428434 2.172000 255 0 0
0.106616 0.429018 2.175000 255 0 0
0.112713 0.429601 2.178000 255 0 0
0.118554 0.429197 2.176000 255 0 0
0.124441 0.428990 2.175000 255 0 0
0.130441 0.429177 2.176000 255 0 0
0.136635 0.429956 2.180000 255 0 0
0.142981 0.431128 2.186000 255 0 0
0.149428 0.432497 2.193000 255 0 0
0.155912 0.433866 2.200000 255 0 0
0.162287 0.434839 2.205000 255 0 0
-0.097402 0.491321 2.320715 255 255 0
-0.083338 0.490514 2.317748 255 255 0
-0.068434 0.489805 2.315448 255 255 0
-0.061315 0.488320 2.307715 255 255 0
-0.051618 0.487104 2.301843 255 255 0
-0.039353 0.486160 2.297854 255 255 0
-0.021088 0.485848 2.298245 255 255 0
-0.009724 0.484838 2.293753 255 255 0
-0.006956 0.482938 2.283070 255 255 0
0.000956 0.481579 2.276139 255 255 0
0.008859 0.480226 2.269232 255 255 0
0.018463 0.479060 2.263612 255 255 0
0.029763 0.478084 2.259295 255 255 0
0.045313 0.477577 2.258201 255 255 0
0.054019 0.476344 2.252069 255 255 0
0.062713 0.475116 2.245967 255 255 0
0.073099 0.474082 2.241182 255 255 0
0.082619 0.472962 2.235789 255 255 0
0.089581 0.471566 2.228484 255 255 0
0.087209 0.469132 2.214036 255 255 0
-0.279520 0.402912 2.219337 0 255 0
-0.283586 0.406190 2.234368 0 255 0
-0.287665 0.409460 2.249355 0 255 0
-0.279560 0.410620 2.255341 0 255 0
-0.274063 0.412236 2.263266 0 255 0
-0.264199 0.413111 2.268030 0 255 0
-0.254323 0.413995 2.272833 0 255 0
-0.242687 0.414592 2.276414 0 255 0
-0.232787 0.415496 2.281298 0 255 0
-0.211492 0.414500 2.278101 0 255 0
-0.193671 0.414112 2.277498 0 255 0
-0.179334 0.414327 2.279456 0 255 0
-0.174634 0.416155 2.288263 0 255 0
-0.169052 0.417841 2.296464 0 255 0
-0.165225 0.419820 2.305902 0 255 0
-0.160517 0.421657 2.314734 0 255 0
-0.142594 0.421349 2.314475 0 255 0
-0.129053 0.421774 2.317321 0 255 0
-0.113729 0.421928 2.319023 0 255 0
-0.105450 0.423231 2.325587 0 255 0
-0.090091 0.423412 2.327408 0 255 0
-0.078250 0.424172 2.331676 0 255 0
-0.065508 0.424803 2.335401 0 255 0
-0.054522 0.425725 2.340359 0 255 0
-0.339379 0.430847 2.218000 255 0 0
-0.332291 0.429510 2.211000 255 0 0
-0.325831 0.428950 2.208000 255 0 0
-0.319241 0.428194 2.204000 255 0 0
-0.313099 0.428022 2.203000 255 0 0
-0.306543 0.427266 2.199000 255 0 0
-0.299598 0.425927 2.192000 255 0 0
-0.292958 0.424976 2.187000 255 0 0
-0.287001 0.424997 2.187000 255 0 0
-0.281172 0.425211 2.188000 255 0 0
-0.275839 0.426203 2.193000 255 0 0
-0.270355 0.427000 2.197000 255 0 0
-0.264248 0.426825 2.196000 255 0 0
-0.256969 0.424705 2.185000 255 0 0
-0.249863 0.422780 2.175000 255 0 0
-0.243485 0.422021 2.171000 255 0 0
-0.237237 0.421455 2.168000 255 0 0
-0.230579 0.420112 2.161000 255 0 0
-0.223957 0.418767 2.154000 255 0 0
-0.217677 0.418006 2.150000 255 0 0
-0.211615 0.417633 2.148000 255 0 0
-0.205563 0.417260 2.146000 255 0 0
-0.199429 0.416692 2.143000 255 0 0
-0.193401 0.416318 2.141000 255 0 0
-0.187383 0.415944 2.139000 255 0 0
-0.181375 0.415569 2.137000 255 0 0
-0.175542 0.415583 2.137000 255 0 0
-0.169629 0.415401 2.136000 255 0 0
-0.163798 0.415414 2.136000 255 0 0
-0.157966 0.415427 2.136000 255 0 0
-0.152276 0.415827 2.138000 255 0 0
-0.146438 0.415839 2.138000 255 0 0
-0.140533 0.415656 2.137000 255 0 0
-0.134697 0.415667 2.137000 255 0 0
-0.128860 0.415677 2.137000 255 0 0
-0.123080 0.415881 2.138000 255 0 0
-0.117184 0.415696 2.137000 255 0 0
-0.111398 0.415900 2.138000 255 0 0
-0.105458 0.415519 2.136000 255 0 0
-0.099436 0.414749 2.132000 255 0 0
-0.093522 0.414368 2.130000 255 0 0
-0.087579 0.413791 2.127000 255 0 0
-0.081766 0.413798 2.127000 255 0 0
-0.075882 0.413415 2.125000 255 0 0
-0.070074 0.413421 2.125000 255 0 0
-0.064206 0.413037 2.123000 255 0 0
-0.058376 0.412848 2.122000 255 0 0
-0.052601 0.413047 2.123000 255 0 0
-0.046798 0.413051 2.123000 255 0 0
-0.040995 0.413054 2.123000 255 0 0
-0.035208 0.413252 2.124000 255 0 0
-0.029430 0.413644 2.126000 255 0 0
-0.023596 0.413257 2.124000 255 0 0
-0.017798 0.413453 2.125000 255 0 0
-0.011989 0.413454 2.125000 255 0 0
-0.006183 0.413649 2.126000 255 0 0
-0.000371 0.413650 2.126000 255 0 0
0.005448 0.414233 2.129000 255 0 0
0.011305 0.415594 2.136000 255 0 0
0.017176 0.416371 2.140000 255 0 0
0.023037 0.416564 2.141000 255 0 0
0.028917 0.416951 2.143000 255 0 0
0.034823 0.417533 2.146000 255 0 0
0.040746 0.418113 2.149000 255 0 0
0.046664 0.418499 2.151000 255 0 0
0.052568 0.418689 2.152000 255 0 0
0.058477 0.418880 2.153000 255 0 0
0.064331 0.418680 2.152000 255 0 0
0.070311 0.419258 2.155000 255 0 0
0.076448 0.420614 2.162000 255 0 0
0.082737 0.422553 2.172000 255 0 0
0.088795 0.423130 2.175000 255 0 0
0.094782 0.423317 2.176000 255 0 0
0.100682 0.423115 2.175000 255 0 0
0.106722 0.423496 2.177000 255 0 0
0.112722 0.423682 2.178000 255 0 0
0.118563 0.423284 2.176000 255 0 0
0.124393 0.422885 2.174000 255 0 0
0.130452 0.423264 2.176000 255 0 0
0.136583 0.423837 2.179000 255 0 0
0.143058 0.425382 2.187000 255 0 0
0.149303 0.426149 2.191000 255 0 0
0.155853 0.427693 2.199000 255 0 0
0.162152 0.428459 2.203000 255 0 0
-0.113983 0.481031 2.323235 255 255 0
-0.099035 0.480330 2.320789 255 255 0
-0.080654 0.479998 2.320831 255 255 0
-0.066619 0.479234 2.317919 255 255 0
-0.063812 0.477309 2.307133 255 255 0
-0.050670 0.476471 2.303696 255 255 0
-0.040989 0.475280 2.297853 255 255 0
-0.020151 0.475285 2.300077 255 255 0
-0.011365 0.474021 2.293717 255 255 0
-0.006878 0.472302 2.284271 255 255 0
0.000176 0.470862 2.276706 255 255 0
0.009791 0.469707 2.271046 255 255 0
0.021957 0.468840 2.267312 255 255 0
0.033250 0.467889 2.262994 255 255 0
0.043675 0.466852 2.258085 255 255 0
0.056642 0.466107 2.255131 255 255 0
0.061077 0.464418 2.245825 255 255 0
0.074862 0.463787 2.243597 255 255 0
0.080983 0.462299 2.235619 255 255 0
0.089643 0.461105 2.229599 255 255 0
0.083885 0.458263 2.212549 255 255 0
-0.284193 0.393446 2.223964 0 255 0
-0.289126 0.396897 2.239624 0 255 0
-0.292334 0.400033 2.253953 0 255 0
-0.287718 0.401787 2.262490 0 255 0
-0.283099 0.403544 2.271035 0 255 0
-0.268013 0.403485 2.271978 0 255 0
-0.261634 0.404952 2.279306 0 255 0
-0.249135 0.405370 2.282248 0 255 0
-0.237494 0.405951 2.285870 0 255 0
-0.211838 0.404152 2.279561 0 255 0
-0.193150 0.403573 2.278352 0 255 0
-0.178817 0.403756 2.280325 0 255 0
-0.175871 0.405877 2.290373 0 255 0
-0.168534 0.407261 2.297349 0 255 0
-0.165584 0.409386 2.307405 0 255 0
-0.154719 0.410195 2.311983 0 255 0
-0.138559 0.410140 2.312969 0 255 0
-0.125019 0.410538 2.315840 0 255 0
-0.115871 0.411673 2.321775 0 255 0
-0.106713 0.412816 2.327744 0 255 0
-0.094011 0.413393 2.331364 0 255 0
-0.081292 0.413982 2.335038 0 255 0
-0.067672 0.414442 2.338177 0 255 0
-0.055807 0.415199 2.342552 0 255 0
-0.340014 0.425588 2.222000 255 0 0
-0.332765 0.424079 2.214000 255 0 0
-0.326296 0.423526 2.211000 255 0 0
-0.319408 0.422399 2.205000 255 0 0
-0.313262 0.422229 2.204000 255 0 0
-0.306982 0.421867 2.202000 255 0 0
-0.300165 0.420738 2.196000 255 0 0
-0.293247 0.419418 2.189000 255 0 0
-0.286890 0.418863 2.186000 255 0 0
-0.281063 0.419075 2.187000 255 0 0
-0.276110 0.420628 2.195000 255 0 0
-0.270744 0.421605 2.200000 255 0 0
-0.265109 0.422200 2.203000 255 0 0
-0.258046 0.420493 2.194000 255 0 0
-0.250916 0.418595 2.184000 255 0 0
-0.244176 0.417272 2.177000 255 0 0
-0.237911 0.416714 2.174000 255 0 0
-0.231022 0.415006 2.165000 255 0 0
-0.224182 0.413298 2.156000 255 0 0
-0.217794 0.412356 2.151000 255 0 0
-0.211532 0.411605 2.147000 255 0 0
-0.205483 0.411237 2.145000 255 0 0
-0.199444 0.410869 2.143000 255 0 0
-0.193506 0.410692 2.142000 255 0 0
-0.187572 0.410514 2.141000 255 0 0
-0.181644 0.410336 2.140000 255 0 0
-0.175802 0.410350 2.140000 255 0 0
-0.169801 0.409980 2.138000 255 0 0
-0.163964 0.409992 2.138000 255 0 0
-0.158126 0.410005 2.138000 255 0 0
-0.152501 0.410592 2.141000 255 0 0
-0.146586 0.410412 2.140000 255 0 0
-0.140610 0.410039 2.138000 255 0 0
-0.134770 0.410050 2.138000 255 0 0
-0.129111 0.410636 2.141000 255 0 0
-0.123262 0.410646 2.141000 255 0 0
-0.117358 0.410463 2.140000 255 0 0
-0.111459 0.410280 2.139000 255 0 0
-0.105566 0.410097 2.138000 255 0 0
-0.099584 0.409530 2.135000 255 0 0
-0.093618 0.408962 2.132000 255 0 0
-0.087668 0.408394 2.129000 255 0 0
-0.081773 0.408017 2.127000 255 0 0
-0.075924 0.407831 2.126000 255 0 0
-0.070080 0.407645 2.125000 255 0 0
-0.064241 0.407458 2.124000 255 0 0
-0.058436 0.407463 2.124000 255 0 0
-0.052630 0.407468 2.124000 255 0 0
-0.046780 0.407088 2.122000 255 0 0
-0.040998 0.407283 2.123000 255 0 0
-0.035228 0.407670 2.125000 255 0 0
-0.029446 0.408056 2.127000 255 0 0
-0.023598 0.407483 2.124000 255 0 0
-0.017808 0.407868 2.126000 255 0 0
-0.011996 0.407869 2.126000 255 0 0
-0.006190 0.408254 2.128000 255 0 0
-0.000372 0.408062 2.127000 255 0 0
0.005451 0.408638 2.130000 255 0 0
0.011311 0.409980 2.137000 255 0 0
0.017186 0.410746 2.141000 255 0 0
0.023060 0.411128 2.143000 255 0 0
0.028932 0.411318 2.144000 255 0 0
0.034842 0.411891 2.147000 255 0 0
0.040768 0.412464 2.150000 255 0 0
0.046711 0.413036 2.153000 255 0 0
0.052670 0.413607 2.156000 255 0 0
0.058563 0.413603 2.156000 255 0 0
0.064456 0.413598 2.156000 255 0 0
0.070414 0.413976 2.158000 255 0 0
0.076631 0.415697 2.167000 255 0 0
0.082820 0.417033 2.174000 255 0 0
0.088925 0.417794 2.178000 255 0 0
0.094833 0.417595 2.177000 255 0 0
0.100829 0.417779 2.178000 255 0 0
0.106780 0.417771 2.178000 255 0 0
0.112731 0.417762 2.178000 255 0 0
0.118464 0.416986 2.174000 255 0 0
0.124403 0.416976 2.174000 255 0 0
0.130402 0.417158 2.175000 255 0 0
0.136845 0.418682 2.183000 255 0 0
0.143265 0.420014 2.190000 255 0 0
0.149519 0.420770 2.194000 255 0 0
0.155723 0.421333 2.197000 255 0 0
0.162017 0.422088 2.201000 255 0 0
-0.131447 0.470576 2.325262 255 255 0
-0.118206 0.469713 2.321531 255 255 0
-0.099799 0.469408 2.321470 255 255 0
-0.081424 0.469119 2.321495 255 255 0
-0.068254 0.468293 2.317961 255 255 0
-0.066305 0.466271 2.306555 255 255 0
-0.052303 0.465553 2.303712 255 255 0
-0.039183 0.464753 2.300315 255 255 0
-0.020930 0.464527 2.300676 255 255 0
-0.013003 0.463184 2.293685 255 255 0
-0.008513 0.461465 2.284229 255 255 0
-0.002312 0.459939 2.276028 255 255 0
0.008158 0.458895 2.270978 255 255 0
0.024595 0.458535 2.270378 255 255 0
0.040151 0.458091 2.269221 255 255 0
0.051419 0.457174 2.264958 255 255 0
0.063522 0.456364 2.261377 255 255 0
0.069652 0.454877 2.253366 255 255 0
0.080026 0.453886 2.248583 255 255 0
0.082746 0.452012 2.238034 255 255 0
0.084619 0.450037 2.226831 255 255 0
0.078872 0.447162 2.209769 255 255 0
-0.294663 0.387626 2.244875 0 255 0
-0.299609 0.391089 2.260468 0 255 0
-0.294998 0.392835 2.268990 0 255 0
-0.292997 0.395049 2.279427 0 255 0
-0.278797 0.395103 2.280989 0 255 0
-0.269812 0.396094 2.286400 0 255 0
-0.258197 0.396633 2.289959 0 255 0
-0.239577 0.395964 2.288561 0 255 0
-0.213935 0.394098 2.282269 0 255 0
-0.194381 0.393321 2.280450 0 255 0
-0.183560 0.394076 2.284906 0 255 0
-0.179739 0.396044 2.294329 0 255 0
-0.175917 0.398015 2.303754 0 255 0
-0.166824 0.399091 2.309521 0 255 0
-0.155084 0.399728 2.313499 0 255 0
-0.134531 0.398895 2.311473 0 255 0
-0.126276 0.400152 2.317985 0 255 0
-0.120657 0.401859 2.326327 0 255 0
-0.115033 0.403569 2.334682 0 255 0
-0.102342 0.404114 2.338291 0 255 0
-0.088751 0.404526 2.341362 0 255 0
-0.074259 0.404806 2.343903 0 255 0
-0.059747 0.405102 2.346509 0 255 0
-0.043444 0.405124 2.348010 0 255 0
-0.339425 0.418796 2.218000 255 0 0
-0.332486 0.417686 2.212000 255 0 0
-0.326170 0.417330 2.210000 255 0 0
-0.319430 0.416408 2.205000 255 0 0
-0.313568 0.416618 2.206000 255 0 0
-0.307701 0.416828 2.207000 255 0 0
-0.301280 0.416283 2.204000 255 0 0
-0.293937 0.414414 2.194000 255 0 0
-0.287041 0.413112 2.187000 255 0 0
-0.281340 0.413510 2.189000 255 0 0
-0.276256 0.414852 2.196000 255 0 0
-0.271132 0.416194 2.203000 255 0 0
-0.265489 0.416780 2.206000 255 0 0
-0.259240 0.416421 2.204000 255 0 0
-0.252542 0.415305 2.198000 255 0 0
-0.245764 0.414001 2.191000 255 0 0
-0.238914 0.412507 2.183000 255 0 0
-0.231786 0.410445 2.172000 255 0 0
-0.224822 0.408572 2.162000 255 0 0
-0.218114 0.407076 2.154000 255 0 0
-0.211745 0.406147 2.149000 255 0 0
-0.205498 0.405407 2.145000 255 0 0
-0.199459 0.405044 2.143000 255 0 0
-0.193430 0.404680 2.141000 255 0 0
-0.187586 0.404695 2.141000 255 0 0
-0.181742 0.404709 2.141000 255 0 0
-0.175980 0.404911 2.142000 255 0 0
-0.169973 0.404546 2.140000 255 0 0
-0.164130 0.404559 2.140000 255 0 0
-0.158286 0.404571 2.140000 255 0 0
-0.152584 0.404961 2.142000 255 0 0
-0.146666 0.404784 2.141000 255 0 0
-0.140818 0.404795 2.141000 255 0 0
-0.134970 0.404805 2.141000 255 0 0
-0.129242 0.405194 2.143000 255 0 0
-0.123329 0.405014 2.142000 255 0 0
-0.117477 0.405024 2.142000 255 0 0
-0.111520 0.404654 2.140000 255 0 0
-0.105623 0.404474 2.139000 255 0 0
-0.099685 0.404104 2.137000 255 0 0
-0.093713 0.403544 2.134000 255 0 0
-0.087716 0.402795 2.130000 255 0 0
-0.081817 0.402423 2.128000 255 0 0
-0.075965 0.402240 2.127000 255 0 0
-0.070118 0.402057 2.126000 255 0 0
-0.064307 0.402062 2.126000 255 0 0
-0.058468 0.401878 2.125000 255 0 0
-0.052684 0.402071 2.126000 255 0 0
-0.046828 0.401697 2.124000 255 0 0
-0.041059 0.402079 2.126000 255 0 0
-0.035264 0.402271 2.127000 255 0 0
-0.029449 0.402273 2.127000 255 0 0
-0.023611 0.401897 2.125000 255 0 0
-0.017818 0.402277 2.127000 255 0 0
-0.012014 0.402657 2.129000 255 0 0
-0.006196 0.402846 2.130000 255 0 0
-0.000372 0.402847 2.130000 255 0 0
0.005454 0.403036 2.131000 255 0 0
0.011312 0.404170 2.137000 255 0 0
0.017195 0.405114 2.142000 255 0 0
0.023084 0.405680 2.145000 255 0 0
0.028989 0.406245 2.148000 255 0 0
0.034894 0.406621 2.150000 255 0 0
0.040829 0.407186 2.153000 255 0 0
0.046801 0.407939 2.157000 255 0 0
0.052723 0.408124 2.158000 255 0 0
0.058568 0.407741 2.156000 255 0 0
0.064431 0.407547 2.155000 255 0 0
0.070485 0.408487 2.160000 255 0 0
0.076778 0.410562 2.171000 255 0 0
0.083017 0.412068 2.179000 255 0 0
0.089054 0.412440 2.181000 255 0 0
0.095015 0.412433 2.181000 255 0 0
0.100929 0.412236 2.180000 255 0 0
0.106935 0.412417 2.181000 255 0 0
0.112740 0.411841 2.178000 255 0 0
0.118582 0.411454 2.176000 255 0 0
0.124470 0.411255 2.175000 255 0 0
0.130592 0.411813 2.178000 255 0 0
0.136981 0.413126 2.185000 255 0 0
0.143342 0.414250 2.191000 255 0 0
0.149735 0.415373 2.197000 255 0 0
0.155877 0.415739 2.199000 255 0 0
0.162103 0.416294 2.202000 255 0 0
-0.128739 0.459940 2.328364 255 255 0
-0.114639 0.459199 2.325230 255 255 0
-0.095379 0.459034 2.325765 255 255 0
-0.076151 0.458885 2.326391 255 255 0
-0.065576 0.457805 2.321042 255 255 0
-0.062765 0.455874 2.310249 255 255 0
-0.047050 0.455379 2.308628 255 255 0
-0.034799 0.454513 2.304620 255 255 0
-0.021706 0.453754 2.301278 255 255 0
-0.015494 0.452227 2.293039 255 255 0
-0.009287 0.450704 2.284814 255 255 0
-0.004797 0.448988 2.275355 255 255 0
0.003965 0.447767 2.269036 255 255 0
0.022109 0.447640 2.269668 255 255 0
0.046192 0.448224 2.274807 255 255 0
0.061711 0.447833 2.273724 255 255 0
0.075503 0.447254 2.271437 255 255 0
0.076520 0.445175 2.259620 255 255 0
0.082638 0.443702 2.251638 255 255 0
0.080266 0.441215 2.237226 255 255 0
0.082992 0.439335 2.226661 255 255 0
0.077254 0.436430 2.209596 255 255 0
-0.295855 0.377580 2.246905 0 255 0
-0.299058 0.380751 2.261213 0 255 0
-0.302272 0.383915 2.275481 0 255 0
-0.297665 0.385656 2.283995 0 255 0
-0.287829 0.386459 2.288721 0 255 0
-0.275367 0.386803 2.291595 0 255 0
-0.262015 0.387003 2.293894 0 255 0
-0.241661 0.385976 2.291252 0 255 0
-0.218654 0.384507 2.286843 0 255 0
-0.194739 0.382910 2.281929 0 255 0
-0.183046 0.383489 2.285778 0 255 0
-0.177472 0.385151 2.293979 0 255 0
-0.173646 0.387121 2.303416 0 255 0
-0.162799 0.387879 2.307981 0 255 0
-0.149302 0.388192 2.310768 0 255 0
-0.134029 0.388217 2.312404 0 255 0
-0.130175 0.390212 2.321937 0 255 0
-0.127201 0.392359 2.332073 0 255 0
-0.121582 0.394059 2.340417 0 255 0
-0.108020 0.394425 2.343426 0 255 0
-0.093555 0.394655 2.345901 0 255 0
-0.079072 0.394901 2.348443 0 255 0
-0.063685 0.395014 2.350462 0 255 0
-0.046507 0.394850 2.351383 0 255 0
-0.339294 0.412583 2.217000 255 0 0
-0.332508 0.411675 2.212000 255 0 0
-0.326192 0.411325 2.210000 255 0 0
