ply
format ascii 1.0
element vertex 1298
property double x
property double y
property double z
property uchar red
property uchar green
property uchar blue
end_header
0.044256 -0.190307 2.328000 255 0 0
0.051398 -0.193167 2.363000 255 0 0
0.058314 -0.194636 2.381000 255 0 0
0.065112 -0.195451 2.391000 255 0 0
-0.263176 -0.197562 2.341000 255 0 0
-0.255793 -0.196812 2.332000 255 0 0
-0.247924 -0.195641 2.318000 255 0 0
-0.240443 -0.194722 2.307000 255 0 0
-0.233833 -0.194479 2.304000 255 0 0
-0.227239 -0.194235 2.301000 255 0 0
-0.220756 -0.194075 2.299000 255 0 0
-0.214283 -0.193915 2.297000 255 0 0
-0.208455 -0.194345 2.302000 255 0 0
-0.202159 -0.194354 2.302000 255 0 0
-0.195862 -0.194362 2.302000 255 0 0
-0.189318 -0.194117 2.299000 255 0 0
-0.183028 -0.194124 2.299000 255 0 0
-0.177044 -0.194469 2.303000 255 0 0
-0.170816 -0.194561 2.304000 255 0 0
-0.165082 -0.195244 2.312000 255 0 0
-0.159166 -0.195757 2.318000 255 0 0
-0.153150 -0.196186 2.323000 255 0 0
-0.146853 -0.196277 2.324000 255 0 0
-0.141035 -0.197043 2.333000 255 0 0
-0.135512 -0.198315 2.348000 255 0 0
-0.130237 -0.200095 2.369000 255 0 0
-0.085385 -0.201478 2.385000 255 0 0
-0.078388 -0.200299 2.371000 255 0 0
-0.071588 -0.199457 2.361000 255 0 0
-0.064981 -0.199038 2.356000 255 0 0
-0.058376 -0.198534 2.350000 255 0 0
-0.051825 -0.198114 2.345000 255 0 0
-0.045244 -0.197440 2.337000 255 0 0
-0.038756 -0.197019 2.332000 255 0 0
-0.032296 -0.196598 2.327000 255 0 0
-0.025885 -0.196346 2.324000 255 0 0
-0.019482 -0.196009 2.320000 255 0 0
-0.013112 -0.195841 2.318000 255 0 0
-0.006747 -0.195503 2.314000 255 0 0
-0.000405 -0.195250 2.311000 255 0 0
0.005927 -0.195165 2.310000 255 0 0
0.012306 -0.195925 2.319000 255 0 0
0.018702 -0.196347 2.324000 255 0 0
0.025103 -0.196600 2.327000 255 0 0
0.031427 -0.196261 2.323000 255 0 0
0.037744 -0.196006 2.320000 255 0 0
0.044388 -0.197271 2.335000 255 0 0
0.051504 -0.200057 2.368000 255 0 0
0.058655 -0.202336 2.395000 255 0 0
-0.270596 -0.204736 2.350000 255 0 0
-0.263278 -0.204050 2.342000 255 0 0
-0.255673 -0.203102 2.331000 255 0 0
-0.248769 -0.202676 2.326000 255 0 0
-0.241058 -0.201554 2.313000 255 0 0
-0.234331 -0.201215 2.309000 255 0 0
-0.227328 -0.200615 2.302000 255 0 0
-0.220843 -0.200450 2.300000 255 0 0
-0.214368 -0.200284 2.298000 255 0 0
-0.208536 -0.200729 2.303000 255 0 0
-0.202677 -0.201173 2.308000 255 0 0
-0.196534 -0.201356 2.310000 255 0 0
-0.190051 -0.201190 2.308000 255 0 0
-0.183498 -0.200936 2.305000 255 0 0
-0.177421 -0.201206 2.308000 255 0 0
-0.171254 -0.201387 2.310000 255 0 0
-0.165360 -0.201918 2.316000 255 0 0
-0.159227 -0.202186 2.319000 255 0 0
-0.153011 -0.202367 2.321000 255 0 0
-0.146847 -0.202635 2.324000 255 0 0
-0.141149 -0.203601 2.335000 255 0 0
-0.136026 -0.205525 2.357000 255 0 0
-0.130671 -0.207275 2.377000 255 0 0
-0.085310 -0.207831 2.383000 255 0 0
-0.078385 -0.206788 2.371000 255 0 0
-0.071615 -0.206006 2.362000 255 0 0
-0.064978 -0.205486 2.356000 255 0 0
-0.058423 -0.205140 2.352000 255 0 0
-0.051823 -0.204532 2.345000 255 0 0
-0.045262 -0.203923 2.338000 255 0 0
-0.038805 -0.203663 2.335000 255 0 0
-0.032336 -0.203229 2.330000 255 0 0
-0.025917 -0.202968 2.327000 255 0 0
-0.019490 -0.202446 2.321000 255 0 0
-0.013123 -0.202360 2.320000 255 0 0
-0.006747 -0.201837 2.314000 255 0 0
-0.000405 -0.201662 2.312000 255 0 0
0.005924 -0.201401 2.309000 255 0 0
0.012300 -0.202185 2.318000 255 0 0
0.018685 -0.202533 2.322000 255 0 0
0.025113 -0.203056 2.328000 255 0 0
0.031479 -0.202967 2.327000 255 0 0
0.037905 -0.203227 2.330000 255 0 0
0.044595 -0.204621 2.346000 255 0 0
0.051785 -0.207672 2.381000 255 0 0
0.058971 -0.210024 2.408000 255 0 0
-0.272082 -0.212328 2.363000 255 0 0
-0.263379 -0.210542 2.343000 255 0 0
-0.256430 -0.210104 2.338000 255 0 0
-0.249508 -0.209665 2.333000 255 0 0
-0.241882 -0.208597 2.321000 255 0 0
-0.234524 -0.207708 2.311000 255 0 0
-0.227318 -0.206909 2.302000 255 0 0
-0.221025 -0.206919 2.302000 255 0 0
-0.214545 -0.206748 2.300000 255 0 0
-0.208890 -0.207387 2.307000 255 0 0
-0.203020 -0.207845 2.312000 255 0 0
-0.197037 -0.208213 2.316000 255 0 0
-0.190454 -0.207952 2.313000 255 0 0
-0.183888 -0.207691 2.310000 255 0 0
-0.177644 -0.207788 2.311000 255 0 0
-0.171469 -0.207976 2.313000 255 0 0
-0.165353 -0.208253 2.316000 255 0 0
-0.159152 -0.208440 2.318000 255 0 0
-0.153071 -0.208807 2.322000 255 0 0
-0.147030 -0.209263 2.327000 255 0 0
-0.141808 -0.210978 2.346000 255 0 0
-0.136712 -0.213053 2.369000 255 0 0
-0.131875 -0.215757 2.399000 255 0 0
-0.085772 -0.215521 2.396000 255 0 0
-0.078579 -0.213815 2.377000 255 0 0
-0.071794 -0.213009 2.368000 255 0 0
-0.065030 -0.212113 2.358000 255 0 0
-0.058371 -0.211396 2.350000 255 0 0
-0.051821 -0.210949 2.345000 255 0 0
-0.045298 -0.210501 2.340000 255 0 0
-0.038903 -0.210593 2.341000 255 0 0
-0.032432 -0.210235 2.337000 255 0 0
-0.025983 -0.209876 2.333000 255 0 0
-0.019531 -0.209248 2.326000 255 0 0
-0.013139 -0.208978 2.323000 255 0 0
-0.006756 -0.208439 2.317000 255 0 0
-0.000406 -0.208349 2.316000 255 0 0
0.005941 -0.208349 2.316000 255 0 0
0.012315 -0.208799 2.321000 255 0 0
0.018692 -0.208978 2.323000 255 0 0
0.025112 -0.209427 2.328000 255 0 0
0.031546 -0.209785 2.332000 255 0 0
0.038099 -0.210683 2.342000 255 0 0
0.044878 -0.212390 2.361000 255 0 0
0.052174 -0.215807 2.399000 255 0 0
0.059433 -0.218323 2.427000 255 0 0
-0.271264 -0.218139 2.356000 255 0 0
-0.263031 -0.216669 2.340000 255 0 0
-0.256419 -0.216495 2.338000 255 0 0
-0.249818 -0.216321 2.336000 255 0 0
-0.242184 -0.215220 2.324000 255 0 0
-0.234920 -0.214397 2.315000 255 0 0
-0.227407 -0.213296 2.303000 255 0 0
-0.221208 -0.213398 2.304000 255 0 0
-0.214536 -0.213038 2.300000 255 0 0
-0.208971 -0.213788 2.308000 255 0 0
-0.203099 -0.214260 2.313000 255 0 0
-0.196858 -0.214362 2.314000 255 0 0
-0.190364 -0.214185 2.312000 255 0 0
-0.183720 -0.213823 2.308000 255 0 0
-0.177713 -0.214201 2.312000 255 0 0
-0.171535 -0.214395 2.314000 255 0 0
-0.165560 -0.214866 2.319000 255 0 0
-0.159351 -0.215058 2.321000 255 0 0
-0.153262 -0.215436 2.325000 255 0 0
-0.147592 -0.216462 2.336000 255 0 0
-0.142164 -0.217951 2.352000 255 0 0
-0.137052 -0.220089 2.375000 255 0 0
-0.132418 -0.223246 2.409000 255 0 0
-0.093565 -0.225038 2.428000 255 0 0
-0.085875 -0.222354 2.399000 255 0 0
-0.078708 -0.220690 2.381000 255 0 0
-0.071912 -0.219859 2.372000 255 0 0
-0.065110 -0.218843 2.361000 255 0 0
-0.058393 -0.217919 2.351000 255 0 0
-0.051752 -0.217087 2.342000 255 0 0
-0.045296 -0.216904 2.340000 255 0 0
-0.038868 -0.216813 2.339000 255 0 0
-0.032417 -0.216537 2.336000 255 0 0
-0.025971 -0.216167 2.332000 255 0 0
-0.019563 -0.215983 2.330000 255 0 0
-0.013156 -0.215613 2.326000 255 0 0
-0.006773 -0.215335 2.323000 255 0 0
-0.000407 -0.215243 2.322000 255 0 0
0.005959 -0.215335 2.323000 255 0 0
0.012352 -0.215798 2.328000 255 0 0
0.018739 -0.215890 2.329000 255 0 0
0.025154 -0.216167 2.332000 255 0 0
0.031544 -0.216166 2.332000 255 0 0
0.038113 -0.217184 2.343000 255 0 0
0.044952 -0.219221 2.365000 255 0 0
-0.270792 -0.224197 2.352000 255 0 0
-0.263357 -0.223351 2.343000 255 0 0
-0.256847 -0.223267 2.342000 255 0 0
-0.250021 -0.222897 2.338000 255 0 0
-0.242590 -0.221954 2.328000 255 0 0
-0.235417 -0.221202 2.320000 255 0 0
-0.228187 -0.220355 2.311000 255 0 0
-0.221486 -0.219983 2.307000 255 0 0
-0.215086 -0.219898 2.306000 255 0 0
-0.209052 -0.220194 2.309000 255 0 0
-0.202826 -0.220298 2.310000 255 0 0
-0.196338 -0.220117 2.308000 255 0 0
-0.190108 -0.220221 2.309000 255 0 0
-0.183712 -0.220134 2.308000 255 0 0
-0.177628 -0.220429 2.311000 255 0 0
-0.171453 -0.220627 2.313000 255 0 0
-0.165410 -0.221017 2.317000 255 0 0
-0.159275 -0.221310 2.320000 255 0 0
-0.153518 -0.222176 2.329000 255 0 0
-0.148028 -0.223519 2.343000 255 0 0
-0.142581 -0.225052 2.359000 255 0 0
-0.136988 -0.226490 2.374000 255 0 0
-0.132302 -0.229644 2.407000 255 0 0
-0.085656 -0.228345 2.393000 255 0 0
-0.078771 -0.227394 2.383000 255 0 0
-0.072030 -0.226730 2.376000 255 0 0
-0.065355 -0.226161 2.370000 255 0 0
-0.058663 -0.225400 2.362000 255 0 0
-0.052103 -0.225021 2.358000 255 0 0
-0.045526 -0.224451 2.352000 255 0 0
-0.039015 -0.224071 2.348000 255 0 0
-0.032457 -0.223214 2.339000 255 0 0
-0.025981 -0.222643 2.333000 255 0 0
-0.019579 -0.222548 2.332000 255 0 0
-0.013195 -0.222645 2.333000 255 0 0
-0.006805 -0.222740 2.334000 255 0 0
-0.000409 -0.222645 2.333000 255 0 0
0.005987 -0.222741 2.334000 255 0 0
0.012383 -0.222740 2.334000 255 0 0
0.018811 -0.223121 2.338000 255 0 0
0.025207 -0.223025 2.337000 255 0 0
0.031543 -0.222546 2.332000 255 0 0
0.037868 -0.222163 2.328000 255 0 0
0.044551 -0.223688 2.344000 255 0 0
-0.263120 -0.229558 2.341000 255 0 0
-0.256506 -0.229373 2.339000 255 0 0
-0.249903 -0.229189 2.337000 255 0 0
-0.242788 -0.228514 2.330000 255 0 0
-0.236116 -0.228230 2.327000 255 0 0
-0.228868 -0.227358 2.318000 255 0 0
-0.221860 -0.226682 2.311000 255 0 0
-0.214983 -0.226104 2.305000 255 0 0
-0.208771 -0.226212 2.306000 255 0 0
-0.202641 -0.226417 2.308000 255 0 0
-0.196244 -0.226329 2.307000 255 0 0
-0.190099 -0.226534 2.309000 255 0 0
-0.183863 -0.226641 2.310000 255 0 0
-0.177774 -0.226944 2.313000 255 0 0
-0.171594 -0.227148 2.315000 255 0 0
-0.165545 -0.227549 2.319000 255 0 0
-0.159611 -0.228145 2.325000 255 0 0
-0.153972 -0.229232 2.336000 255 0 0
-0.148400 -0.230515 2.349000 255 0 0
-0.142756 -0.231798 2.362000 255 0 0
-0.137097 -0.233178 2.376000 255 0 0
-0.132296 -0.236227 2.407000 255 0 0
-0.084865 -0.232730 2.371000 255 0 0
-0.078668 -0.233618 2.380000 255 0 0
-0.071996 -0.233131 2.375000 255 0 0
-0.065407 -0.232840 2.372000 255 0 0
-0.058834 -0.232548 2.369000 255 0 0
-0.052344 -0.232551 2.369000 255 0 0
-0.045621 -0.231375 2.357000 255 0 0
-0.039030 -0.230592 2.349000 255 0 0
-0.032427 -0.229416 2.337000 255 0 0
-0.025990 -0.229123 2.334000 255 0 0
-0.019603 -0.229222 2.335000 255 0 0
-0.013222 -0.229517 2.338000 255 0 0
-0.006816 -0.229518 2.338000 255 0 0
-0.000409 -0.229027 2.333000 255 0 0
0.005984 -0.229027 2.333000 255 0 0
0.012388 -0.229223 2.335000 255 0 0
0.018826 -0.229713 2.340000 255 0 0
0.025270 -0.230006 2.343000 255 0 0
0.031636 -0.229612 2.339000 255 0 0
0.038061 -0.229709 2.340000 255 0 0
-0.263220 -0.236055 2.342000 255 0 0
-0.256604 -0.235866 2.340000 255 0 0
-0.249891 -0.235575 2.337000 255 0 0
-0.242881 -0.234982 2.331000 255 0 0
-0.236105 -0.234590 2.327000 255 0 0
-0.229252 -0.234097 2.322000 255 0 0
-0.221946 -0.233099 2.312000 255 0 0
-0.215252 -0.232706 2.308000 255 0 0
-0.208580 -0.232313 2.304000 255 0 0
-0.202456 -0.232525 2.306000 255 0 0
-0.196150 -0.232534 2.306000 255 0 0
-0.190172 -0.232947 2.310000 255 0 0
-0.183933 -0.233057 2.311000 255 0 0
-0.177612 -0.233065 2.311000 255 0 0
-0.171511 -0.233376 2.314000 255 0 0
-0.165537 -0.233889 2.319000 255 0 0
-0.159809 -0.234804 2.328000 255 0 0
-0.154229 -0.236023 2.340000 255 0 0
-0.148519 -0.237139 2.351000 255 0 0
-0.142688 -0.238155 2.361000 255 0 0
-0.137033 -0.239574 2.375000 255 0 0
-0.132509 -0.243213 2.411000 255 0 0
-0.078829 -0.240631 2.385000 255 0 0
-0.072084 -0.239929 2.378000 255 0 0
-0.065459 -0.239529 2.374000 255 0 0
-0.058906 -0.239330 2.372000 255 0 0
-0.052430 -0.239434 2.373000 255 0 0
-0.045754 -0.238528 2.364000 255 0 0
-0.039161 -0.237824 2.357000 255 0 0
-0.032537 -0.236615 2.345000 255 0 0
-0.026078 -0.236314 2.342000 255 0 0
-0.019636 -0.236012 2.339000 255 0 0
-0.013239 -0.236215 2.341000 255 0 0
-0.006824 -0.236215 2.341000 255 0 0
-0.000410 -0.236014 2.339000 255 0 0
0.006004 -0.236215 2.341000 255 0 0
0.012419 -0.236215 2.341000 255 0 0
0.018857 -0.236517 2.344000 255 0 0
0.025290 -0.236617 2.345000 255 0 0
0.031688 -0.236413 2.343000 255 0 0
0.038287 -0.237522 2.354000 255 0 0
-0.263995 -0.243179 2.349000 255 0 0
-0.256592 -0.242259 2.340000 255 0 0
-0.249665 -0.241754 2.335000 255 0 0
-0.242661 -0.241144 2.329000 255 0 0
-0.235993 -0.240845 2.326000 255 0 0
-0.229143 -0.240339 2.321000 255 0 0
-0.222127 -0.239625 2.314000 255 0 0
-0.215242 -0.239014 2.308000 255 0 0
-0.208661 -0.238714 2.305000 255 0 0
-0.202446 -0.238827 2.306000 255 0 0
-0.196225 -0.238941 2.307000 255 0 0
-0.190245 -0.239364 2.311000 255 0 0
-0.183925 -0.239374 2.311000 255 0 0
-0.177757 -0.239590 2.313000 255 0 0
-0.171725 -0.240013 2.317000 255 0 0
-0.165957 -0.240850 2.325000 255 0 0
-0.160075 -0.241583 2.332000 255 0 0
-0.154155 -0.242316 2.339000 255 0 0
-0.148448 -0.243463 2.350000 255 0 0
-0.142621 -0.244507 2.360000 255 0 0
-0.136911 -0.245860 2.373000 255 0 0
-0.132393 -0.249597 2.409000 255 0 0
-0.079651 -0.249744 2.410000 255 0 0
-0.072322 -0.247261 2.386000 255 0 0
-0.065538 -0.246332 2.377000 255 0 0
-0.058878 -0.245713 2.371000 255 0 0
-0.052316 -0.245405 2.368000 255 0 0
-0.045732 -0.244889 2.363000 255 0 0
-0.039176 -0.244373 2.358000 255 0 0
-0.032604 -0.243546 2.350000 255 0 0
-0.026144 -0.243340 2.348000 255 0 0
-0.019694 -0.243134 2.346000 255 0 0
-0.013255 -0.242928 2.344000 255 0 0
-0.006830 -0.242825 2.343000 255 0 0
-0.000410 -0.242514 2.340000 255 0 0
0.006004 -0.242617 2.341000 255 0 0
0.012429 -0.242824 2.343000 255 0 0
0.018872 -0.243134 2.346000 255 0 0
0.025289 -0.243029 2.345000 255 0 0
0.031687 -0.242821 2.343000 255 0 0
0.038350 -0.244373 2.358000 255 0 0
0.045152 -0.246237 2.376000 255 0 0
-0.263757 -0.249383 2.347000 255 0 0
-0.256251 -0.248333 2.337000 255 0 0
-0.249226 -0.247708 2.331000 255 0 0
-0.242337 -0.247189 2.326000 255 0 0
-0.235778 -0.246988 2.324000 255 0 0
-0.229033 -0.246574 2.320000 255 0 0
-0.222308 -0.246160 2.316000 255 0 0
-0.215698 -0.245852 2.313000 255 0 0
-0.209194 -0.245650 2.311000 255 0 0
-0.202524 -0.245235 2.307000 255 0 0
-0.196216 -0.245245 2.307000 255 0 0
-0.190236 -0.245680 2.311000 255 0 0
-0.184075 -0.245902 2.313000 255 0 0
-0.177978 -0.246230 2.316000 255 0 0
-0.172087 -0.246877 2.322000 255 0 0
-0.166305 -0.247736 2.330000 255 0 0
-0.160411 -0.248489 2.337000 255 0 0
-0.154411 -0.249135 2.343000 255 0 0
-0.148567 -0.250100 2.352000 255 0 0
-0.142734 -0.251170 2.362000 255 0 0
-0.137077 -0.252666 2.376000 255 0 0
-0.132001 -0.255438 2.402000 255 0 0
-0.072561 -0.254635 2.394000 255 0 0
-0.065728 -0.253575 2.384000 255 0 0
-0.059024 -0.252834 2.377000 255 0 0
-0.052358 -0.252092 2.370000 255 0 0
-0.045846 -0.251989 2.369000 255 0 0
-0.039273 -0.251459 2.364000 255 0 0
-0.032700 -0.250716 2.357000 255 0 0
-0.026198 -0.250292 2.353000 255 0 0
-0.019710 -0.249762 2.348000 255 0 0
-0.013260 -0.249443 2.345000 255 0 0
-0.006832 -0.249338 2.344000 255 0 0
-0.000411 -0.249444 2.345000 255 0 0
0.006019 -0.249657 2.347000 255 0 0
0.012449 -0.249656 2.347000 255 0 0
0.018887 -0.249762 2.348000 255 0 0
0.025299 -0.249548 2.346000 255 0 0
0.031712 -0.249440 2.345000 255 0 0
0.038413 -0.251246 2.362000 255 0 0
0.045302 -0.253584 2.384000 255 0 0
0.051985 -0.254326 2.391000 255 0 0
-0.262171 -0.254268 2.333000 255 0 0
-0.255800 -0.254281 2.333000 255 0 0
-0.248999 -0.253857 2.329000 255 0 0
-0.242429 -0.253652 2.327000 255 0 0
-0.235868 -0.253446 2.325000 255 0 0
-0.229120 -0.253021 2.321000 255 0 0
-0.222393 -0.252597 2.317000 255 0 0
-0.215594 -0.252063 2.312000 255 0 0
-0.209183 -0.251964 2.311000 255 0 0
-0.202602 -0.251648 2.308000 255 0 0
-0.196546 -0.251985 2.311000 255 0 0
-0.190473 -0.252322 2.314000 255 0 0
-0.184543 -0.252877 2.319000 255 0 0
-0.178507 -0.253323 2.323000 255 0 0
-0.172671 -0.254095 2.330000 255 0 0
-0.166725 -0.254758 2.336000 255 0 0
-0.160608 -0.255203 2.340000 255 0 0
-0.154667 -0.255975 2.347000 255 0 0
-0.148812 -0.256964 2.356000 255 0 0
-0.143029 -0.258172 2.367000 255 0 0
-0.137473 -0.259924 2.383000 255 0 0
-0.132874 -0.263749 2.418000 255 0 0
-0.072497 -0.260962 2.392000 255 0 0
-0.065862 -0.260638 2.389000 255 0 0
-0.059095 -0.259659 2.380000 255 0 0
-0.052443 -0.259008 2.374000 255 0 0
-0.045863 -0.258574 2.370000 255 0 0
-0.039288 -0.258031 2.365000 255 0 0
-0.032712 -0.257269 2.358000 255 0 0
-0.026185 -0.256616 2.352000 255 0 0
-0.019717 -0.256290 2.349000 255 0 0
-0.013253 -0.255745 2.344000 255 0 0
-0.006826 -0.255528 2.342000 255 0 0
-0.000410 -0.255419 2.341000 255 0 0
0.006006 -0.255528 2.342000 255 0 0
0.012433 -0.255745 2.344000 255 0 0
0.018911 -0.256508 2.351000 255 0 0
0.025340 -0.256398 2.350000 255 0 0
0.031792 -0.256506 2.351000 255 0 0
0.038378 -0.257486 2.360000 255 0 0
0.045280 -0.259993 2.383000 255 0 0
0.052004 -0.260972 2.392000 255 0 0
-0.259574 -0.258070 2.310000 255 0 0
-0.255567 -0.260429 2.331000 255 0 0
-0.248987 -0.260218 2.329000 255 0 0
-0.242312 -0.259896 2.326000 255 0 0
-0.235349 -0.259237 2.320000 255 0 0
-0.228911 -0.259138 2.319000 255 0 0
-0.222190 -0.258702 2.315000 255 0 0
-0.215396 -0.258155 2.310000 255 0 0
-0.209082 -0.258166 2.310000 255 0 0
-0.202854 -0.258288 2.311000 255 0 0
-0.196876 -0.258746 2.315000 255 0 0
-0.190710 -0.258980 2.317000 255 0 0
-0.184851 -0.259660 2.323000 255 0 0
-0.178805 -0.260117 2.327000 255 0 0
-0.172884 -0.260797 2.333000 255 0 0
-0.166645 -0.261029 2.335000 255 0 0
-0.160737 -0.261821 2.342000 255 0 0
-0.155185 -0.263282 2.355000 255 0 0
-0.149310 -0.264297 2.364000 255 0 0
-0.143505 -0.265534 2.375000 255 0 0
-0.137812 -0.267107 2.389000 255 0 0
-0.072432 -0.267276 2.390000 255 0 0
-0.065886 -0.267280 2.390000 255 0 0
-0.059241 -0.266836 2.386000 255 0 0
-0.052573 -0.266168 2.380000 255 0 0
-0.045919 -0.265388 2.373000 255 0 0
-0.039252 -0.264272 2.363000 255 0 0
-0.032696 -0.263603 2.357000 255 0 0
-0.026195 -0.263157 2.353000 255 0 0
-0.019749 -0.263158 2.353000 255 0 0
-0.013275 -0.262600 2.348000 255 0 0
-0.006832 -0.262153 2.344000 255 0 0
-0.000410 -0.261930 2.342000 255 0 0
0.006013 -0.262265 2.345000 255 0 0
0.012459 -0.262712 2.349000 255 0 0
0.018950 -0.263494 2.356000 255 0 0
0.025458 -0.264052 2.361000 255 0 0
0.031939 -0.264162 2.362000 255 0 0
0.038506 -0.264831 2.368000 255 0 0
0.045145 -0.265724 2.376000 255 0 0
0.051697 -0.265945 2.378000 255 0 0
-0.263830 -0.268727 2.348000 255 0 0
-0.255774 -0.267023 2.333000 255 0 0
-0.248974 -0.266578 2.329000 255 0 0
-0.242196 -0.266133 2.325000 255 0 0
-0.235438 -0.265688 2.321000 255 0 0
-0.228899 -0.265471 2.319000 255 0 0
-0.222178 -0.265025 2.315000 255 0 0
-0.215571 -0.264693 2.312000 255 0 0
-0.209342 -0.264819 2.313000 255 0 0
-0.203458 -0.265402 2.318000 255 0 0
-0.197206 -0.265528 2.319000 255 0 0
-0.190700 -0.265309 2.317000 255 0 0
-0.184682 -0.265777 2.321000 255 0 0
-0.178795 -0.266474 2.327000 255 0 0
-0.172727 -0.266942 2.331000 255 0 0
-0.166636 -0.267409 2.335000 255 0 0
-0.160728 -0.268219 2.342000 255 0 0
-0.155375 -0.270060 2.358000 255 0 0
-0.149554 -0.271214 2.368000 255 0 0
-0.143860 -0.272711 2.381000 255 0 0
-0.138382 -0.274780 2.399000 255 0 0
-0.066158 -0.274957 2.400000 255 0 0
-0.059337 -0.273815 2.390000 255 0 0
-0.052659 -0.273131 2.384000 255 0 0
-0.045897 -0.271759 2.372000 255 0 0
-0.039267 -0.270844 2.364000 255 0 0
-0.032750 -0.270503 2.361000 255 0 0
-0.026272 -0.270390 2.360000 255 0 0
-0.019807 -0.270391 2.360000 255 0 0
-0.013303 -0.269590 2.353000 255 0 0
-0.006843 -0.269018 2.348000 255 0 0
-0.000410 -0.268560 2.344000 255 0 0
0.006018 -0.268903 2.347000 255 0 0
0.012474 -0.269476 2.352000 255 0 0
0.018973 -0.270277 2.359000 255 0 0
0.025478 -0.270734 2.363000 255 0 0
0.031937 -0.270618 2.362000 255 0 0
0.038472 -0.271074 2.366000 255 0 0
0.044933 -0.270957 2.365000 255 0 0
0.051259 -0.270152 2.358000 255 0 0
-0.263479 -0.274786 2.345000 255 0 0
-0.255651 -0.273276 2.332000 255 0 0
-0.248534 -0.272469 2.325000 255 0 0
-0.242079 -0.272365 2.324000 255 0 0
-0.235121 -0.271674 2.318000 255 0 0
-0.228887 -0.271804 2.319000 255 0 0
-0.222166 -0.271347 2.315000 255 0 0
-0.216026 -0.271593 2.317000 255 0 0
-0.209874 -0.271839 2.319000 255 0 0
-0.203886 -0.272319 2.323000 255 0 0
-0.197365 -0.272096 2.321000 255 0 0
-0.190854 -0.271872 2.319000 255 0 0
-0.184911 -0.272468 2.324000 255 0 0
-0.179016 -0.273182 2.330000 255 0 0
-0.172718 -0.273309 2.331000 255 0 0
-0.166770 -0.274022 2.337000 255 0 0
-0.161063 -0.275203 2.347000 255 0 0
-0.155564 -0.276854 2.361000 255 0 0
-0.149799 -0.278152 2.372000 255 0 0
-0.144335 -0.280154 2.389000 255 0 0
-0.139470 -0.283563 2.418000 255 0 0
-0.066348 -0.282336 2.407000 255 0 0
-0.059483 -0.281050 2.396000 255 0 0
-0.052766 -0.280232 2.389000 255 0 0
-0.046030 -0.279061 2.379000 255 0 0
-0.039381 -0.278125 2.371000 255 0 0
-0.032845 -0.277776 2.368000 255 0 0
-0.026393 -0.278129 2.371000 255 0 0
-0.019890 -0.278013 2.370000 255 0 0
-0.013353 -0.277076 2.362000 255 0 0
-0.006860 -0.276138 2.354000 255 0 0
-0.000411 -0.275669 2.350000 255 0 0
0.006033 -0.276021 2.353000 255 0 0
0.012505 -0.276607 2.358000 255 0 0
0.018996 -0.277075 2.362000 255 0 0
0.025519 -0.277660 2.367000 255 0 0
0.032003 -0.277659 2.367000 255 0 0
0.038648 -0.278830 2.377000 255 0 0
0.045102 -0.278475 2.374000 255 0 0
-0.255527 -0.279522 2.331000 255 0 0
-0.249055 -0.279416 2.330000 255 0 0
-0.242274 -0.278949 2.326000 255 0 0
-0.235312 -0.278243 2.320000 255 0 0
-0.228973 -0.278255 2.320000 255 0 0
-0.222154 -0.277668 2.315000 255 0 0
-0.215921 -0.277800 2.316000 255 0 0
-0.209682 -0.277932 2.317000 255 0 0
-0.203875 -0.278663 2.323000 255 0 0
-0.197694 -0.278914 2.325000 255 0 0
-0.191420 -0.279045 2.326000 255 0 0
-0.185298 -0.279415 2.329000 255 0 0
-0.179160 -0.279785 2.332000 255 0 0
-0.172930 -0.280035 2.334000 255 0 0
-0.167260 -0.281244 2.344000 255 0 0
-0.161534 -0.282454 2.354000 255 0 0
-0.155687 -0.283542 2.363000 255 0 0
-0.149853 -0.284751 2.373000 255 0 0
-0.144870 -0.287759 2.398000 255 0 0
-0.066564 -0.289873 2.415000 255 0 0
-0.059777 -0.289036 2.408000 255 0 0
-0.053028 -0.288199 2.401000 255 0 0
-0.046220 -0.286762 2.389000 255 0 0
-0.039511 -0.285564 2.379000 255 0 0
-0.032927 -0.284966 2.374000 255 0 0
-0.026458 -0.285327 2.377000 255 0 0
-0.019889 -0.284488 2.370000 255 0 0
-0.013364 -0.283769 2.364000 255 0 0
-0.006871 -0.283050 2.358000 255 0 0
-0.000412 -0.282690 2.355000 255 0 0
0.006041 -0.282810 2.356000 255 0 0
0.012510 -0.283169 2.359000 255 0 0
0.019003 -0.283648 2.363000 255 0 0
0.025529 -0.284247 2.368000 255 0 0
0.032041 -0.284486 2.370000 255 0 0
0.038711 -0.285804 2.381000 255 0 0
0.045403 -0.286882 2.390000 255 0 0
-0.255623 -0.286007 2.332000 255 0 0
-0.249255 -0.286021 2.332000 255 0 0
-0.242677 -0.285789 2.330000 255 0 0
-0.235096 -0.284331 2.318000 255 0 0
-0.228467 -0.283975 2.315000 255 0 0
-0.221566 -0.283252 2.309000 255 0 0
-0.215629 -0.283755 2.313000 255 0 0
-0.209127 -0.283521 2.311000 255 0 0
-0.203600 -0.284637 2.320000 255 0 0
-0.197683 -0.285262 2.325000 255 0 0
-0.191821 -0.286009 2.331000 255 0 0
-0.185686 -0.286388 2.334000 255 0 0
-0.179227 -0.286276 2.333000 255 0 0
-0.173143 -0.286777 2.337000 255 0 0
-0.167536 -0.288136 2.348000 255 0 0
-0.161799 -0.289373 2.358000 255 0 0
-0.155810 -0.290241 2.365000 255 0 0
-0.150350 -0.292213 2.381000 255 0 0
-0.145587 -0.295781 2.410000 255 0 0
-0.066753 -0.297329 2.422000 255 0 0
-0.060146 -0.297455 2.423000 255 0 0
-0.053467 -0.297213 2.421000 255 0 0
-0.046682 -0.296234 2.413000 255 0 0
-0.039825 -0.294395 2.398000 255 0 0
-0.033049 -0.292556 2.383000 255 0 0
-0.026445 -0.291698 2.376000 255 0 0
-0.019888 -0.290963 2.370000 255 0 0
-0.013385 -0.290718 2.368000 255 0 0
-0.006897 -0.290596 2.367000 255 0 0
-0.000414 -0.290351 2.365000 255 0 0
0.006061 -0.290228 2.364000 255 0 0
0.012546 -0.290473 2.366000 255 0 0
0.019042 -0.290717 2.368000 255 0 0
0.025581 -0.291330 2.373000 255 0 0
0.032161 -0.292065 2.379000 255 0 0
0.038855 -0.293413 2.390000 255 0 0
0.045818 -0.296111 2.412000 255 0 0
-0.256157 -0.292998 2.337000 255 0 0
-0.250630 -0.294015 2.345000 255 0 0
-0.242976 -0.292525 2.333000 255 0 0
-0.235184 -0.290783 2.319000 255 0 0
-0.228257 -0.290043 2.313000 255 0 0
-0.221841 -0.289931 2.312000 255 0 0
-0.215617 -0.290069 2.313000 255 0 0
-0.209206 -0.289955 2.312000 255 0 0
-0.203501 -0.290845 2.319000 255 0 0
-0.197842 -0.291860 2.327000 255 0 0
-0.191810 -0.292373 2.331000 255 0 0
-0.185437 -0.292384 2.331000 255 0 0
-0.179293 -0.292771 2.334000 255 0 0
-0.173948 -0.294537 2.348000 255 0 0
-0.168311 -0.295927 2.359000 255 0 0
-0.162339 -0.296815 2.366000 255 0 0
-0.155998 -0.297075 2.368000 255 0 0
-0.150531 -0.299091 2.384000 255 0 0
-0.145820 -0.302864 2.414000 255 0 0
-0.067631 -0.307959 2.454000 255 0 0
-0.060465 -0.305704 2.436000 255 0 0
-0.053662 -0.304955 2.430000 255 0 0
-0.046892 -0.304205 2.424000 255 0 0
-0.039955 -0.301948 2.406000 255 0 0
-0.033186 -0.300319 2.393000 255 0 0
-0.026499 -0.298815 2.381000 255 0 0
-0.019954 -0.298440 2.378000 255 0 0
-0.013435 -0.298315 2.377000 255 0 0
-0.006920 -0.298065 2.375000 255 0 0
-0.000414 -0.297061 2.367000 255 0 0
0.006063 -0.296810 2.365000 255 0 0
0.012545 -0.296935 2.366000 255 0 0
0.019025 -0.296934 2.366000 255 0 0
0.025526 -0.297184 2.368000 255 0 0
0.032173 -0.298688 2.380000 255 0 0
0.038902 -0.300317 2.393000 255 0 0
0.045379 -0.299813 2.389000 255 0 0
-0.250723 -0.300543 2.346000 255 0 0
-0.243171 -0.299147 2.335000 255 0 0
-0.235272 -0.297239 2.320000 255 0 0
-0.228639 -0.296868 2.317000 255 0 0
-0.222213 -0.296753 2.316000 255 0 0
-0.215884 -0.296766 2.316000 255 0 0
-0.209284 -0.296394 2.313000 255 0 0
-0.203665 -0.297431 2.321000 255 0 0
-0.198001 -0.298468 2.329000 255 0 0
-0.192045 -0.299120 2.334000 255 0 0
-0.185823 -0.299387 2.336000 255 0 0
-0.179974 -0.300295 2.343000 255 0 0
-0.174752 -0.302357 2.359000 255 0 0
-0.169014 -0.303649 2.369000 255 0 0
-0.162947 -0.304428 2.375000 255 0 0
-0.156450 -0.304437 2.375000 255 0 0
-0.150648 -0.305856 2.386000 255 0 0
-0.145510 -0.308813 2.409000 255 0 0
-0.066525 -0.309531 2.414000 255 0 0
-0.060437 -0.312228 2.435000 255 0 0
-0.053769 -0.312232 2.435000 255 0 0
-0.047063 -0.311978 2.433000 255 0 0
-0.040119 -0.309801 2.416000 255 0 0
-0.033337 -0.308264 2.404000 255 0 0
-0.026620 -0.306728 2.392000 255 0 0
-0.020103 -0.307242 2.396000 255 0 0
-0.013514 -0.306602 2.391000 255 0 0
-0.006949 -0.305833 2.385000 255 0 0
-0.000415 -0.304166 2.372000 255 0 0
0.006073 -0.303781 2.369000 255 0 0
0.012550 -0.303524 2.367000 255 0 0
0.018999 -0.303010 2.363000 255 0 0
0.025481 -0.303137 2.364000 255 0 0
0.032171 -0.305187 2.380000 255 0 0
0.038932 -0.307108 2.395000 255 0 0
-0.253167 -0.309952 2.369000 255 0 0
-0.243157 -0.305518 2.335000 255 0 0
-0.235765 -0.304224 2.325000 255 0 0
-0.229316 -0.304107 2.324000 255 0 0
-0.222871 -0.303989 2.323000 255 0 0
-0.216151 -0.303478 2.319000 255 0 0
-0.209362 -0.302837 2.314000 255 0 0
-0.203828 -0.304027 2.323000 255 0 0
-0.198244 -0.305216 2.332000 255 0 0
-0.192445 -0.306144 2.339000 255 0 0
-0.186290 -0.306548 2.342000 255 0 0
-0.180731 -0.307999 2.353000 255 0 0
-0.175186 -0.309581 2.365000 255 0 0
-0.169218 -0.310507 2.372000 255 0 0
-0.163280 -0.311565 2.380000 255 0 0
-0.157034 -0.312098 2.384000 255 0 0
-0.151207 -0.313547 2.395000 255 0 0
-0.145501 -0.315389 2.409000 255 0 0
-0.140525 -0.319064 2.437000 255 0 0
-0.060383 -0.318614 2.433000 255 0 0
-0.053766 -0.318880 2.435000 255 0 0
-0.047022 -0.318359 2.431000 255 0 0
-0.040133 -0.316528 2.417000 255 0 0
-0.033348 -0.314959 2.405000 255 0 0
-0.026696 -0.314175 2.399000 255 0 0
-0.020127 -0.314177 2.399000 255 0 0
-0.013530 -0.313523 2.394000 255 0 0
-0.006951 -0.312476 2.386000 255 0 0
-0.000416 -0.311428 2.378000 255 0 0
0.006085 -0.310904 2.374000 255 0 0
0.012597 -0.311166 2.376000 255 0 0
0.019079 -0.310772 2.373000 255 0 0
0.025609 -0.311163 2.376000 255 0 0
0.032291 -0.312864 2.389000 255 0 0
0.039157 -0.315481 2.409000 255 0 0
-0.253045 -0.316281 2.368000 255 0 0
-0.243455 -0.312289 2.338000 255 0 0
-0.235954 -0.310834 2.327000 255 0 0
-0.229697 -0.310981 2.328000 255 0 0
-0.222954 -0.310460 2.324000 255 0 0
-0.216511 -0.310340 2.323000 255 0 0
-0.209712 -0.309685 2.318000 255 0 0
-0.204255 -0.311033 2.328000 255 0 0
-0.198572 -0.312114 2.336000 255 0 0
-0.192927 -0.313328 2.345000 255 0 0
-0.186676 -0.313607 2.347000 255 0 0
-0.180720 -0.314420 2.353000 255 0 0
-0.174879 -0.315500 2.361000 255 0 0
-0.168923 -0.316446 2.368000 255 0 0
-0.163270 -0.318060 2.380000 255 0 0
-0.157617 -0.319807 2.393000 255 0 0
-0.151892 -0.321554 2.406000 255 0 0
-0.146217 -0.323568 2.421000 255 0 0
-0.140285 -0.325181 2.433000 255 0 0
-0.066710 -0.323648 2.421000 255 0 0
-0.060280 -0.324721 2.429000 255 0 0
-0.053652 -0.324858 2.430000 255 0 0
-0.046999 -0.324862 2.430000 255 0 0
-0.040197 -0.323661 2.421000 255 0 0
-0.033430 -0.322327 2.411000 255 0 0
-0.026739 -0.321259 2.403000 255 0 0
-0.020160 -0.321260 2.403000 255 0 0
-0.013569 -0.320994 2.401000 255 0 0
-0.006986 -0.320594 2.398000 255 0 0
-0.000418 -0.319524 2.390000 255 0 0
0.006121 -0.319257 2.388000 255 0 0
0.012665 -0.319390 2.389000 255 0 0
0.019254 -0.320191 2.395000 255 0 0
0.025780 -0.319789 2.392000 255 0 0
0.032451 -0.320990 2.401000 255 0 0
0.039415 -0.324196 2.425000 255 0 0
-0.242816 -0.317848 2.332000 255 0 0
-0.235738 -0.316908 2.325000 255 0 0
-0.229881 -0.317604 2.330000 255 0 0
-0.223516 -0.317618 2.330000 255 0 0
-0.217244 -0.317767 2.331000 255 0 0
-0.210785 -0.317644 2.330000 255 0 0
-0.204593 -0.317929 2.332000 255 0 0
-0.198645 -0.318623 2.337000 255 0 0
-0.192751 -0.319453 2.343000 255 0 0
-0.186744 -0.320147 2.348000 255 0 0
-0.180786 -0.320976 2.354000 255 0 0
-0.174646 -0.321533 2.358000 255 0 0
-0.168770 -0.322634 2.366000 255 0 0
-0.163260 -0.324554 2.380000 255 0 0
-0.157805 -0.326746 2.396000 255 0 0
-0.152198 -0.328801 2.411000 255 0 0
-0.146207 -0.330174 2.421000 255 0 0
-0.140392 -0.332093 2.435000 255 0 0
-0.066953 -0.331483 2.430000 255 0 0
-0.060376 -0.331896 2.433000 255 0 0
-0.053715 -0.331900 2.433000 255 0 0
-0.046958 -0.331221 2.428000 255 0 0
-0.040261 -0.330815 2.425000 255 0 0
-0.033538 -0.329999 2.419000 255 0 0
-0.026804 -0.328636 2.409000 255 0 0
-0.020192 -0.328365 2.407000 255 0 0
-0.013596 -0.328230 2.406000 255 0 0
-0.007003 -0.327957 2.404000 255 0 0
-0.000420 -0.327139 2.398000 255 0 0
0.006143 -0.327003 2.397000 255 0 0
0.012712 -0.327138 2.398000 255 0 0
0.019277 -0.327137 2.398000 255 0 0
0.025886 -0.327682 2.402000 255 0 0
0.032611 -0.329180 2.413000 255 0 0
-0.242385 -0.323652 2.328000 255 0 0
-0.236230 -0.323944 2.330000 255 0 0
-0.230261 -0.324515 2.334000 255 0 0
-0.223982 -0.324668 2.335000 255 0 0
-0.217976 -0.325237 2.339000 255 0 0
-0.211767 -0.325529 2.341000 255 0 0
-0.205195 -0.325264 2.339000 255 0 0
-0.198973 -0.325554 2.341000 255 0 0
-0.192821 -0.325984 2.344000 255 0 0
-0.187051 -0.327108 2.352000 255 0 0
-0.181005 -0.327815 2.357000 255 0 0
-0.174858 -0.328383 2.361000 255 0 0
-0.169187 -0.329923 2.372000 255 0 0
-0.163593 -0.331742 2.385000 255 0 0
-0.157729 -0.333143 2.395000 255 0 0
-0.151747 -0.334405 2.404000 255 0 0
-0.145715 -0.335667 2.413000 255 0 0
-0.140095 -0.338041 2.430000 255 0 0
-0.060794 -0.340901 2.450000 255 0 0
-0.053910 -0.339792 2.442000 255 0 0
-0.047090 -0.338821 2.435000 255 0 0
-0.040374 -0.338406 2.432000 255 0 0
-0.033703 -0.338270 2.431000 255 0 0
-0.026969 -0.337297 2.424000 255 0 0
-0.020325 -0.337160 2.423000 255 0 0
-0.013674 -0.336744 2.420000 255 0 0
-0.007040 -0.336327 2.417000 255 0 0
-0.000421 -0.334518 2.404000 255 0 0
0.006153 -0.334100 2.401000 255 0 0
0.012706 -0.333543 2.397000 255 0 0
0.019244 -0.333125 2.394000 255 0 0
0.025830 -0.333541 2.397000 255 0 0
0.032501 -0.334652 2.405000 255 0 0
-0.243827 -0.331984 2.342000 255 0 0
-0.237128 -0.331573 2.339000 255 0 0
-0.230543 -0.331304 2.337000 255 0 0
-0.224256 -0.331460 2.338000 255 0 0
-0.218056 -0.331758 2.340000 255 0 0
-0.212115 -0.332480 2.345000 255 0 0
-0.205445 -0.332068 2.342000 255 0 0
-0.199215 -0.332364 2.344000 255 0 0
-0.193056 -0.332802 2.347000 255 0 0
-0.187357 -0.334090 2.356000 255 0 0
-0.181301 -0.334811 2.361000 255 0 0
-0.174921 -0.334964 2.362000 255 0 0
-0.169033 -0.336110 2.370000 255 0 0
-0.163582 -0.338248 2.385000 255 0 0
-0.157587 -0.339393 2.393000 255 0 0
-0.151611 -0.340679 2.402000 255 0 0
-0.145343 -0.341398 2.407000 255 0 0
-0.139509 -0.343251 2.420000 255 0 0
-0.061286 -0.350423 2.470000 255 0 0
-0.054194 -0.348299 2.455000 255 0 0
-0.047377 -0.347593 2.450000 255 0 0
-0.040571 -0.346744 2.444000 255 0 0
-0.033867 -0.346605 2.443000 255 0 0
-0.027112 -0.345756 2.437000 255 0 0
-0.020382 -0.344764 2.430000 255 0 0
-0.013707 -0.344198 2.426000 255 0 0
-0.007045 -0.343205 2.419000 255 0 0
-0.000423 -0.342780 2.416000 255 0 0
0.006171 -0.341645 2.408000 255 0 0
0.012763 -0.341644 2.408000 255 0 0
0.019307 -0.340792 2.402000 255 0 0
0.025872 -0.340648 2.401000 255 0 0
0.032458 -0.340788 2.402000 255 0 0
-0.245062 -0.340102 2.354000 255 0 0
-0.237722 -0.338817 2.345000 255 0 0
-0.230529 -0.337676 2.337000 255 0 0
-0.224050 -0.337546 2.336000 255 0 0
-0.218042 -0.338138 2.340000 255 0 0
-0.212102 -0.338874 2.345000 255 0 0
-0.205870 -0.339176 2.347000 255 0 0
-0.199457 -0.339189 2.347000 255 0 0
-0.193291 -0.339635 2.350000 255 0 0
-0.187345 -0.340515 2.356000 255 0 0
-0.181136 -0.340960 2.359000 255 0 0
-0.174983 -0.341550 2.363000 255 0 0
-0.169094 -0.342717 2.371000 255 0 0
-0.163503 -0.344607 2.384000 255 0 0
-0.157774 -0.346352 2.396000 255 0 0
-0.151917 -0.347953 2.407000 255 0 0
-0.145877 -0.349264 2.416000 255 0 0
-0.139673 -0.350285 2.423000 255 0 0
-0.068731 -0.360771 2.495000 255 0 0
-0.061579 -0.358896 2.482000 255 0 0
-0.054543 -0.357309 2.471000 255 0 0
-0.047451 -0.354854 2.454000 255 0 0
-0.040718 -0.354713 2.453000 255 0 0
-0.034031 -0.355004 2.455000 255 0 0
-0.027277 -0.354573 2.452000 255 0 0
-0.020465 -0.352839 2.440000 255 0 0
-0.013735 -0.351539 2.431000 255 0 0
-0.007062 -0.350672 2.425000 255 0 0
-0.000424 -0.350527 2.424000 255 0 0
0.006188 -0.349226 2.415000 255 0 0
0.012815 -0.349659 2.418000 255 0 0
0.019418 -0.349369 2.416000 255 0 0
0.026042 -0.349512 2.417000 255 0 0
0.032550 -0.348353 2.409000 255 0 0
-0.246191 -0.348138 2.365000 255 0 0
-0.237098 -0.344326 2.339000 255 0 0
-0.230021 -0.343310 2.332000 255 0 0
-0.223652 -0.343325 2.332000 255 0 0
-0.217749 -0.344075 2.337000 255 0 0
-0.212088 -0.345267 2.345000 255 0 0
-0.206208 -0.346164 2.351000 255 0 0
-0.200124 -0.346766 2.355000 255 0 0
-0.193854 -0.347073 2.357000 255 0 0
-0.187492 -0.347233 2.358000 255 0 0
-0.181047 -0.347245 2.358000 255 0 0
-0.174898 -0.347846 2.362000 255 0 0
-0.168940 -0.348888 2.369000 255 0 0
-0.163149 -0.350371 2.379000 255 0 0
-0.157632 -0.352591 2.394000 255 0 0
-0.151907 -0.354516 2.407000 255 0 0
-0.146049 -0.356293 2.419000 255 0 0
-0.139664 -0.356892 2.423000 255 0 0
-0.073434 -0.357258 2.425000 255 0 0
-0.068037 -0.363893 2.470000 255 0 0
-0.061551 -0.365518 2.481000 255 0 0
-0.054496 -0.363754 2.469000 255 0 0
-0.047583 -0.362579 2.461000 255 0 0
-0.040831 -0.362434 2.460000 255 0 0
-0.034139 -0.362879 2.463000 255 0 0
-0.027387 -0.362734 2.462000 255 0 0
-0.020555 -0.361115 2.451000 255 0 0
-0.013801 -0.359937 2.443000 255 0 0
-0.007088 -0.358612 2.434000 255 0 0
-0.000426 -0.358759 2.435000 255 0 0
0.006221 -0.357728 2.428000 255 0 0
0.012910 -0.358906 2.436000 255 0 0
0.019578 -0.358905 2.436000 255 0 0
0.026245 -0.358903 2.436000 255 0 0
0.032764 -0.357280 2.425000 255 0 0
-0.244718 -0.352484 2.351000 255 0 0
-0.237387 -0.351150 2.342000 255 0 0
-0.230401 -0.350266 2.336000 255 0 0
-0.224117 -0.350430 2.337000 255 0 0
-0.218107 -0.351045 2.341000 255 0 0
-0.212617 -0.352558 2.351000 255 0 0
-0.206545 -0.353172 2.355000 255 0 0
-0.200536 -0.353935 2.360000 255 0 0
-0.194006 -0.353798 2.359000 255 0 0
-0.188036 -0.354710 2.365000 255 0 0
-0.181342 -0.354273 2.362000 255 0 0
-0.175479 -0.355484 2.370000 255 0 0
-0.169286 -0.356096 2.374000 255 0 0
-0.163207 -0.357007 2.380000 255 0 0
-0.157490 -0.358818 2.392000 255 0 0
-0.151833 -0.360928 2.406000 255 0 0
-0.146401 -0.363789 2.425000 255 0 0
-0.140346 -0.365299 2.435000 255 0 0
-0.075034 -0.371824 2.478000 255 0 0
-0.068005 -0.370478 2.469000 255 0 0
-0.061397 -0.371383 2.475000 255 0 0
-0.054558 -0.370937 2.472000 255 0 0
-0.047715 -0.370340 2.468000 255 0 0
-0.040944 -0.370193 2.467000 255 0 0
-0.034206 -0.370346 2.468000 255 0 0
-0.027385 -0.369447 2.462000 255 0 0
-0.020596 -0.368549 2.456000 255 0 0
-0.013834 -0.367499 2.449000 255 0 0
-0.007117 -0.366750 2.444000 255 0 0
-0.000427 -0.366150 2.440000 255 0 0
0.006244 -0.365699 2.437000 255 0 0
0.012935 -0.366299 2.441000 255 0 0
0.019640 -0.366748 2.444000 255 0 0
0.026362 -0.367197 2.447000 255 0 0
0.032992 -0.366444 2.442000 255 0 0
-0.244807 -0.359043 2.352000 255 0 0
-0.238386 -0.359059 2.352000 255 0 0
-0.231865 -0.358921 2.351000 255 0 0
-0.225541 -0.359089 2.352000 255 0 0
-0.219118 -0.359104 2.352000 255 0 0
-0.213327 -0.360187 2.359000 255 0 0
-0.206707 -0.359895 2.357000 255 0 0
-0.200693 -0.360672 2.362000 255 0 0
-0.194322 -0.360838 2.363000 255 0 0
-0.188421 -0.361920 2.370000 255 0 0
-0.181944 -0.361932 2.370000 255 0 0
-0.175837 -0.362708 2.375000 255 0 0
-0.169702 -0.363483 2.380000 255 0 0
-0.163402 -0.363952 2.383000 255 0 0
-0.157348 -0.365032 2.390000 255 0 0
-0.151823 -0.367487 2.406000 255 0 0
-0.146572 -0.370857 2.428000 255 0 0
-0.141201 -0.374227 2.450000 255 0 0
-0.075362 -0.380260 2.489000 255 0 0
-0.068551 -0.380265 2.489000 255 0 0
-0.061319 -0.377672 2.472000 255 0 0
-0.054687 -0.378593 2.478000 255 0 0
-0.047944 -0.378902 2.480000 255 0 0
-0.041157 -0.378905 2.480000 255 0 0
-0.034315 -0.378297 2.476000 255 0 0
-0.027438 -0.376924 2.467000 255 0 0
-0.020653 -0.376314 2.463000 255 0 0
-0.013901 -0.376010 2.461000 255 0 0
-0.007157 -0.375552 2.458000 255 0 0
-0.000430 -0.375400 2.457000 255 0 0
0.006290 -0.375094 2.455000 255 0 0
0.013009 -0.375093 2.455000 255 0 0
0.019695 -0.374481 2.451000 255 0 0
0.026414 -0.374632 2.452000 255 0 0
0.033300 -0.376616 2.465000 255 0 0
-0.244999 -0.365761 2.354000 255 0 0
-0.239181 -0.366710 2.360000 255 0 0
-0.232935 -0.367036 2.362000 255 0 0
-0.226485 -0.367051 2.362000 255 0 0
-0.219755 -0.366600 2.359000 255 0 0
-0.213493 -0.366925 2.361000 255 0 0
-0.206869 -0.366628 2.359000 255 0 0
-0.200680 -0.367108 2.362000 255 0 0
-0.194391 -0.367432 2.364000 255 0 0
-0.188885 -0.369310 2.376000 255 0 0
-0.182777 -0.370100 2.381000 255 0 0
-0.176492 -0.370579 2.384000 255 0 0
-0.170118 -0.370902 2.386000 255 0 0
-0.163733 -0.371224 2.388000 255 0 0
-0.157798 -0.372634 2.397000 255 0 0
-0.152318 -0.375288 2.414000 255 0 0
-0.147166 -0.379029 2.438000 255 0 0
-0.141710 -0.382304 2.459000 255 0 0
-0.076204 -0.391398 2.517000 255 0 0
-0.068657 -0.387671 2.493000 255 0 0
-0.061811 -0.387520 2.492000 255 0 0
-0.055036 -0.387836 2.494000 255 0 0
-0.048211 -0.387839 2.494000 255 0 0
-0.041370 -0.387687 2.493000 255 0 0
-0.034437 -0.386445 2.485000 255 0 0
-0.027514 -0.384737 2.474000 255 0 0
-0.020669 -0.383339 2.465000 255 0 0
-0.013900 -0.382718 2.461000 255 0 0
-0.007177 -0.383341 2.465000 255 0 0
-0.000432 -0.384430 2.472000 255 0 0
0.006340 -0.384896 2.475000 255 0 0
0.013082 -0.383962 2.469000 255 0 0
0.019774 -0.382717 2.461000 255 0 0
0.026498 -0.382560 2.460000 255 0 0
0.033771 -0.388778 2.500000 255 0 0
0.040969 -0.392197 2.522000 255 0 0
-0.245295 -0.372648 2.357000 255 0 0
-0.239064 -0.372980 2.359000 255 0 0
-0.232722 -0.373154 2.360000 255 0 0
-0.226374 -0.373327 2.361000 255 0 0
-0.219741 -0.373026 2.359000 255 0 0
-0.213389 -0.373199 2.360000 255 0 0
-0.207030 -0.373371 2.361000 255 0 0
-0.200836 -0.373859 2.364000 255 0 0
-0.194706 -0.374505 2.368000 255 0 0
-0.188952 -0.375942 2.377000 255 0 0
-0.182994 -0.377062 2.384000 255 0 0
-0.176702 -0.377549 2.387000 255 0 0
-0.170463 -0.378193 2.391000 255 0 0
-0.164202 -0.378838 2.395000 255 0 0
-0.158314 -0.380431 2.405000 255 0 0
-0.152622 -0.382656 2.419000 255 0 0
-0.147095 -0.385514 2.437000 255 0 0
-0.141239 -0.387739 2.451000 255 0 0
-0.137282 -0.395658 2.501000 255 0 0
-0.077168 -0.403321 2.549000 255 0 0
-0.069864 -0.401428 2.537000 255 0 0
-0.062377 -0.397951 2.515000 255 0 0
-0.055429 -0.397481 2.512000 255 0 0
-0.048556 -0.397484 2.512000 255 0 0
-0.041583 -0.396538 2.506000 255 0 0
-0.034643 -0.395592 2.500000 255 0 0
-0.027646 -0.393378 2.486000 255 0 0
-0.020785 -0.392273 2.479000 255 0 0
-0.013967 -0.391324 2.473000 255 0 0
-0.007217 -0.392274 2.479000 255 0 0
-0.000434 -0.392433 2.480000 255 0 0
0.006366 -0.393224 2.485000 255 0 0
0.013150 -0.392749 2.482000 255 0 0
0.019926 -0.392431 2.480000 255 0 0
0.026873 -0.394803 2.495000 255 0 0
-0.245487 -0.379388 2.359000 255 0 0
-0.238845 -0.379083 2.357000 255 0 0
-0.232509 -0.379260 2.358000 255 0 0
-0.226071 -0.379275 2.358000 255 0 0
-0.219539 -0.379129 2.357000 255 0 0
-0.213193 -0.379305 2.358000 255 0 0
-0.206841 -0.379480 2.359000 255 0 0
-0.201077 -0.380781 2.367000 255 0 0
-0.195269 -0.382082 2.375000 255 0 0
-0.189575 -0.383704 2.385000 255 0 0
-0.183365 -0.384360 2.389000 255 0 0
-0.176985 -0.384695 2.391000 255 0 0
-0.170879 -0.385672 2.397000 255 0 0
-0.164671 -0.386489 2.402000 255 0 0
-0.158698 -0.387948 2.411000 255 0 0
-0.152801 -0.389729 2.422000 255 0 0
-0.146964 -0.391831 2.435000 255 0 0
-0.141229 -0.394416 2.451000 255 0 0
-0.076981 -0.409301 2.543000 255 0 0
-0.070051 -0.409467 2.544000 255 0 0
-0.062918 -0.408345 2.537000 255 0 0
-0.055866 -0.407545 2.532000 255 0 0
-0.048726 -0.405778 2.521000 255 0 0
-0.041796 -0.405459 2.519000 255 0 0
-0.034737 -0.403530 2.507000 255 0 0
-0.027733 -0.401440 2.494000 255 0 0
-0.020817 -0.399671 2.483000 255 0 0
-0.014006 -0.399190 2.480000 255 0 0
-0.007243 -0.400478 2.488000 255 0 0
-0.000435 -0.400800 2.490000 255 0 0
0.006386 -0.401283 2.493000 255 0 0
0.013202 -0.401121 2.492000 255 0 0
0.020125 -0.403213 2.505000 255 0 0
0.026936 -0.402567 2.501000 255 0 0
0.033496 -0.399185 2.480000 255 0 0
-0.246511 -0.387447 2.369000 255 0 0
-0.239133 -0.385992 2.360000 255 0 0
-0.232592 -0.385844 2.359000 255 0 0
-0.225768 -0.385205 2.355000 255 0 0
-0.219338 -0.385221 2.355000 255 0 0
-0.212998 -0.385399 2.356000 255 0 0
-0.206827 -0.385905 2.359000 255 0 0
-0.201233 -0.387555 2.369000 255 0 0
-0.195255 -0.388550 2.375000 255 0 0
-0.189403 -0.389872 2.383000 255 0 0
-0.182892 -0.389885 2.383000 255 0 0
-0.176973 -0.391207 2.391000 255 0 0
-0.170938 -0.392365 2.398000 255 0 0
-0.165002 -0.393849 2.407000 255 0 0
-0.158555 -0.394188 2.409000 255 0 0
-0.152412 -0.395344 2.416000 255 0 0
-0.146351 -0.396828 2.425000 255 0 0
-0.140701 -0.399620 2.442000 255 0 0
-0.083634 -0.414750 2.534000 255 0 0
-0.076763 -0.415083 2.536000 255 0 0
-0.070046 -0.416398 2.544000 255 0 0
-0.063186 -0.417057 2.548000 255 0 0
-0.056061 -0.415916 2.541000 255 0 0
-0.048974 -0.414774 2.534000 255 0 0
-0.041975 -0.414122 2.530000 255 0 0
-0.034928 -0.412652 2.521000 255 0 0
-0.027909 -0.410854 2.510000 255 0 0
-0.020958 -0.409219 2.500000 255 0 0
-0.014101 -0.408729 2.497000 255 0 0
-0.007283 -0.409548 2.502000 255 0 0
-0.000437 -0.408730 2.497000 255 0 0
0.006406 -0.409384 2.501000 255 0 0
0.013259 -0.409711 2.503000 255 0 0
0.020148 -0.410528 2.508000 255 0 0
0.027053 -0.411181 2.512000 255 0 0
0.033817 -0.409870 2.504000 255 0 0
-0.239724 -0.393414 2.366000 255 0 0
-0.233167 -0.393264 2.365000 255 0 0
-0.226424 -0.392781 2.362000 255 0 0
-0.219789 -0.392464 2.360000 255 0 0
-0.213254 -0.392313 2.359000 255 0 0
-0.207075 -0.392827 2.362000 255 0 0
-0.201559 -0.394670 2.373000 255 0 0
-0.195735 -0.396015 2.381000 255 0 0
-0.189628 -0.396860 2.386000 255 0 0
-0.183109 -0.396873 2.386000 255 0 0
-0.177034 -0.397884 2.392000 255 0 0
-0.170997 -0.399061 2.399000 255 0 0
-0.164784 -0.399905 2.404000 255 0 0
-0.158280 -0.400083 2.405000 255 0 0
-0.152148 -0.401258 2.412000 255 0 0
-0.146400 -0.403598 2.426000 255 0 0
-0.140748 -0.406437 2.443000 255 0 0
-0.083364 -0.420320 2.526000 255 0 0
-0.076939 -0.422988 2.542000 255 0 0
-0.070399 -0.425490 2.557000 255 0 0
-0.063479 -0.425994 2.560000 255 0 0
-0.056454 -0.425832 2.559000 255 0 0
-0.049144 -0.423173 2.543000 255 0 0
-0.042038 -0.421679 2.534000 255 0 0
-0.034940 -0.419685 2.522000 255 0 0
-0.028029 -0.419521 2.521000 255 0 0
-0.021057 -0.418025 2.512000 255 0 0
-0.014184 -0.418026 2.512000 255 0 0
-0.007297 -0.417195 2.507000 255 0 0
-0.000438 -0.417362 2.508000 255 0 0
0.006428 -0.417694 2.510000 255 0 0
0.013364 -0.419857 2.523000 255 0 0
0.020283 -0.420189 2.525000 255 0 0
0.027341 -0.422517 2.539000 255 0 0
0.034423 -0.424178 2.549000 255 0 0
-0.240113 -0.400530 2.370000 255 0 0
-0.233546 -0.400378 2.369000 255 0 0
-0.226695 -0.399718 2.365000 255 0 0
-0.220146 -0.399565 2.364000 255 0 0
-0.213691 -0.399580 2.364000 255 0 0
-0.207587 -0.400271 2.368000 255 0 0
-0.201969 -0.401976 2.378000 255 0 0
-0.195885 -0.402835 2.383000 255 0 0
-0.189694 -0.403525 2.387000 255 0 0
-0.183173 -0.403538 2.387000 255 0 0
-0.177022 -0.404397 2.392000 255 0 0
-0.170629 -0.404747 2.394000 255 0 0
-0.164293 -0.405266 2.397000 255 0 0
-0.157874 -0.405616 2.399000 255 0 0
-0.152074 -0.407657 2.411000 255 0 0
-0.146510 -0.410542 2.428000 255 0 0
-0.141314 -0.414780 2.453000 255 0 0
-0.077751 -0.434477 2.569000 255 0 0
-0.071027 -0.436343 2.580000 255 0 0
-0.063945 -0.436179 2.579000 255 0 0
-0.056582 -0.433816 2.565000 255 0 0
-0.049295 -0.431452 2.551000 255 0 0
-0.042118 -0.429426 2.539000 255 0 0
-0.035034 -0.427737 2.529000 255 0 0
-0.028071 -0.427063 2.525000 255 0 0
-0.021130 -0.426388 2.521000 255 0 0
-0.014211 -0.425713 2.517000 255 0 0
-0.007311 -0.424868 2.512000 255 0 0
-0.000439 -0.424530 2.510000 255 0 0
0.006435 -0.425037 2.513000 255 0 0
0.013358 -0.426559 2.522000 255 0 0
0.020394 -0.429433 2.539000 255 0 0
0.027479 -0.431630 2.552000 255 0 0
-0.240603 -0.407839 2.375000 255 0 0
-0.233332 -0.406482 2.367000 255 0 0
-0.227063 -0.406842 2.369000 255 0 0
-0.220782 -0.407201 2.371000 255 0 0
-0.214399 -0.407388 2.372000 255 0 0
-0.208010 -0.407575 2.373000 255 0 0
-0.202549 -0.409651 2.385000 255 0 0
-0.196857 -0.411383 2.395000 255 0 0
-0.190475 -0.411740 2.397000 255 0 0
-0.183620 -0.411067 2.393000 255 0 0
-0.176713 -0.410221 2.388000 255 0 0
-0.170331 -0.410577 2.390000 255 0 0
-0.164144 -0.411448 2.395000 255 0 0
-0.158191 -0.413006 2.404000 255 0 0
-0.152442 -0.415251 2.417000 255 0 0
-0.147043 -0.418698 2.437000 255 0 0
-0.141764 -0.422832 2.461000 255 0 0
-0.136684 -0.427997 2.491000 255 0 0
-0.078259 -0.444393 2.586000 255 0 0
-0.071352 -0.445430 2.592000 255 0 0
-0.064040 -0.443888 2.583000 255 0 0
-0.056600 -0.440971 2.566000 255 0 0
-0.049330 -0.438741 2.553000 255 0 0
-0.042098 -0.436167 2.538000 255 0 0
-0.035045 -0.434795 2.530000 255 0 0
-0.028092 -0.434282 2.527000 255 0 0
-0.021171 -0.434112 2.526000 255 0 0
-0.014255 -0.433941 2.525000 255 0 0
-0.007328 -0.432739 2.518000 255 0 0
-0.000440 -0.432567 2.517000 255 0 0
0.006435 -0.431880 2.513000 255 0 0
0.013367 -0.433769 2.524000 255 0 0
0.020312 -0.434627 2.529000 255 0 0
0.027693 -0.442015 2.572000 255 0 0
0.034390 -0.437717 2.547000 255 0 0
-0.233217 -0.412748 2.366000 255 0 0
-0.227047 -0.413288 2.369000 255 0 0
-0.220487 -0.413129 2.368000 255 0 0
-0.214293 -0.413668 2.371000 255 0 0
-0.207908 -0.413858 2.372000 255 0 0
-0.202874 -0.416839 2.389000 255 0 0
-0.197090 -0.418424 2.398000 255 0 0
-0.190699 -0.418787 2.400000 255 0 0
-0.183530 -0.417405 2.392000 255 0 0
-0.176996 -0.417418 2.392000 255 0 0
-0.170746 -0.418129 2.396000 255 0 0
-0.164886 -0.419886 2.406000 255 0 0
-0.158443 -0.420247 2.408000 255 0 0
-0.152367 -0.421655 2.416000 255 0 0
-0.146549 -0.423935 2.429000 255 0 0
-0.141408 -0.428483 2.455000 255 0 0
-0.135960 -0.432508 2.478000 255 0 0
-0.078374 -0.452131 2.590000 255 0 0
-0.071237 -0.451787 2.588000 255 0 0
-0.063837 -0.449523 2.575000 255 0 0
-0.056618 -0.448131 2.567000 255 0 0
-0.049423 -0.446564 2.558000 255 0 0
-0.042294 -0.445171 2.550000 255 0 0
-0.035250 -0.444301 2.545000 255 0 0
-0.028212 -0.443081 2.538000 255 0 0
-0.021295 -0.443607 2.541000 255 0 0
-0.014322 -0.442910 2.537000 255 0 0
-0.007362 -0.441688 2.530000 255 0 0
-0.000442 -0.441340 2.528000 255 0 0
0.006473 -0.441339 2.528000 255 0 0
0.013462 -0.443783 2.542000 255 0 0
0.020366 -0.442734 2.536000 255 0 0
0.027389 -0.444129 2.544000 255 0 0
0.034064 -0.440460 2.523000 255 0 0
-0.233792 -0.420248 2.372000 255 0 0
-0.227318 -0.420265 2.372000 255 0 0
-0.220750 -0.420104 2.371000 255 0 0
-0.214368 -0.420296 2.372000 255 0 0
