ply
format ascii 1.0
element vertex 1328
property double x
property double y
property double z
property uchar red
property uchar green
property uchar blue
end_header
-0.175569 0.403966 2.137000 255 0 0
-0.169734 0.403979 2.137000 255 0 0
-0.163823 0.403803 2.136000 255 0 0
-0.158138 0.404193 2.138000 255 0 0
-0.152371 0.404394 2.139000 255 0 0
-0.146666 0.404784 2.141000 255 0 0
-0.140884 0.404984 2.142000 255 0 0
-0.135096 0.405183 2.143000 255 0 0
-0.129242 0.405194 2.143000 255 0 0
-0.123272 0.404825 2.141000 255 0 0
-0.117203 0.404078 2.137000 255 0 0
-0.111155 0.403331 2.133000 255 0 0
-0.105278 0.403150 2.132000 255 0 0
-0.099358 0.402780 2.130000 255 0 0
-0.093537 0.402788 2.130000 255 0 0
-0.087675 0.402606 2.129000 255 0 0
-0.081933 0.402990 2.131000 255 0 0
-0.076108 0.402997 2.131000 255 0 0
-0.070316 0.403191 2.132000 255 0 0
-0.064489 0.403197 2.132000 255 0 0
-0.058688 0.403391 2.133000 255 0 0
-0.052857 0.403395 2.133000 255 0 0
-0.047048 0.403588 2.134000 255 0 0
-0.041233 0.403781 2.135000 255 0 0
-0.035363 0.403406 2.133000 255 0 0
-0.029532 0.403408 2.133000 255 0 0
-0.023722 0.403789 2.135000 255 0 0
-0.017927 0.404736 2.140000 255 0 0
-0.012093 0.405304 2.143000 255 0 0
-0.006245 0.406062 2.147000 255 0 0
-0.000376 0.406818 2.151000 255 0 0
0.005516 0.407575 2.155000 255 0 0
0.011429 0.408331 2.159000 255 0 0
0.017356 0.408897 2.162000 255 0 0
0.023277 0.409084 2.163000 255 0 0
0.029232 0.409650 2.166000 255 0 0
0.035218 0.410404 2.170000 255 0 0
0.041246 0.411346 2.175000 255 0 0
0.047279 0.412099 2.179000 255 0 0
0.053553 0.414554 2.192000 255 0 0
0.059953 0.417386 2.207000 255 0 0
0.066225 0.418894 2.215000 255 0 0
0.072313 0.419078 2.216000 255 0 0
0.078370 0.419072 2.216000 255 0 0
0.084465 0.419255 2.217000 255 0 0
0.090361 0.418491 2.213000 255 0 0
0.096409 0.418484 2.213000 255 0 0
0.102503 0.418665 2.214000 255 0 0
0.108848 0.419792 2.220000 255 0 0
0.115069 0.420350 2.223000 255 0 0
0.121634 0.422043 2.232000 255 0 0
0.127732 0.422033 2.232000 255 0 0
0.134070 0.422779 2.236000 255 0 0
-0.093651 0.459222 2.326968 255 255 0
-0.082191 0.458224 2.322162 255 255 0
-0.062990 0.458089 2.322861 255 255 0
-0.052433 0.457018 2.317559 255 255 0
-0.048771 0.455188 2.307404 255 255 0
-0.037376 0.454225 2.302777 255 255 0
-0.025998 0.453270 2.298195 255 255 0
-0.007776 0.453102 2.298612 255 255 0
0.003562 0.452169 2.294140 255 255 0
0.023440 0.452225 2.295956 255 255 0
0.039865 0.451904 2.295359 255 255 0
0.060532 0.452093 2.297985 255 255 0
0.067516 0.450710 2.290602 255 255 0
0.075344 0.449431 2.283872 255 255 0
0.073801 0.447053 2.270164 255 255 0
-0.318345 0.373968 2.227816 0 255 0
-0.308545 0.374739 2.232427 0 255 0
-0.301335 0.375997 2.239012 0 255 0
-0.295855 0.377580 2.246905 0 255 0
-0.287764 0.378691 2.252890 0 255 0
-0.276187 0.379178 2.256350 0 255 0
-0.256763 0.378261 2.254143 0 255 0
-0.226859 0.375483 2.244439 0 255 0
-0.194833 0.375013 2.245577 0 255 0
-0.198871 0.378372 2.260630 0 255 0
-0.201175 0.381414 2.274396 0 255 0
-0.199113 0.383680 2.285029 0 255 0
-0.202307 0.386867 2.299358 0 255 0
-0.194120 0.388058 2.305658 0 255 0
-0.184170 0.388952 2.310763 0 255 0
-0.167187 0.388638 2.311029 0 255 0
-0.161601 0.390312 2.319267 0 255 0
-0.151614 0.391235 2.324496 0 255 0
-0.138095 0.391565 2.327355 0 255 0
-0.125439 0.392060 2.330874 0 255 0
-0.111005 0.392268 2.333254 0 255 0
-0.099197 0.392937 2.337481 0 255 0
-0.089140 0.393914 2.342942 0 255 0
-0.078188 0.394753 2.347853 0 255 0
-0.373955 0.410770 2.208000 255 0 0
-0.365285 0.407817 2.192000 255 0 0
-0.358667 0.407096 2.188000 255 0 0
-0.352071 0.406375 2.184000 255 0 0
-0.345812 0.406025 2.182000 255 0 0
-0.339564 0.405675 2.180000 255 0 0
-0.333784 0.405884 2.181000 255 0 0
-0.328450 0.406650 2.185000 255 0 0
-0.322797 0.407044 2.187000 255 0 0
-0.316119 0.406135 2.182000 255 0 0
-0.308898 0.404481 2.173000 255 0 0
-0.302284 0.403571 2.168000 255 0 0
-0.296926 0.404336 2.172000 255 0 0
-0.292081 0.405845 2.180000 255 0 0
-0.287192 0.407355 2.188000 255 0 0
-0.281745 0.408119 2.192000 255 0 0
-0.276527 0.409256 2.198000 255 0 0
-0.270659 0.409461 2.199000 255 0 0
-0.264304 0.408922 2.196000 255 0 0
-0.256436 0.405961 2.180000 255 0 0
-0.248998 0.403558 2.167000 255 0 0
-0.241968 0.401713 2.157000 255 0 0
-0.235757 0.401172 2.154000 255 0 0
-0.229669 0.400816 2.152000 255 0 0
-0.223175 0.399715 2.146000 255 0 0
-0.217016 0.399172 2.143000 255 0 0
-0.210972 0.398815 2.141000 255 0 0
-0.205035 0.398644 2.140000 255 0 0
-0.199101 0.398473 2.139000 255 0 0
-0.192993 0.397929 2.136000 255 0 0
-0.187250 0.398129 2.137000 255 0 0
-0.181501 0.398329 2.138000 255 0 0
-0.175664 0.398342 2.138000 255 0 0
-0.169827 0.398355 2.138000 255 0 0
-0.163835 0.397995 2.136000 255 0 0
-0.158298 0.398753 2.140000 255 0 0
-0.152454 0.398765 2.140000 255 0 0
-0.146746 0.399149 2.142000 255 0 0
-0.140960 0.399346 2.143000 255 0 0
-0.135295 0.399916 2.146000 255 0 0
-0.129372 0.399740 2.145000 255 0 0
-0.123281 0.399004 2.141000 255 0 0
-0.117212 0.398268 2.137000 255 0 0
-0.111164 0.397531 2.133000 255 0 0
-0.105335 0.397539 2.133000 255 0 0
-0.099413 0.397175 2.131000 255 0 0
-0.093544 0.396996 2.130000 255 0 0
-0.087682 0.396816 2.129000 255 0 0
-0.081901 0.397009 2.130000 255 0 0
-0.076114 0.397202 2.131000 255 0 0
-0.070355 0.397580 2.133000 255 0 0
-0.064554 0.397772 2.134000 255 0 0
-0.058748 0.397963 2.135000 255 0 0
-0.052911 0.397968 2.135000 255 0 0
-0.047096 0.398158 2.136000 255 0 0
-0.041256 0.398162 2.136000 255 0 0
-0.035399 0.397978 2.135000 255 0 0
-0.029562 0.397981 2.135000 255 0 0
-0.023757 0.398542 2.138000 255 0 0
-0.017928 0.398916 2.140000 255 0 0
-0.012094 0.399477 2.143000 255 0 0
-0.006243 0.400037 2.146000 255 0 0
-0.000376 0.400969 2.151000 255 0 0
0.005516 0.401715 2.155000 255 0 0
0.011430 0.402460 2.159000 255 0 0
0.017357 0.403018 2.162000 255 0 0
0.023301 0.403575 2.165000 255 0 0
0.029261 0.404132 2.168000 255 0 0
0.035254 0.404876 2.172000 255 0 0
0.041306 0.405991 2.178000 255 0 0
0.047369 0.406919 2.183000 255 0 0
0.053729 0.409898 2.199000 255 0 0
0.060148 0.412689 2.214000 255 0 0
0.066410 0.413989 2.221000 255 0 0
0.072481 0.413984 2.221000 255 0 0
0.078553 0.413978 2.221000 255 0 0
0.084624 0.413972 2.221000 255 0 0
0.090490 0.413033 2.216000 255 0 0
0.096504 0.412839 2.215000 255 0 0
0.102557 0.412831 2.215000 255 0 0
0.108807 0.413569 2.219000 255 0 0
0.115078 0.414306 2.223000 255 0 0
0.121589 0.415787 2.231000 255 0 0
0.127856 0.416337 2.234000 255 0 0
0.134260 0.417259 2.239000 255 0 0
0.140251 0.416875 2.237000 255 0 0
-0.093550 0.448385 2.328253 255 255 0
-0.081231 0.447507 2.324040 255 255 0
-0.062898 0.447321 2.324121 255 255 0
-0.048039 0.446760 2.321852 255 255 0
-0.046961 0.444636 2.309871 255 255 0
-0.039005 0.443301 2.302785 255 255 0
-0.029343 0.442169 2.296956 255 255 0
-0.011981 0.441943 2.296730 255 255 0
0.001928 0.441330 2.294099 255 255 0
0.018381 0.441032 2.293399 255 255 0
0.033951 0.440646 2.292148 255 255 0
0.052057 0.440578 2.292853 255 255 0
0.062459 0.439608 2.287962 255 255 0
0.074551 0.438851 2.284379 255 255 0
0.080669 0.437383 2.276392 255 255 0
-0.335367 0.364360 2.229818 0 255 0
-0.325588 0.365098 2.234381 0 255 0
-0.312333 0.365195 2.236392 0 255 0
-0.301661 0.365792 2.240395 0 255 0
-0.295313 0.367206 2.247651 0 255 0
-0.287224 0.368304 2.253647 0 255 0
-0.272174 0.368126 2.254572 0 255 0
-0.249276 0.366524 2.249857 0 255 0
-0.221992 0.364150 2.242096 0 255 0
-0.194666 0.361808 2.234476 0 255 0
-0.187355 0.363137 2.241413 0 255 0
-0.193127 0.366839 2.257736 0 255 0
-0.202408 0.371159 2.276492 0 255 0
-0.202094 0.373742 2.288364 0 255 0
-0.201785 0.376322 2.300220 0 255 0
-0.190972 0.377032 2.304688 0 255 0
-0.178393 0.377443 2.307977 0 255 0
-0.162290 0.377248 2.308885 0 255 0
-0.161089 0.379688 2.320176 0 255 0
-0.153740 0.381053 2.327229 0 255 0
-0.144625 0.382117 2.333102 0 255 0
-0.126698 0.381666 2.333023 0 255 0
-0.110508 0.381538 2.334220 0 255 0
-0.097822 0.382032 2.337867 0 255 0
-0.086885 0.382840 2.342752 0 255 0
-0.373470 0.404221 2.205000 255 0 0
-0.365641 0.402227 2.194000 255 0 0
-0.359510 0.402067 2.193000 255 0 0
-0.352738 0.401173 2.188000 255 0 0
-0.346469 0.400829 2.186000 255 0 0
-0.340209 0.400484 2.184000 255 0 0
-0.334266 0.400506 2.184000 255 0 0
-0.328772 0.401078 2.187000 255 0 0
-0.322966 0.401283 2.188000 255 0 0
-0.316720 0.400938 2.186000 255 0 0
-0.309630 0.399492 2.178000 255 0 0
-0.303280 0.398962 2.175000 255 0 0
-0.297767 0.399533 2.178000 255 0 0
-0.292905 0.401020 2.186000 255 0 0
-0.287737 0.402141 2.192000 255 0 0
-0.282022 0.402528 2.194000 255 0 0
-0.277049 0.404015 2.202000 255 0 0
-0.271909 0.405318 2.209000 255 0 0
-0.266008 0.405521 2.210000 255 0 0
-0.257748 0.402053 2.191000 255 0 0
-0.249821 0.398951 2.174000 255 0 0
-0.242434 0.396583 2.161000 255 0 0
-0.236321 0.396233 2.159000 255 0 0
-0.230006 0.395516 2.155000 255 0 0
-0.223815 0.394982 2.152000 255 0 0
-0.217640 0.394447 2.149000 255 0 0
-0.211481 0.393912 2.146000 255 0 0
-0.205337 0.393376 2.143000 255 0 0
-0.199209 0.392841 2.140000 255 0 0
-0.193097 0.392304 2.137000 255 0 0
-0.187439 0.392685 2.139000 255 0 0
-0.181600 0.392699 2.139000 255 0 0
-0.175842 0.392896 2.140000 255 0 0
-0.169998 0.392909 2.140000 255 0 0
-0.164078 0.392738 2.139000 255 0 0
-0.158606 0.393668 2.144000 255 0 0
-0.152679 0.393496 2.143000 255 0 0
-0.146962 0.393875 2.145000 255 0 0
-0.141037 0.393702 2.144000 255 0 0
-0.135306 0.394080 2.146000 255 0 0
-0.129382 0.393906 2.145000 255 0 0
-0.123291 0.393181 2.141000 255 0 0
-0.117221 0.392456 2.137000 255 0 0
-0.111225 0.391914 2.134000 255 0 0
-0.105393 0.391922 2.134000 255 0 0
-0.099467 0.391563 2.132000 255 0 0
-0.093640 0.391570 2.132000 255 0 0
-0.087771 0.391393 2.131000 255 0 0
-0.082022 0.391767 2.133000 255 0 0
-0.076156 0.391590 2.132000 255 0 0
-0.070393 0.391963 2.134000 255 0 0
-0.064589 0.392152 2.135000 255 0 0
-0.058835 0.392708 2.138000 255 0 0
-0.052989 0.392712 2.138000 255 0 0
-0.047099 0.392348 2.136000 255 0 0
-0.041220 0.391984 2.134000 255 0 0
-0.035369 0.391804 2.133000 255 0 0
-0.029578 0.392357 2.136000 255 0 0
-0.023793 0.393278 2.141000 255 0 0
-0.017963 0.393831 2.144000 255 0 0
-0.012117 0.394383 2.147000 255 0 0
-0.006252 0.394751 2.149000 255 0 0
-0.000376 0.395486 2.153000 255 0 0
0.005519 0.396037 2.156000 255 0 0
0.011430 0.396587 2.159000 255 0 0
0.017374 0.397505 2.164000 255 0 0
0.023346 0.398421 2.169000 255 0 0
0.029331 0.399154 2.173000 255 0 0
0.035305 0.399519 2.175000 255 0 0
0.041366 0.400618 2.181000 255 0 0
0.047525 0.402268 2.190000 255 0 0
0.053977 0.405754 2.209000 255 0 0
0.060397 0.408321 2.223000 255 0 0
0.066654 0.409418 2.229000 255 0 0
0.072650 0.408862 2.226000 255 0 0
0.078736 0.408856 2.226000 255 0 0
0.084669 0.408115 2.222000 255 0 0
0.090538 0.407190 2.217000 255 0 0
0.096555 0.406999 2.216000 255 0 0
0.102658 0.407175 2.217000 255 0 0
0.108913 0.407901 2.221000 255 0 0
0.115242 0.408811 2.226000 255 0 0
0.121598 0.409720 2.231000 255 0 0
0.127809 0.410078 2.233000 255 0 0
0.134030 0.410435 2.235000 255 0 0
-0.093448 0.437536 2.329540 255 255 0
-0.081993 0.436584 2.324714 255 255 0
-0.066249 0.436141 2.322960 255 255 0
-0.053111 0.435410 2.319454 255 255 0
-0.044290 0.434184 2.312950 255 255 0
-0.038913 0.432558 2.304024 255 255 0
-0.028396 0.431546 2.298801 255 255 0
-0.018749 0.430439 2.293002 255 255 0
-0.003981 0.429957 2.290959 255 255 0
0.013328 0.429796 2.290852 255 255 0
0.034023 0.430066 2.293326 255 255 0
0.050417 0.429833 2.292760 255 255 0
0.059114 0.428673 2.286594 255 255 0
0.068653 0.427624 2.281092 255 255 0
0.072227 0.425843 2.271174 255 255 0
-0.316676 0.350557 2.216836 0 255 0
-0.323312 0.354436 2.233797 0 255 0
-0.305733 0.353679 2.232595 0 255 0
-0.296791 0.354588 2.237916 0 255 0
-0.289573 0.355833 2.244554 0 255 0
-0.284951 0.357575 2.253129 0 255 0
-0.272511 0.357852 2.255985 0 255 0
-0.253101 0.356842 2.253824 0 255 0
-0.224963 0.354234 2.245446 0 255 0
-0.198524 0.351981 2.238469 0 255 0
-0.177275 0.350722 2.235385 0 255 0
-0.204200 0.363649 2.291080 0 255 0
-0.198643 0.365285 2.299237 0 255 0
-0.184330 0.365343 2.301272 0 255 0
-0.171750 0.365731 2.304593 0 255 0
-0.160907 0.366445 2.309185 0 255 0
-0.162335 0.369363 2.322302 0 255 0
-0.161135 0.371807 2.333581 0 255 0
-0.151150 0.372695 2.338842 0 255 0
-0.130597 0.371733 2.336966 0 255 0
-0.110895 0.370947 2.335786 0 255 0
-0.097333 0.371260 2.338851 0 255 0
-0.083753 0.371587 2.341978 0 255 0
-0.372986 0.397686 2.202000 255 0 0
-0.365831 0.396445 2.195000 255 0 0
-0.359697 0.396287 2.194000 255 0 0
-0.352761 0.395226 2.188000 255 0 0
-0.346333 0.394707 2.185000 255 0 0
-0.340231 0.394548 2.184000 255 0 0
-0.334594 0.394931 2.186000 255 0 0
-0.328944 0.395314 2.188000 255 0 0
-0.323135 0.395516 2.189000 255 0 0
-0.317176 0.395538 2.189000 255 0 0
-0.310220 0.394294 2.182000 255 0 0
-0.303719 0.393591 2.178000 255 0 0
-0.298060 0.393973 2.180000 255 0 0
-0.293193 0.395439 2.188000 255 0 0
-0.288020 0.396543 2.194000 255 0 0
-0.282427 0.397105 2.197000 255 0 0
-0.277572 0.398751 2.206000 255 0 0
-0.272667 0.400397 2.215000 255 0 0
-0.266749 0.400597 2.216000 255 0 0
-0.258237 0.396819 2.195000 255 0 0
-0.250183 0.393582 2.177000 255 0 0
-0.243124 0.391792 2.167000 255 0 0
-0.236886 0.391266 2.164000 255 0 0
-0.230769 0.390922 2.162000 255 0 0
-0.224351 0.390034 2.157000 255 0 0
-0.218162 0.389507 2.154000 255 0 0
-0.211890 0.388799 2.150000 255 0 0
-0.205735 0.388272 2.147000 255 0 0
-0.199596 0.387744 2.144000 255 0 0
-0.193292 0.386854 2.139000 255 0 0
-0.187365 0.386687 2.138000 255 0 0
-0.181528 0.386701 2.138000 255 0 0
-0.175855 0.387076 2.140000 255 0 0
-0.170090 0.387270 2.141000 255 0 0
-0.164397 0.387644 2.143000 255 0 0
-0.158766 0.388198 2.146000 255 0 0
-0.152975 0.388391 2.147000 255 0 0
-0.147042 0.388221 2.146000 255 0 0
-0.141113 0.388051 2.145000 255 0 0
-0.135316 0.388243 2.146000 255 0 0
-0.129452 0.388253 2.146000 255 0 0
-0.123358 0.387538 2.142000 255 0 0
-0.117340 0.387005 2.139000 255 0 0
-0.111390 0.386652 2.137000 255 0 0
-0.105549 0.386660 2.137000 255 0 0
-0.099568 0.386125 2.134000 255 0 0
-0.093691 0.385951 2.133000 255 0 0
-0.087819 0.385777 2.132000 255 0 0
-0.082067 0.386146 2.134000 255 0 0
-0.076233 0.386152 2.134000 255 0 0
-0.070465 0.386520 2.136000 255 0 0
-0.064655 0.386706 2.137000 255 0 0
-0.058867 0.387072 2.139000 255 0 0
-0.053068 0.387439 2.141000 255 0 0
-0.047169 0.387081 2.139000 255 0 0
-0.041282 0.386722 2.137000 255 0 0
-0.035421 0.386544 2.136000 255 0 0
-0.029636 0.387270 2.140000 255 0 0
-0.023828 0.387996 2.144000 255 0 0
-0.017981 0.388360 2.146000 255 0 0
-0.012118 0.388542 2.147000 255 0 0
-0.006255 0.389086 2.150000 255 0 0
-0.000377 0.389991 2.155000 255 0 0
0.005527 0.390715 2.159000 255 0 0
0.011447 0.391257 2.162000 255 0 0
0.017400 0.392160 2.167000 255 0 0
0.023380 0.393064 2.172000 255 0 0
0.029374 0.393786 2.176000 255 0 0
0.035357 0.394145 2.178000 255 0 0
0.041426 0.395228 2.184000 255 0 0
0.047702 0.397758 2.198000 255 0 0
0.054226 0.401554 2.219000 255 0 0
0.060565 0.403359 2.229000 255 0 0
0.066719 0.403716 2.231000 255 0 0
0.072754 0.403349 2.229000 255 0 0
0.078848 0.403343 2.229000 255 0 0
0.084713 0.402251 2.223000 255 0 0
0.090586 0.401340 2.218000 255 0 0
0.096519 0.400790 2.215000 255 0 0
0.102759 0.401506 2.219000 255 0 0
0.108922 0.401860 2.221000 255 0 0
0.115355 0.403118 2.228000 255 0 0
0.121498 0.403290 2.229000 255 0 0
0.127876 0.404185 2.234000 255 0 0
0.134040 0.404356 2.235000 255 0 0
0.140461 0.405250 2.240000 255 0 0
-0.090756 0.426982 2.332630 255 255 0
-0.081029 0.425850 2.326597 255 255 0
-0.063570 0.425648 2.326042 255 255 0
-0.048718 0.425152 2.323746 255 255 0
-0.039903 0.423944 2.317246 255 255 0
-0.032814 0.422533 2.309553 255 255 0
-0.026590 0.421021 2.301264 255 255 0
-0.022083 0.419303 2.291756 255 255 0
-0.009026 0.418641 2.288451 255 255 0
0.011699 0.418942 2.290803 255 255 0
0.034096 0.419475 2.294506 255 255 0
0.051337 0.419387 2.294555 255 255 0
0.061736 0.418457 2.289643 255 255 0
0.070420 0.417319 2.283507 255 255 0
0.075693 0.415754 2.274860 255 255 0
-0.286171 0.339597 2.219124 0 255 0
-0.283274 0.341671 2.229015 0 255 0
-0.283843 0.344413 2.241467 0 255 0
-0.280949 0.346487 2.251342 0 255 0
-0.270246 0.347071 2.255493 0 255 0
-0.251712 0.346181 2.253991 0 255 0
-0.230542 0.344816 2.250684 0 255 0
-0.198900 0.341508 2.239948 0 255 0
-0.189852 0.342485 2.245637 0 255 0
-0.184282 0.344122 2.253852 0 255 0
-0.204878 0.350633 2.280689 0 255 0
-0.204560 0.353233 2.292560 0 255 0
-0.197256 0.354539 2.299491 0 255 0
-0.185571 0.355048 2.303383 0 255 0
-0.172121 0.355248 2.306103 0 255 0
-0.166538 0.356899 2.314351 0 255 0
-0.165335 0.359349 2.325637 0 255 0
-0.167647 0.362433 2.339322 0 255 0
-0.155035 0.362823 2.342775 0 255 0
-0.133615 0.361651 2.340309 0 255 0
-0.109525 0.360032 2.336164 0 255 0
-0.094205 0.360003 2.338063 0 255 0
-0.084152 0.360926 2.343571 0 255 0
-0.380546 0.393278 2.211000 255 0 0
-0.372670 0.391345 2.200000 255 0 0
-0.366520 0.391190 2.199000 255 0 0
-0.360211 0.390857 2.197000 255 0 0
-0.353267 0.389812 2.191000 255 0 0
-0.346355 0.388767 2.185000 255 0 0
-0.340409 0.388789 2.185000 255 0 0
-0.334615 0.388989 2.186000 255 0 0
-0.329116 0.389544 2.189000 255 0 0
-0.323304 0.389743 2.190000 255 0 0
-0.317631 0.390120 2.192000 255 0 0
-0.311235 0.389607 2.189000 255 0 0
-0.304576 0.388738 2.184000 255 0 0
-0.298490 0.388580 2.183000 255 0 0
-0.293347 0.389668 2.189000 255 0 0
-0.288302 0.390933 2.196000 255 0 0
-0.282832 0.391665 2.200000 255 0 0
-0.277843 0.393108 2.208000 255 0 0
-0.272809 0.394552 2.216000 255 0 0
-0.266647 0.394392 2.215000 255 0 0
-0.258490 0.391205 2.197000 255 0 0
-0.250660 0.388374 2.181000 255 0 0
-0.243927 0.387145 2.174000 255 0 0
-0.237778 0.386806 2.172000 255 0 0
-0.231533 0.386288 2.169000 255 0 0
-0.224887 0.385058 2.162000 255 0 0
-0.218482 0.384183 2.157000 255 0 0
-0.212103 0.383308 2.152000 255 0 0
-0.206038 0.382967 2.150000 255 0 0
-0.199797 0.382269 2.146000 255 0 0
-0.193577 0.381570 2.142000 255 0 0
-0.187642 0.381406 2.141000 255 0 0
-0.181711 0.381242 2.140000 255 0 0
-0.176032 0.381611 2.142000 255 0 0
-0.170262 0.381802 2.143000 255 0 0
-0.164639 0.382349 2.146000 255 0 0
-0.158926 0.382717 2.148000 255 0 0
-0.153200 0.383085 2.150000 255 0 0
-0.147258 0.382918 2.149000 255 0 0
-0.141321 0.382750 2.148000 255 0 0
-0.135389 0.382583 2.147000 255 0 0
-0.129522 0.382592 2.147000 255 0 0
-0.123540 0.382246 2.145000 255 0 0
-0.117568 0.381898 2.143000 255 0 0
-0.111554 0.381372 2.140000 255 0 0
-0.105656 0.381202 2.139000 255 0 0
-0.099669 0.380675 2.136000 255 0 0
-0.093830 0.380683 2.136000 255 0 0
-0.087990 0.380690 2.136000 255 0 0
-0.082112 0.380518 2.135000 255 0 0
-0.076275 0.380524 2.135000 255 0 0
-0.070503 0.380886 2.137000 255 0 0
-0.064720 0.381248 2.139000 255 0 0
-0.058899 0.381431 2.140000 255 0 0
-0.053047 0.381435 2.140000 255 0 0
-0.047195 0.381439 2.140000 255 0 0
-0.041343 0.381442 2.140000 255 0 0
-0.035507 0.381623 2.141000 255 0 0
-0.029665 0.381804 2.142000 255 0 0
-0.023852 0.382519 2.146000 255 0 0
-0.017999 0.382877 2.148000 255 0 0
-0.012136 0.383235 2.150000 255 0 0
-0.006265 0.383770 2.153000 255 0 0
-0.000377 0.384662 2.158000 255 0 0
0.005535 0.385375 2.162000 255 0 0
0.011464 0.385909 2.165000 255 0 0
0.017417 0.386621 2.169000 255 0 0
0.023414 0.387689 2.175000 255 0 0
0.029430 0.388578 2.180000 255 0 0
0.035457 0.389288 2.184000 255 0 0
0.041543 0.390355 2.190000 255 0 0
0.047988 0.394094 2.211000 255 0 0
0.054499 0.397477 2.230000 255 0 0
0.060760 0.398542 2.236000 255 0 0
0.066814 0.398181 2.234000 255 0 0
0.072857 0.397819 2.232000 255 0 0
0.078889 0.397457 2.230000 255 0 0
0.084682 0.396025 2.222000 255 0 0
0.090511 0.394949 2.216000 255 0 0
0.096526 0.394763 2.215000 255 0 0
0.102766 0.395469 2.219000 255 0 0
0.109028 0.396173 2.223000 255 0 0
0.115312 0.396878 2.227000 255 0 0
0.121398 0.396869 2.227000 255 0 0
0.127771 0.397751 2.232000 255 0 0
0.133990 0.398097 2.234000 255 0 0
0.140471 0.399156 2.240000 255 0 0
-0.095212 0.417865 2.343580 255 255 0
-0.088927 0.416328 2.335120 255 255 0
-0.080926 0.415004 2.327878 255 255 0
-0.065192 0.414633 2.326101 255 255 0
-0.054640 0.413641 2.320755 255 255 0
-0.039810 0.413187 2.318494 255 255 0
-0.032722 0.411786 2.310793 255 255 0
-0.023071 0.410710 2.304955 255 255 0
-0.022845 0.408458 2.292367 255 255 0
-0.004662 0.408471 2.292765 255 255 0
0.020321 0.409369 2.298223 255 255 0
0.042700 0.409962 2.301933 255 255 0
0.053962 0.409154 2.297604 255 255 0
0.063506 0.408135 2.292061 255 255 0
0.076438 0.407565 2.289081 255 255 0
0.080856 0.405897 2.279812 255 255 0
-0.271822 0.326407 2.209557 0 255 0
-0.280157 0.330699 2.227850 0 255 0
-0.284183 0.334132 2.242872 0 255 0
-0.282156 0.336376 2.253389 0 255 0
-0.269722 0.336601 2.256278 0 255 0
-0.254667 0.336337 2.257323 0 255 0
-0.208313 0.330073 2.235763 0 255 0
-0.184662 0.333615 2.255347 0 255 0
-0.193909 0.338053 2.274114 0 255 0
-0.197941 0.341491 2.289105 0 255 0
-0.194999 0.343609 2.299137 0 255 0
-0.185065 0.344422 2.304271 0 255 0
-0.175993 0.345407 2.310053 0 255 0
-0.170414 0.347049 2.318297 0 255 0
-0.168335 0.349341 2.328972 0 255 0
-0.163628 0.351150 2.337834 0 255 0
-0.155405 0.352319 2.344308 0 255 0
-0.135753 0.351415 2.343054 0 255 0
-0.112555 0.349893 2.339519 0 255 0
-0.095484 0.349510 2.340241 0 255 0
-0.085435 0.350412 2.345756 0 255 0
-0.081545 0.352430 2.355416 0 255 0
-0.380913 0.387618 2.213000 255 0 0
-0.373032 0.385715 2.202000 255 0 0
-0.366710 0.385387 2.200000 255 0 0
-0.359906 0.384534 2.195000 255 0 0
-0.353128 0.383680 2.190000 255 0 0
-0.346377 0.382826 2.185000 255 0 0
-0.340431 0.382848 2.185000 255 0 0
-0.334637 0.383045 2.186000 255 0 0
-0.328837 0.383241 2.187000 255 0 0
-0.323178 0.383613 2.189000 255 0 0
-0.317652 0.384160 2.192000 255 0 0
-0.311398 0.383830 2.190000 255 0 0
-0.304736 0.382974 2.185000 255 0 0
-0.298510 0.382643 2.183000 255 0 0
-0.293501 0.383890 2.190000 255 0 0
-0.288453 0.385136 2.197000 255 0 0
-0.283494 0.386558 2.205000 255 0 0
-0.278617 0.388155 2.214000 255 0 0
-0.273443 0.389401 2.221000 255 0 0
-0.267027 0.388894 2.218000 255 0 0
-0.258979 0.385931 2.201000 255 0 0
-0.251367 0.383494 2.187000 255 0 0
-0.244617 0.382284 2.180000 255 0 0
-0.238233 0.381599 2.176000 255 0 0
-0.231869 0.380914 2.172000 255 0 0
-0.225215 0.379702 2.165000 255 0 0
-0.218902 0.379017 2.161000 255 0 0
-0.212611 0.378330 2.157000 255 0 0
-0.206532 0.377995 2.155000 255 0 0
-0.200463 0.377658 2.153000 255 0 0
-0.193953 0.376445 2.146000 255 0 0
-0.187918 0.376108 2.144000 255 0 0
-0.181979 0.375945 2.143000 255 0 0
-0.176209 0.376134 2.144000 255 0 0
-0.170274 0.375971 2.143000 255 0 0
-0.164575 0.376334 2.145000 255 0 0
-0.158937 0.376872 2.148000 255 0 0
-0.153354 0.377586 2.152000 255 0 0
-0.147406 0.377421 2.151000 255 0 0
-0.141463 0.377257 2.150000 255 0 0
-0.135525 0.377091 2.149000 255 0 0
-0.129713 0.377277 2.150000 255 0 0
-0.123779 0.377111 2.149000 255 0 0
-0.117741 0.376593 2.146000 255 0 0
-0.111667 0.375900 2.142000 255 0 0
-0.105713 0.375557 2.140000 255 0 0
-0.099816 0.375389 2.139000 255 0 0
-0.093968 0.375397 2.139000 255 0 0
-0.088079 0.375228 2.138000 255 0 0
-0.082195 0.375059 2.137000 255 0 0
-0.076352 0.375065 2.137000 255 0 0
-0.070607 0.375597 2.140000 255 0 0
-0.064786 0.375778 2.141000 255 0 0
-0.058931 0.375782 2.141000 255 0 0
-0.053051 0.375611 2.140000 255 0 0
-0.047243 0.375966 2.142000 255 0 0
-0.041404 0.376145 2.143000 255 0 0
-0.035593 0.376674 2.146000 255 0 0
-0.029709 0.376501 2.145000 255 0 0
-0.023876 0.377030 2.148000 255 0 0
-0.018009 0.377207 2.149000 255 0 0
-0.012154 0.377910 2.153000 255 0 0
-0.006274 0.378437 2.156000 255 0 0
-0.000378 0.379315 2.161000 255 0 0
0.005543 0.380017 2.165000 255 0 0
0.011486 0.380719 2.169000 255 0 0
0.017443 0.381244 2.172000 255 0 0
0.023448 0.382296 2.178000 255 0 0
0.029486 0.383347 2.184000 255 0 0
0.035557 0.384398 2.190000 255 0 0
0.041755 0.386325 2.201000 255 0 0
0.048252 0.390183 2.223000 255 0 0
0.054723 0.392988 2.239000 255 0 0
0.060873 0.393159 2.240000 255 0 0
0.066819 0.392101 2.234000 255 0 0
0.072896 0.391920 2.233000 255 0 0
0.078966 0.391739 2.232000 255 0 0
0.084802 0.390504 2.225000 255 0 0
0.090559 0.389094 2.217000 255 0 0
0.096533 0.388736 2.215000 255 0 0
0.102774 0.389430 2.219000 255 0 0
0.109135 0.390475 2.225000 255 0 0
0.115268 0.390642 2.226000 255 0 0
0.121462 0.390984 2.228000 255 0 0
0.127838 0.391852 2.233000 255 0 0
0.134360 0.393071 2.240000 255 0 0
0.140795 0.393938 2.245000 255 0 0
0.146930 0.393927 2.245000 255 0 0
-0.093382 0.407202 2.346071 255 255 0
-0.090545 0.405245 2.335215 255 255 0
-0.080821 0.404147 2.329164 255 255 0
-0.063372 0.404028 2.328580 255 255 0
-0.049388 0.403490 2.325654 255 255 0
-0.039716 0.402420 2.319743 255 255 0
-0.030913 0.401246 2.313258 255 255 0
-0.024690 0.399750 2.304961 255 255 0
-0.023604 0.397596 2.292983 255 255 0
-0.006280 0.397542 2.292745 255 255 0
0.022962 0.399058 2.301284 255 255 0
0.045330 0.399710 2.304983 255 255 0
0.054032 0.398590 2.298774 255 255 0
0.066977 0.398038 2.295738 255 255 0
0.079052 0.397385 2.292125 255 255 0
0.086016 0.396060 2.284760 255 255 0
-0.283099 0.320903 2.231185 0 255 0
-0.288853 0.324699 2.247477 0 255 0
-0.280764 0.325745 2.253526 0 255 0
-0.267467 0.325774 2.255797 0 255 0
-0.242873 0.323604 2.249915 0 255 0
-0.192541 0.327238 2.274369 0 255 0
-0.200054 0.331367 2.291829 0 255 0
-0.197985 0.333652 2.302473 0 255 0
-0.190677 0.334941 2.309443 0 255 0
-0.176366 0.334914 2.311566 0 255 0
-0.170787 0.336549 2.319816 0 255 0
-0.166080 0.338353 2.328683 0 255 0
-0.163123 0.340487 2.338761 0 255 0
-0.156656 0.341968 2.346442 0 255 0
-0.140526 0.341666 2.347587 0 255 0
-0.100282 0.339657 2.344783 0 255 0
-0.087599 0.340054 2.348530 0 255 0
-0.081948 0.341748 2.357018 0 255 0
-0.072766 0.342806 2.363188 0 255 0
-0.381453 0.382119 2.216000 255 0 0
-0.373563 0.380245 2.205000 255 0 0
-0.366732 0.379405 2.200000 255 0 0
-0.359600 0.378220 2.193000 255 0 0
-0.352989 0.377552 2.189000 255 0 0
-0.346716 0.377229 2.187000 255 0 0
-0.340764 0.377251 2.187000 255 0 0
-0.334964 0.377445 2.188000 255 0 0
-0.329159 0.377639 2.189000 255 0 0
-0.323642 0.378177 2.192000 255 0 0
-0.318108 0.378716 2.195000 255 0 0
-0.311987 0.378563 2.194000 255 0 0
-0.305453 0.377893 2.190000 255 0 0
-0.299214 0.377568 2.188000 255 0 0
-0.293789 0.378278 2.192000 255 0 0
-0.288735 0.379506 2.199000 255 0 0
-0.283770 0.380905 2.207000 255 0 0
-0.279139 0.382823 2.218000 255 0 0
-0.274324 0.384568 2.228000 255 0 0
-0.268129 0.384413 2.227000 255 0 0
-0.260291 0.381842 2.212000 255 0 0
-0.252419 0.379098 2.196000 255 0 0
-0.245420 0.377561 2.187000 255 0 0
-0.238687 0.376370 2.180000 255 0 0
-0.232206 0.375523 2.175000 255 0 0
-0.225543 0.374330 2.168000 255 0 0
-0.219323 0.373828 2.165000 255 0 0
-0.213119 0.373325 2.162000 255 0 0
-0.207121 0.373167 2.161000 255 0 0
-0.200943 0.372663 2.158000 255 0 0
-0.194419 0.371469 2.151000 255 0 0
-0.188283 0.370964 2.148000 255 0 0
-0.182332 0.370805 2.147000 255 0 0
-0.176469 0.370818 2.147000 255 0 0
-0.170525 0.370658 2.146000 255 0 0
-0.164663 0.370670 2.146000 255 0 0
-0.158949 0.371027 2.148000 255 0 0
-0.153294 0.371556 2.151000 255 0 0
-0.147623 0.372086 2.154000 255 0 0
-0.141737 0.372096 2.154000 255 0 0
-0.135788 0.371934 2.153000 255 0 0
-0.129843 0.371771 2.152000 255 0 0
-0.123846 0.371435 2.150000 255 0 0
-0.117805 0.370925 2.147000 255 0 0
-0.111727 0.370243 2.143000 255 0 0
-0.105770 0.369905 2.141000 255 0 0
-0.099917 0.369913 2.141000 255 0 0
-0.094151 0.370266 2.143000 255 0 0
-0.088251 0.370100 2.142000 255 0 0
-0.082317 0.369761 2.140000 255 0 0
-0.076465 0.369766 2.140000 255 0 0
-0.070679 0.370118 2.142000 255 0 0
-0.064851 0.370295 2.143000 255 0 0
-0.058990 0.370300 2.143000 255 0 0
-0.053080 0.369959 2.141000 255 0 0
-0.047268 0.370308 2.143000 255 0 0
-0.041446 0.370657 2.145000 255 0 0
-0.035645 0.371351 2.149000 255 0 0
-0.029767 0.371354 2.149000 255 0 0
-0.023900 0.371529 2.150000 255 0 0
-0.018027 0.371703 2.151000 255 0 0
-0.012172 0.372568 2.156000 255 0 0
-0.006286 0.373260 2.160000 255 0 0
-0.000378 0.374124 2.165000 255 0 0
0.005549 0.374470 2.167000 255 0 0
0.011498 0.375160 2.171000 255 0 0
0.017460 0.375678 2.174000 255 0 0
0.023493 0.377058 2.182000 255 0 0
0.029556 0.378266 2.189000 255 0 0
0.035706 0.379992 2.199000 255 0 0
0.042043 0.382926 2.216000 255 0 0
0.048538 0.386379 2.236000 255 0 0
0.054922 0.388276 2.247000 255 0 0
0.060959 0.387580 2.243000 255 0 0
0.066914 0.386539 2.237000 255 0 0
0.073032 0.386533 2.237000 255 0 0
0.079078 0.386182 2.235000 255 0 0
0.084923 0.384966 2.228000 255 0 0
0.090688 0.383578 2.220000 255 0 0
0.096671 0.383225 2.218000 255 0 0
0.102874 0.383736 2.221000 255 0 0
0.109143 0.384419 2.225000 255 0 0
0.115173 0.384238 2.224000 255 0 0
0.121362 0.384575 2.226000 255 0 0
0.127905 0.385948 2.234000 255 0 0
0.134550 0.387493 2.243000 255 0 0
0.141057 0.388519 2.249000 255 0 0
0.147203 0.388509 2.249000 255 0 0
-0.098701 0.397954 2.356448 255 255 0
-0.091551 0.396538 2.348562 255 255 0
-0.088714 0.394579 2.337708 255 255 0
-0.079854 0.393390 2.331051 255 255 0
-0.062411 0.393312 2.330457 255 255 0
-0.049290 0.392694 2.326915 255 255 0
-0.040477 0.391529 2.320388 255 255 0
-0.032531 0.390259 2.313282 255 255 0
-0.026306 0.388769 2.304973 255 255 0
-0.022651 0.386944 2.294834 255 255 0
-0.002772 0.387271 2.296438 255 255 0
0.046255 0.389234 2.306787 255 255 0
0.058360 0.388588 2.303074 255 255 0
0.072147 0.388181 2.300667 255 255 0
0.084214 0.387556 2.297059 255 255 0
0.086081 0.385548 2.285903 255 255 0
-0.278580 0.306929 2.216896 0 255 0
-0.287768 0.311461 2.235801 0 255 0
-0.294384 0.315457 2.252715 0 255 0
-0.284571 0.316138 2.257485 0 255 0
-0.265217 0.314922 2.255323 0 255 0
-0.231096 0.310790 2.242529 0 255 0
-0.187171 0.312912 2.259587 0 255 0
-0.193789 0.316913 2.276482 0 255 0
-0.200424 0.320903 2.293320 0 255 0
-0.197481 0.323023 2.303354 0 255 0
-0.189300 0.324133 2.309723 0 255 0
-0.174994 0.324074 2.311865 0 255 0
-0.167665 0.325369 2.318915 0 255 0
-0.162954 0.327171 2.327797 0 255 0
-0.159117 0.329142 2.337289 0 255 0
-0.157031 0.331446 2.347980 0 255 0
-0.140030 0.330941 2.348544 0 255 0
-0.123884 0.330618 2.349782 0 255 0
-0.102440 0.329328 2.347551 0 255 0
-0.090643 0.329860 2.351892 0 255 0
-0.081473 0.330893 2.358039 0 255 0
-0.074936 0.332422 2.365968 0 255 0
-0.390299 0.378785 2.232000 255 0 0
-0.381992 0.376602 2.219000 255 0 0
-0.373925 0.374588 2.207000 255 0 0
-0.366422 0.373083 2.198000 255 0 0
-0.359458 0.372086 2.192000 255 0 0
-0.352850 0.371429 2.188000 255 0 0
-0.347054 0.371621 2.189000 255 0 0
-0.340941 0.371473 2.188000 255 0 0
-0.335445 0.372003 2.191000 255 0 0
-0.329330 0.371854 2.190000 255 0 0
-0.323662 0.372215 2.192000 255 0 0
-0.317983 0.372575 2.194000 255 0 0
-0.312008 0.372595 2.194000 255 0 0
-0.305473 0.371936 2.190000 255 0 0
-0.299507 0.371956 2.190000 255 0 0
-0.294210 0.372824 2.195000 255 0 0
-0.289148 0.374033 2.202000 255 0 0
-0.284175 0.375411 2.210000 255 0 0
-0.279661 0.377468 2.222000 255 0 0
-0.275081 0.379525 2.234000 255 0 0
-0.269712 0.380563 2.240000 255 0 0
-0.262074 0.378372 2.227000 255 0 0
-0.254046 0.375501 2.210000 255 0 0
-0.246447 0.373140 2.196000 255 0 0
-0.239470 0.371627 2.187000 255 0 0
-0.232863 0.370624 2.181000 255 0 0
-0.226287 0.369620 2.175000 255 0 0
-0.220149 0.369295 2.173000 255 0 0
-0.213922 0.368801 2.170000 255 0 0
-0.207903 0.368646 2.169000 255 0 0
-0.201423 0.367640 2.163000 255 0 0
-0.194884 0.366464 2.156000 255 0 0
-0.188471 0.365458 2.150000 255 0 0
-0.182515 0.365301 2.149000 255 0 0
-0.176728 0.365484 2.150000 255 0 0
-0.170935 0.365667 2.151000 255 0 0
-0.164905 0.365339 2.149000 255 0 0
-0.159182 0.365690 2.151000 255 0 0
-0.153448 0.366042 2.153000 255 0 0
-0.147771 0.366563 2.156000 255 0 0
-0.141879 0.366573 2.156000 255 0 0
-0.135924 0.366413 2.155000 255 0 0
-0.129973 0.366253 2.154000 255 0 0
-0.123855 0.365582 2.150000 255 0 0
-0.117814 0.365081 2.147000 255 0 0
-0.111736 0.364409 2.143000 255 0 0
-0.105828 0.364247 2.142000 255 0 0
-0.099971 0.364255 2.142000 255 0 0
-0.094158 0.364432 2.143000 255 0 0
-0.088298 0.364439 2.143000 255 0 0
-0.082438 0.364445 2.143000 255 0 0
-0.076614 0.364621 2.144000 255 0 0
-0.070816 0.364966 2.146000 255 0 0
-0.064947 0.364971 2.146000 255 0 0
-0.059022 0.364636 2.144000 255 0 0
-0.053109 0.364300 2.142000 255 0 0
-0.047294 0.364644 2.144000 255 0 0
-0.041468 0.364987 2.146000 255 0 0
-0.035631 0.365330 2.148000 255 0 0
-0.029769 0.365503 2.149000 255 0 0
-0.023902 0.365675 2.150000 255 0 0
-0.018046 0.366187 2.153000 255 0 0
-0.012190 0.367208 2.159000 255 0 0
-0.006298 0.368059 2.164000 255 0 0
-0.000379 0.368570 2.167000 255 0 0
0.005554 0.368910 2.169000 255 0 0
0.011509 0.369590 2.173000 255 0 0
0.017494 0.370439 2.178000 255 0 0
0.023516 0.371458 2.184000 255 0 0
0.029599 0.372817 2.192000 255 0 0
0.035838 0.375365 2.207000 255 0 0
0.042331 0.379444 2.231000 255 0 0
0.048889 0.383013 2.252000 255 0 0
0.055122 0.383519 2.255000 255 0 0
0.061072 0.382154 2.247000 255 0 0
0.066979 0.380789 2.239000 255 0 0
0.073070 0.380613 2.238000 255 0 0
0.079120 0.380268 2.236000 255 0 0
0.085006 0.379241 2.230000 255 0 0
0.090818 0.378044 2.223000 255 0 0
0.096766 0.377527 2.220000 255 0 0
0.102928 0.377860 2.222000 255 0 0
0.109102 0.378192 2.224000 255 0 0
0.115130 0.378014 2.223000 255 0 0
0.121371 0.378515 2.226000 255 0 0
0.127971 0.380036 2.235000 255 0 0
0.134740 0.381897 2.246000 255 0 0
0.141318 0.383077 2.253000 255 0 0
0.147737 0.383747 2.257000 255 0 0
-0.099456 0.386944 2.357166 255 255 0
-0.096613 0.384979 2.346295 255 255 0
-0.094629 0.382902 2.334824 255 255 0
-0.078885 0.382626 2.332942 255 255 0
-0.058014 0.383042 2.334744 255 255 0
-0.041469 0.382909 2.333623 255 255 0
-0.034378 0.381535 2.325896 255 255 0
-0.028152 0.380051 2.317579 255 255 0
-0.024497 0.378226 2.307440 255 255 0
-0.019133 0.376631 2.298532 255 255 0
-0.003532 0.376430 2.297042 255 255 0
0.023127 0.377754 2.303683 255 255 0
0.039516 0.377701 2.302989 255 255 0
0.055028 0.377546 2.301745 255 255 0
0.069666 0.377286 2.299944 255 255 0
0.086826 0.377393 2.300099 255 255 0
0.092084 0.375854 2.291477 255 255 0
-0.295330 0.299960 2.230529 0 255 0
-0.288117 0.301148 2.237210 0 255 0
-0.291268 0.304465 2.251568 0 255 0
-0.284051 0.305658 2.258264 0 255 0
-0.265571 0.304571 2.256754 0 255 0
-0.191035 0.303072 2.263568 0 255 0
-0.200260 0.307619 2.282302 0 255 0
-0.204280 0.311118 2.297273 0 255 0
-0.198723 0.312722 2.305464 0 255 0
-0.190545 0.313817 2.311839 0 255 0
-0.178865 0.314237 2.315813 0 255 0
-0.171541 0.315518 2.322861 0 255 0
-0.165958 0.317144 2.331136 0 255 0
-0.160371 0.318774 2.339426 0 255 0
-0.154780 0.320408 2.347729 0 255 0
-0.140414 0.320368 2.350099 0 255 0
-0.126908 0.320509 2.353127 0 255 0
-0.111626 0.320331 2.355036 0 255 0
-0.100720 0.320999 2.359950 0 255 0
-0.090681 0.321844 2.365493 0 255 0
-0.080629 0.322697 2.371075 0 255 0
-0.388049 0.370544 2.219000 255 0 0
-0.380982 0.369565 2.213000 255 0 0
-0.373608 0.368251 2.205000 255 0 0
-0.366444 0.367104 2.198000 255 0 0
-0.359480 0.366124 2.192000 255 0 0
-0.353033 0.365645 2.189000 255 0 0
-0.347234 0.365833 2.190000 255 0 0
-0.341118 0.365688 2.189000 255 0 0
-0.335772 0.366377 2.193000 255 0 0
-0.329652 0.366231 2.192000 255 0 0
-0.323831 0.366419 2.193000 255 0 0
-0.318003 0.366606 2.194000 255 0 0
-0.312170 0.366793 2.195000 255 0 0
-0.306051 0.366646 2.194000 255 0 0
-0.300211 0.366833 2.195000 255 0 0
-0.294632 0.367353 2.198000 255 0 0
-0.289561 0.368542 2.205000 255 0 0
-0.284451 0.369731 2.212000 255 0 0
-0.280057 0.371923 2.225000 255 0 0
-0.275838 0.374449 2.240000 255 0 0
-0.270573 0.375637 2.247000 255 0 0
-0.263386 0.374151 2.238000 255 0 0
-0.255788 0.371995 2.225000 255 0 0
-0.247922 0.369337 2.209000 255 0 0
-0.240910 0.367848 2.200000 255 0 0
-0.234160 0.366694 2.193000 255 0 0
-0.227447 0.365539 2.186000 255 0 0
-0.220975 0.364719 2.181000 255 0 0
-0.214430 0.363730 2.175000 255 0 0
-0.208397 0.363578 2.174000 255 0 0
-0.201809 0.362422 2.167000 255 0 0
-0.195260 0.361265 2.160000 255 0 0
-0.188660 0.359940 2.152000 255 0 0
-0.182783 0.359953 2.152000 255 0 0
-0.176987 0.360133 2.153000 255 0 0
-0.171265 0.360480 2.155000 255 0 0
-0.165301 0.360325 2.154000 255 0 0
-0.159416 0.360336 2.154000 255 0 0
-0.153602 0.360515 2.155000 255 0 0
-0.147850 0.360860 2.157000 255 0 0
-0.142021 0.361038 2.158000 255 0 0
-0.135997 0.360713 2.156000 255 0 0
-0.129923 0.360221 2.153000 255 0 0
-0.123864 0.359728 2.150000 255 0 0
-0.117767 0.359068 2.146000 255 0 0
-0.111744 0.358574 2.143000 255 0 0
-0.105885 0.358582 2.143000 255 0 0
-0.100025 0.358590 2.143000 255 0 0
-0.094165 0.358597 2.143000 255 0 0
-0.088305 0.358603 2.143000 255 0 0
-0.082406 0.358442 2.142000 255 0 0
-0.076619 0.358783 2.144000 255 0 0
-0.070788 0.358956 2.145000 255 0 0
-0.064952 0.359128 2.146000 255 0 0
-0.059054 0.358965 2.145000 255 0 0
-0.053162 0.358802 2.144000 255 0 0
-0.047320 0.358973 2.145000 255 0 0
-0.041529 0.359646 2.149000 255 0 0
-0.035684 0.359983 2.151000 255 0 0
-0.029813 0.360153 2.152000 255 0 0
-0.023904 0.359820 2.150000 255 0 0
-0.018055 0.360491 2.154000 255 0 0
-0.012191 0.361329 2.159000 255 0 0
-0.006302 0.362334 2.165000 255 0 0
-0.000379 0.362836 2.168000 255 0 0
0.005560 0.363338 2.171000 255 0 0
0.011531 0.364342 2.177000 255 0 0
0.017527 0.365178 2.182000 255 0 0
0.023572 0.366347 2.189000 255 0 0
0.029709 0.368186 2.200000 255 0 0
0.036101 0.372033 2.223000 255 0 0
0.042751 0.377051 2.253000 255 0 0
0.049240 0.379558 2.268000 255 0 0
0.055273 0.378383 2.261000 255 0 0
0.061131 0.376370 2.249000 255 0 0
0.067103 0.375361 2.243000 255 0 0
0.073173 0.375021 2.241000 255 0 0
0.079161 0.374346 2.237000 255 0 0
0.085012 0.373169 2.230000 255 0 0
0.090906 0.372326 2.225000 255 0 0
0.096947 0.372152 2.224000 255 0 0
0.103075 0.372312 2.225000 255 0 0
0.109110 0.372137 2.224000 255 0 0
0.115139 0.371961 2.223000 255 0 0
0.121434 0.372622 2.227000 255 0 0
0.128095 0.374286 2.237000 255 0 0
0.134750 0.375782 2.246000 255 0 0
0.141203 0.376609 2.251000 255 0 0
0.147617 0.377268 2.255000 255 0 0
0.153780 0.377257 2.255000 255 0 0
-0.101070 0.375804 2.357295 255 255 0
-0.101667 0.373377 2.344039 255 255 0
-0.097955 0.371521 2.333743 255 255 0
-0.082212 0.371279 2.331837 255 255 0
-0.058769 0.372093 2.335418 255 255 0
-0.043944 0.371765 2.333072 255 255 0
-0.033424 0.370867 2.327758 255 255 0
-0.027198 0.369390 2.319437 255 255 0
-0.023543 0.367564 2.309295 255 255 0
-0.013910 0.366565 2.303455 255 255 0
0.002534 0.366521 2.302584 255 255 0
0.043852 0.367668 2.307288 255 255 0
0.058505 0.367430 2.305420 255 255 0
0.071435 0.366965 2.302363 255 255 0
0.085194 0.366630 2.299990 255 255 0
0.090455 0.365096 2.291358 255 255 0
-0.311200 0.292899 2.243495 0 255 0
-0.298823 0.292985 2.246298 0 255 0
-0.294205 0.294699 2.254890 0 255 0
-0.283533 0.295163 2.259046 0 255 0
-0.265927 0.294210 2.258188 0 255 0
-0.237037 0.290963 2.249229 0 255 0
-0.197504 0.293770 2.269405 0 255 0
-0.207596 0.298525 2.288733 0 255 0
-0.209005 0.301518 2.301839 0 255 0
-0.201710 0.302764 2.308800 0 255 0
-0.193536 0.303843 2.315175 0 255 0
-0.186226 0.305102 2.322186 0 255 0
-0.181528 0.306885 2.331032 0 255 0
-0.170710 0.307466 2.335677 0 255 0
-0.161627 0.308401 2.341563 0 255 0
-0.155161 0.309857 2.349274 0 255 0
-0.139925 0.309613 2.351064 0 255 0
-0.124669 0.309386 2.352924 0 255 0
-0.109391 0.309175 2.354854 0 255 0
-0.103758 0.310835 2.363303 0 255 0
-0.098121 0.312499 2.371768 0 255 0
-0.081917 0.312155 2.373271 0 255 0
-0.394460 0.364814 2.221000 255 0 0
-0.386323 0.362865 2.209000 255 0 0
-0.379972 0.362559 2.207000 255 0 0
-0.373122 0.361760 2.202000 255 0 0
-0.366299 0.360961 2.197000 255 0 0
-0.359666 0.360325 2.193000 255 0 0
-0.353215 0.359854 2.190000 255 0 0
-0.347573 0.360204 2.192000 255 0 0
-0.341295 0.359896 2.190000 255 0 0
-0.335793 0.360410 2.193000 255 0 0
-0.329672 0.360267 2.192000 255 0 0
-0.323851 0.360451 2.193000 255 0 0
-0.318024 0.360636 2.194000 255 0 0
-0.312190 0.360820 2.195000 255 0 0
-0.306210 0.360840 2.195000 255 0 0
-0.300503 0.361188 2.197000 255 0 0
-0.295321 0.362194 2.203000 255 0 0
-0.290105 0.363199 2.209000 255 0 0
-0.285113 0.364533 2.217000 255 0 0
-0.280705 0.366689 2.230000 255 0 0
-0.276349 0.369010 2.244000 255 0 0
-0.271314 0.370508 2.253000 255 0 0
-0.264581 0.369704 2.248000 255 0 0
-0.257414 0.368241 2.239000 255 0 0
-0.249286 0.365297 2.221000 255 0 0
-0.241803 0.363176 2.208000 255 0 0
-0.234923 0.361876 2.200000 255 0 0
-0.228295 0.360905 2.194000 255 0 0
-0.221598 0.359768 2.187000 255 0 0
-0.214839 0.358467 2.179000 255 0 0
-0.208315 0.357495 2.173000 255 0 0
-0.201823 0.356522 2.167000 255 0 0
-0.195454 0.355713 2.162000 255 0 0
-0.189024 0.354739 2.156000 255 0 0
-0.182965 0.354423 2.154000 255 0 0
-0.177164 0.354600 2.155000 255 0 0
-0.171436 0.354941 2.157000 255 0 0
-0.165543 0.354953 2.157000 255 0 0
-0.159723 0.355129 2.158000 255 0 0
-0.153755 0.354976 2.157000 255 0 0
-0.147860 0.354987 2.157000 255 0 0
-0.141899 0.354832 2.156000 255 0 0
-0.135943 0.354678 2.155000 255 0 0
-0.129992 0.354523 2.154000 255 0 0
-0.123931 0.354038 2.151000 255 0 0
-0.117941 0.353717 2.149000 255 0 0
-0.111856 0.353067 2.145000 255 0 0
-0.105991 0.353075 2.145000 255 0 0
-0.100079 0.352918 2.144000 255 0 0
-0.094216 0.352925 2.144000 255 0 0
-0.088353 0.352932 2.144000 255 0 0
-0.082489 0.352938 2.144000 255 0 0
-0.076732 0.353438 2.147000 255 0 0
-0.070860 0.353443 2.147000 255 0 0
-0.065017 0.353612 2.148000 255 0 0
-0.059086 0.353288 2.146000 255 0 0
-0.053216 0.353292 2.146000 255 0 0
-0.047367 0.353460 2.147000 255 0 0
-0.041552 0.353957 2.150000 255 0 0
-0.035686 0.354125 2.151000 255 0 0
-0.029801 0.354127 2.151000 255 0 0
-0.023916 0.354129 2.151000 255 0 0
-0.018065 0.354789 2.155000 255 0 0
-0.012203 0.355778 2.161000 255 0 0
-0.006305 0.356602 2.166000 255 0 0
-0.000379 0.356932 2.168000 255 0 0
0.005563 0.357590 2.172000 255 0 0
0.011543 0.358742 2.179000 255 0 0
0.017560 0.359893 2.186000 255 0 0
0.023660 0.361703 2.197000 255 0 0
0.029941 0.364993 2.217000 255 0 0
0.036526 0.370259 2.249000 255 0 0
0.043172 0.374537 2.275000 255 0 0
0.049482 0.375192 2.279000 255 0 0
0.055399 0.373048 2.266000 255 0 0
0.061272 0.371068 2.254000 255 0 0
0.067198 0.369746 2.246000 255 0 0
0.073276 0.369412 2.244000 255 0 0
0.079237 0.368583 2.239000 255 0 0
0.085171 0.367754 2.234000 255 0 0
0.091076 0.366925 2.229000 255 0 0
0.097129 0.366753 2.228000 255 0 0
0.103221 0.366746 2.228000 255 0 0
0.109265 0.366574 2.227000 255 0 0
0.115406 0.366730 2.228000 255 0 0
0.121716 0.367380 2.232000 255 0 0
0.128162 0.368359 2.238000 255 0 0
0.134700 0.369501 2.245000 255 0 0
0.140899 0.369656 2.246000 255 0 0
0.147300 0.370304 2.250000 255 0 0
0.153586 0.370623 2.252000 255 0 0
-0.100690 0.362552 2.345948 255 255 0
-0.098697 0.360461 2.334456 255 255 0
-0.081239 0.360490 2.333733 255 255 0
-0.060380 0.361008 2.335495 255 255 0
-0.040414 0.361426 2.336752 255 255 0
-0.030757 0.360430 2.330832 255 255 0
-0.027099 0.358603 2.320687 255 255 0
-0.029422 0.355935 2.306262 255 255 0
-0.019785 0.354951 2.300395 255 255 0
-0.000782 0.355305 2.301342 255 255 0
0.027556 0.357013 2.309186 255 255 0
0.046484 0.357405 2.310342 255 255 0
0.061130 0.357202 2.308469 255 255 0
0.068960 0.356029 2.301650 255 255 0
0.073390 0.354367 2.292341 255 255 0
0.042238 0.347508 2.256522 255 255 0
-0.314126 0.283173 2.246814 0 255 0
-0.305207 0.283961 2.252177 0 255 0
-0.298005 0.285121 2.258847 0 255 0
-0.285611 0.285198 2.261734 0 255 0
-0.262826 0.283115 2.257098 0 255 0
-0.236545 0.280335 2.250061 0 255 0
-0.203100 0.284315 2.274615 0 255 0
-0.209710 0.288395 2.291457 0 255 0
-0.210246 0.291223 2.303945 0 255 0
-0.204695 0.292811 2.312133 0 255 0
-0.196525 0.293874 2.318509 0 255 0
-0.193580 0.295998 2.328550 0 255 0
-0.190634 0.298122 2.338589 0 255 0
-0.179826 0.298676 2.343218 0 255 0
-0.168130 0.299067 2.347293 0 255 0
-0.152919 0.298774 2.349034 0 255 0
-0.138563 0.298671 2.351439 0 255 0
-0.118052 0.297375 2.349774 0 255 0
-0.112426 0.299023 2.358208 0 255 0
-0.105917 0.300504 2.366071 0 255 0
-0.102039 0.302502 2.375702 0 255 0
-0.080568 0.301096 2.373727 0 255 0
-0.067868 0.301412 2.377638 0 255 0
-0.392173 0.356672 2.208000 255 0 0
-0.384946 0.355564 2.201000 255 0 0
-0.378789 0.355424 2.200000 255 0 0
-0.372466 0.355123 2.198000 255 0 0
-0.366154 0.354822 2.196000 255 0 0
-0.359852 0.354520 2.194000 255 0 0
-0.353237 0.353895 2.190000 255 0 0
-0.347435 0.354078 2.191000 255 0 0
-0.341316 0.353937 2.190000 255 0 0
-0.335814 0.354443 2.193000 255 0 0
-0.329693 0.354302 2.192000 255 0 0
-0.323871 0.354483 2.193000 255 0 0
-0.318189 0.354827 2.195000 255 0 0
-0.312352 0.355008 2.196000 255 0 0
-0.306648 0.355351 2.198000 255 0 0
-0.301070 0.355855 2.201000 255 0 0
-0.295742 0.356683 2.206000 255 0 0
-0.290518 0.357672 2.212000 255 0 0
-0.285774 0.359307 2.222000 255 0 0
-0.281479 0.361589 2.236000 255 0 0
-0.276983 0.363710 2.249000 255 0 0
-0.271572 0.364698 2.255000 255 0 0
-0.264834 0.363907 2.250000 255 0 0
-0.257776 0.362631 2.242000 255 0 0
-0.249752 0.359898 2.225000 255 0 0
-0.242038 0.357488 2.210000 255 0 0
-0.235046 0.356048 2.201000 255 0 0
-0.228623 0.355416 2.197000 255 0 0
-0.221917 0.354299 2.190000 255 0 0
-0.215445 0.353505 2.185000 255 0 0
-0.208521 0.351901 2.175000 255 0 0
-0.201837 0.350621 2.167000 255 0 0
-0.195468 0.349826 2.162000 255 0 0
-0.189388 0.349515 2.160000 255 0 0
-0.183403 0.349366 2.159000 255 0 0
-0.177423 0.349217 2.158000 255 0 0
-0.171527 0.349229 2.158000 255 0 0
-0.165708 0.349403 2.159000 255 0 0
-0.159883 0.349576 2.160000 255 0 0
-0.153980 0.349587 2.160000 255 0 0
-0.147939 0.349274 2.158000 255 0 0
-0.141844 0.348798 2.155000 255 0 0
-0.135890 0.348646 2.154000 255 0 0
-0.129941 0.348494 2.153000 255 0 0
-0.123997 0.348341 2.152000 255 0 0
-0.118059 0.348188 2.151000 255 0 0
-0.112021 0.347710 2.148000 255 0 0
-0.106147 0.347718 2.148000 255 0 0
-0.100226 0.347564 2.147000 255 0 0
-0.094311 0.347409 2.146000 255 0 0
-0.088441 0.347415 2.146000 255 0 0
-0.082533 0.347260 2.145000 255 0 0
-0.076702 0.347427 2.146000 255 0 0
-0.070832 0.347432 2.146000 255 0 0
-0.064991 0.347599 2.147000 255 0 0
-0.059146 0.347766 2.148000 255 0 0
-0.053319 0.348094 2.150000 255 0 0
-0.047459 0.348259 2.151000 255 0 0
-0.041632 0.348748 2.154000 255 0 0
-0.035755 0.348913 2.155000 255 0 0
-0.029873 0.349077 2.156000 255 0 0
-0.023974 0.349079 2.156000 255 0 0
-0.018083 0.349242 2.157000 255 0 0
-0.012204 0.349891 2.161000 255 0 0
-0.006302 0.350540 2.165000 255 0 0
-0.000379 0.351187 2.169000 255 0 0
0.005571 0.352159 2.175000 255 0 0
0.011565 0.353453 2.183000 255 0 0
0.017610 0.354909 2.192000 255 0 0
0.023791 0.357660 2.209000 255 0 0
0.030267 0.362840 2.241000 255 0 0
0.036918 0.368018 2.273000 255 0 0
0.043479 0.370930 2.291000 255 0 0
0.049551 0.369469 2.282000 255 0 0
0.055452 0.367199 2.268000 255 0 0
0.061385 0.365575 2.258000 255 0 0
0.067383 0.364599 2.252000 255 0 0
0.073445 0.364109 2.249000 255 0 0
0.079349 0.362970 2.242000 255 0 0
0.085291 0.362154 2.237000 255 0 0
0.091205 0.361339 2.232000 255 0 0
0.097266 0.361170 2.231000 255 0 0
0.103368 0.361163 2.231000 255 0 0
0.109469 0.361155 2.231000 255 0 0
0.115725 0.361633 2.234000 255 0 0
0.122052 0.362272 2.238000 255 0 0
0.128342 0.362749 2.241000 255 0 0
0.134769 0.363549 2.246000 255 0 0
0.140972 0.363701 2.247000 255 0 0
0.147245 0.364014 2.249000 255 0 0
0.153665 0.364651 2.253000 255 0 0
-0.094550 0.352439 2.351417 255 255 0
-0.091701 0.350464 2.340536 255 255 0
-0.081983 0.349454 2.334435 255 255 0
-0.067133 0.349176 2.331972 255 255 0
-0.044596 0.350004 2.335004 255 255 0
-0.034936 0.349023 2.329062 255 255 0
-0.034691 0.346704 2.316467 255 255 0
-0.037002 0.344013 2.302020 255 255 0
-0.025651 0.343289 2.297348 255 255 0
-0.000684 0.344552 2.302570 255 255 0
0.031047 0.346831 2.312865 255 255 0
0.050815 0.347396 2.314635 255 255 0
0.061205 0.346604 2.309646 255 255 0
