ply
format ascii 1.0
element vertex 1328
property double x
property double y
property double z
property uchar red
property uchar green
property uchar blue
end_header
0.043216 0.399841 2.278000 255 0 0
0.049251 0.398257 2.269000 255 0 0
0.055285 0.397025 2.262000 255 0 0
0.061417 0.396669 2.260000 255 0 0
0.067657 0.397016 2.262000 255 0 0
0.073646 0.395957 2.256000 255 0 0
0.079568 0.394723 2.249000 255 0 0
0.085527 0.393839 2.244000 255 0 0
0.091662 0.393832 2.244000 255 0 0
0.097841 0.394001 2.245000 255 0 0
0.103886 0.393642 2.243000 255 0 0
0.110165 0.394160 2.246000 255 0 0
0.116511 0.394854 2.250000 255 0 0
0.123206 0.396600 2.260000 255 0 0
0.129784 0.397819 2.267000 255 0 0
-0.114348 0.406930 2.344457 255 255 0
-0.104594 0.405817 2.338322 255 255 0
-0.085375 0.405887 2.338807 255 255 0
-0.066189 0.405975 2.339383 255 255 0
-0.053055 0.405323 2.335824 255 255 0
-0.053682 0.402948 2.322623 255 255 0
-0.045721 0.401658 2.315483 255 255 0
-0.021485 0.402449 2.319981 255 255 0
0.012981 0.404579 2.331963 255 255 0
0.038828 0.405640 2.337964 255 255 0
0.050106 0.404845 2.333578 255 255 0
0.056246 0.403391 2.325510 255 255 0
0.066643 0.402499 2.320576 255 255 0
0.068510 0.400494 2.309419 255 255 0
-0.300121 0.319002 2.219790 0 255 0
-0.297229 0.321072 2.229661 0 255 0
-0.283099 0.320903 2.231185 0 255 0
-0.207353 0.330086 2.284890 0 255 0
-0.204414 0.332201 2.294910 0 255 0
-0.200603 0.334151 2.304314 0 255 0
-0.189803 0.334775 2.308831 0 255 0
-0.185109 0.336567 2.317654 0 255 0
-0.182163 0.338692 2.327696 0 255 0
-0.181844 0.341309 2.339548 0 255 0
-0.167505 0.341305 2.341766 0 255 0
-0.154024 0.341479 2.344647 0 255 0
-0.136135 0.340852 2.344607 0 255 0
-0.119979 0.340570 2.345840 0 255 0
-0.108198 0.341111 2.350102 0 255 0
-0.102564 0.342792 2.358533 0 255 0
-0.092521 0.343674 2.364048 0 255 0
-0.078938 0.343926 2.367270 0 255 0
-0.386778 0.381406 2.212000 255 0 0
-0.379215 0.379877 2.203000 255 0 0
-0.372208 0.378865 2.197000 255 0 0
-0.365066 0.377681 2.190000 255 0 0
-0.358780 0.377358 2.188000 255 0 0
-0.351860 0.376345 2.182000 255 0 0
-0.345447 0.375850 2.179000 255 0 0
-0.339362 0.375699 2.178000 255 0 0
-0.334046 0.376410 2.182000 255 0 0
-0.328407 0.376776 2.184000 255 0 0
-0.322018 0.376279 2.181000 255 0 0
-0.315934 0.376128 2.180000 255 0 0
-0.309997 0.376148 2.180000 255 0 0
-0.304198 0.376340 2.181000 255 0 0
-0.298940 0.377223 2.186000 255 0 0
-0.293655 0.378106 2.191000 255 0 0
-0.288603 0.379333 2.198000 255 0 0
-0.283899 0.381078 2.208000 255 0 0
-0.279013 0.382650 2.217000 255 0 0
-0.273708 0.383705 2.223000 255 0 0
-0.266082 0.381479 2.210000 255 0 0
-0.258644 0.379425 2.198000 255 0 0
-0.251500 0.377717 2.188000 255 0 0
-0.244859 0.376698 2.182000 255 0 0
-0.238687 0.376370 2.180000 255 0 0
-0.232526 0.376041 2.178000 255 0 0
-0.226271 0.375539 2.175000 255 0 0
-0.220235 0.375382 2.174000 255 0 0
-0.213907 0.374706 2.170000 255 0 0
-0.207217 0.373340 2.162000 255 0 0
-0.200757 0.372318 2.156000 255 0 0
-0.194509 0.371641 2.152000 255 0 0
-0.188546 0.371482 2.151000 255 0 0
-0.182757 0.371668 2.152000 255 0 0
-0.177044 0.372027 2.154000 255 0 0
-0.171320 0.372385 2.156000 255 0 0
-0.165354 0.372224 2.155000 255 0 0
-0.159393 0.372063 2.154000 255 0 0
-0.153437 0.371902 2.153000 255 0 0
-0.147623 0.372086 2.154000 255 0 0
-0.141803 0.372269 2.155000 255 0 0
-0.135788 0.371934 2.153000 255 0 0
-0.129904 0.371944 2.153000 255 0 0
-0.123904 0.371607 2.151000 255 0 0
-0.117860 0.371098 2.148000 255 0 0
-0.111832 0.370588 2.145000 255 0 0
-0.105869 0.370251 2.143000 255 0 0
-0.100057 0.370431 2.144000 255 0 0
-0.094151 0.370266 2.143000 255 0 0
-0.088333 0.370445 2.144000 255 0 0
-0.082471 0.370452 2.144000 255 0 0
-0.076644 0.370630 2.145000 255 0 0
-0.070811 0.370809 2.146000 255 0 0
-0.064942 0.370814 2.146000 255 0 0
-0.059101 0.370991 2.147000 255 0 0
-0.053253 0.371168 2.148000 255 0 0
-0.047423 0.371518 2.150000 255 0 0
-0.041542 0.371521 2.150000 255 0 0
-0.035711 0.372042 2.153000 255 0 0
-0.029850 0.372391 2.155000 255 0 0
-0.024011 0.373257 2.160000 255 0 0
-0.018145 0.374122 2.165000 255 0 0
-0.012251 0.374987 2.170000 255 0 0
-0.006324 0.375506 2.173000 255 0 0
-0.000381 0.376198 2.177000 255 0 0
0.005582 0.376716 2.180000 255 0 0
0.011598 0.378444 2.190000 255 0 0
0.017717 0.381207 2.206000 255 0 0
0.024042 0.385871 2.233000 255 0 0
0.030622 0.391918 2.268000 255 0 0
0.037167 0.395544 2.289000 255 0 0
0.043409 0.395368 2.288000 255 0 0
0.049341 0.392772 2.273000 255 0 0
0.055362 0.391386 2.265000 255 0 0
0.061476 0.390863 2.262000 255 0 0
0.067722 0.391204 2.264000 255 0 0
0.073717 0.390162 2.258000 255 0 0
0.079644 0.388947 2.251000 255 0 0
0.085647 0.388249 2.247000 255 0 0
0.091832 0.388416 2.248000 255 0 0
0.098022 0.388581 2.249000 255 0 0
0.104032 0.388055 2.246000 255 0 0
0.110222 0.388220 2.247000 255 0 0
0.116675 0.389248 2.253000 255 0 0
0.123379 0.390967 2.263000 255 0 0
0.129908 0.391994 2.269000 255 0 0
0.137610 0.396303 2.294000 255 0 0
-0.113371 0.396105 2.346367 255 255 0
-0.104481 0.394900 2.339631 255 255 0
-0.084408 0.395127 2.340698 255 255 0
-0.066950 0.395041 2.340060 255 255 0
-0.052099 0.394638 2.337693 255 255 0
-0.052724 0.392250 2.324492 255 255 0
-0.038762 0.391752 2.321604 255 255 0
-0.012829 0.392833 2.327324 255 255 0
0.022469 0.395173 2.339918 255 255 0
0.040604 0.395291 2.340387 255 255 0
0.051877 0.394519 2.335995 255 255 0
0.058869 0.393187 2.328546 255 255 0
0.071818 0.392659 2.325480 255 255 0
0.073682 0.390651 2.314335 255 255 0
-0.304530 0.304222 2.200119 0 255 0
-0.304220 0.306823 2.211953 0 255 0
-0.298740 0.308365 2.219891 0 255 0
-0.299299 0.311139 2.232346 0 255 0
-0.287768 0.311461 2.235801 0 255 0
-0.269305 0.310400 2.234195 0 255 0
-0.212402 0.317860 2.277589 0 255 0
-0.214688 0.320995 2.291320 0 255 0
-0.209139 0.322599 2.299476 0 255 0
-0.204459 0.324375 2.308259 0 255 0
-0.190173 0.324301 2.310334 0 255 0
-0.185479 0.326089 2.319162 0 255 0
-0.180782 0.327880 2.327997 0 255 0
-0.182210 0.330842 2.341063 0 255 0
-0.171381 0.331470 2.345695 0 255 0
-0.161415 0.332275 2.350970 0 255 0
-0.122127 0.330289 2.348595 0 255 0
-0.110351 0.330805 2.352864 0 255 0
-0.103840 0.332314 2.360708 0 255 0
-0.094680 0.333339 2.366816 0 255 0
-0.081104 0.333559 2.370046 0 255 0
-0.071921 0.334603 2.376236 0 255 0
-0.394769 0.377234 2.223000 255 0 0
-0.385927 0.374542 2.207000 255 0 0
-0.379066 0.373717 2.202000 255 0 0
-0.372230 0.372891 2.197000 255 0 0
-0.365088 0.371725 2.190000 255 0 0
-0.358475 0.371068 2.186000 255 0 0
-0.351721 0.370241 2.181000 255 0 0
-0.345469 0.369923 2.179000 255 0 0
-0.339695 0.370114 2.180000 255 0 0
-0.334067 0.370475 2.182000 255 0 0
-0.328127 0.370496 2.182000 255 0 0
-0.321891 0.370177 2.180000 255 0 0
-0.315954 0.370198 2.180000 255 0 0
-0.310443 0.370727 2.183000 255 0 0
-0.304637 0.370917 2.184000 255 0 0
-0.299234 0.371616 2.188000 255 0 0
-0.293808 0.372315 2.192000 255 0 0
-0.288885 0.373693 2.200000 255 0 0
-0.284432 0.375750 2.212000 255 0 0
-0.279661 0.377468 2.222000 255 0 0
-0.274835 0.379185 2.232000 255 0 0
-0.267424 0.377335 2.221000 255 0 0
-0.260073 0.375484 2.210000 255 0 0
-0.252666 0.373462 2.198000 255 0 0
-0.245885 0.372290 2.191000 255 0 0
-0.239470 0.371627 2.187000 255 0 0
-0.233076 0.370963 2.183000 255 0 0
-0.226599 0.370130 2.178000 255 0 0
-0.220554 0.369975 2.177000 255 0 0
-0.214021 0.368971 2.171000 255 0 0
-0.207232 0.367456 2.162000 255 0 0
-0.200678 0.366280 2.155000 255 0 0
-0.194613 0.365954 2.153000 255 0 0
-0.188734 0.365968 2.153000 255 0 0
-0.182855 0.365981 2.153000 255 0 0
-0.177057 0.366164 2.154000 255 0 0
-0.171332 0.366517 2.156000 255 0 0
-0.165443 0.366529 2.156000 255 0 0
-0.159478 0.366370 2.155000 255 0 0
-0.153591 0.366382 2.155000 255 0 0
-0.147771 0.366563 2.156000 255 0 0
-0.141945 0.366743 2.157000 255 0 0
-0.135987 0.366583 2.156000 255 0 0
-0.130034 0.366423 2.155000 255 0 0
-0.124028 0.366092 2.153000 255 0 0
-0.117923 0.365421 2.149000 255 0 0
-0.111944 0.365089 2.147000 255 0 0
-0.106025 0.364927 2.146000 255 0 0
-0.100158 0.364935 2.146000 255 0 0
-0.094158 0.364432 2.143000 255 0 0
-0.088298 0.364439 2.143000 255 0 0
-0.082438 0.364445 2.143000 255 0 0
-0.076685 0.364961 2.146000 255 0 0
-0.070882 0.365306 2.148000 255 0 0
-0.065038 0.365482 2.149000 255 0 0
-0.059188 0.365656 2.150000 255 0 0
-0.053307 0.365661 2.150000 255 0 0
-0.047426 0.365664 2.150000 255 0 0
-0.041545 0.365668 2.150000 255 0 0
-0.035764 0.366691 2.156000 255 0 0
-0.029922 0.367374 2.160000 255 0 0
-0.024057 0.368056 2.164000 255 0 0
-0.018163 0.368568 2.167000 255 0 0
-0.012263 0.369419 2.172000 255 0 0
-0.006333 0.370100 2.176000 255 0 0
-0.000381 0.370611 2.179000 255 0 0
0.005593 0.371461 2.184000 255 0 0
0.011641 0.373842 2.198000 255 0 0
0.017879 0.378603 2.226000 255 0 0
0.024421 0.385745 2.268000 255 0 0
0.031057 0.391185 2.300000 255 0 0
0.037413 0.391863 2.304000 255 0 0
0.043545 0.390329 2.295000 255 0 0
0.049432 0.387264 2.277000 255 0 0
0.055464 0.385900 2.269000 255 0 0
0.061507 0.384875 2.263000 255 0 0
0.067697 0.384870 2.263000 255 0 0
0.073657 0.383675 2.256000 255 0 0
0.079686 0.382989 2.252000 255 0 0
0.085806 0.382812 2.251000 255 0 0
0.092043 0.383146 2.253000 255 0 0
0.098160 0.382969 2.252000 255 0 0
0.104133 0.382281 2.248000 255 0 0
0.110328 0.382443 2.249000 255 0 0
0.116891 0.383795 2.257000 255 0 0
0.123552 0.385317 2.266000 255 0 0
0.129975 0.385988 2.270000 255 0 0
0.136240 0.386148 2.271000 255 0 0
-0.108944 0.385719 2.350649 255 255 0
-0.101782 0.384308 2.342727 255 255 0
-0.085161 0.384136 2.341395 255 255 0
-0.065988 0.384316 2.341941 255 255 0
-0.048566 0.384287 2.341371 255 255 0
-0.048332 0.382000 2.328784 255 255 0
-0.026665 0.382562 2.331363 255 255 0
0.002670 0.384174 2.339537 255 255 0
0.031094 0.385698 2.347249 255 255 0
0.044088 0.385172 2.344038 255 255 0
0.053648 0.384193 2.338412 255 255 0
0.064901 0.383453 2.334062 255 255 0
0.075285 0.382605 2.329133 255 255 0
0.080551 0.381062 2.320495 255 255 0
-0.303159 0.293560 2.200207 0 255 0
-0.308874 0.297424 2.216586 0 255 0
-0.305984 0.299493 2.226453 0 255 0
-0.304820 0.301919 2.237603 0 255 0
-0.287254 0.300971 2.236569 0 255 0
-0.265340 0.299157 2.232430 0 255 0
-0.214512 0.307748 2.280311 0 255 0
-0.215925 0.310726 2.293418 0 255 0
-0.210377 0.312323 2.301579 0 255 0
-0.204826 0.313923 2.309752 0 255 0
-0.192290 0.314159 2.313059 0 255 0
-0.187598 0.315942 2.321887 0 255 0
-0.177658 0.316708 2.327094 0 255 0
-0.179953 0.319855 2.340772 0 255 0
-0.171752 0.320970 2.347222 0 255 0
-0.164419 0.322260 2.354298 0 255 0
-0.141292 0.320535 2.350694 0 255 0
-0.119887 0.319171 2.348391 0 255 0
-0.107234 0.319497 2.352088 0 255 0
-0.098962 0.320667 2.358776 0 255 0
-0.094200 0.322506 2.367830 0 255 0
-0.084152 0.323358 2.373403 0 255 0
-0.077617 0.324877 2.381332 0 255 0
-0.392128 0.368684 2.208000 255 0 0
-0.385251 0.367872 2.203000 255 0 0
-0.378572 0.367227 2.199000 255 0 0
-0.371744 0.366414 2.194000 255 0 0
-0.364777 0.365434 2.188000 255 0 0
-0.358168 0.364788 2.184000 255 0 0
-0.351420 0.363975 2.179000 255 0 0
-0.345649 0.364163 2.180000 255 0 0
-0.339872 0.364351 2.181000 255 0 0
-0.334394 0.364873 2.184000 255 0 0
-0.328298 0.364727 2.183000 255 0 0
-0.322206 0.364581 2.182000 255 0 0
-0.316409 0.364768 2.183000 255 0 0
-0.310890 0.365289 2.186000 255 0 0
-0.305075 0.365476 2.187000 255 0 0
-0.299527 0.365997 2.190000 255 0 0
-0.294229 0.366852 2.195000 255 0 0
-0.289429 0.368375 2.204000 255 0 0
-0.285351 0.370901 2.219000 255 0 0
-0.280812 0.372926 2.231000 255 0 0
-0.276084 0.374783 2.242000 255 0 0
-0.268887 0.373297 2.233000 255 0 0
-0.261738 0.371810 2.224000 255 0 0
-0.253833 0.369152 2.208000 255 0 0
-0.246800 0.367665 2.199000 255 0 0
-0.239925 0.366344 2.191000 255 0 0
-0.233626 0.365858 2.188000 255 0 0
-0.227239 0.365205 2.184000 255 0 0
-0.221279 0.365220 2.184000 255 0 0
-0.214627 0.364065 2.177000 255 0 0
-0.207534 0.362073 2.165000 255 0 0
-0.200971 0.360916 2.158000 255 0 0
-0.194989 0.360763 2.157000 255 0 0
-0.188923 0.360442 2.155000 255 0 0
-0.183122 0.360622 2.156000 255 0 0
-0.177069 0.360300 2.154000 255 0 0
-0.171583 0.361149 2.159000 255 0 0
-0.165608 0.360994 2.158000 255 0 0
-0.159712 0.361005 2.158000 255 0 0
-0.153673 0.360682 2.156000 255 0 0
-0.147781 0.360693 2.156000 255 0 0
-0.141955 0.360871 2.157000 255 0 0
-0.135997 0.360713 2.156000 255 0 0
-0.129983 0.360388 2.154000 255 0 0
-0.123980 0.360063 2.152000 255 0 0
-0.117932 0.359570 2.149000 255 0 0
-0.111952 0.359243 2.147000 255 0 0
-0.106132 0.359419 2.148000 255 0 0
-0.100352 0.359761 2.150000 255 0 0
-0.094341 0.359266 2.147000 255 0 0
-0.088429 0.359105 2.146000 255 0 0
-0.082521 0.358944 2.145000 255 0 0
-0.076762 0.359452 2.148000 255 0 0
-0.070953 0.359792 2.150000 255 0 0
-0.065103 0.359965 2.151000 255 0 0
-0.059220 0.359969 2.151000 255 0 0
-0.053336 0.359973 2.151000 255 0 0
-0.047452 0.359977 2.151000 255 0 0
-0.041606 0.360315 2.153000 255 0 0
-0.035816 0.361322 2.159000 255 0 0
-0.029938 0.361659 2.161000 255 0 0
-0.024070 0.362331 2.165000 255 0 0
-0.018164 0.362667 2.167000 255 0 0
-0.012281 0.364007 2.175000 255 0 0
-0.006348 0.365012 2.181000 255 0 0
-0.000382 0.365849 2.186000 255 0 0
0.005609 0.366518 2.190000 255 0 0
0.011711 0.370032 2.211000 255 0 0
0.018097 0.377060 2.253000 255 0 0
0.024746 0.384590 2.298000 255 0 0
0.031275 0.387600 2.316000 255 0 0
0.037514 0.386593 2.310000 255 0 0
0.043605 0.384582 2.298000 255 0 0
0.049544 0.381901 2.282000 255 0 0
0.055591 0.380558 2.274000 255 0 0
0.061675 0.379717 2.269000 255 0 0
0.067762 0.379043 2.265000 255 0 0
0.073728 0.377866 2.258000 255 0 0
0.079762 0.377191 2.254000 255 0 0
0.085889 0.377018 2.253000 255 0 0
0.092132 0.377346 2.255000 255 0 0
0.098168 0.376837 2.252000 255 0 0
0.104279 0.376662 2.251000 255 0 0
0.110631 0.377324 2.255000 255 0 0
0.117159 0.378487 2.262000 255 0 0
0.123725 0.379649 2.269000 255 0 0
0.129985 0.379807 2.270000 255 0 0
0.136310 0.380132 2.272000 255 0 0
-0.108828 0.374779 2.351968 255 255 0
-0.103390 0.373149 2.342850 255 255 0
-0.087632 0.372899 2.340904 255 255 0
-0.071041 0.372778 2.339628 255 255 0
-0.053619 0.372787 2.339029 255 255 0
-0.048231 0.371184 2.330050 255 255 0
-0.022288 0.372383 2.335646 255 255 0
0.010453 0.374543 2.346247 255 255 0
0.038003 0.376029 2.353348 255 255 0
0.044155 0.374590 2.345231 255 255 0
0.055420 0.373866 2.340829 255 255 0
0.059851 0.372199 2.331519 255 255 0
0.077899 0.372443 2.332163 255 255 0
-0.307813 0.284152 2.204851 0 255 0
-0.307499 0.286769 2.216680 0 255 0
-0.304607 0.288841 2.226557 0 255 0
-0.299128 0.290371 2.234502 0 255 0
-0.283290 0.289744 2.234782 0 255 0
-0.262247 0.288057 2.231312 0 255 0
-0.217490 0.297813 2.283651 0 255 0
-0.215423 0.300102 2.294284 0 255 0
-0.211616 0.302042 2.303681 0 255 0
-0.207808 0.303983 2.313082 0 255 0
-0.201383 0.305405 2.320658 0 255 0
-0.196698 0.307179 2.329465 0 255 0
-0.188516 0.308265 2.335865 0 255 0
-0.188193 0.310906 2.347708 0 255 0
-0.179126 0.311830 2.353544 0 255 0
-0.166545 0.312079 2.357029 0 255 0
-0.141678 0.309954 2.352252 0 255 0
-0.120283 0.308537 2.349967 0 255 0
-0.108513 0.309005 2.354265 0 255 0
-0.101122 0.310329 2.361545 0 255 0
-0.095482 0.311995 2.370017 0 255 0
-0.086318 0.312994 2.376177 0 255 0
0.088397 0.302659 2.362782 0 255 0
0.103949 0.302653 2.365641 0 255 0
-0.391263 0.361857 2.203000 255 0 0
-0.384399 0.361059 2.198000 255 0 0
-0.377906 0.360588 2.195000 255 0 0
-0.371258 0.359953 2.191000 255 0 0
-0.364632 0.359318 2.187000 255 0 0
-0.358354 0.359011 2.185000 255 0 0
-0.351925 0.358539 2.182000 255 0 0
-0.346146 0.358725 2.183000 255 0 0
-0.340204 0.358746 2.183000 255 0 0
-0.334415 0.358931 2.184000 255 0 0
-0.328469 0.358952 2.184000 255 0 0
-0.322670 0.359137 2.185000 255 0 0
-0.316719 0.359157 2.185000 255 0 0
-0.310768 0.359177 2.185000 255 0 0
-0.304955 0.359360 2.186000 255 0 0
-0.299409 0.359873 2.189000 255 0 0
-0.294517 0.361207 2.197000 255 0 0
-0.289842 0.362870 2.207000 255 0 0
-0.285884 0.365520 2.223000 255 0 0
-0.281083 0.367183 2.233000 255 0 0
-0.275980 0.368517 2.241000 255 0 0
-0.269267 0.367712 2.236000 255 0 0
-0.262580 0.366908 2.231000 255 0 0
-0.254885 0.364623 2.217000 255 0 0
-0.247602 0.362830 2.206000 255 0 0
-0.240489 0.361202 2.196000 255 0 0
-0.234069 0.360560 2.192000 255 0 0
-0.227671 0.359918 2.188000 255 0 0
-0.221598 0.359768 2.187000 255 0 0
-0.214839 0.358467 2.179000 255 0 0
-0.207740 0.356508 2.167000 255 0 0
-0.201172 0.355370 2.160000 255 0 0
-0.195273 0.355384 2.160000 255 0 0
-0.189462 0.355562 2.161000 255 0 0
-0.183475 0.355410 2.160000 255 0 0
-0.177411 0.355094 2.158000 255 0 0
-0.171674 0.355435 2.160000 255 0 0
-0.165850 0.355612 2.161000 255 0 0
-0.159945 0.355623 2.161000 255 0 0
-0.153969 0.355470 2.160000 255 0 0
-0.147929 0.355151 2.158000 255 0 0
-0.141834 0.354668 2.155000 255 0 0
-0.135880 0.354513 2.154000 255 0 0
-0.129872 0.354193 2.152000 255 0 0
-0.123816 0.353709 2.149000 255 0 0
-0.117831 0.353388 2.147000 255 0 0
-0.111961 0.353397 2.147000 255 0 0
-0.106238 0.353898 2.150000 255 0 0
-0.100359 0.353906 2.150000 255 0 0
-0.094392 0.353583 2.148000 255 0 0
-0.088476 0.353425 2.147000 255 0 0
-0.082604 0.353432 2.147000 255 0 0
-0.076839 0.353931 2.150000 255 0 0
-0.071025 0.354266 2.152000 255 0 0
-0.065229 0.354765 2.155000 255 0 0
-0.059279 0.354440 2.153000 255 0 0
-0.053389 0.354444 2.153000 255 0 0
-0.047499 0.354448 2.153000 255 0 0
-0.041667 0.354945 2.156000 255 0 0
-0.035852 0.355771 2.161000 255 0 0
-0.029968 0.356103 2.163000 255 0 0
-0.024094 0.356763 2.167000 255 0 0
-0.018207 0.357588 2.172000 255 0 0
-0.012310 0.358906 2.180000 255 0 0
-0.006363 0.359895 2.186000 255 0 0
-0.000383 0.360554 2.190000 255 0 0
0.005637 0.362364 2.201000 255 0 0
0.011813 0.367138 2.230000 255 0 0
0.018299 0.375040 2.278000 255 0 0
0.024855 0.379977 2.308000 255 0 0
0.031345 0.382115 2.321000 255 0 0
0.037549 0.380631 2.312000 255 0 0
0.043665 0.378817 2.301000 255 0 0
0.049700 0.376838 2.289000 255 0 0
0.055790 0.375682 2.282000 255 0 0
0.061843 0.374525 2.275000 255 0 0
0.067856 0.373368 2.268000 255 0 0
0.073799 0.372046 2.260000 255 0 0
0.079874 0.371546 2.257000 255 0 0
0.086086 0.371705 2.258000 255 0 0
0.092261 0.371698 2.258000 255 0 0
0.098306 0.371198 2.255000 255 0 0
0.104519 0.371355 2.256000 255 0 0
0.110884 0.372006 2.260000 255 0 0
0.117322 0.372820 2.265000 255 0 0
0.123570 0.372976 2.266000 255 0 0
0.129822 0.373132 2.267000 255 0 0
0.136200 0.373616 2.270000 255 0 0
0.144412 0.378873 2.302000 255 0 0
-0.109573 0.363710 2.352700 255 255 0
-0.100690 0.362552 2.345948 255 255 0
-0.082361 0.362692 2.345784 255 255 0
-0.066639 0.362495 2.343910 255 255 0
-0.056090 0.361600 2.338500 255 255 0
-0.050699 0.360000 2.329508 255 255 0
-0.023052 0.361504 2.336288 255 255 0
0.010532 0.363871 2.347470 255 255 0
0.046784 0.364360 2.348267 255 255 0
0.054634 0.363175 2.341399 255 255 0
0.055661 0.361023 2.329605 255 255 0
0.046484 0.357405 2.310342 255 255 0
-0.317620 0.275869 2.213386 0 255 0
-0.312151 0.277384 2.221308 0 255 0
-0.310122 0.279637 2.231820 0 255 0
-0.296893 0.279509 2.233980 0 255 0
-0.284509 0.279577 2.236838 0 255 0
-0.266930 0.278566 2.235930 0 255 0
-0.214389 0.286633 2.282659 0 255 0
-0.211448 0.288751 2.292689 0 255 0
-0.210246 0.291223 2.303945 0 255 0
-0.207307 0.293341 2.313966 0 255 0
-0.205239 0.295636 2.324594 0 255 0
-0.199684 0.297227 2.332791 0 255 0
-0.195872 0.299173 2.342209 0 255 0
-0.191184 0.300946 2.351030 0 255 0
-0.179497 0.301329 2.355072 0 255 0
-0.159920 0.300162 2.353801 0 255 0
-0.139439 0.298844 2.352033 0 255 0
-0.125064 0.298754 2.354499 0 255 0
-0.121199 0.300742 2.364090 0 255 0
-0.112064 0.301703 2.370170 0 255 0
-0.102918 0.302672 2.376285 0 255 0
-0.088484 0.302629 2.378952 0 255 0
-0.391641 0.356187 2.205000 255 0 0
-0.384071 0.354756 2.196000 255 0 0
-0.377411 0.354132 2.192000 255 0 0
-0.370772 0.353507 2.188000 255 0 0
-0.364820 0.353529 2.188000 255 0 0
-0.358868 0.353551 2.188000 255 0 0
-0.352753 0.353410 2.187000 255 0 0
-0.346484 0.353108 2.185000 255 0 0
-0.340069 0.352644 2.182000 255 0 0
-0.334436 0.352988 2.184000 255 0 0
-0.328790 0.353332 2.186000 255 0 0
-0.323133 0.353675 2.188000 255 0 0
-0.317174 0.353695 2.188000 255 0 0
-0.311072 0.353553 2.187000 255 0 0
-0.305393 0.353896 2.189000 255 0 0
-0.299975 0.354562 2.193000 255 0 0
-0.295206 0.356036 2.202000 255 0 0
-0.290518 0.357672 2.212000 255 0 0
-0.286417 0.360116 2.227000 255 0 0
-0.281479 0.361589 2.236000 255 0 0
-0.276244 0.362740 2.243000 255 0 0
-0.269766 0.362272 2.240000 255 0 0
-0.263068 0.361481 2.235000 255 0 0
-0.255477 0.359396 2.222000 255 0 0
-0.248068 0.357471 2.210000 255 0 0
-0.240943 0.355870 2.200000 255 0 0
-0.234512 0.355239 2.196000 255 0 0
-0.228311 0.354931 2.194000 255 0 0
-0.221917 0.354299 2.190000 255 0 0
-0.214952 0.352696 2.180000 255 0 0
-0.207946 0.350931 2.169000 255 0 0
-0.201651 0.350298 2.165000 255 0 0
-0.195648 0.350149 2.164000 255 0 0
-0.189651 0.350001 2.163000 255 0 0
-0.183743 0.350014 2.163000 255 0 0
-0.177752 0.349864 2.162000 255 0 0
-0.171845 0.349876 2.162000 255 0 0
-0.166015 0.350050 2.163000 255 0 0
-0.160105 0.350061 2.163000 255 0 0
-0.153837 0.349263 2.158000 255 0 0
-0.147665 0.348626 2.154000 255 0 0
-0.141646 0.348313 2.152000 255 0 0
-0.135701 0.348161 2.151000 255 0 0
-0.129700 0.347847 2.149000 255 0 0
-0.123652 0.347370 2.146000 255 0 0
-0.117784 0.347378 2.146000 255 0 0
-0.111969 0.347549 2.147000 255 0 0
-0.106197 0.347880 2.149000 255 0 0
-0.100320 0.347887 2.149000 255 0 0
-0.094399 0.347733 2.148000 255 0 0
-0.088565 0.347901 2.149000 255 0 0
-0.082726 0.348069 2.150000 255 0 0
-0.076916 0.348399 2.152000 255 0 0
-0.071063 0.348566 2.153000 255 0 0
-0.065264 0.349056 2.156000 255 0 0
-0.059393 0.349223 2.157000 255 0 0
-0.053468 0.349065 2.156000 255 0 0
-0.047569 0.349069 2.156000 255 0 0
-0.041728 0.349558 2.159000 255 0 0
-0.035904 0.350370 2.164000 255 0 0
-0.030025 0.350858 2.167000 255 0 0
-0.024129 0.351346 2.170000 255 0 0
-0.018234 0.352157 2.175000 255 0 0
-0.012311 0.352968 2.180000 255 0 0
-0.006366 0.354102 2.187000 255 0 0
-0.000384 0.355235 2.194000 255 0 0
0.005671 0.358473 2.214000 255 0 0
0.011925 0.364463 2.251000 255 0 0
0.018373 0.370291 2.287000 255 0 0
0.024878 0.374013 2.310000 255 0 0
0.031347 0.375792 2.321000 255 0 0
0.037584 0.374657 2.314000 255 0 0
0.043763 0.373358 2.306000 255 0 0
0.049855 0.371736 2.296000 255 0 0
0.055917 0.370275 2.287000 255 0 0
0.061956 0.368975 2.279000 255 0 0
0.067921 0.367514 2.270000 255 0 0
0.073902 0.366375 2.263000 255 0 0
0.079986 0.365884 2.260000 255 0 0
0.086168 0.365878 2.260000 255 0 0
0.092268 0.365548 2.258000 255 0 0
0.098356 0.365217 2.256000 255 0 0
0.104665 0.365696 2.259000 255 0 0
0.110990 0.366173 2.262000 255 0 0
0.117279 0.366489 2.264000 255 0 0
0.123579 0.366804 2.266000 255 0 0
0.129946 0.367281 2.269000 255 0 0
0.136329 0.367757 2.272000 255 0 0
0.142980 0.368880 2.279000 255 0 0
-0.105416 0.355673 2.369638 255 255 0
-0.103426 0.353578 2.358160 255 255 0
-0.096271 0.352199 2.350231 255 255 0
-0.081389 0.351905 2.347682 255 255 0
-0.065673 0.351744 2.345798 255 255 0
-0.058557 0.350386 2.337978 255 255 0
-0.052306 0.348911 2.329576 255 255 0
-0.024667 0.350486 2.336329 255 255 0
0.006339 0.352576 2.345656 255 255 0
0.037289 0.354696 2.355144 255 255 0
0.049413 0.354134 2.351303 255 255 0
0.061519 0.353581 2.347512 255 255 0
0.058286 0.350803 2.332645 255 255 0
-0.314533 0.264822 2.212178 0 255 0
-0.306483 0.265772 2.218178 0 255 0
-0.301005 0.267288 2.226136 0 255 0
-0.292940 0.268251 2.232183 0 255 0
-0.278833 0.267924 2.233788 0 255 0
-0.266433 0.267981 2.236729 0 255 0
-0.208171 0.272033 2.267283 0 255 0
-0.217370 0.276689 2.286001 0 255 0
-0.212692 0.278446 2.294796 0 255 0
-0.214967 0.281643 2.308504 0 255 0
-0.211160 0.283580 2.317907 0 255 0
-0.211706 0.286412 2.330351 0 255 0
-0.201799 0.287102 2.335510 0 255 0
-0.199731 0.289401 2.346133 0 255 0
-0.195046 0.291167 2.354949 0 255 0
-0.183367 0.291523 2.358992 0 255 0
-0.156805 0.288898 2.352968 0 255 0
-0.136330 0.287531 2.351228 0 255 0
-0.126339 0.288287 2.356668 0 255 0
-0.125104 0.290795 2.368023 0 255 0
-0.117730 0.292085 2.375273 0 255 0
-0.111225 0.293554 2.383129 0 255 0
-0.095046 0.293127 2.384626 0 255 0
-0.385143 0.349734 2.202000 255 0 0
-0.377778 0.348485 2.194000 255 0 0
-0.371132 0.347871 2.190000 255 0 0
-0.364508 0.347258 2.186000 255 0 0
-0.358397 0.347120 2.185000 255 0 0
-0.352290 0.346982 2.184000 255 0 0
-0.346188 0.346844 2.183000 255 0 0
-0.339934 0.346547 2.181000 255 0 0
-0.333997 0.346567 2.181000 255 0 0
-0.328509 0.347064 2.184000 255 0 0
-0.323153 0.347720 2.188000 255 0 0
-0.317194 0.347740 2.188000 255 0 0
-0.311233 0.347759 2.188000 255 0 0
-0.305551 0.348096 2.190000 255 0 0
-0.300405 0.349069 2.196000 255 0 0
-0.295359 0.350200 2.203000 255 0 0
-0.290799 0.351968 2.214000 255 0 0
-0.286564 0.354212 2.228000 255 0 0
-0.281371 0.355343 2.235000 255 0 0
-0.276139 0.356474 2.242000 255 0 0
-0.270145 0.356650 2.243000 255 0 0
-0.263438 0.355873 2.238000 255 0 0
-0.256069 0.354140 2.227000 255 0 0
-0.248533 0.352090 2.214000 255 0 0
-0.241616 0.350834 2.206000 255 0 0
-0.234848 0.349736 2.199000 255 0 0
-0.228638 0.349433 2.197000 255 0 0
-0.221830 0.348176 2.189000 255 0 0
-0.214868 0.346600 2.179000 255 0 0
-0.208056 0.345183 2.170000 255 0 0
-0.201851 0.344719 2.167000 255 0 0
-0.195843 0.344574 2.166000 255 0 0
-0.189839 0.344428 2.165000 255 0 0
-0.183925 0.344440 2.165000 255 0 0
-0.178011 0.344453 2.165000 255 0 0
-0.172016 0.344306 2.164000 255 0 0
-0.166103 0.344317 2.164000 255 0 0
-0.160042 0.344010 2.162000 255 0 0
-0.153919 0.343544 2.159000 255 0 0
-0.147744 0.342918 2.155000 255 0 0
-0.141722 0.342610 2.153000 255 0 0
-0.135773 0.342460 2.152000 255 0 0
-0.129830 0.342310 2.151000 255 0 0
-0.123776 0.341842 2.148000 255 0 0
-0.117957 0.342010 2.149000 255 0 0
-0.112133 0.342177 2.150000 255 0 0
-0.106303 0.342344 2.151000 255 0 0
-0.100327 0.342033 2.149000 255 0 0
-0.094361 0.341721 2.147000 255 0 0
-0.088571 0.342046 2.149000 255 0 0
-0.082809 0.342530 2.152000 255 0 0
-0.076958 0.342695 2.153000 255 0 0
-0.071134 0.343018 2.155000 255 0 0
-0.065359 0.343660 2.159000 255 0 0
-0.059480 0.343823 2.160000 255 0 0
-0.053571 0.343827 2.160000 255 0 0
-0.047639 0.343672 2.159000 255 0 0
-0.041770 0.343993 2.161000 255 0 0
-0.035924 0.344633 2.165000 255 0 0
-0.030083 0.345590 2.171000 255 0 0
-0.024176 0.346070 2.174000 255 0 0
-0.018260 0.346708 2.178000 255 0 0
-0.012318 0.347187 2.181000 255 0 0
-0.006370 0.348302 2.188000 255 0 0
-0.000385 0.350212 2.200000 255 0 0
0.005710 0.354829 2.229000 255 0 0
0.011963 0.359444 2.258000 255 0 0
0.018366 0.363901 2.286000 255 0 0
0.024837 0.367083 2.306000 255 0 0
0.031350 0.369468 2.321000 255 0 0
0.037635 0.368829 2.317000 255 0 0
0.043842 0.367712 2.310000 255 0 0
0.049967 0.366276 2.301000 255 0 0
0.056018 0.364680 2.291000 255 0 0
0.062015 0.363084 2.281000 255 0 0
0.067956 0.361488 2.271000 255 0 0
0.073940 0.360369 2.264000 255 0 0
0.080063 0.360045 2.262000 255 0 0
0.086174 0.359721 2.260000 255 0 0
0.092274 0.359396 2.258000 255 0 0
0.098407 0.359230 2.257000 255 0 0
0.104719 0.359700 2.260000 255 0 0
0.110949 0.359852 2.261000 255 0 0
0.117236 0.360162 2.263000 255 0 0
0.123533 0.360472 2.265000 255 0 0
0.129955 0.361100 2.269000 255 0 0
0.136339 0.361568 2.272000 255 0 0
-0.098408 0.345691 2.375666 255 255 0
-0.094701 0.343837 2.365384 255 255 0
-0.094434 0.341495 2.352733 255 255 0
-0.084711 0.340499 2.346607 255 255 0
-0.068996 0.340372 2.344699 255 255 0
-0.061020 0.339145 2.337462 255 255 0
-0.053053 0.337924 2.330251 255 255 0
-0.023714 0.339820 2.338190 255 255 0
0.013259 0.342868 2.351748 255 255 0
0.044188 0.345074 2.361231 255 255 0
0.052893 0.344038 2.354949 255 255 0
0.064141 0.343386 2.350544 255 255 0
0.063463 0.340969 2.337538 255 255 0
-0.322070 0.253384 2.206939 0 255 0
-0.311454 0.253744 2.210977 0 255 0
-0.303402 0.254682 2.216996 0 255 0
-0.300502 0.256760 2.226898 0 255 0
-0.289856 0.257144 2.231035 0 255 0
-0.276613 0.256975 2.233301 0 255 0
-0.191226 0.257826 2.256380 0 255 0
-0.213938 0.268135 2.296905 0 255 0
-0.220553 0.272261 2.313671 0 255 0
-0.216750 0.274193 2.323063 0 255 0
-0.211204 0.275764 2.331244 0 255 0
-0.197815 0.275712 2.333997 0 255 0
-0.193998 0.277656 2.343431 0 255 0
-0.191053 0.279781 2.353469 0 255 0
-0.180248 0.280295 2.358134 0 255 0
-0.158940 0.278675 2.355709 0 255 0
-0.141101 0.277791 2.355758 0 255 0
-0.131117 0.278523 2.361196 0 255 0
-0.128131 0.280682 2.371367 0 255 0
-0.119005 0.281605 2.377448 0 255 0
-0.111625 0.282888 2.384727 0 255 0
-0.099845 0.283301 2.389134 0 255 0
-0.088050 0.283724 2.393593 0 255 0
-0.372340 0.343004 2.197000 255 0 0
-0.364696 0.341464 2.187000 255 0 0
-0.358418 0.341173 2.185000 255 0 0
-0.352311 0.341038 2.184000 255 0 0
-0.346367 0.341058 2.184000 255 0 0
-0.340266 0.340923 2.183000 255 0 0
-0.334017 0.340630 2.181000 255 0 0
-0.328379 0.340963 2.183000 255 0 0
-0.323025 0.341607 2.187000 255 0 0
-0.317503 0.342095 2.190000 255 0 0
-0.311822 0.342427 2.192000 255 0 0
-0.306268 0.342915 2.195000 255 0 0
-0.300971 0.343715 2.200000 255 0 0
-0.296048 0.344983 2.208000 255 0 0
-0.291343 0.346564 2.218000 255 0 0
-0.286582 0.348145 2.228000 255 0 0
-0.281389 0.349257 2.235000 255 0 0
-0.276033 0.350212 2.241000 255 0 0
-0.270283 0.350699 2.244000 255 0 0
-0.263338 0.349622 2.237000 255 0 0
-0.256430 0.348544 2.230000 255 0 0
-0.248999 0.346685 2.218000 255 0 0
-0.242289 0.345763 2.212000 255 0 0
-0.235611 0.344841 2.206000 255 0 0
-0.229070 0.344075 2.201000 255 0 0
-0.221947 0.342370 2.190000 255 0 0
-0.214883 0.340665 2.179000 255 0 0
-0.208262 0.339584 2.172000 255 0 0
-0.202237 0.339442 2.171000 255 0 0
-0.196127 0.339142 2.169000 255 0 0
-0.190027 0.338843 2.167000 255 0 0
-0.184023 0.338699 2.166000 255 0 0
-0.178105 0.338711 2.166000 255 0 0
-0.172187 0.338723 2.166000 255 0 0
-0.166268 0.338735 2.166000 255 0 0
-0.160127 0.338277 2.163000 255 0 0
-0.153930 0.337662 2.159000 255 0 0
-0.147754 0.337047 2.155000 255 0 0
-0.141798 0.336900 2.154000 255 0 0
-0.135846 0.336753 2.153000 255 0 0
-0.129959 0.336763 2.153000 255 0 0
-0.124015 0.336615 2.152000 255 0 0
-0.118185 0.336780 2.153000 255 0 0
-0.112245 0.336631 2.152000 255 0 0
-0.106360 0.336639 2.152000 255 0 0
-0.100334 0.336177 2.149000 255 0 0
-0.094412 0.336027 2.148000 255 0 0
-0.088701 0.336659 2.152000 255 0 0
-0.082930 0.337135 2.155000 255 0 0
-0.077070 0.337297 2.156000 255 0 0
-0.071139 0.337146 2.155000 255 0 0
-0.065364 0.337776 2.159000 255 0 0
-0.059540 0.338250 2.162000 255 0 0
-0.053649 0.338410 2.163000 255 0 0
-0.047730 0.338414 2.163000 255 0 0
-0.041831 0.338574 2.164000 255 0 0
-0.035976 0.339202 2.168000 255 0 0
-0.030099 0.339830 2.172000 255 0 0
-0.024200 0.340458 2.176000 255 0 0
-0.018270 0.340929 2.179000 255 0 0
-0.012324 0.341400 2.182000 255 0 0
-0.006382 0.342965 2.192000 255 0 0
-0.000387 0.346407 2.214000 255 0 0
0.005746 0.350945 2.243000 255 0 0
0.011990 0.354073 2.263000 255 0 0
0.018360 0.357514 2.285000 255 0 0
0.024796 0.360173 2.302000 255 0 0
0.031352 0.363143 2.321000 255 0 0
0.037687 0.362984 2.320000 255 0 0
0.043921 0.362043 2.314000 255 0 0
0.050080 0.360788 2.306000 255 0 0
0.056145 0.359219 2.296000 255 0 0
0.062128 0.357494 2.285000 255 0 0
0.067991 0.355456 2.272000 255 0 0
0.073978 0.354356 2.265000 255 0 0
0.080069 0.353881 2.262000 255 0 0
0.086104 0.353249 2.258000 255 0 0
0.092199 0.352930 2.256000 255 0 0
0.098370 0.352923 2.256000 255 0 0
0.104587 0.353073 2.257000 255 0 0
0.110809 0.353222 2.258000 255 0 0
0.117037 0.353370 2.259000 255 0 0
0.123596 0.354457 2.266000 255 0 0
0.130022 0.355074 2.270000 255 0 0
-0.098295 0.334747 2.376992 255 255 0
-0.090285 0.333515 2.369652 255 255 0
-0.089159 0.331289 2.357604 255 255 0
-0.089744 0.328810 2.344351 255 255 0
-0.077459 0.328213 2.340028 255 255 0
-0.066048 0.327499 2.335155 255 255 0
-0.047807 0.327807 2.335144 255 255 0
-0.021050 0.329403 2.341262 255 255 0
0.014197 0.332298 2.353584 255 255 0
0.042554 0.334204 2.361218 255 255 0
0.052111 0.333310 2.355535 255 255 0
0.065911 0.333067 2.352960 255 255 0
0.077989 0.332577 2.349211 255 255 0
-0.314711 0.241330 2.202477 0 255 0
-0.311812 0.243405 2.212374 0 255 0
-0.304621 0.244521 2.219045 0 255 0
-0.296564 0.245452 2.225096 0 255 0
-0.283338 0.245244 2.227337 0 255 0
-0.268373 0.244669 2.228362 0 255 0
-0.172571 0.243133 2.244268 0 255 0
-0.200791 0.251979 2.276647 0 255 0
-0.223860 0.259674 2.305156 0 255 0
-0.226135 0.262898 2.318833 0 255 0
-0.223204 0.265010 2.328823 0 255 0
-0.213315 0.265651 2.333960 0 255 0
-0.200804 0.265752 2.337324 0 255 0
-0.199602 0.268241 2.348561 0 255 0
-0.192300 0.269452 2.355594 0 255 0
-0.182372 0.270125 2.360862 0 255 0
-0.163696 0.268995 2.360232 0 255 0
-0.148491 0.268607 2.362057 0 255 0
0.099797 0.261225 2.386827 0 255 0
-0.367386 0.337966 2.203000 255 0 0
-0.358767 0.335532 2.187000 255 0 0
-0.352815 0.335553 2.187000 255 0 0
-0.347339 0.336033 2.190000 255 0 0
-0.340910 0.335593 2.187000 255 0 0
-0.334649 0.335306 2.185000 255 0 0
-0.328700 0.335326 2.185000 255 0 0
-0.323192 0.335806 2.188000 255 0 0
-0.317812 0.336439 2.192000 255 0 0
-0.312125 0.336765 2.194000 255 0 0
-0.306426 0.337091 2.196000 255 0 0
-0.300989 0.337724 2.200000 255 0 0
-0.296200 0.339124 2.209000 255 0 0
-0.291361 0.340524 2.218000 255 0 0
-0.286472 0.341924 2.227000 255 0 0
-0.281407 0.343170 2.235000 255 0 0
-0.276297 0.344416 2.243000 255 0 0
-0.270180 0.344433 2.243000 255 0 0
-0.263119 0.343222 2.235000 255 0 0
-0.256217 0.342163 2.228000 255 0 0
-0.249352 0.341104 2.221000 255 0 0
-0.242743 0.340352 2.216000 255 0 0
-0.236161 0.339600 2.211000 255 0 0
-0.229293 0.338386 2.203000 255 0 0
-0.222062 0.336558 2.191000 255 0 0
-0.214996 0.334882 2.180000 255 0 0
-0.208371 0.333821 2.173000 255 0 0
-0.202344 0.333681 2.172000 255 0 0
-0.196140 0.333233 2.169000 255 0 0
-0.190128 0.333092 2.168000 255 0 0
-0.184035 0.332797 2.166000 255 0 0
-0.178035 0.332656 2.165000 255 0 0
-0.172119 0.332668 2.165000 255 0 0
-0.166203 0.332679 2.165000 255 0 0
-0.160064 0.332229 2.162000 255 0 0
-0.154012 0.331932 2.160000 255 0 0
-0.147902 0.331481 2.157000 255 0 0
-0.142005 0.331491 2.157000 255 0 0
-0.136044 0.331347 2.156000 255 0 0
-0.130149 0.331356 2.156000 255 0 0
-0.124196 0.331211 2.155000 255 0 0
-0.118358 0.331373 2.156000 255 0 0
-0.112409 0.331228 2.155000 255 0 0
-0.106515 0.331235 2.155000 255 0 0
-0.100434 0.330627 2.151000 255 0 0
-0.094550 0.330634 2.151000 255 0 0
-0.088790 0.331102 2.154000 255 0 0
-0.083013 0.331569 2.157000 255 0 0
-0.077111 0.331574 2.157000 255 0 0
-0.071210 0.331580 2.157000 255 0 0
-0.065399 0.332045 2.160000 255 0 0
-0.059544 0.332357 2.162000 255 0 0
-0.053677 0.332669 2.164000 255 0 0
-0.047778 0.332826 2.165000 255 0 0
-0.041873 0.332983 2.166000 255 0 0
-0.035962 0.333139 2.167000 255 0 0
-0.030073 0.333603 2.170000 255 0 0
-0.024201 0.334527 2.176000 255 0 0
-0.018271 0.334990 2.179000 255 0 0
-0.012359 0.336375 2.188000 255 0 0
-0.006417 0.338835 2.204000 255 0 0
-0.000390 0.342679 2.229000 255 0 0
0.005764 0.345907 2.250000 255 0 0
0.012002 0.348212 2.265000 255 0 0
0.018369 0.351440 2.286000 255 0 0
0.024798 0.353898 2.302000 255 0 0
0.031381 0.357124 2.323000 255 0 0
0.037771 0.357429 2.325000 255 0 0
0.044000 0.356350 2.318000 255 0 0
0.050213 0.355425 2.312000 255 0 0
0.056271 0.353730 2.301000 255 0 0
0.062214 0.351727 2.288000 255 0 0
0.068115 0.349878 2.276000 255 0 0
0.074147 0.348951 2.270000 255 0 0
0.080110 0.347869 2.263000 255 0 0
0.086072 0.346941 2.257000 255 0 0
0.092165 0.346628 2.255000 255 0 0
0.098334 0.346621 2.255000 255 0 0
0.104548 0.346768 2.256000 255 0 0
0.110817 0.347068 2.258000 255 0 0
0.117148 0.347521 2.261000 255 0 0
0.123659 0.348435 2.267000 255 0 0
0.130202 0.349348 2.273000 255 0 0
-0.103343 0.323033 2.374804 255 255 0
-0.088451 0.322826 2.372150 255 255 0
-0.085605 0.320847 2.361287 255 255 0
-0.088765 0.317973 2.346262 255 255 0
-0.080768 0.316760 2.338948 255 255 0
-0.067644 0.316325 2.335254 255 255 0
-0.046842 0.317064 2.337026 255 255 0
0.018550 0.322243 2.357848 255 255 0
0.046890 0.324225 2.365471 255 255 0
0.053886 0.322958 2.357959 255 255 0
0.065129 0.322353 2.353535 255 255 0
0.070406 0.320832 2.344842 255 255 0
-0.316786 0.231371 2.205170 0 255 0
-0.316459 0.234031 2.217006 0 255 0
-0.310989 0.235522 2.224959 0 255 0
-0.298645 0.235465 2.227793 0 255 0
-0.287145 0.235613 2.231320 0 255 0
-0.254983 0.231143 2.219620 0 255 0
-0.220242 0.245567 2.291706 0 255 0
-0.229438 0.250319 2.310328 0 255 0
-0.233448 0.253932 2.325211 0 255 0
-0.227917 0.255479 2.333359 0 255 0
-0.216296 0.255725 2.337282 0 255 0
-0.206401 0.256354 2.342461 0 255 0
-0.200848 0.257919 2.350681 0 255 0
-0.197034 0.259858 2.360112 0 255 0
-0.187113 0.260508 2.365376 0 255 0
-0.173687 0.260432 2.368309 0 255 0
-0.161119 0.260553 2.371892 0 255 0
0.099299 0.250027 2.388620 0 255 0
-0.360756 0.331386 2.199000 255 0 0
-0.354772 0.331407 2.199000 255 0 0
-0.348787 0.331427 2.199000 255 0 0
-0.342333 0.330995 2.196000 255 0 0
-0.336048 0.330713 2.194000 255 0 0
-0.330073 0.330733 2.194000 255 0 0
-0.324245 0.330903 2.195000 255 0 0
-0.318701 0.331375 2.198000 255 0 0
-0.312998 0.331695 2.200000 255 0 0
-0.307422 0.332166 2.203000 255 0 0
-0.301966 0.332788 2.207000 255 0 0
-0.297157 0.334163 2.216000 255 0 0
-0.292167 0.335387 2.224000 255 0 0
-0.287261 0.336763 2.233000 255 0 0
-0.282180 0.337987 2.241000 255 0 0
-0.276561 0.338607 2.245000 255 0 0
-0.269474 0.337418 2.237000 255 0 0
-0.262547 0.336379 2.230000 255 0 0
-0.256118 0.335942 2.227000 255 0 0
-0.249592 0.335355 2.223000 255 0 0
-0.243197 0.334918 2.220000 255 0 0
-0.236496 0.334028 2.214000 255 0 0
-0.229412 0.332535 2.204000 255 0 0
-0.221976 0.330437 2.190000 255 0 0
-0.214911 0.328791 2.179000 255 0 0
-0.208481 0.328050 2.174000 255 0 0
-0.202543 0.328064 2.174000 255 0 0
-0.196515 0.327926 2.173000 255 0 0
-0.190403 0.327637 2.171000 255 0 0
-0.184132 0.327046 2.167000 255 0 0
-0.178211 0.327058 2.167000 255 0 0
-0.172210 0.326918 2.166000 255 0 0
-0.166214 0.326779 2.165000 255 0 0
-0.160222 0.326638 2.164000 255 0 0
-0.154093 0.326196 2.161000 255 0 0
-0.148049 0.325904 2.159000 255 0 0
-0.142014 0.325612 2.157000 255 0 0
-0.136180 0.325773 2.158000 255 0 0
-0.130219 0.325631 2.157000 255 0 0
-0.124262 0.325488 2.156000 255 0 0
-0.118476 0.325798 2.158000 255 0 0
-0.112522 0.325655 2.157000 255 0 0
-0.106572 0.325512 2.156000 255 0 0
-0.100535 0.325066 2.153000 255 0 0
-0.094689 0.325224 2.154000 255 0 0
-0.088878 0.325532 2.156000 255 0 0
-0.083095 0.325991 2.159000 255 0 0
-0.077152 0.325845 2.158000 255 0 0
-0.071248 0.325850 2.158000 255 0 0
-0.065343 0.325855 2.158000 255 0 0
-0.059575 0.326614 2.163000 255 0 0
-0.053731 0.327071 2.166000 255 0 0
-0.047847 0.327377 2.168000 255 0 0
-0.041934 0.327531 2.169000 255 0 0
-0.036014 0.327685 2.170000 255 0 0
-0.030117 0.328140 2.173000 255 0 0
-0.024225 0.328897 2.178000 255 0 0
-0.018298 0.329502 2.182000 255 0 0
-0.012399 0.331467 2.195000 255 0 0
-0.006453 0.334638 2.216000 255 0 0
-0.000392 0.338112 2.239000 255 0 0
0.005777 0.340528 2.255000 255 0 0
0.012029 0.342792 2.270000 255 0 0
0.018402 0.345812 2.290000 255 0 0
0.024821 0.347924 2.304000 255 0 0
0.031437 0.351395 2.327000 255 0 0
0.037871 0.351997 2.331000 255 0 0
0.044136 0.351088 2.325000 255 0 0
0.050347 0.350028 2.318000 255 0 0
0.056397 0.348212 2.306000 255 0 0
0.062327 0.346094 2.292000 255 0 0
0.068240 0.344278 2.280000 255 0 0
0.074282 0.343367 2.274000 255 0 0
0.080186 0.342002 2.265000 255 0 0
0.086154 0.341091 2.259000 255 0 0
0.092253 0.340783 2.257000 255 0 0
0.098558 0.341229 2.260000 255 0 0
0.104880 0.341675 2.263000 255 0 0
0.111217 0.342120 2.266000 255 0 0
0.117571 0.342566 2.269000 255 0 0
-0.105804 0.311663 2.374383 255 255 0
-0.090912 0.311489 2.371710 255 255 0
-0.085487 0.309896 2.362606 255 255 0
-0.091214 0.306608 2.345801 255 255 0
-0.080645 0.305800 2.340260 255 255 0
-0.066669 0.305524 2.337152 255 255 0
-0.041601 0.306975 2.341912 255 255 0
-0.016578 0.308448 2.346799 255 255 0
0.022046 0.312069 2.361503 255 255 0
0.044407 0.313196 2.364857 255 255 0
0.061620 0.313542 2.364657 255 255 0
0.072852 0.312963 2.360246 255 255 0
0.074724 0.310913 2.349107 255 255 0
-0.320573 0.221808 2.209160 0 255 0
-0.325387 0.225661 2.224863 0 255 0
-0.319067 0.226943 2.232153 0 255 0
-0.305019 0.226461 2.233695 0 255 0
-0.282360 0.224032 2.228916 0 255 0
-0.259668 0.221629 2.224253 0 255 0
-0.224954 0.236008 2.296277 0 255 0
-0.233279 0.240603 2.314268 0 255 0
-0.232949 0.243284 2.326088 0 255 0
-0.224814 0.244257 2.332424 0 255 0
-0.219276 0.245804 2.340603 0 255 0
-0.206778 0.245846 2.343976 0 255 0
-0.206447 0.248532 2.355803 0 255 0
-0.200894 0.250091 2.364028 0 255 0
-0.193594 0.251280 2.371077 0 255 0
-0.175817 0.250239 2.371043 0 255 0
-0.164127 0.250517 2.375222 0 255 0
0.083276 0.239029 2.387453 0 255 0
0.095260 0.239528 2.392623 0 255 0
-0.370263 0.328485 2.220000 255 0 0
-0.360613 0.325251 2.198000 255 0 0
-0.355115 0.325715 2.201000 255 0 0
-0.349441 0.326031 2.203000 255 0 0
-0.343444 0.326051 2.203000 255 0 0
-0.337139 0.325774 2.201000 255 0 0
-0.331146 0.325794 2.201000 255 0 0
-0.325151 0.325813 2.201000 255 0 0
-0.319445 0.326128 2.203000 255 0 0
-0.313728 0.326443 2.205000 255 0 0
-0.308278 0.327054 2.209000 255 0 0
-0.302942 0.327812 2.214000 255 0 0
-0.298114 0.329163 2.223000 255 0 0
-0.285597 0.335880 2.268000 255 0 0
-0.276455 0.332343 2.244000 255 0 0
-0.269129 0.330879 2.234000 255 0 0
-0.262681 0.330451 2.231000 255 0 0
-0.256249 0.330023 2.228000 255 0 0
-0.249608 0.329298 2.223000 255 0 0
-0.242883 0.328424 2.217000 255 0 0
-0.236298 0.327699 2.212000 255 0 0
-0.229218 0.326232 2.202000 255 0 0
-0.221888 0.324320 2.189000 255 0 0
-0.215023 0.323001 2.180000 255 0 0
-0.208590 0.322274 2.175000 255 0 0
-0.202743 0.322435 2.176000 255 0 0
-0.196709 0.322300 2.175000 255 0 0
-0.190679 0.322164 2.174000 255 0 0
-0.184314 0.321435 2.169000 255 0 0
-0.178141 0.321003 2.166000 255 0 0
-0.172062 0.320718 2.164000 255 0 0
-0.166148 0.320729 2.164000 255 0 0
-0.160159 0.320591 2.163000 255 0 0
-0.154104 0.320305 2.161000 255 0 0
-0.147990 0.319871 2.158000 255 0 0
-0.142156 0.320029 2.159000 255 0 0
-0.136315 0.320186 2.160000 255 0 0
-0.130288 0.319898 2.158000 255 0 0
-0.124328 0.319759 2.157000 255 0 0
-0.118484 0.319915 2.158000 255 0 0
-0.112581 0.319923 2.158000 255 0 0
-0.106678 0.319930 2.158000 255 0 0
-0.100728 0.319789 2.157000 255 0 0
-0.094827 0.319796 2.157000 255 0 0
-0.088926 0.319802 2.157000 255 0 0
-0.083063 0.319956 2.158000 255 0 0
-0.077158 0.319961 2.158000 255 0 0
-0.071286 0.320115 2.159000 255 0 0
-0.065378 0.320119 2.159000 255 0 0
-0.059552 0.320568 2.162000 255 0 0
-0.053734 0.321165 2.166000 255 0 0
-0.047851 0.321465 2.168000 255 0 0
-0.041956 0.321765 2.170000 255 0 0
-0.036050 0.322064 2.172000 255 0 0
-0.030147 0.322511 2.175000 255 0 0
-0.024238 0.323106 2.179000 255 0 0
-0.018333 0.324146 2.186000 255 0 0
-0.012451 0.326816 2.204000 255 0 0
-0.006476 0.329782 2.224000 255 0 0
-0.000392 0.332451 2.242000 255 0 0
0.005773 0.334082 2.253000 255 0 0
0.012024 0.336454 2.269000 255 0 0
0.018396 0.339419 2.289000 255 0 0
0.024844 0.341938 2.306000 255 0 0
0.031453 0.345199 2.328000 255 0 0
0.038020 0.346976 2.340000 255 0 0
0.044291 0.345935 2.333000 255 0 0
0.050459 0.344449 2.323000 255 0 0
0.056523 0.342666 2.311000 255 0 0
0.062522 0.340882 2.299000 255 0 0
0.068544 0.339544 2.290000 255 0 0
0.074614 0.338649 2.284000 255 0 0
0.080616 0.337606 2.277000 255 0 0
0.086656 0.336859 2.272000 255 0 0
0.092872 0.336853 2.272000 255 0 0
0.099263 0.337439 2.276000 255 0 0
0.105675 0.338025 2.280000 255 0 0
0.112108 0.338611 2.284000 255 0 0
-0.114568 0.301734 2.382554 255 255 0
-0.097943 0.301848 2.380989 255 255 0
-0.083064 0.301711 2.378325 255 255 0
-0.081078 0.299596 2.366877 255 255 0
-0.086802 0.296281 2.350088 255 255 0
-0.080521 0.294828 2.341574 255 255 0
-0.065693 0.294717 2.339051 255 255 0
-0.039781 0.296367 2.344395 255 255 0
-0.006236 0.299256 2.355292 255 255 0
0.025541 0.301905 2.365155 255 255 0
0.047890 0.303091 2.368501 255 255 0
0.067647 0.303889 2.370128 255 255 0
0.080570 0.303610 2.366950 255 255 0
0.097717 0.304027 2.366902 255 255 0
-0.326069 0.212657 2.214442 0 255 0
-0.330882 0.216532 2.230128 0 255 0
-0.322853 0.217402 2.236124 0 255 0
-0.307956 0.216686 2.237028 0 255 0
-0.293037 0.215985 2.237999 0 255 0
-0.224472 0.225300 2.297157 0 255 0
-0.231921 0.229738 2.314533 0 255 0
-0.237655 0.233778 2.330627 0 255 0
-0.231260 0.235117 2.338172 0 255 0
-0.223991 0.236270 2.345131 0 255 0
-0.208894 0.235709 2.346697 0 255 0
-0.206822 0.238022 2.357322 0 255 0
-0.202141 0.239764 2.366151 0 255 0
-0.199199 0.241888 2.376177 0 255 0
-0.180562 0.240612 2.375551 0 255 0
-0.168880 0.240862 2.379729 0 255 0
-0.368615 0.320987 2.210000 255 0 0
-0.361781 0.320282 2.205000 255 0 0
-0.355780 0.320302 2.205000 255 0 0
-0.349937 0.320467 2.206000 255 0 0
-0.343931 0.320486 2.206000 255 0 0
-0.337772 0.320361 2.205000 255 0 0
-0.331767 0.320380 2.205000 255 0 0
-0.325909 0.320544 2.206000 255 0 0
-0.320334 0.320999 2.209000 255 0 0
-0.314885 0.321599 2.213000 255 0 0
-0.309692 0.322489 2.219000 255 0 0
-0.304739 0.323670 2.227000 255 0 0
-0.300278 0.325432 2.239000 255 0 0
-0.275979 0.325647 2.240000 255 0 0
-0.269146 0.324791 2.234000 255 0 0
-0.262815 0.324516 2.232000 255 0 0
-0.256150 0.323805 2.227000 255 0 0
-0.249511 0.323094 2.222000 255 0 0
-0.242680 0.322091 2.215000 255 0 0
-0.236206 0.321525 2.211000 255 0 0
-0.229129 0.320085 2.201000 255 0 0
-0.222105 0.318645 2.191000 255 0 0
-0.215136 0.317204 2.181000 255 0 0
-0.208796 0.316636 2.177000 255 0 0
-0.202849 0.316649 2.177000 255 0 0
-0.196902 0.316662 2.177000 255 0 0
-0.190867 0.316529 2.176000 255 0 0
-0.184581 0.315959 2.172000 255 0 0
-0.178481 0.315680 2.170000 255 0 0
-0.172312 0.315255 2.167000 255 0 0
-0.166236 0.314975 2.165000 255 0 0
-0.160244 0.314840 2.164000 255 0 0
-0.154328 0.314850 2.164000 255 0 0
-0.148274 0.314569 2.162000 255 0 0
-0.142363 0.314578 2.162000 255 0 0
-0.136324 0.314297 2.160000 255 0 0
-0.130417 0.314305 2.160000 255 0 0
-0.124394 0.314023 2.158000 255 0 0
-0.118547 0.314176 2.159000 255 0 0
-0.112537 0.313893 2.157000 255 0 0
-0.106636 0.313900 2.157000 255 0 0
-0.100782 0.314053 2.158000 255 0 0
-0.094877 0.314059 2.158000 255 0 0
-0.088973 0.314065 2.158000 255 0 0
-0.083068 0.314071 2.158000 255 0 0
-0.077199 0.314222 2.159000 255 0 0
-0.071291 0.314227 2.159000 255 0 0
-0.065412 0.314377 2.160000 255 0 0
-0.059584 0.314818 2.163000 255 0 0
-0.053788 0.315549 2.168000 255 0 0
-0.047920 0.315989 2.171000 255 0 0
-0.042036 0.316429 2.174000 255 0 0
-0.036086 0.316432 2.174000 255 0 0
-0.030176 0.316871 2.177000 255 0 0
-0.024273 0.317600 2.182000 255 0 0
-0.018367 0.318766 2.190000 255 0 0
-0.012469 0.321242 2.207000 255 0 0
-0.006477 0.323717 2.224000 255 0 0
-0.000392 0.325900 2.239000 255 0 0
0.005773 0.327938 2.253000 255 0 0
0.012015 0.329975 2.267000 255 0 0
0.018365 0.332594 2.285000 255 0 0
0.024824 0.335358 2.304000 255 0 0
0.031415 0.338413 2.325000 255 0 0
0.038055 0.340885 2.342000 255 0 0
0.044389 0.340300 2.338000 255 0 0
0.050571 0.338841 2.328000 255 0 0
0.056747 0.337673 2.320000 255 0 0
0.062852 0.336359 2.311000 255 0 0
0.068997 0.335482 2.305000 255 0 0
0.075142 0.334749 2.300000 255 0 0
0.081294 0.334162 2.296000 255 0 0
0.087501 0.333865 2.294000 255 0 0
0.093860 0.334150 2.296000 255 0 0
0.100360 0.334871 2.301000 255 0 0
0.106887 0.335592 2.306000 255 0 0
0.113343 0.336021 2.309000 255 0 0
-0.117311 0.292704 2.394831 255 255 0
-0.107560 0.291778 2.388561 255 255 0
-0.095244 0.291262 2.384080 255 255 0
-0.086380 0.290216 2.377304 255 255 0
-0.081816 0.288499 2.367610 255 255 0
-0.088390 0.285019 2.350228 255 255 0
-0.082107 0.283572 2.341702 255 255 0
-0.066426 0.283631 2.339759 255 255 0
-0.037107 0.285896 2.347477 255 255 0
-0.002726 0.289014 2.358957 255 255 0
0.029887 0.291889 2.369410 255 255 0
