ply
format ascii 1.0
element vertex 1327
property double x
property double y
property double z
property uchar red
property uchar green
property uchar blue
end_header
-0.248736 0.543713 2.241483 0 255 0
-0.237051 0.544621 2.244920 0 255 0
-0.229755 0.546114 2.251597 0 255 0
-0.214517 0.546587 2.252572 0 255 0
-0.205436 0.547870 2.258050 0 255 0
-0.192811 0.548710 2.261038 0 255 0
-0.178403 0.549338 2.262822 0 255 0
-0.169284 0.550652 2.268425 0 255 0
-0.161040 0.552086 2.274684 0 255 0
-0.155447 0.553860 2.282834 0 255 0
-0.136544 0.553984 2.281725 0 255 0
-0.120277 0.554458 2.282551 0 255 0
-0.103989 0.554948 2.283453 0 255 0
-0.093013 0.556108 2.288090 0 255 0
-0.075794 0.556522 2.288518 0 255 0
-0.058552 0.556953 2.289024 0 255 0
-0.048418 0.558259 2.294434 0 255 0
-0.343381 0.497793 2.169000 255 0 0
-0.336550 0.496439 2.163000 255 0 0
-0.330209 0.495774 2.160000 255 0 0
-0.323884 0.495108 2.157000 255 0 0
-0.317426 0.494212 2.153000 255 0 0
-0.310701 0.492857 2.147000 255 0 0
-0.304575 0.492420 2.145000 255 0 0
-0.298599 0.492212 2.144000 255 0 0
-0.292901 0.492463 2.145000 255 0 0
-0.286795 0.492025 2.143000 255 0 0
-0.280568 0.491357 2.140000 255 0 0
-0.274871 0.491608 2.141000 255 0 0
-0.269042 0.491628 2.141000 255 0 0
-0.263212 0.491648 2.141000 255 0 0
-0.256900 0.490749 2.137000 255 0 0
-0.250727 0.490079 2.134000 255 0 0
-0.244800 0.489868 2.133000 255 0 0
-0.238989 0.489887 2.133000 255 0 0
-0.233178 0.489905 2.133000 255 0 0
-0.227259 0.489693 2.132000 255 0 0
-0.221553 0.489940 2.133000 255 0 0
-0.215740 0.489957 2.133000 255 0 0
-0.210025 0.490204 2.134000 255 0 0
-0.204304 0.490450 2.135000 255 0 0
-0.198670 0.490925 2.137000 255 0 0
-0.192844 0.490941 2.137000 255 0 0
-0.187104 0.491186 2.138000 255 0 0
-0.181020 0.490511 2.135000 255 0 0
-0.175198 0.490525 2.135000 255 0 0
-0.169137 0.489850 2.132000 255 0 0
-0.163475 0.490323 2.134000 255 0 0
-0.157728 0.490566 2.135000 255 0 0
-0.151975 0.490808 2.136000 255 0 0
-0.146217 0.491050 2.137000 255 0 0
-0.140452 0.491292 2.138000 255 0 0
-0.134618 0.491303 2.138000 255 0 0
-0.128544 0.490395 2.134000 255 0 0
-0.122548 0.489716 2.131000 255 0 0
-0.116513 0.488806 2.127000 255 0 0
-0.110604 0.488356 2.125000 255 0 0
-0.104705 0.487906 2.123000 255 0 0
-0.098957 0.488144 2.124000 255 0 0
-0.093204 0.488382 2.125000 255 0 0
-0.087403 0.488389 2.125000 255 0 0
-0.081487 0.487707 2.122000 255 0 0
-0.075658 0.487484 2.121000 255 0 0
-0.069933 0.487949 2.123000 255 0 0
-0.064228 0.488645 2.126000 255 0 0
-0.058561 0.489799 2.131000 255 0 0
-0.052718 0.489574 2.130000 255 0 0
-0.046946 0.490038 2.132000 255 0 0
-0.041124 0.490042 2.132000 255 0 0
-0.035353 0.490734 2.135000 255 0 0
-0.029537 0.490967 2.136000 255 0 0
-0.023715 0.491199 2.137000 255 0 0
-0.017888 0.491431 2.138000 255 0 0
-0.012055 0.491662 2.139000 255 0 0
-0.006217 0.491892 2.140000 255 0 0
-0.000374 0.492123 2.141000 255 0 0
0.005475 0.492352 2.142000 255 0 0
0.011330 0.492581 2.143000 255 0 0
0.017198 0.493040 2.145000 255 0 0
0.023098 0.493958 2.149000 255 0 0
0.028993 0.494415 2.151000 255 0 0
0.034915 0.495102 2.154000 255 0 0
0.040873 0.496018 2.158000 255 0 0
0.046874 0.497164 2.163000 255 0 0
0.052853 0.497849 2.166000 255 0 0
0.058767 0.497844 2.166000 255 0 0
0.064710 0.498069 2.167000 255 0 0
0.070659 0.498293 2.168000 255 0 0
0.076755 0.499436 2.173000 255 0 0
0.082953 0.501038 2.180000 255 0 0
0.089068 0.501950 2.184000 255 0 0
0.095160 0.502632 2.187000 255 0 0
0.101268 0.503313 2.190000 255 0 0
0.107589 0.504913 2.197000 255 0 0
-0.084585 0.612828 2.264185 255 255 0
-0.071386 0.611625 2.260852 255 255 0
-0.064263 0.610028 2.253192 255 255 0
-0.051962 0.608785 2.249322 255 255 0
-0.036226 0.607785 2.248026 255 255 0
-0.017065 0.607035 2.249333 255 255 0
0.005508 0.606539 2.253273 255 255 0
0.014273 0.605106 2.247109 255 255 0
-0.288218 0.524269 2.200161 0 255 0
-0.281848 0.525827 2.207346 0 255 0
-0.278977 0.527871 2.217161 0 255 0
-0.272600 0.529438 2.224369 0 255 0
-0.268849 0.531367 2.233538 0 255 0
-0.260707 0.532705 2.239482 0 255 0
-0.249918 0.533696 2.243523 0 255 0
-0.237358 0.534462 2.246326 0 255 0
-0.229184 0.535826 2.252373 0 255 0
-0.214831 0.536382 2.253998 0 255 0
-0.203107 0.537300 2.257587 0 255 0
-0.195782 0.538809 2.264374 0 255 0
-0.182264 0.539518 2.266791 0 255 0
-0.171382 0.540585 2.271142 0 255 0
-0.157832 0.541321 2.273668 0 255 0
-0.154008 0.543318 2.283075 0 255 0
-0.134225 0.543285 2.281368 0 255 0
-0.117963 0.543723 2.282216 0 255 0
-0.104343 0.544513 2.284976 0 255 0
-0.092482 0.545541 2.289015 0 255 0
-0.076160 0.546026 2.290066 0 255 0
-0.061595 0.546748 2.292402 0 255 0
-0.055031 0.548472 2.300221 0 255 0
-0.048461 0.550201 2.308060 0 255 0
-0.354456 0.499146 2.201000 255 0 0
-0.344355 0.493273 2.175000 255 0 0
-0.337040 0.491256 2.166000 255 0 0
-0.330538 0.490371 2.162000 255 0 0
-0.323906 0.489260 2.157000 255 0 0
-0.317744 0.488829 2.155000 255 0 0
-0.311013 0.487491 2.149000 255 0 0
-0.304597 0.486605 2.145000 255 0 0
-0.298760 0.486627 2.145000 255 0 0
-0.292922 0.486648 2.145000 255 0 0
-0.286950 0.486443 2.144000 255 0 0
-0.280589 0.485556 2.140000 255 0 0
-0.274891 0.485803 2.141000 255 0 0
-0.269187 0.486050 2.142000 255 0 0
-0.263354 0.486070 2.142000 255 0 0
-0.257160 0.485409 2.139000 255 0 0
-0.251099 0.484974 2.137000 255 0 0
-0.245048 0.484539 2.135000 255 0 0
-0.239232 0.484558 2.135000 255 0 0
-0.233305 0.484349 2.134000 255 0 0
-0.227384 0.484140 2.133000 255 0 0
-0.221363 0.483703 2.131000 255 0 0
-0.215454 0.483493 2.130000 255 0 0
-0.209648 0.483510 2.130000 255 0 0
-0.204129 0.484207 2.133000 255 0 0
-0.198500 0.484677 2.135000 255 0 0
-0.192859 0.485147 2.137000 255 0 0
-0.186857 0.484708 2.135000 255 0 0
-0.181035 0.484723 2.135000 255 0 0
-0.175130 0.484510 2.134000 255 0 0
-0.169310 0.484524 2.134000 255 0 0
-0.163565 0.484764 2.135000 255 0 0
-0.157815 0.485004 2.136000 255 0 0
-0.152130 0.485471 2.138000 255 0 0
-0.146297 0.485483 2.138000 255 0 0
-0.140463 0.485495 2.138000 255 0 0
-0.134629 0.485506 2.138000 255 0 0
-0.128735 0.485290 2.137000 255 0 0
-0.122730 0.484619 2.134000 255 0 0
-0.116742 0.483948 2.131000 255 0 0
-0.110665 0.482822 2.126000 255 0 0
-0.104665 0.481922 2.122000 255 0 0
-0.098872 0.481931 2.122000 255 0 0
-0.093124 0.482166 2.123000 255 0 0
-0.087410 0.482628 2.125000 255 0 0
-0.081532 0.482180 2.123000 255 0 0
-0.075700 0.481960 2.122000 255 0 0
-0.069906 0.481966 2.122000 255 0 0
-0.064233 0.482880 2.126000 255 0 0
-0.058538 0.483794 2.130000 255 0 0
-0.052772 0.484253 2.132000 255 0 0
-0.046950 0.484257 2.132000 255 0 0
-0.041166 0.484715 2.134000 255 0 0
-0.035389 0.485400 2.137000 255 0 0
-0.029553 0.485402 2.137000 255 0 0
-0.023728 0.485632 2.138000 255 0 0
-0.017889 0.485634 2.138000 255 0 0
-0.012062 0.486089 2.140000 255 0 0
-0.006221 0.486317 2.141000 255 0 0
-0.000374 0.486545 2.142000 255 0 0
0.005478 0.486771 2.143000 255 0 0
0.011336 0.486998 2.144000 255 0 0
0.017207 0.487451 2.146000 255 0 0
0.023100 0.488131 2.149000 255 0 0
0.029009 0.488810 2.152000 255 0 0
0.034967 0.489943 2.157000 255 0 0
0.040895 0.490394 2.159000 255 0 0
0.046878 0.491299 2.163000 255 0 0
0.052833 0.491749 2.165000 255 0 0
0.058799 0.492198 2.167000 255 0 0
0.064746 0.492420 2.168000 255 0 0
0.070763 0.493096 2.171000 255 0 0
0.076902 0.494453 2.177000 255 0 0
0.083113 0.496036 2.184000 255 0 0
0.089238 0.496937 2.188000 255 0 0
0.095385 0.497838 2.192000 255 0 0
0.101508 0.498511 2.195000 255 0 0
0.107745 0.499638 2.200000 255 0 0
-0.095986 0.603445 2.270054 255 255 0
-0.083639 0.602200 2.266040 255 255 0
-0.063519 0.601502 2.267680 255 255 0
-0.052946 0.600160 2.262537 255 255 0
-0.043251 0.598765 2.256806 255 255 0
-0.030980 0.597561 2.253001 255 255 0
-0.011831 0.596858 2.254308 255 255 0
0.008146 0.596235 2.256340 255 255 0
0.019487 0.595006 2.252089 255 255 0
0.030812 0.593785 2.247881 255 255 0
0.025119 0.589263 2.218304 255 255 0
-0.269828 0.506592 2.163328 0 255 0
-0.289641 0.511886 2.190387 0 255 0
-0.291139 0.514549 2.203496 0 255 0
-0.285647 0.516220 2.211334 0 255 0
-0.281027 0.518019 2.219836 0 255 0
-0.272899 0.519331 2.225745 0 255 0
-0.269149 0.521259 2.234919 0 255 0
-0.257497 0.522098 2.238290 0 255 0
-0.251102 0.523674 2.245563 0 255 0
-0.243822 0.525134 2.252213 0 255 0
-0.234775 0.526361 2.257612 0 255 0
-0.221314 0.527001 2.259870 0 255 0
-0.206073 0.527417 2.260922 0 255 0
-0.195222 0.528440 2.265190 0 255 0
-0.181709 0.529121 2.267621 0 255 0
-0.169947 0.530050 2.271360 0 255 0
-0.157284 0.530874 2.274526 0 255 0
-0.155229 0.533102 2.285177 0 255 0
-0.138114 0.533368 2.285335 0 255 0
-0.122749 0.533882 2.286802 0 255 0
-0.110024 0.534755 2.290172 0 255 0
-0.097285 0.535640 2.293597 0 255 0
-0.066417 0.536774 2.296985 0 255 0
-0.058076 0.538262 2.303596 0 255 0
-0.052400 0.540092 2.312032 0 255 0
-0.352869 0.490937 2.191000 255 0 0
-0.343745 0.486480 2.171000 255 0 0
-0.336752 0.484935 2.164000 255 0 0
-0.330561 0.484510 2.162000 255 0 0
-0.324079 0.483636 2.158000 255 0 0
-0.317914 0.483210 2.156000 255 0 0
-0.311179 0.481888 2.150000 255 0 0
-0.304761 0.481013 2.146000 255 0 0
-0.298642 0.480587 2.144000 255 0 0
-0.292944 0.480832 2.145000 255 0 0
-0.286971 0.480629 2.144000 255 0 0
-0.280610 0.479753 2.140000 255 0 0
-0.274912 0.479998 2.141000 255 0 0
-0.269082 0.480018 2.141000 255 0 0
-0.263497 0.480487 2.143000 255 0 0
-0.257300 0.479833 2.140000 255 0 0
-0.251118 0.479180 2.137000 255 0 0
-0.245181 0.478975 2.136000 255 0 0
-0.239362 0.478993 2.136000 255 0 0
-0.233432 0.478787 2.135000 255 0 0
-0.227508 0.478580 2.134000 255 0 0
-0.221276 0.477701 2.130000 255 0 0
-0.215268 0.477269 2.128000 255 0 0
-0.209369 0.477061 2.127000 255 0 0
-0.203858 0.477751 2.130000 255 0 0
-0.198143 0.477991 2.131000 255 0 0
-0.192513 0.478455 2.133000 255 0 0
-0.186522 0.478021 2.131000 255 0 0
-0.180710 0.478036 2.131000 255 0 0
-0.174898 0.478050 2.131000 255 0 0
-0.169244 0.478513 2.133000 255 0 0
-0.163502 0.478750 2.134000 255 0 0
-0.157828 0.479212 2.136000 255 0 0
-0.152071 0.479449 2.137000 255 0 0
-0.146241 0.479461 2.137000 255 0 0
-0.140409 0.479473 2.137000 255 0 0
-0.134641 0.479708 2.138000 255 0 0
-0.128806 0.479719 2.138000 255 0 0
-0.122798 0.479056 2.135000 255 0 0
-0.116806 0.478393 2.132000 255 0 0
-0.110778 0.477505 2.128000 255 0 0
-0.104772 0.476616 2.124000 255 0 0
-0.098927 0.476400 2.123000 255 0 0
-0.093175 0.476633 2.124000 255 0 0
-0.087418 0.476865 2.125000 255 0 0
-0.081539 0.476423 2.123000 255 0 0
-0.075706 0.476205 2.122000 255 0 0
-0.069912 0.476211 2.122000 255 0 0
-0.064239 0.477115 2.126000 255 0 0
-0.058571 0.478242 2.131000 255 0 0
-0.052801 0.478695 2.133000 255 0 0
-0.046976 0.478700 2.133000 255 0 0
-0.041209 0.479377 2.136000 255 0 0
-0.035408 0.479829 2.138000 255 0 0
-0.029555 0.479607 2.137000 255 0 0
-0.023697 0.479160 2.135000 255 0 0
-0.017866 0.479162 2.135000 255 0 0
-0.012052 0.479837 2.138000 255 0 0
-0.006224 0.480735 2.142000 255 0 0
-0.000374 0.480736 2.142000 255 0 0
0.005484 0.481409 2.145000 255 0 0
0.011337 0.481183 2.144000 255 0 0
0.017201 0.481407 2.145000 255 0 0
0.023070 0.481629 2.146000 255 0 0
0.028985 0.482525 2.150000 255 0 0
0.034970 0.484093 2.157000 255 0 0
0.040937 0.484988 2.161000 255 0 0
0.046903 0.485657 2.164000 255 0 0
0.052813 0.485653 2.164000 255 0 0
0.058749 0.485873 2.165000 255 0 0
0.064721 0.486317 2.167000 255 0 0
0.070834 0.487657 2.173000 255 0 0
0.077015 0.489222 2.180000 255 0 0
0.083196 0.490562 2.186000 255 0 0
0.089368 0.491677 2.191000 255 0 0
0.095611 0.493015 2.197000 255 0 0
0.101840 0.494129 2.202000 255 0 0
0.107949 0.494569 2.204000 255 0 0
-0.106529 0.594076 2.276604 255 255 0
-0.088100 0.593277 2.276854 255 255 0
-0.073165 0.592246 2.274711 255 255 0
-0.054794 0.591478 2.275121 255 255 0
-0.045960 0.590034 2.268745 255 255 0
-0.031956 0.588976 2.266162 255 255 0
-0.021425 0.587675 2.261119 255 255 0
-0.004016 0.586895 2.261174 255 255 0
0.015085 0.586260 2.262578 255 255 0
0.031575 0.585447 2.262161 255 255 0
0.043744 0.584320 2.258620 255 255 0
0.043026 0.582213 2.245494 255 255 0
0.034606 0.579505 2.226540 255 255 0
0.033059 0.577320 2.212693 255 255 0
0.039219 0.575736 2.204662 255 255 0
-0.292563 0.502159 2.193727 0 255 0
-0.301047 0.505848 2.212084 0 255 0
-0.293816 0.507255 2.218591 0 255 0
-0.286577 0.508669 2.225119 0 255 0
-0.274078 0.509339 2.227773 0 255 0
-0.266821 0.510769 2.234361 0 255 0
-0.252539 0.511213 2.235818 0 255 0
-0.248774 0.513153 2.245036 0 255 0
-0.241494 0.514604 2.251702 0 255 0
-0.235085 0.516183 2.259025 0 255 0
-0.226031 0.517403 2.264465 0 255 0
-0.210799 0.517782 2.265517 0 255 0
-0.194666 0.518057 2.266010 0 255 0
-0.177628 0.518228 2.265950 0 255 0
-0.170281 0.519733 2.272830 0 255 0
-0.158507 0.520650 2.276628 0 255 0
-0.156452 0.522882 2.287280 0 255 0
-0.145543 0.523933 2.291763 0 255 0
-0.129303 0.524291 2.292608 0 255 0
-0.115702 0.525016 2.295362 0 255 0
-0.102971 0.525872 2.298782 0 255 0
-0.086671 0.526277 2.299834 0 255 0
-0.071236 0.526814 2.301564 0 255 0
-0.060231 0.527941 2.306366 0 255 0
-0.351122 0.482561 2.180000 255 0 0
-0.344085 0.481035 2.173000 255 0 0
-0.337242 0.479730 2.167000 255 0 0
-0.330890 0.479089 2.164000 255 0 0
-0.324102 0.477784 2.158000 255 0 0
-0.317936 0.477364 2.156000 255 0 0
-0.311636 0.476722 2.153000 255 0 0
-0.305351 0.476079 2.150000 255 0 0
-0.299360 0.475880 2.149000 255 0 0
-0.293375 0.475680 2.148000 255 0 0
-0.287393 0.475479 2.147000 255 0 0
-0.280893 0.474393 2.142000 255 0 0
-0.274932 0.474192 2.141000 255 0 0
-0.269102 0.474212 2.141000 255 0 0
-0.263517 0.474675 2.143000 255 0 0
-0.257439 0.474251 2.141000 255 0 0
-0.251254 0.473606 2.138000 255 0 0
-0.245200 0.473182 2.136000 255 0 0
-0.239492 0.473422 2.137000 255 0 0
-0.233560 0.473218 2.136000 255 0 0
-0.227739 0.473236 2.136000 255 0 0
-0.221501 0.472367 2.132000 255 0 0
-0.215487 0.471941 2.130000 255 0 0
-0.209484 0.471514 2.128000 255 0 0
-0.203778 0.471752 2.129000 255 0 0
-0.198066 0.471990 2.130000 255 0 0
-0.192258 0.472005 2.130000 255 0 0
-0.186274 0.471577 2.128000 255 0 0
-0.180555 0.471813 2.129000 255 0 0
-0.174830 0.472049 2.130000 255 0 0
-0.169257 0.472727 2.133000 255 0 0
-0.163515 0.472962 2.134000 255 0 0
-0.157841 0.473419 2.136000 255 0 0
-0.152084 0.473653 2.137000 255 0 0
-0.146252 0.473665 2.137000 255 0 0
-0.140355 0.473455 2.136000 255 0 0
-0.134652 0.473910 2.138000 255 0 0
-0.128816 0.473920 2.138000 255 0 0
-0.122923 0.473709 2.137000 255 0 0
-0.116980 0.473276 2.135000 255 0 0
-0.110892 0.472177 2.130000 255 0 0
-0.104880 0.471299 2.126000 255 0 0
-0.098982 0.470864 2.124000 255 0 0
-0.093271 0.471315 2.126000 255 0 0
-0.087507 0.471544 2.127000 255 0 0
-0.081661 0.471330 2.126000 255 0 0
-0.075820 0.471115 2.125000 255 0 0
-0.069984 0.470899 2.124000 255 0 0
-0.064335 0.472013 2.129000 255 0 0
-0.058576 0.472462 2.131000 255 0 0
-0.052805 0.472910 2.133000 255 0 0
-0.046980 0.472914 2.133000 255 0 0
-0.041193 0.473361 2.135000 255 0 0
-0.035395 0.473808 2.137000 255 0 0
-0.029544 0.473589 2.136000 255 0 0
-0.023710 0.473591 2.136000 255 0 0
-0.017892 0.474036 2.138000 255 0 0
-0.012064 0.474481 2.140000 255 0 0
-0.006227 0.475147 2.143000 255 0 0
-0.000374 0.475147 2.143000 255 0 0
0.005487 0.475812 2.146000 255 0 0
0.011349 0.475811 2.146000 255 0 0
0.017218 0.476032 2.147000 255 0 0
0.023093 0.476252 2.148000 255 0 0
0.029014 0.477137 2.152000 255 0 0
0.034973 0.478243 2.157000 255 0 0
0.040940 0.479126 2.161000 255 0 0
0.046907 0.479788 2.164000 255 0 0
0.052866 0.480227 2.166000 255 0 0
0.058809 0.480444 2.167000 255 0 0
0.064846 0.481326 2.171000 255 0 0
0.070970 0.482650 2.177000 255 0 0
0.077163 0.484196 2.184000 255 0 0
0.083355 0.485519 2.190000 255 0 0
0.089539 0.486621 2.195000 255 0 0
0.095793 0.487943 2.201000 255 0 0
0.102080 0.489265 2.207000 255 0 0
0.108203 0.489700 2.209000 255 0 0
-0.132081 0.585699 2.285564 255 255 0
-0.114476 0.584854 2.285049 255 255 0
-0.102104 0.583642 2.280931 255 255 0
-0.078486 0.583273 2.284878 255 255 0
-0.066163 0.582086 2.280893 255 255 0
-0.039842 0.579874 2.274321 255 255 0
-0.020673 0.579245 2.275503 255 255 0
-0.011878 0.577836 2.269226 255 255 0
0.006376 0.577169 2.269927 255 255 0
0.020300 0.576181 2.267542 255 255 0
0.037638 0.575476 2.267762 255 255 0
0.041214 0.573696 2.257837 255 255 0
0.046505 0.572054 2.249195 255 255 0
0.047510 0.570069 2.237340 255 255 0
0.059794 0.566933 2.221374 255 255 0
-0.297228 0.492697 2.198382 0 255 0
-0.303089 0.496031 2.214751 0 255 0
-0.299356 0.497941 2.223874 0 255 0
-0.291249 0.499212 2.229743 0 255 0
-0.276132 0.499470 2.230450 0 255 0
-0.262746 0.499998 2.232517 0 255 0
-0.252850 0.501046 2.237216 0 255 0
-0.244698 0.502356 2.243235 0 255 0
-0.239171 0.504049 2.251195 0 255 0
-0.233640 0.505746 2.259169 0 255 0
-0.229865 0.507696 2.268421 0 255 0
-0.212002 0.507667 2.267585 0 255 0
-0.197638 0.508151 2.269345 0 255 0
-0.183255 0.508649 2.271169 0 255 0
-0.178563 0.510507 2.279910 0 255 0
-0.167684 0.511516 2.284316 0 255 0
-0.163864 0.513504 2.293709 0 255 0
-0.151195 0.514289 2.296951 0 255 0
-0.142938 0.515686 2.303311 0 255 0
-0.126694 0.516016 2.304207 0 255 0
-0.110428 0.516362 2.305177 0 255 0
-0.093252 0.516607 2.305617 0 255 0
-0.073386 0.516517 2.304329 0 255 0
-0.059718 0.517269 2.307337 0 255 0
-0.350984 0.476430 2.179000 255 0 0
-0.343951 0.474923 2.172000 255 0 0
-0.337421 0.474072 2.168000 255 0 0
-0.330913 0.473220 2.164000 255 0 0
-0.324275 0.472150 2.159000 255 0 0
-0.317959 0.471516 2.156000 255 0 0
-0.311803 0.471101 2.154000 255 0 0
-0.305657 0.470686 2.152000 255 0 0
-0.299661 0.470489 2.151000 255 0 0
-0.293942 0.470729 2.152000 255 0 0
-0.288084 0.470750 2.152000 255 0 0
-0.281831 0.470114 2.149000 255 0 0
-0.275594 0.469479 2.146000 255 0 0
-0.269624 0.469280 2.145000 255 0 0
-0.263782 0.469300 2.145000 255 0 0
-0.257699 0.468882 2.143000 255 0 0
-0.251391 0.468026 2.139000 255 0 0
-0.245333 0.467607 2.137000 255 0 0
-0.239286 0.467187 2.135000 255 0 0
-0.233359 0.466987 2.134000 255 0 0
-0.227543 0.467004 2.134000 255 0 0
-0.221622 0.466803 2.133000 255 0 0
-0.215707 0.466601 2.132000 255 0 0
-0.209697 0.466180 2.130000 255 0 0
-0.203890 0.466196 2.130000 255 0 0
-0.198082 0.466212 2.130000 255 0 0
-0.192183 0.466008 2.129000 255 0 0
-0.186464 0.466242 2.130000 255 0 0
-0.180739 0.466476 2.131000 255 0 0
-0.174926 0.466490 2.131000 255 0 0
-0.169271 0.466941 2.133000 255 0 0
-0.163452 0.466955 2.133000 255 0 0
-0.157779 0.467405 2.135000 255 0 0
-0.151954 0.467418 2.135000 255 0 0
-0.146127 0.467430 2.135000 255 0 0
-0.140235 0.467223 2.134000 255 0 0
-0.134537 0.467672 2.136000 255 0 0
-0.128827 0.468120 2.138000 255 0 0
-0.122933 0.467912 2.137000 255 0 0
-0.116990 0.467484 2.135000 255 0 0
-0.111005 0.466836 2.132000 255 0 0
-0.105086 0.466407 2.130000 255 0 0
-0.099177 0.465978 2.128000 255 0 0
-0.093322 0.465767 2.127000 255 0 0
-0.087514 0.465774 2.127000 255 0 0
-0.081668 0.465562 2.126000 255 0 0
-0.075862 0.465569 2.126000 255 0 0
-0.070056 0.465575 2.126000 255 0 0
-0.064370 0.466456 2.130000 255 0 0
-0.058553 0.466461 2.130000 255 0 0
-0.052760 0.466685 2.131000 255 0 0
-0.046962 0.466908 2.132000 255 0 0
-0.041177 0.467350 2.134000 255 0 0
-0.035381 0.467791 2.136000 255 0 0
-0.029547 0.467794 2.136000 255 0 0
-0.023701 0.467577 2.135000 255 0 0
-0.017877 0.467798 2.136000 255 0 0
-0.012059 0.468456 2.139000 255 0 0
-0.006225 0.469114 2.142000 255 0 0
-0.000374 0.469114 2.142000 255 0 0
0.005485 0.469771 2.145000 255 0 0
0.011360 0.470427 2.148000 255 0 0
0.017244 0.470864 2.150000 255 0 0
0.023127 0.471081 2.151000 255 0 0
0.029057 0.471955 2.155000 255 0 0
0.035008 0.472829 2.159000 255 0 0
0.040981 0.473701 2.163000 255 0 0
0.046933 0.474136 2.165000 255 0 0
0.052919 0.474789 2.168000 255 0 0
0.058841 0.474784 2.168000 255 0 0
0.064911 0.475874 2.173000 255 0 0
0.071107 0.477620 2.181000 255 0 0
0.077381 0.479585 2.190000 255 0 0
0.083514 0.480454 2.194000 255 0 0
0.089709 0.481542 2.199000 255 0 0
0.095888 0.482410 2.203000 255 0 0
0.102227 0.483935 2.210000 255 0 0
0.108359 0.484364 2.212000 255 0 0
0.114605 0.485230 2.216000 255 0 0
-0.127641 0.575210 2.289886 255 255 0
-0.108311 0.574539 2.290592 255 255 0
-0.095080 0.573422 2.287096 255 255 0
-0.074943 0.572849 2.288580 255 255 0
-0.060895 0.571823 2.285831 255 255 0
-0.041685 0.571215 2.286868 255 255 0
-0.032002 0.569875 2.281138 255 255 0
-0.014572 0.569159 2.281075 255 255 0
-0.002340 0.568044 2.277322 255 255 0
0.014178 0.567286 2.276774 255 255 0
0.024651 0.566053 2.271866 255 255 0
0.039402 0.565180 2.270177 255 255 0
0.046410 0.563682 2.262807 255 255 0
0.058552 0.562616 2.259302 255 255 0
0.059547 0.560629 2.247481 255 255 0
0.074231 0.559793 2.245981 255 255 0
0.072660 0.557591 2.232222 255 255 0
-0.301891 0.483251 2.203032 0 255 0
-0.306877 0.486478 2.218729 0 255 0
-0.298779 0.487729 2.224581 0 255 0
-0.290674 0.488987 2.230459 0 255 0
-0.275562 0.489211 2.231182 0 255 0
-0.265683 0.490229 2.235844 0 255 0
-0.254040 0.490999 2.239259 0 255 0
-0.245013 0.492165 2.244642 0 255 0
-0.237731 0.493596 2.251333 0 255 0
-0.231321 0.495161 2.258682 0 255 0
-0.224906 0.496731 2.266049 0 255 0
-0.210565 0.497168 2.267763 0 255 0
-0.199728 0.498125 2.272050 0 255 0
-0.185353 0.498590 2.273881 0 255 0
-0.183308 0.500817 2.284491 0 255 0
-0.175968 0.502298 2.291372 0 255 0
-0.170387 0.504033 2.299512 0 255 0
-0.154190 0.504295 2.300288 0 255 0
-0.140627 0.504941 2.302976 0 255 0
-0.124387 0.505235 2.303893 0 255 0
-0.105466 0.505182 2.303064 0 255 0
-0.093617 0.506116 2.307162 0 255 0
-0.079977 0.506822 2.310103 0 255 0
-0.067208 0.507661 2.313705 0 255 0
-0.350847 0.470304 2.178000 255 0 0
-0.344608 0.469895 2.176000 255 0 0
-0.338067 0.469055 2.172000 255 0 0
-0.331547 0.468214 2.168000 255 0 0
-0.324448 0.466509 2.160000 255 0 0
-0.317981 0.465668 2.156000 255 0 0
-0.311825 0.465258 2.154000 255 0 0
-0.305963 0.465280 2.154000 255 0 0
-0.300100 0.465302 2.154000 255 0 0
-0.294373 0.465539 2.155000 255 0 0
-0.288640 0.465776 2.156000 255 0 0
-0.282376 0.465149 2.153000 255 0 0
-0.276000 0.464305 2.149000 255 0 0
-0.270022 0.464109 2.148000 255 0 0
-0.264048 0.463913 2.147000 255 0 0
-0.257959 0.463500 2.145000 255 0 0
-0.251645 0.462655 2.141000 255 0 0
-0.245467 0.462025 2.138000 255 0 0
-0.239305 0.461395 2.135000 255 0 0
-0.233267 0.460981 2.133000 255 0 0
-0.227454 0.460999 2.133000 255 0 0
-0.221847 0.461448 2.135000 255 0 0
-0.215824 0.461033 2.133000 255 0 0
-0.209812 0.460617 2.131000 255 0 0
-0.203810 0.460201 2.129000 255 0 0
-0.198190 0.460649 2.131000 255 0 0
-0.192378 0.460664 2.131000 255 0 0
-0.186654 0.460895 2.132000 255 0 0
-0.180923 0.461126 2.133000 255 0 0
-0.175104 0.461140 2.133000 255 0 0
-0.169205 0.460938 2.132000 255 0 0
-0.163311 0.460735 2.131000 255 0 0
-0.157644 0.461180 2.133000 255 0 0
-0.151824 0.461193 2.133000 255 0 0
-0.146002 0.461205 2.133000 255 0 0
-0.140181 0.461216 2.133000 255 0 0
-0.134485 0.461660 2.135000 255 0 0
-0.128717 0.461887 2.136000 255 0 0
-0.122886 0.461897 2.136000 255 0 0
-0.117054 0.461907 2.136000 255 0 0
-0.111118 0.461484 2.134000 255 0 0
-0.105193 0.461060 2.132000 255 0 0
-0.099232 0.460420 2.129000 255 0 0
-0.093330 0.459995 2.127000 255 0 0
-0.087480 0.459786 2.126000 255 0 0
-0.081713 0.460010 2.127000 255 0 0
-0.075939 0.460232 2.128000 255 0 0
-0.070095 0.460022 2.127000 255 0 0
-0.064315 0.460244 2.128000 255 0 0
-0.058503 0.460249 2.128000 255 0 0
-0.052715 0.460470 2.129000 255 0 0
-0.046944 0.460907 2.131000 255 0 0
-0.041161 0.461343 2.133000 255 0 0
-0.035384 0.461995 2.136000 255 0 0
-0.029563 0.462214 2.137000 255 0 0
-0.023725 0.462216 2.137000 255 0 0
-0.017895 0.462434 2.138000 255 0 0
-0.012066 0.462868 2.140000 255 0 0
-0.006223 0.463085 2.141000 255 0 0
-0.000374 0.463518 2.143000 255 0 0
0.005485 0.463951 2.145000 255 0 0
0.011366 0.464815 2.149000 255 0 0
0.017253 0.465246 2.151000 255 0 0
0.023172 0.466110 2.155000 255 0 0
0.029113 0.466973 2.159000 255 0 0
0.035092 0.468052 2.164000 255 0 0
0.041004 0.468048 2.164000 255 0 0
0.046958 0.468477 2.166000 255 0 0
0.052948 0.469122 2.169000 255 0 0
0.058954 0.469766 2.172000 255 0 0
0.065126 0.471491 2.180000 255 0 0
0.071341 0.473216 2.188000 255 0 0
0.077670 0.475373 2.198000 255 0 0
0.083787 0.476015 2.201000 255 0 0
0.089962 0.476873 2.205000 255 0 0
0.096070 0.477297 2.207000 255 0 0
0.102374 0.478587 2.213000 255 0 0
0.108515 0.479011 2.215000 255 0 0
-0.101282 0.564319 2.296740 255 255 0
-0.084596 0.563508 2.295702 255 255 0
-0.068804 0.562642 2.294125 255 255 0
-0.055632 0.561580 2.290764 255 255 0
-0.040751 0.560670 2.288700 255 255 0
-0.030209 0.559418 2.283586 255 255 0
-0.016234 0.558459 2.281013 255 255 0
0.000303 0.557726 2.280384 255 255 0
0.019393 0.557223 2.281720 255 255 0
0.033295 0.556302 2.279350 255 255 0
0.043743 0.555102 2.274499 255 255 0
0.050745 0.553616 2.267134 255 255 0
0.060310 0.552356 2.261710 255 255 0
0.064729 0.550657 2.252464 255 255 0
0.075129 0.549483 2.247739 255 255 0
0.074415 0.547341 2.234630 255 255 0
-0.295840 0.474653 2.211570 0 255 0
-0.292971 0.476699 2.221376 0 255 0
-0.288355 0.478480 2.229879 0 255 0
-0.279367 0.479601 2.235152 0 255 0
-0.269494 0.480598 2.239814 0 255 0
-0.255231 0.480946 2.241302 0 255 0
-0.245331 0.481965 2.246051 0 255 0
-0.241559 0.483906 2.255298 0 255 0
-0.230764 0.484810 2.259471 0 255 0
-0.225226 0.486501 2.267478 0 255 0
-0.211771 0.487036 2.269834 0 255 0
-0.200939 0.487970 2.274128 0 255 0
-0.187450 0.488531 2.276594 0 255 0
-0.184523 0.490633 2.286578 0 255 0
-0.181597 0.492737 2.296561 0 255 0
-0.175139 0.494336 2.304075 0 255 0
-0.154533 0.493930 2.301781 0 255 0
-0.138321 0.494171 2.302647 0 255 0
-0.122972 0.494554 2.304195 0 255 0
-0.107601 0.494953 2.305813 0 255 0
-0.096645 0.495986 2.310519 0 255 0
-0.089225 0.497521 2.317675 0 255 0
-0.075580 0.498206 2.320663 0 255 0
-0.061917 0.498904 2.323712 0 255 0
-0.350871 0.464395 2.178000 255 0 0
-0.344314 0.463566 2.174000 255 0 0
-0.338090 0.463162 2.172000 255 0 0
-0.331723 0.462546 2.169000 255 0 0
-0.324921 0.461289 2.163000 255 0 0
-0.318298 0.460245 2.158000 255 0 0
-0.311992 0.459627 2.155000 255 0 0
-0.306127 0.459649 2.155000 255 0 0
-0.300122 0.459458 2.154000 255 0 0
-0.294531 0.459906 2.156000 255 0 0
-0.288795 0.460140 2.157000 255 0 0
-0.282922 0.460161 2.157000 255 0 0
-0.276277 0.458901 2.151000 255 0 0
-0.270293 0.458708 2.150000 255 0 0
-0.264190 0.458301 2.148000 255 0 0
-0.258339 0.458320 2.148000 255 0 0
-0.251899 0.457272 2.143000 255 0 0
-0.245715 0.456651 2.140000 255 0 0
-0.239435 0.455816 2.136000 255 0 0
-0.233394 0.455407 2.134000 255 0 0
-0.227364 0.454998 2.132000 255 0 0
-0.221656 0.455228 2.133000 255 0 0
-0.215538 0.454605 2.130000 255 0 0
-0.209730 0.454621 2.130000 255 0 0
-0.203921 0.454637 2.130000 255 0 0
-0.198206 0.454866 2.131000 255 0 0
-0.192393 0.454882 2.131000 255 0 0
-0.186668 0.455110 2.132000 255 0 0
-0.180937 0.455338 2.133000 255 0 0
-0.175118 0.455352 2.133000 255 0 0
-0.169219 0.455152 2.132000 255 0 0
-0.163325 0.454952 2.131000 255 0 0
-0.157509 0.454965 2.131000 255 0 0
-0.151622 0.454764 2.130000 255 0 0
-0.145877 0.454989 2.131000 255 0 0
-0.140126 0.455214 2.132000 255 0 0
-0.134558 0.456079 2.136000 255 0 0
-0.128727 0.456090 2.136000 255 0 0
-0.122838 0.455887 2.135000 255 0 0
-0.116954 0.455683 2.134000 255 0 0
-0.111075 0.455479 2.133000 255 0 0
-0.105202 0.455274 2.132000 255 0 0
-0.099240 0.454642 2.129000 255 0 0
-0.093382 0.454436 2.128000 255 0 0
-0.087447 0.453803 2.125000 255 0 0
-0.081681 0.454024 2.126000 255 0 0
-0.075910 0.454244 2.127000 255 0 0
-0.070100 0.454250 2.127000 255 0 0
-0.064321 0.454469 2.128000 255 0 0
-0.058508 0.454474 2.128000 255 0 0
-0.052744 0.454906 2.130000 255 0 0
-0.046947 0.455123 2.131000 255 0 0
-0.041164 0.455554 2.133000 255 0 0
-0.035387 0.456198 2.136000 255 0 0
-0.029579 0.456628 2.138000 255 0 0
-0.023738 0.456630 2.138000 255 0 0
-0.017897 0.456632 2.138000 255 0 0
-0.012061 0.456847 2.139000 255 0 0
-0.006226 0.457488 2.142000 255 0 0
-0.000374 0.457916 2.144000 255 0 0
0.005491 0.458556 2.147000 255 0 0
0.011378 0.459410 2.151000 255 0 0
0.017271 0.459836 2.153000 255 0 0
0.023185 0.460475 2.156000 255 0 0
0.029116 0.461113 2.159000 255 0 0
0.035111 0.462392 2.165000 255 0 0
0.041064 0.462816 2.167000 255 0 0
0.047027 0.463240 2.169000 255 0 0
0.053026 0.463876 2.172000 255 0 0
0.059068 0.464726 2.176000 255 0 0
0.065251 0.466429 2.184000 255 0 0
0.071510 0.468346 2.193000 255 0 0
0.077853 0.470475 2.203000 255 0 0
0.084061 0.471536 2.208000 255 0 0
0.090255 0.472383 2.212000 255 0 0
0.096339 0.472589 2.213000 255 0 0
0.102522 0.473222 2.216000 255 0 0
0.108622 0.473426 2.217000 255 0 0
0.114883 0.474272 2.221000 255 0 0
-0.073255 0.553717 2.304909 255 255 0
-0.061805 0.552533 2.300278 255 255 0
-0.054692 0.550996 2.292606 255 255 0
-0.043270 0.549827 2.288054 255 255 0
-0.031003 0.548741 2.284167 255 255 0
-0.010138 0.548401 2.286578 255 255 0
0.012412 0.548228 2.290344 255 255 0
0.029763 0.547628 2.290441 255 255 0
0.044509 0.546818 2.288722 255 255 0
0.053227 0.545492 2.282623 255 255 0
0.063648 0.544325 2.277829 255 255 0
0.068918 0.542706 2.269236 255 255 0
0.070763 0.540783 2.258083 255 255 0
0.070903 0.538704 2.245629 255 255 0
-0.282753 0.457403 2.178799 0 255 0
-0.292924 0.461522 2.198524 0 255 0
-0.294405 0.464257 2.211626 0 255 0
-0.290660 0.466170 2.220789 0 255 0
-0.285170 0.467813 2.228655 0 255 0
-0.277054 0.469054 2.234594 0 255 0
-0.269805 0.470438 2.241203 0 255 0
-0.263424 0.471962 2.248478 0 255 0
-0.253533 0.472957 2.253212 0 255 0
-0.239249 0.473295 2.254804 0 255 0
-0.224068 0.473516 2.255826 0 255 0
-0.219403 0.475337 2.264490 0 255 0
-0.210342 0.476504 2.270019 0 255 0
-0.202150 0.477811 2.276207 0 255 0
-0.187788 0.478211 2.278058 0 255 0
-0.183978 0.480185 2.287425 0 255 0
-0.181932 0.482420 2.298032 0 255 0
-0.173710 0.483753 2.304320 0 255 0
-0.151345 0.483041 2.300824 0 255 0
-0.116251 0.483089 2.300852 0 255 0
-0.108851 0.484598 2.307955 0 255 0
-0.101444 0.486113 2.315082 0 255 0
-0.094030 0.487634 2.322232 0 255 0
-0.080393 0.488286 2.325220 0 255 0
-0.361076 0.463934 2.204000 255 0 0
-0.350411 0.457854 2.175000 255 0 0
-0.344021 0.457246 2.172000 255 0 0
-0.337958 0.457058 2.171000 255 0 0
-0.332205 0.457292 2.172000 255 0 0
-0.325695 0.456473 2.168000 255 0 0
-0.318763 0.455021 2.161000 255 0 0
-0.312158 0.453990 2.156000 255 0 0
-0.306290 0.454012 2.156000 255 0 0
-0.300561 0.454244 2.157000 255 0 0
-0.294962 0.454687 2.159000 255 0 0
-0.289218 0.454919 2.160000 255 0 0
-0.283205 0.454729 2.159000 255 0 0
-0.276683 0.453696 2.154000 255 0 0
-0.270313 0.452873 2.150000 255 0 0
-0.264210 0.452472 2.148000 255 0 0
-0.258478 0.452702 2.149000 255 0 0
-0.252270 0.452089 2.146000 255 0 0
-0.246078 0.451475 2.143000 255 0 0
-0.239901 0.450862 2.140000 255 0 0
-0.233850 0.450458 2.138000 255 0 0
-0.227808 0.450054 2.136000 255 0 0
-0.221673 0.449439 2.133000 255 0 0
-0.215554 0.448824 2.130000 255 0 0
-0.209648 0.448630 2.129000 255 0 0
-0.204129 0.449278 2.132000 255 0 0
-0.198314 0.449293 2.132000 255 0 0
-0.192499 0.449309 2.132000 255 0 0
-0.186595 0.449113 2.131000 255 0 0
-0.180782 0.449127 2.131000 255 0 0
-0.174967 0.449141 2.131000 255 0 0
-0.169153 0.449155 2.131000 255 0 0
-0.163338 0.449168 2.131000 255 0 0
-0.157522 0.449181 2.131000 255 0 0
-0.151706 0.449193 2.131000 255 0 0
-0.145957 0.449416 2.132000 255 0 0
-0.140203 0.449638 2.133000 255 0 0
-0.134569 0.450282 2.136000 255 0 0
-0.128677 0.450081 2.135000 255 0 0
-0.122906 0.450302 2.136000 255 0 0
-0.117019 0.450101 2.135000 255 0 0
-0.111136 0.449900 2.134000 255 0 0
-0.105309 0.449909 2.134000 255 0 0
-0.099341 0.449285 2.131000 255 0 0
-0.093433 0.448871 2.129000 255 0 0
-0.087536 0.448456 2.127000 255 0 0
-0.081765 0.448674 2.128000 255 0 0
-0.076023 0.449102 2.130000 255 0 0
-0.070172 0.448898 2.129000 255 0 0
-0.064386 0.449114 2.130000 255 0 0
-0.058568 0.449119 2.130000 255 0 0
-0.052823 0.449756 2.133000 255 0 0
-0.047017 0.449971 2.134000 255 0 0
-0.041206 0.450186 2.135000 255 0 0
-0.035390 0.450400 2.136000 255 0 0
-0.029595 0.451035 2.139000 255 0 0
-0.023762 0.451248 2.140000 255 0 0
-0.017924 0.451461 2.141000 255 0 0
-0.012079 0.451673 2.142000 255 0 0
-0.006230 0.451885 2.143000 255 0 0
-0.000375 0.452517 2.146000 255 0 0
0.005494 0.452939 2.148000 255 0 0
0.011379 0.453571 2.151000 255 0 0
0.017272 0.453991 2.153000 255 0 0
0.023198 0.454833 2.157000 255 0 0
0.029145 0.455674 2.161000 255 0 0
0.035131 0.456726 2.166000 255 0 0
0.041086 0.457145 2.168000 255 0 0
0.047118 0.458195 2.173000 255 0 0
0.053128 0.458824 2.176000 255 0 0
0.059263 0.460295 2.183000 255 0 0
0.065495 0.462188 2.192000 255 0 0
0.071842 0.464501 2.203000 255 0 0
0.078107 0.465971 2.210000 255 0 0
0.084334 0.467019 2.215000 255 0 0
0.090466 0.467433 2.217000 255 0 0
0.096521 0.467425 2.217000 255 0 0
0.102715 0.468050 2.220000 255 0 0
0.108778 0.468041 2.220000 255 0 0
0.115151 0.469297 2.226000 255 0 0
-0.082040 0.544411 2.312666 255 255 0
-0.065386 0.543686 2.311657 255 255 0
-0.058269 0.542156 2.303968 255 255 0
-0.052024 0.540556 2.295683 255 255 0
-0.045785 0.538958 2.287413 255 255 0
-0.030931 0.538123 2.285373 255 255 0
-0.007491 0.538063 2.289641 255 255 0
0.034969 0.537622 2.295374 255 255 0
0.048847 0.536770 2.293026 255 255 0
0.058417 0.535539 2.287567 255 255 0
0.065404 0.534079 2.280232 255 255 0
0.068961 0.532308 2.270360 255 255 0
0.069954 0.530299 2.258562 255 255 0
0.060707 0.527329 2.239018 255 255 0
-0.286554 0.447773 2.182809 0 255 0
-0.297589 0.452069 2.203172 0 255 0
-0.296456 0.454398 2.214301 0 255 0
-0.296200 0.456865 2.226067 0 255 0
-0.282863 0.457253 2.228087 0 255 0
-0.273001 0.458207 2.232749 0 255 0
-0.270992 0.460405 2.243239 0 255 0
-0.265487 0.462057 2.251157 0 255 0
-0.254726 0.462895 2.255258 0 255 0
-0.220014 0.462577 2.254094 0 255 0
-0.215345 0.464397 2.262775 0 255 0
-0.208917 0.465952 2.270209 0 255 0
-0.198089 0.466845 2.274534 0 255 0
-0.189886 0.468147 2.280770 0 255 0
-0.186959 0.470251 2.290757 0 255 0
-0.183150 0.472225 2.300123 0 255 0
-0.173167 0.473280 2.305187 0 255 0
-0.151695 0.472644 2.302324 0 255 0
-0.133726 0.472553 2.302008 0 255 0
-0.120153 0.473130 2.304813 0 255 0
-0.115412 0.475012 2.313728 0 255 0
-0.104469 0.475997 2.318434 0 255 0
-0.095285 0.477249 2.324385 0 255 0
-0.081655 0.477871 2.327382 0 255 0
-0.071558 0.479015 2.332819 0 255 0
-0.358971 0.455252 2.191000 255 0 0
-0.351079 0.452783 2.179000 255 0 0
-0.344044 0.451352 2.172000 255 0 0
-0.337825 0.450959 2.170000 255 0 0
-0.332075 0.451190 2.171000 255 0 0
-0.325868 0.450797 2.169000 255 0 0
-0.319228 0.449780 2.164000 255 0 0
-0.312470 0.448555 2.158000 255 0 0
-0.306454 0.448369 2.157000 255 0 0
-0.300722 0.448598 2.158000 255 0 0
-0.295120 0.449035 2.160000 255 0 0
-0.289506 0.449472 2.162000 255 0 0
-0.283881 0.449908 2.164000 255 0 0
-0.277345 0.448889 2.159000 255 0 0
-0.270458 0.447246 2.151000 255 0 0
-0.264353 0.446850 2.149000 255 0 0
-0.258618 0.447077 2.150000 255 0 0
-0.252642 0.446888 2.149000 255 0 0
-0.246096 0.445659 2.143000 255 0 0
-0.240031 0.445261 2.141000 255 0 0
-0.234086 0.445071 2.140000 255 0 0
-0.228146 0.444880 2.139000 255 0 0
-0.221794 0.443858 2.134000 255 0 0
-0.215672 0.443250 2.131000 255 0 0
-0.209861 0.443267 2.131000 255 0 0
-0.204336 0.443907 2.134000 255 0 0
-0.198423 0.443714 2.133000 255 0 0
-0.192514 0.443521 2.132000 255 0 0
-0.186610 0.443328 2.131000 255 0 0
-0.180711 0.443134 2.130000 255 0 0
-0.175063 0.443564 2.132000 255 0 0
-0.169404 0.443994 2.134000 255 0 0
-0.163580 0.444007 2.134000 255 0 0
-0.157756 0.444020 2.134000 255 0 0
-0.151860 0.443824 2.133000 255 0 0
-0.146106 0.444044 2.134000 255 0 0
-0.140215 0.443848 2.133000 255 0 0
-0.134517 0.444275 2.135000 255 0 0
-0.128628 0.444077 2.134000 255 0 0
-0.122801 0.444087 2.134000 255 0 0
-0.116973 0.444097 2.134000 255 0 0
-0.111198 0.444314 2.135000 255 0 0
-0.105317 0.444115 2.134000 255 0 0
-0.099349 0.443499 2.131000 255 0 0
-0.093441 0.443091 2.129000 255 0 0
-0.087626 0.443098 2.129000 255 0 0
-0.081848 0.443313 2.130000 255 0 0
-0.076101 0.443736 2.132000 255 0 0
-0.070277 0.443742 2.132000 255 0 0
-0.064482 0.443955 2.133000 255 0 0
-0.058655 0.443961 2.133000 255 0 0
-0.052877 0.444381 2.135000 255 0 0
-0.047065 0.444594 2.136000 255 0 0
-0.041229 0.444597 2.136000 255 0 0
-0.035376 0.444392 2.135000 255 0 0
-0.029556 0.444603 2.136000 255 0 0
-0.023753 0.445230 2.139000 255 0 0
-0.017925 0.445648 2.141000 255 0 0
-0.012086 0.446065 2.143000 255 0 0
-0.006239 0.446691 2.146000 255 0 0
-0.000375 0.447315 2.149000 255 0 0
0.005500 0.447523 2.150000 255 0 0
0.011385 0.447939 2.152000 255 0 0
0.017282 0.448354 2.154000 255 0 0
0.023210 0.449185 2.158000 255 0 0
0.029188 0.450432 2.164000 255 0 0
0.035182 0.451470 2.169000 255 0 0
0.041166 0.452091 2.172000 255 0 0
0.047187 0.452920 2.176000 255 0 0
0.053230 0.453748 2.180000 255 0 0
0.059430 0.455617 2.189000 255 0 0
0.065710 0.457693 2.199000 255 0 0
0.072109 0.460185 2.211000 255 0 0
0.078326 0.461220 2.216000 255 0 0
0.084570 0.462254 2.221000 255 0 0
0.090677 0.462455 2.222000 255 0 0
0.096703 0.462239 2.221000 255 0 0
0.102770 0.462231 2.221000 255 0 0
0.108983 0.462846 2.224000 255 0 0
0.115471 0.464502 2.232000 255 0 0
-0.086289 0.533307 2.310877 255 255 0
-0.073095 0.532312 2.307398 255 255 0
-0.059921 0.531327 2.303975 255 255 0
-0.051947 0.529888 2.296910 255 255 0
-0.043120 0.528531 2.290489 255 255 0
-0.027412 0.527808 2.289066 255 255 0
-0.003123 0.527888 2.293949 255 255 0
0.021123 0.527990 2.298951 255 255 0
0.038454 0.527476 2.299045 255 255 0
0.051467 0.526576 2.296064 255 255 0
0.059318 0.525202 2.289337 255 255 0
0.063735 0.523509 2.280090 255 255 0
0.064731 0.521491 2.268293 255 255 0
0.062314 0.519142 2.253916 255 255 0
0.050523 0.515881 2.232424 255 255 0
0.042175 0.512936 2.213425 255 255 0
-0.307467 0.443488 2.211748 0 255 0
-0.304600 0.445534 2.221545 0 255 0
-0.298250 0.447014 2.228737 0 255 0
-0.283177 0.447091 2.229469 0 255 0
-0.276808 0.448587 2.236720 0 255 0
-0.272181 0.450368 2.245274 0 255 0
-0.264929 0.451734 2.251915 0 255 0
-0.248922 0.451719 2.252203 0 255 0
-0.225014 0.450476 2.246852 0 255 0
-0.215090 0.451463 2.251737 0 255 0
-0.209540 0.453146 2.259809 0 255 0
-0.204864 0.454969 2.268522 0 255 0
-0.195792 0.456115 2.274119 0 255 0
-0.191986 0.458083 2.283482 0 255 0
-0.189058 0.460188 2.293467 0 255 0
-0.184370 0.462024 2.302216 0 255 0
-0.173508 0.462926 2.306671 0 255 0
-0.153811 0.462504 2.305051 0 255 0
-0.134085 0.462104 2.303526 0 255 0
-0.122285 0.462916 2.307557 0 255 0
-0.114008 0.464266 2.314055 0 255 0
-0.104837 0.465493 2.319979 0 255 0
-0.092998 0.466336 2.324142 0 255 0
-0.082031 0.467321 2.328949 0 255 0
-0.068388 0.467927 2.332019 0 255 0
-0.358175 0.448280 2.186000 255 0 0
-0.350942 0.446663 2.178000 255 0 0
-0.344226 0.445661 2.173000 255 0 0
-0.338004 0.445274 2.171000 255 0 0
-0.332403 0.445707 2.173000 255 0 0
-0.326341 0.445525 2.172000 255 0 0
-0.319693 0.444522 2.167000 255 0 0
-0.312926 0.443313 2.161000 255 0 0
-0.306760 0.442924 2.159000 255 0 0
-0.300882 0.442946 2.159000 255 0 0
-0.295551 0.443787 2.163000 255 0 0
-0.290197 0.444629 2.167000 255 0 0
-0.284295 0.444650 2.167000 255 0 0
-0.277751 0.443644 2.162000 255 0 0
-0.270604 0.441612 2.152000 255 0 0
-0.264495 0.441221 2.150000 255 0 0
-0.258637 0.441240 2.150000 255 0 0
-0.252896 0.441464 2.151000 255 0 0
-0.246574 0.440662 2.147000 255 0 0
-0.240498 0.440270 2.145000 255 0 0
-0.234541 0.440082 2.144000 255 0 0
-0.228483 0.439689 2.142000 255 0 0
-0.222227 0.438885 2.138000 255 0 0
-0.216194 0.438491 2.136000 255 0 0
-0.210172 0.438097 2.134000 255 0 0
-0.204352 0.438113 2.134000 255 0 0
-0.198531 0.438128 2.134000 255 0 0
-0.192619 0.437938 2.133000 255 0 0
-0.186712 0.437747 2.132000 255 0 0
-0.180725 0.437351 2.130000 255 0 0
-0.175077 0.437776 2.132000 255 0 0
-0.169418 0.438200 2.134000 255 0 0
-0.163747 0.438624 2.136000 255 0 0
-0.157916 0.438636 2.136000 255 0 0
-0.152086 0.438649 2.136000 255 0 0
-0.146118 0.438250 2.134000 255 0 0
-0.140292 0.438261 2.134000 255 0 0
-0.134528 0.438477 2.135000 255 0 0
-0.128638 0.438283 2.134000 255 0 0
-0.122810 0.438293 2.134000 255 0 0
-0.116983 0.438302 2.134000 255 0 0
-0.111259 0.438722 2.136000 255 0 0
-0.105326 0.438320 2.134000 255 0 0
-0.099311 0.437507 2.130000 255 0 0
-0.093405 0.437104 2.128000 255 0 0
-0.087715 0.437728 2.131000 255 0 0
-0.081970 0.438145 2.133000 255 0 0
-0.076179 0.438357 2.134000 255 0 0
-0.070381 0.438569 2.135000 255 0 0
-0.064578 0.438780 2.136000 255 0 0
-0.058715 0.438579 2.135000 255 0 0
-0.052881 0.438584 2.135000 255 0 0
-0.047091 0.438999 2.137000 255 0 0
-0.041252 0.439002 2.137000 255 0 0
-0.035412 0.439005 2.137000 255 0 0
-0.029559 0.438803 2.136000 255 0 0
-0.023744 0.439216 2.138000 255 0 0
-0.017918 0.439628 2.140000 255 0 0
-0.012093 0.440451 2.144000 255 0 0
-0.006245 0.441274 2.148000 255 0 0
-0.000376 0.441890 2.151000 255 0 0
0.005503 0.441890 2.151000 255 0 0
0.011397 0.442506 2.154000 255 0 0
0.017299 0.442915 2.156000 255 0 0
0.023255 0.444146 2.162000 255 0 0
0.029217 0.444966 2.166000 255 0 0
0.035218 0.445990 2.171000 255 0 0
0.041226 0.446809 2.175000 255 0 0
0.047278 0.447832 2.180000 255 0 0
0.053356 0.448856 2.185000 255 0 0
0.059571 0.450700 2.194000 255 0 0
0.065865 0.452749 2.204000 255 0 0
0.072343 0.455619 2.218000 255 0 0
0.078544 0.456435 2.222000 255 0 0
0.084805 0.457455 2.227000 255 0 0
0.090807 0.457037 2.225000 255 0 0
0.096885 0.457029 2.225000 255 0 0
0.102917 0.456816 2.224000 255 0 0
0.109139 0.457423 2.227000 255 0 0
0.115583 0.458852 2.234000 255 0 0
-0.085336 0.522640 2.312745 255 255 0
-0.074741 0.521435 2.307426 255 255 0
-0.070206 0.519679 2.297857 255 255 0
-0.056182 0.518807 2.295063 255 255 0
-0.043042 0.517866 2.291711 255 255 0
-0.022171 0.517666 2.293997 255 255 0
0.000382 0.517647 2.297630 255 255 0
0.017741 0.517156 2.297620 255 255 0
0.038504 0.517011 2.300202 255 255 0
0.050656 0.516056 2.296580 255 255 0
0.061077 0.514943 2.291741 255 255 0
0.058648 0.512582 2.277411 255 255 0
0.057088 0.510300 2.263683 255 255 0
0.054684 0.507928 2.249283 255 255 0
0.047176 0.505040 2.230991 255 255 0
-0.300227 0.429563 2.195418 0 255 0
-0.308647 0.433502 2.213763 0 255 0
-0.304910 0.435404 2.222909 0 255 0
-0.297689 0.436732 2.229456 0 255 0
-0.286107 0.437349 2.232793 0 255 0
-0.279741 0.438835 2.240043 0 255 0
-0.274243 0.440468 2.247952 0 255 0
-0.255639 0.439977 2.246283 0 255 0
-0.220685 0.441993 2.256972 0 255 0
-0.216016 0.443806 2.265663 0 255 0
-0.206081 0.444786 2.270603 0 255 0
-0.197013 0.445915 2.276206 0 255 0
-0.193207 0.447881 2.285571 0 255 0
-0.192917 0.450399 2.297413 0 255 0
-0.189112 0.452367 2.306774 0 255 0
-0.174734 0.452698 2.308772 0 255 0
-0.158572 0.452772 2.309611 0 255 0
-0.143272 0.452999 2.311133 0 255 0
-0.134133 0.454186 2.316968 0 255 0
-0.118796 0.454441 2.318612 0 255 0
-0.110516 0.455782 2.325134 0 255 0
-0.096915 0.456330 2.328095 0 255 0
-0.085953 0.457291 2.332901 0 255 0
-0.066110 0.456940 2.331820 0 255 0
-0.056891 0.458191 2.337924 0 255 0
-0.358363 0.442549 2.187000 255 0 0
-0.351771 0.441763 2.183000 255 0 0
-0.345200 0.440977 2.179000 255 0 0
-0.338649 0.440190 2.175000 255 0 0
-0.332579 0.440011 2.174000 255 0 0
-0.326363 0.439629 2.172000 255 0 0
-0.320157 0.439246 2.170000 255 0 0
-0.313382 0.438053 2.164000 255 0 0
-0.306923 0.437265 2.160000 255 0 0
-0.300486 0.436477 2.156000 255 0 0
-0.295025 0.437105 2.159000 255 0 0
-0.289816 0.438138 2.164000 255 0 0
-0.284447 0.438969 2.168000 255 0 0
-0.278028 0.438179 2.164000 255 0 0
-0.271001 0.436377 2.155000 255 0 0
-0.264514 0.435384 2.150000 255 0 0
-0.258656 0.435403 2.150000 255 0 0
-0.252797 0.435421 2.150000 255 0 0
-0.246592 0.434832 2.147000 255 0 0
-0.240516 0.434445 2.145000 255 0 0
-0.234559 0.434261 2.144000 255 0 0
-0.228607 0.434075 2.143000 255 0 0
-0.222348 0.433282 2.139000 255 0 0
-0.216211 0.432691 2.136000 255 0 0
-0.210287 0.432505 2.135000 255 0 0
-0.204368 0.432318 2.134000 255 0 0
-0.198546 0.432333 2.134000 255 0 0
-0.192724 0.432348 2.134000 255 0 0
-0.186902 0.432363 2.134000 255 0 0
-0.180994 0.432175 2.133000 255 0 0
-0.175255 0.432391 2.134000 255 0 0
-0.169510 0.432607 2.135000 255 0 0
-0.163913 0.433228 2.138000 255 0 0
-0.158003 0.433038 2.137000 255 0 0
-0.152098 0.432848 2.136000 255 0 0
-0.146198 0.432657 2.135000 255 0 0
-0.140368 0.432668 2.135000 255 0 0
-0.134539 0.432679 2.135000 255 0 0
-0.128708 0.432690 2.135000 255 0 0
-0.122820 0.432497 2.134000 255 0 0
-0.116992 0.432507 2.134000 255 0 0
-0.111163 0.432516 2.134000 255 0 0
-0.105285 0.432322 2.133000 255 0 0
-0.099365 0.431925 2.131000 255 0 0
-0.093500 0.431730 2.130000 255 0 0
-0.087763 0.432142 2.132000 255 0 0
-0.081977 0.432352 2.133000 255 0 0
-0.076221 0.432764 2.135000 255 0 0
-0.070420 0.432972 2.136000 255 0 0
-0.064584 0.432978 2.136000 255 0 0
-0.058719 0.432780 2.135000 255 0 0
-0.052861 0.432582 2.134000 255 0 0
-0.047073 0.432992 2.136000 255 0 0
-0.041275 0.433401 2.138000 255 0 0
-0.035432 0.433404 2.138000 255 0 0
-0.029575 0.433204 2.137000 255 0 0
-0.023746 0.433409 2.138000 255 0 0
-0.017920 0.433816 2.140000 255 0 0
-0.012099 0.434831 2.145000 255 0 0
-0.006251 0.435845 2.150000 255 0 0
-0.000376 0.436251 2.152000 255 0 0
0.005511 0.436656 2.154000 255 0 0
0.011403 0.436858 2.155000 255 0 0
0.017333 0.437870 2.160000 255 0 0
0.023300 0.439085 2.166000 255 0 0
0.029274 0.439894 2.170000 255 0 0
0.035253 0.440499 2.173000 255 0 0
0.041267 0.441307 2.177000 255 0 0
0.047325 0.442317 2.182000 255 0 0
0.053434 0.443529 2.188000 255 0 0
0.059630 0.445146 2.196000 255 0 0
0.066019 0.447776 2.209000 255 0 0
0.072447 0.450203 2.221000 255 0 0
0.078727 0.451413 2.227000 255 0 0
0.084926 0.452014 2.230000 255 0 0
0.090978 0.451805 2.229000 255 0 0
0.097067 0.451797 2.229000 255 0 0
0.103064 0.451384 2.227000 255 0 0
0.109295 0.451983 2.230000 255 0 0
0.115593 0.452785 2.234000 255 0 0
-0.080923 0.512291 2.317042 255 255 0
-0.076384 0.510535 2.307458 255 255 0
-0.073573 0.508616 2.296655 255 255 0
-0.061273 0.507608 2.292609 255 255 0
-0.038654 0.507607 2.296021 255 255 0
-0.013493 0.507878 2.301402 255 255 0
0.019517 0.506798 2.300045 255 255 0
0.035981 0.506280 2.299479 255 255 0
0.053275 0.505861 2.299618 255 255 0
0.063692 0.504770 2.294778 255 255 0
0.061265 0.502391 2.280455 255 255 0
0.057998 0.499919 2.265460 255 255 0
0.052184 0.497180 2.248503 255 255 0
0.037014 0.493466 2.224425 255 255 0
-0.294474 0.418352 2.192189 0 255 0
-0.303748 0.422478 2.211201 0 255 0
-0.300875 0.424530 2.221017 0 255 0
-0.294523 0.425995 2.228234 0 255 0
-0.286424 0.427174 2.234176 0 255 0
-0.280930 0.428797 2.242075 0 255 0
-0.273689 0.430134 2.248705 0 255 0
-0.253347 0.429309 2.245778 0 255 0
-0.230354 0.428076 2.241042 0 255 0
-0.221318 0.429162 2.246557 0 255 0
-0.223649 0.432114 2.260307 0 255 0
-0.222486 0.434491 2.271510 0 255 0
-0.214313 0.435732 2.277692 0 255 0
-0.199112 0.435851 2.278918 0 255 0
-0.195307 0.437815 2.288282 0 255 0
-0.190621 0.439640 2.297030 0 255 0
-0.187692 0.441748 2.307018 0 255 0
-0.168916 0.441353 2.305968 0 255 0
-0.155400 0.441809 2.308670 0 255 0
-0.142749 0.442417 2.312041 0 255 0
-0.135377 0.443863 2.319098 0 255 0
-0.120931 0.444219 2.321356 0 255 0
-0.115306 0.445954 2.329682 0 255 0
-0.100829 0.446335 2.332044 0 255 0
-0.087218 0.446865 2.335065 0 255 0
-0.066497 0.446331 2.333405 0 255 0
-0.367499 0.440381 2.206000 255 0 0
-0.358059 0.436212 2.185000 255 0 0
-0.351472 0.435437 2.181000 255 0 0
-0.345381 0.435261 2.180000 255 0 0
-0.339139 0.434884 2.178000 255 0 0
-0.332908 0.434508 2.176000 255 0 0
-0.326536 0.433931 2.173000 255 0 0
-0.320622 0.433953 2.173000 255 0 0
-0.314128 0.433176 2.169000 255 0 0
-0.307229 0.431800 2.162000 255 0 0
-0.300646 0.430822 2.157000 255 0 0
-0.294773 0.430843 2.157000 255 0 0
-0.289702 0.432063 2.163000 255 0 0
-0.284730 0.433481 2.170000 255 0 0
-0.278690 0.433302 2.169000 255 0 0
-0.271775 0.431723 2.161000 255 0 0
-0.264903 0.430144 2.153000 255 0 0
-0.258915 0.429964 2.152000 255 0 0
