ply
format ascii 1.0
element vertex 1316
property double x
property double y
property double z
property uchar red
property uchar green
property uchar blue
end_header
-0.069564 -0.020232 2.457659 0 255 0
-0.024873 -0.029770 2.441839 0 255 0
-0.023509 -0.027046 2.453494 0 255 0
-0.360835 0.172393 2.161000 255 0 0
-0.356100 0.172964 2.168000 255 0 0
-0.351004 0.173375 2.173000 255 0 0
-0.345720 0.173706 2.177000 255 0 0
-0.339321 0.173478 2.174000 255 0 0
-0.333090 0.173330 2.172000 255 0 0
-0.327321 0.173422 2.173000 255 0 0
-0.321990 0.173752 2.177000 255 0 0
-0.317361 0.174482 2.186000 255 0 0
-0.312825 0.175291 2.196000 255 0 0
-0.309630 0.176899 2.216000 255 0 0
-0.306052 0.178347 2.234000 255 0 0
-0.298069 0.184767 2.314000 255 0 0
-0.290997 0.184299 2.308000 255 0 0
-0.284326 0.184070 2.305000 255 0 0
-0.277670 0.183841 2.302000 255 0 0
-0.270794 0.183452 2.297000 255 0 0
-0.263714 0.182903 2.290000 255 0 0
-0.256672 0.182353 2.283000 255 0 0
-0.249996 0.182043 2.279000 255 0 0
-0.243233 0.181653 2.274000 255 0 0
-0.236602 0.181343 2.270000 255 0 0
-0.229991 0.181032 2.266000 255 0 0
-0.223599 0.180881 2.264000 255 0 0
-0.217121 0.180650 2.261000 255 0 0
-0.210379 0.180179 2.255000 255 0 0
-0.203940 0.179947 2.252000 255 0 0
-0.197429 0.179635 2.248000 255 0 0
-0.190855 0.179243 2.243000 255 0 0
-0.184224 0.178771 2.237000 255 0 0
-0.177626 0.178299 2.231000 255 0 0
-0.171213 0.177986 2.227000 255 0 0
-0.164674 0.177513 2.221000 255 0 0
-0.158095 0.176960 2.214000 255 0 0
-0.151691 0.176566 2.209000 255 0 0
-0.145446 0.176332 2.206000 255 0 0
-0.139406 0.176338 2.206000 255 0 0
-0.133185 0.176104 2.203000 255 0 0
-0.127095 0.176029 2.202000 255 0 0
-0.120954 0.175874 2.200000 255 0 0
-0.114929 0.175879 2.200000 255 0 0
-0.108903 0.175883 2.200000 255 0 0
-0.102970 0.176047 2.202000 255 0 0
-0.096938 0.176051 2.202000 255 0 0
-0.090947 0.176135 2.203000 255 0 0
-0.084988 0.176299 2.205000 255 0 0
-0.079054 0.176542 2.208000 255 0 0
-0.073070 0.176705 2.210000 255 0 0
-0.067105 0.176947 2.213000 255 0 0
-0.061096 0.177110 2.215000 255 0 0
-0.055101 0.177352 2.218000 255 0 0
-0.049133 0.177754 2.223000 255 0 0
-0.043137 0.178156 2.228000 255 0 0
-0.037097 0.178477 2.232000 255 0 0
-0.031063 0.178958 2.238000 255 0 0
-0.024985 0.179359 2.243000 255 0 0
-0.018896 0.179920 2.250000 255 0 0
-0.012757 0.180321 2.255000 255 0 0
-0.006593 0.180801 2.261000 255 0 0
-0.000397 0.181121 2.265000 255 0 0
0.005819 0.181360 2.268000 255 0 0
0.012057 0.181680 2.272000 255 0 0
0.018317 0.181999 2.276000 255 0 0
0.024587 0.182238 2.279000 255 0 0
0.030861 0.182397 2.281000 255 0 0
0.037161 0.182636 2.284000 255 0 0
0.043573 0.183274 2.292000 255 0 0
0.050159 0.184391 2.306000 255 0 0
0.056993 0.186068 2.327000 255 0 0
0.063752 0.187185 2.341000 255 0 0
0.070496 0.188062 2.352000 255 0 0
0.077399 0.189178 2.366000 255 0 0
0.083528 0.188376 2.356000 255 0 0
0.090365 0.189172 2.366000 255 0 0
0.097134 0.189727 2.373000 255 0 0
0.103722 0.189883 2.375000 255 0 0
0.110089 0.189639 2.372000 255 0 0
0.116538 0.189555 2.371000 255 0 0
0.123032 0.189550 2.371000 255 0 0
0.129526 0.189545 2.371000 255 0 0
-0.118637 0.034534 2.476867 255 255 0
-0.114877 0.032668 2.466429 255 255 0
-0.092036 0.032460 2.455675 255 255 0
-0.082341 0.031977 2.449239 255 255 0
-0.061616 0.034056 2.450212 255 255 0
-0.052808 0.033395 2.443312 255 255 0
-0.045706 0.032344 2.435298 255 255 0
-0.040306 0.030900 2.426157 255 255 0
-0.022222 0.032436 2.425683 255 255 0
-0.015153 0.031402 2.417761 255 255 0
0.018919 0.036751 2.428491 255 255 0
0.052082 0.041932 2.438818 255 255 0
0.087709 0.047746 2.451082 255 255 0
0.098866 0.047774 2.446435 255 255 0
0.106645 0.047006 2.439465 255 255 0
-0.256684 -0.019334 2.411304 0 255 0
-0.264875 -0.013904 2.428898 0 255 0
-0.249946 -0.015355 2.430780 0 255 0
-0.204118 -0.025927 2.411961 0 255 0
-0.212300 -0.020490 2.429583 0 255 0
-0.229953 -0.012287 2.453429 0 255 0
-0.207223 -0.015961 2.450394 0 255 0
-0.185320 -0.019359 2.448042 0 255 0
-0.172860 -0.019972 2.452008 0 255 0
-0.173316 -0.016813 2.464456 0 255 0
-0.157382 -0.018409 2.466258 0 255 0
-0.112482 -0.025287 2.461780 0 255 0
-0.048396 -0.037519 2.445681 0 255 0
-0.024511 -0.041231 2.443078 0 255 0
-0.016205 -0.040475 2.450387 0 255 0
-0.356605 0.167272 2.171000 255 0 0
-0.351339 0.167592 2.175000 255 0 0
-0.345732 0.167757 2.177000 255 0 0
-0.339332 0.167538 2.174000 255 0 0
-0.333102 0.167395 2.172000 255 0 0
-0.327483 0.167560 2.174000 255 0 0
-0.322001 0.167802 2.177000 255 0 0
-0.317227 0.168430 2.185000 255 0 0
-0.312836 0.169289 2.196000 255 0 0
-0.309781 0.170919 2.217000 255 0 0
-0.306885 0.172703 2.240000 255 0 0
-0.289998 0.177371 2.300000 255 0 0
-0.283596 0.177304 2.299000 255 0 0
-0.276957 0.177083 2.296000 255 0 0
-0.270333 0.176862 2.293000 255 0 0
-0.263263 0.176331 2.286000 255 0 0
-0.256344 0.175878 2.280000 255 0 0
-0.249566 0.175501 2.275000 255 0 0
-0.242815 0.175125 2.270000 255 0 0
-0.236089 0.174748 2.265000 255 0 0
-0.229188 0.174216 2.258000 255 0 0
-0.222817 0.174070 2.256000 255 0 0
-0.216265 0.173770 2.252000 255 0 0
-0.209920 0.173624 2.250000 255 0 0
-0.203495 0.173400 2.247000 255 0 0
-0.196998 0.173099 2.243000 255 0 0
-0.190437 0.172720 2.238000 255 0 0
-0.183819 0.172264 2.232000 255 0 0
-0.177394 0.171962 2.228000 255 0 0
-0.170989 0.171660 2.224000 255 0 0
-0.164680 0.171435 2.221000 255 0 0
-0.158244 0.171055 2.216000 255 0 0
-0.151972 0.170829 2.213000 255 0 0
-0.145716 0.170604 2.210000 255 0 0
-0.139601 0.170532 2.209000 255 0 0
-0.133371 0.170306 2.206000 255 0 0
-0.127330 0.170311 2.206000 255 0 0
-0.121179 0.170161 2.204000 255 0 0
-0.115195 0.170243 2.205000 255 0 0
-0.109105 0.170170 2.204000 255 0 0
-0.103115 0.170251 2.205000 255 0 0
-0.097074 0.170255 2.205000 255 0 0
-0.091116 0.170413 2.207000 255 0 0
-0.085146 0.170571 2.209000 255 0 0
-0.079129 0.170652 2.210000 255 0 0
-0.073139 0.170809 2.212000 255 0 0
-0.067169 0.171043 2.215000 255 0 0
-0.061154 0.171200 2.217000 255 0 0
-0.055152 0.171434 2.220000 255 0 0
-0.049134 0.171668 2.223000 255 0 0
-0.043158 0.172133 2.229000 255 0 0
-0.037115 0.172444 2.233000 255 0 0
-0.031092 0.172986 2.240000 255 0 0
-0.024997 0.173296 2.244000 255 0 0
-0.018896 0.173760 2.250000 255 0 0
-0.012752 0.174069 2.254000 255 0 0
-0.006588 0.174456 2.259000 255 0 0
-0.000396 0.174611 2.261000 255 0 0
0.005807 0.174765 2.263000 255 0 0
0.012036 0.175151 2.268000 255 0 0
0.018293 0.175536 2.273000 255 0 0
0.024567 0.175844 2.277000 255 0 0
0.030835 0.175998 2.279000 255 0 0
0.037114 0.176151 2.281000 255 0 0
0.043594 0.177076 2.293000 255 0 0
0.050161 0.178078 2.306000 255 0 0
0.056947 0.179543 2.325000 255 0 0
0.063672 0.180545 2.338000 255 0 0
0.070829 0.182472 2.363000 255 0 0
0.077239 0.182315 2.361000 255 0 0
0.083496 0.181849 2.355000 255 0 0
0.090445 0.182849 2.368000 255 0 0
0.097179 0.183309 2.374000 255 0 0
0.103858 0.183614 2.378000 255 0 0
0.110279 0.183455 2.376000 255 0 0
0.116641 0.183219 2.373000 255 0 0
0.122985 0.182983 2.370000 255 0 0
0.129422 0.182901 2.369000 255 0 0
-0.199537 0.015695 2.478221 255 255 0
-0.141042 0.020801 2.476630 255 255 0
-0.132992 0.019910 2.468900 255 255 0
-0.116426 0.020999 2.466761 255 255 0
-0.100738 0.021903 2.464141 255 255 0
-0.094436 0.020638 2.455415 255 255 0
-0.076241 0.022159 2.454602 255 255 0
-0.069114 0.021106 2.446511 255 255 0
-0.054361 0.021854 2.443563 255 255 0
-0.032855 0.024215 2.445253 255 255 0
-0.023236 0.023787 2.439013 255 255 0
-0.033921 0.018540 2.418971 255 255 0
-0.015861 0.020129 2.418534 255 255 0
0.008074 0.023148 2.422255 255 255 0
0.062303 0.033475 2.447125 255 255 0
0.109048 0.039450 2.454763 255 255 0
0.116815 0.038700 2.447816 255 255 0
-0.259182 -0.032385 2.402250 0 255 0
-0.264789 -0.027688 2.418125 0 255 0
-0.265277 -0.024546 2.430460 0 255 0
-0.247785 -0.026802 2.430620 0 255 0
-0.218267 -0.032630 2.422797 0 255 0
-0.207578 -0.032796 2.427753 0 255 0
-0.216625 -0.027080 2.445889 0 255 0
-0.202489 -0.028257 2.448603 0 255 0
-0.190053 -0.028912 2.452513 0 255 0
-0.182767 -0.028033 2.459860 0 255 0
-0.170304 -0.028666 2.463867 0 255 0
-0.150062 -0.031561 2.462902 0 255 0
-0.117264 -0.035022 2.466259 0 255 0
-0.355138 0.160671 2.162000 255 0 0
-0.350704 0.161351 2.171000 255 0 0
-0.345267 0.161585 2.174000 255 0 0
-0.339188 0.161522 2.173000 255 0 0
-0.333420 0.161607 2.174000 255 0 0
-0.327645 0.161693 2.175000 255 0 0
-0.322160 0.161926 2.178000 255 0 0
-0.316948 0.162309 2.183000 255 0 0
-0.312989 0.163360 2.197000 255 0 0
-0.310211 0.165081 2.220000 255 0 0
-0.290009 0.171082 2.300000 255 0 0
-0.283606 0.171017 2.299000 255 0 0
-0.276966 0.170804 2.296000 255 0 0
-0.270342 0.170590 2.293000 255 0 0
-0.263388 0.170153 2.287000 255 0 0
-0.256466 0.169716 2.281000 255 0 0
-0.249575 0.169278 2.275000 255 0 0
-0.242609 0.168766 2.268000 255 0 0
-0.235994 0.168477 2.264000 255 0 0
-0.229095 0.167964 2.257000 255 0 0
-0.222628 0.167749 2.254000 255 0 0
-0.215985 0.167385 2.249000 255 0 0
-0.209741 0.167318 2.248000 255 0 0
-0.203322 0.167102 2.245000 255 0 0
-0.197093 0.167035 2.244000 255 0 0
-0.190614 0.166745 2.240000 255 0 0
-0.184073 0.166379 2.235000 255 0 0
-0.177639 0.166088 2.231000 255 0 0
-0.171303 0.165871 2.228000 255 0 0
-0.164983 0.165654 2.225000 255 0 0
-0.158607 0.165362 2.221000 255 0 0
-0.152390 0.165219 2.219000 255 0 0
-0.146183 0.165076 2.217000 255 0 0
-0.139923 0.164858 2.214000 255 0 0
-0.133679 0.164639 2.211000 255 0 0
-0.127624 0.164644 2.211000 255 0 0
-0.121568 0.164649 2.211000 255 0 0
-0.115565 0.164728 2.212000 255 0 0
-0.109456 0.164658 2.211000 255 0 0
-0.103446 0.164736 2.212000 255 0 0
-0.097342 0.164665 2.211000 255 0 0
-0.091325 0.164743 2.212000 255 0 0
-0.085342 0.164896 2.214000 255 0 0
-0.079275 0.164899 2.214000 255 0 0
-0.073208 0.164902 2.214000 255 0 0
-0.067232 0.165128 2.217000 255 0 0
-0.061239 0.165354 2.220000 255 0 0
-0.055254 0.165654 2.224000 255 0 0
-0.049203 0.165805 2.226000 255 0 0
-0.043179 0.166104 2.230000 255 0 0
-0.037133 0.166404 2.234000 255 0 0
-0.031107 0.166927 2.241000 255 0 0
-0.025020 0.167300 2.246000 255 0 0
-0.018897 0.167599 2.250000 255 0 0
-0.012746 0.167823 2.253000 255 0 0
-0.006579 0.168047 2.256000 255 0 0
-0.000396 0.168196 2.258000 255 0 0
0.005802 0.168419 2.261000 255 0 0
0.012026 0.168791 2.266000 255 0 0
0.018286 0.169238 2.272000 255 0 0
0.024546 0.169460 2.275000 255 0 0
0.030809 0.169608 2.277000 255 0 0
0.037083 0.169756 2.279000 255 0 0
0.043577 0.170723 2.292000 255 0 0
0.050120 0.171615 2.304000 255 0 0
0.056777 0.172656 2.318000 255 0 0
0.063729 0.174292 2.340000 255 0 0
0.083428 0.175252 2.353000 255 0 0
0.090334 0.176142 2.365000 255 0 0
0.097101 0.176660 2.372000 255 0 0
0.103818 0.177029 2.377000 255 0 0
0.110330 0.177025 2.377000 255 0 0
0.116743 0.176872 2.375000 255 0 0
0.123249 0.176867 2.375000 255 0 0
0.129700 0.176788 2.374000 255 0 0
-0.167744 0.005969 2.473804 255 255 0
-0.153688 0.006471 2.469839 255 255 0
-0.140506 0.006784 2.465384 255 255 0
-0.110300 0.011109 2.472103 255 255 0
-0.096326 0.011651 2.468369 255 255 0
-0.090029 0.010396 2.459649 255 255 0
-0.077790 0.010554 2.454889 255 255 0
-0.053690 0.013548 2.458104 255 255 0
-0.042349 0.013529 2.452914 255 255 0
-0.011548 0.018182 2.460902 255 255 0
-0.007028 0.016563 2.451275 255 255 0
-0.020256 0.010669 2.429558 255 255 0
-0.029227 0.005778 2.410635 255 255 0
0.009046 0.012330 2.424171 255 255 0
0.047247 0.018919 2.437916 255 255 0
0.127175 0.027859 2.443913 255 255 0
-0.261779 -0.039393 2.417355 0 255 0
-0.253708 -0.038838 2.423896 0 255 0
-0.231078 -0.042687 2.420639 0 255 0
-0.214411 -0.044699 2.421527 0 255 0
-0.208008 -0.043593 2.429371 0 255 0
-0.214472 -0.038614 2.445792 0 255 0
-0.204634 -0.038536 2.451367 0 255 0
-0.211976 -0.033313 2.468288 0 255 0
-0.194386 -0.035535 2.468827 0 255 0
-0.177631 -0.037482 2.470010 0 255 0
-0.138873 -0.042852 2.469290 0 255 0
-0.117725 -0.046014 2.467969 0 255 0
-0.354164 0.154334 2.156000 255 0 0
-0.349746 0.154989 2.165000 255 0 0
-0.344801 0.155429 2.171000 255 0 0
-0.338886 0.155440 2.171000 255 0 0
-0.333277 0.155594 2.173000 255 0 0
-0.327505 0.155676 2.174000 255 0 0
-0.322170 0.155973 2.178000 255 0 0
-0.316958 0.156341 2.183000 255 0 0
-0.313142 0.157425 2.198000 255 0 0
-0.310640 0.159226 2.223000 255 0 0
-0.290271 0.164935 2.302000 255 0 0
-0.282875 0.164300 2.293000 255 0 0
-0.276493 0.164237 2.292000 255 0 0
-0.270116 0.164175 2.291000 255 0 0
-0.263512 0.163969 2.288000 255 0 0
-0.256699 0.163619 2.283000 255 0 0
-0.249803 0.163198 2.277000 255 0 0
-0.242939 0.162776 2.271000 255 0 0
-0.236315 0.162498 2.267000 255 0 0
-0.229407 0.162004 2.260000 255 0 0
-0.222735 0.161653 2.255000 255 0 0
-0.215896 0.161159 2.248000 255 0 0
-0.209376 0.160880 2.244000 255 0 0
-0.202967 0.160672 2.241000 255 0 0
-0.196837 0.160679 2.241000 255 0 0
-0.190450 0.160471 2.238000 255 0 0
-0.183915 0.160119 2.233000 255 0 0
-0.177486 0.159838 2.229000 255 0 0
-0.171386 0.159845 2.229000 255 0 0
-0.165211 0.159779 2.228000 255 0 0
-0.159041 0.159713 2.227000 255 0 0
-0.152807 0.159575 2.225000 255 0 0
-0.146649 0.159509 2.224000 255 0 0
-0.140497 0.159442 2.223000 255 0 0
-0.134228 0.159232 2.220000 255 0 0
-0.128090 0.159165 2.219000 255 0 0
-0.121903 0.159026 2.217000 255 0 0
-0.115882 0.159102 2.218000 255 0 0
-0.109856 0.159178 2.219000 255 0 0
-0.103824 0.159254 2.220000 255 0 0
-0.097698 0.159185 2.219000 255 0 0
-0.091577 0.159117 2.218000 255 0 0
-0.085538 0.159192 2.219000 255 0 0
-0.079421 0.159123 2.218000 255 0 0
-0.073310 0.159054 2.217000 255 0 0
-0.067325 0.159272 2.220000 255 0 0
-0.061296 0.159418 2.222000 255 0 0
-0.055281 0.159636 2.225000 255 0 0
-0.049227 0.159781 2.227000 255 0 0
-0.043181 0.159998 2.230000 255 0 0
-0.037151 0.160358 2.235000 255 0 0
-0.031094 0.160718 2.240000 255 0 0
-0.025010 0.161078 2.245000 255 0 0
-0.018898 0.161437 2.250000 255 0 0
-0.012753 0.161725 2.254000 255 0 0
-0.006582 0.161941 2.257000 255 0 0
-0.000396 0.162013 2.258000 255 0 0
0.005805 0.162299 2.262000 255 0 0
0.012032 0.162658 2.267000 255 0 0
0.018303 0.163160 2.274000 255 0 0
0.024579 0.163446 2.278000 255 0 0
0.030851 0.163588 2.280000 255 0 0
0.037133 0.163730 2.282000 255 0 0
0.043559 0.164375 2.291000 255 0 0
0.049991 0.164875 2.298000 255 0 0
0.056535 0.165591 2.308000 255 0 0
0.083538 0.169024 2.356000 255 0 0
0.090414 0.169810 2.367000 255 0 0
0.097186 0.170309 2.374000 255 0 0
0.103865 0.170592 2.378000 255 0 0
0.110381 0.170588 2.378000 255 0 0
0.116846 0.170512 2.377000 255 0 0
0.123357 0.170508 2.377000 255 0 0
0.129923 0.170575 2.378000 255 0 0
-0.165003 -0.004851 2.476945 255 255 0
-0.158635 -0.006133 2.468024 255 255 0
-0.136072 -0.003570 2.469621 255 255 0
-0.118660 -0.002202 2.467999 255 255 0
-0.092424 -0.001459 2.459398 255 255 0
-0.070846 0.000968 2.460810 255 255 0
-0.059484 0.000961 2.455546 255 255 0
-0.032041 0.004856 2.461116 255 255 0
-0.016498 0.005901 2.458844 255 255 0
-0.009436 0.004900 2.450914 255 255 0
-0.022650 -0.001048 2.429197 255 255 0
-0.013051 -0.001432 2.422983 255 255 0
0.002436 -0.000358 2.420868 255 255 0
0.035575 0.005088 2.431064 255 255 0
0.069492 0.010774 2.442022 255 255 0
0.104629 0.011484 2.429145 255 255 0
-0.247215 -0.057728 2.396608 0 255 0
-0.235720 -0.058233 2.400867 0 255 0
-0.240447 -0.053737 2.416195 0 255 0
-0.215250 -0.058423 2.411267 0 255 0
-0.211418 -0.056542 2.420842 0 255 0
-0.209298 -0.054139 2.431566 0 255 0
-0.222616 -0.047049 2.452540 0 255 0
-0.221371 -0.044396 2.463774 0 255 0
-0.193497 -0.049787 2.457491 0 255 0
-0.197394 -0.045569 2.472157 0 255 0
-0.203024 -0.040843 2.487899 0 255 0
-0.174215 -0.046437 2.481307 0 255 0
-0.146224 -0.051742 2.475422 0 255 0
-0.353353 0.148097 2.151000 255 0 0
-0.348949 0.148728 2.160000 255 0 0
-0.343859 0.149082 2.165000 255 0 0
-0.338428 0.149299 2.168000 255 0 0
-0.333134 0.149585 2.172000 255 0 0
-0.327816 0.149870 2.176000 255 0 0
-0.322180 0.150018 2.178000 255 0 0
-0.317258 0.150510 2.185000 255 0 0
-0.313579 0.151622 2.201000 255 0 0
-0.311349 0.153492 2.228000 255 0 0
-0.290406 0.158707 2.303000 255 0 0
-0.282638 0.157890 2.291000 255 0 0
-0.276261 0.157830 2.290000 255 0 0
-0.270125 0.157908 2.291000 255 0 0
-0.263751 0.157847 2.290000 255 0 0
-0.256933 0.157511 2.285000 255 0 0
-0.250141 0.157175 2.280000 255 0 0
-0.243268 0.156769 2.274000 255 0 0
-0.236635 0.156502 2.270000 255 0 0
-0.229821 0.156096 2.264000 255 0 0
-0.223236 0.155827 2.260000 255 0 0
-0.216384 0.155352 2.253000 255 0 0
-0.209756 0.155015 2.248000 255 0 0
-0.203336 0.154815 2.245000 255 0 0
-0.197195 0.154821 2.245000 255 0 0
-0.190797 0.154621 2.242000 255 0 0
-0.184416 0.154421 2.239000 255 0 0
-0.177970 0.154151 2.235000 255 0 0
-0.171854 0.154157 2.235000 255 0 0
-0.165514 0.153956 2.232000 255 0 0
-0.159190 0.153754 2.229000 255 0 0
-0.152881 0.153553 2.226000 255 0 0
-0.146787 0.153558 2.226000 255 0 0
-0.140818 0.153701 2.228000 255 0 0
-0.134656 0.153637 2.227000 255 0 0
-0.128441 0.153503 2.225000 255 0 0
-0.122237 0.153370 2.223000 255 0 0
-0.116148 0.153374 2.223000 255 0 0
-0.110108 0.153447 2.224000 255 0 0
-0.104015 0.153451 2.224000 255 0 0
-0.097877 0.153385 2.223000 255 0 0
-0.091786 0.153388 2.223000 255 0 0
-0.085695 0.153392 2.223000 255 0 0
-0.079603 0.153395 2.223000 255 0 0
-0.073478 0.153328 2.222000 255 0 0
-0.067449 0.153469 2.224000 255 0 0
-0.061409 0.153609 2.226000 255 0 0
-0.055407 0.153887 2.230000 255 0 0
-0.049317 0.153958 2.231000 255 0 0
-0.043221 0.154029 2.232000 255 0 0
-0.037202 0.154444 2.238000 255 0 0
-0.031109 0.154652 2.241000 255 0 0
-0.025044 0.155136 2.248000 255 0 0
-0.018915 0.155413 2.252000 255 0 0
-0.012764 0.155690 2.256000 255 0 0
-0.006591 0.155966 2.260000 255 0 0
-0.000396 0.156104 2.262000 255 0 0
0.005815 0.156380 2.266000 255 0 0
0.012048 0.156656 2.270000 255 0 0
0.018319 0.157070 2.276000 255 0 0
0.024602 0.157345 2.280000 255 0 0
0.030906 0.157620 2.284000 255 0 0
0.037167 0.157619 2.284000 255 0 0
0.043523 0.157962 2.289000 255 0 0
0.049928 0.158375 2.295000 255 0 0
0.056439 0.158994 2.304000 255 0 0
0.090379 0.163259 2.366000 255 0 0
0.097190 0.163808 2.374000 255 0 0
0.103782 0.163942 2.376000 255 0 0
0.110338 0.164008 2.377000 255 0 0
0.116899 0.164073 2.378000 255 0 0
0.123518 0.164207 2.380000 255 0 0
0.130037 0.164202 2.380000 255 0 0
-0.167388 -0.016891 2.476804 255 255 0
-0.148220 -0.015100 2.476112 255 255 0
-0.096514 -0.013753 2.458035 255 255 0
-0.079182 -0.012306 2.456605 255 255 0
-0.072052 -0.013331 2.448482 255 255 0
-0.060696 -0.013313 2.443215 255 255 0
-0.035822 -0.009959 2.447110 255 255 0
-0.019444 -0.008667 2.445410 255 255 0
-0.013223 -0.009868 2.436888 255 255 0
-0.006164 -0.010856 2.428962 255 255 0
0.007626 -0.010162 2.425694 255 255 0
0.028966 -0.007565 2.427727 255 255 0
0.085459 -0.004195 2.416783 255 255 0
0.058099 -0.013842 2.384763 255 255 0
-0.183695 -0.088444 2.354366 0 255 0
-0.233590 -0.069803 2.400716 0 255 0
-0.232330 -0.067139 2.411995 0 255 0
-0.225945 -0.066064 2.419803 0 255 0
-0.226399 -0.062871 2.432224 0 255 0
-0.222577 -0.061001 2.441765 0 255 0
-0.211040 -0.061497 2.446189 0 255 0
-0.233801 -0.051482 2.473326 0 255 0
-0.212820 -0.054858 2.471545 0 255 0
-0.204698 -0.054291 2.478292 0 255 0
-0.213768 -0.048499 2.496249 0 255 0
-0.186704 -0.053657 2.490765 0 255 0
-0.147537 -0.062421 2.477670 0 255 0
-0.353035 0.142086 2.149000 255 0 0
-0.349444 0.143022 2.163000 255 0 0
-0.344345 0.143363 2.168000 255 0 0
-0.338751 0.143505 2.170000 255 0 0
-0.332990 0.143581 2.171000 255 0 0
-0.327676 0.143855 2.175000 255 0 0
-0.322190 0.144063 2.178000 255 0 0
-0.317413 0.144602 2.186000 255 0 0
-0.313589 0.145604 2.201000 255 0 0
-0.301083 0.154649 2.337000 255 0 0
-0.290668 0.152540 2.305000 255 0 0
-0.283140 0.151887 2.295000 255 0 0
-0.276149 0.151499 2.289000 255 0 0
-0.269780 0.151441 2.288000 255 0 0
-0.263414 0.151383 2.287000 255 0 0
-0.256829 0.151193 2.284000 255 0 0
-0.250149 0.150936 2.280000 255 0 0
-0.243383 0.150613 2.275000 255 0 0
-0.236747 0.150356 2.271000 255 0 0
-0.229930 0.149966 2.265000 255 0 0
-0.223243 0.149642 2.260000 255 0 0
-0.216487 0.149252 2.254000 255 0 0
-0.209950 0.148994 2.250000 255 0 0
-0.203524 0.148802 2.247000 255 0 0
-0.197201 0.148676 2.245000 255 0 0
-0.190804 0.148484 2.242000 255 0 0
-0.184422 0.148291 2.239000 255 0 0
-0.177976 0.148032 2.235000 255 0 0
-0.171783 0.147972 2.234000 255 0 0
-0.165297 0.147646 2.229000 255 0 0
-0.158838 0.147320 2.224000 255 0 0
-0.152474 0.147061 2.220000 255 0 0
-0.146528 0.147198 2.222000 255 0 0
-0.140506 0.147269 2.223000 255 0 0
-0.134479 0.147340 2.224000 255 0 0
-0.128330 0.147278 2.223000 255 0 0
-0.122241 0.147282 2.223000 255 0 0
-0.116152 0.147286 2.223000 255 0 0
-0.110062 0.147290 2.223000 255 0 0
-0.104018 0.147360 2.224000 255 0 0
-0.097969 0.147430 2.225000 255 0 0
-0.091872 0.147433 2.225000 255 0 0
-0.085814 0.147502 2.226000 255 0 0
-0.079749 0.147571 2.227000 255 0 0
-0.073679 0.147640 2.228000 255 0 0
-0.067573 0.147643 2.228000 255 0 0
-0.061466 0.147645 2.228000 255 0 0
-0.055409 0.147779 2.230000 255 0 0
-0.049385 0.148046 2.234000 255 0 0
-0.043300 0.148180 2.236000 255 0 0
-0.037270 0.148579 2.242000 255 0 0
-0.031138 0.148647 2.243000 255 0 0
-0.025045 0.148979 2.248000 255 0 0
-0.018907 0.149179 2.251000 255 0 0
-0.012765 0.149511 2.256000 255 0 0
-0.006589 0.149710 2.259000 255 0 0
-0.000396 0.149909 2.262000 255 0 0
0.005818 0.150240 2.267000 255 0 0
0.012049 0.150438 2.270000 255 0 0
0.018312 0.150769 2.275000 255 0 0
0.024592 0.151034 2.279000 255 0 0
0.030894 0.151298 2.283000 255 0 0
0.037168 0.151363 2.284000 255 0 0
0.043429 0.151361 2.284000 255 0 0
0.049799 0.151691 2.289000 255 0 0
0.056318 0.152352 2.299000 255 0 0
0.089962 0.156051 2.355000 255 0 0
0.097193 0.157306 2.374000 255 0 0
0.103916 0.157634 2.379000 255 0 0
0.110528 0.157763 2.381000 255 0 0
0.117100 0.157826 2.382000 255 0 0
0.123574 0.157755 2.381000 255 0 0
0.130041 0.157685 2.380000 255 0 0
-0.147193 -0.026293 2.478149 255 255 0
-0.157878 -0.031700 2.458233 255 255 0
-0.088356 -0.025854 2.451855 255 255 0
-0.080370 -0.026663 2.444259 255 255 0
-0.066468 -0.025996 2.440657 255 255 0
-0.018461 -0.019563 2.447355 255 255 0
-0.014771 -0.021390 2.437108 255 255 0
-0.009396 -0.022793 2.428014 255 255 0
-0.004025 -0.024194 2.418932 255 255 0
0.010592 -0.023251 2.416259 255 255 0
0.047027 -0.016750 2.428840 255 255 0
0.059056 -0.016413 2.424604 255 255 0
0.070228 -0.016281 2.419830 255 255 0
0.065474 -0.020220 2.403861 255 255 0
0.029790 -0.032125 2.365857 255 255 0
-0.187572 -0.098321 2.358338 0 255 0
-0.227201 -0.082741 2.397666 0 255 0
-0.253248 -0.071499 2.427483 0 255 0
-0.249444 -0.069645 2.436965 0 255 0
-0.241364 -0.069123 2.443585 0 255 0
-0.234131 -0.068329 2.450805 0 255 0
-0.224320 -0.068325 2.456345 0 255 0
-0.211927 -0.069108 2.460227 0 255 0
-0.217535 -0.064324 2.475995 0 255 0
-0.208559 -0.064038 2.482177 0 255 0
-0.203871 -0.062428 2.491188 0 255 0
-0.118261 -0.079314 2.472575 0 255 0
-0.352059 0.135832 2.143000 255 0 0
-0.350100 0.137363 2.167000 255 0 0
-0.344673 0.137563 2.170000 255 0 0
-0.339229 0.137763 2.173000 255 0 0
-0.332847 0.137582 2.170000 255 0 0
-0.327534 0.137845 2.174000 255 0 0
-0.321904 0.137981 2.176000 255 0 0
-0.317277 0.138561 2.185000 255 0 0
-0.313598 0.139585 2.201000 255 0 0
-0.298902 0.147177 2.320000 255 0 0
-0.291181 0.146488 2.309000 255 0 0
-0.283766 0.145926 2.300000 255 0 0
-0.276520 0.145427 2.292000 255 0 0
-0.269552 0.145054 2.286000 255 0 0
-0.263077 0.144935 2.284000 255 0 0
-0.256499 0.144753 2.281000 255 0 0
-0.249937 0.144570 2.278000 255 0 0
-0.243390 0.144387 2.275000 255 0 0
-0.236963 0.144268 2.273000 255 0 0
-0.230140 0.143894 2.267000 255 0 0
-0.223646 0.143711 2.264000 255 0 0
-0.216878 0.143336 2.258000 255 0 0
-0.210423 0.143153 2.255000 255 0 0
-0.203711 0.142778 2.249000 255 0 0
-0.197383 0.142658 2.247000 255 0 0
-0.190980 0.142473 2.244000 255 0 0
-0.184675 0.142352 2.242000 255 0 0
-0.178062 0.141977 2.236000 255 0 0
-0.171711 0.141792 2.233000 255 0 0
-0.165228 0.141480 2.228000 255 0 0
-0.158700 0.141104 2.222000 255 0 0
-0.152411 0.140918 2.219000 255 0 0
-0.146467 0.141050 2.221000 255 0 0
-0.140448 0.141118 2.222000 255 0 0
-0.134302 0.141059 2.221000 255 0 0
-0.128219 0.141063 2.221000 255 0 0
-0.122135 0.141067 2.221000 255 0 0
-0.116051 0.141071 2.221000 255 0 0
-0.109917 0.141011 2.220000 255 0 0
-0.103928 0.141142 2.222000 255 0 0
-0.097884 0.141209 2.223000 255 0 0
-0.091834 0.141275 2.224000 255 0 0
-0.085816 0.141405 2.226000 255 0 0
-0.079823 0.141599 2.229000 255 0 0
-0.073748 0.141665 2.230000 255 0 0
-0.067605 0.141603 2.229000 255 0 0
-0.061579 0.141796 2.232000 255 0 0
-0.055560 0.142052 2.236000 255 0 0
-0.049541 0.142371 2.241000 255 0 0
-0.043418 0.142437 2.242000 255 0 0
-0.037321 0.142628 2.245000 255 0 0
-0.031195 0.142757 2.247000 255 0 0
-0.025079 0.143012 2.251000 255 0 0
-0.018925 0.143139 2.253000 255 0 0
-0.012760 0.143267 2.255000 255 0 0
-0.006583 0.143394 2.257000 255 0 0
-0.000396 0.143649 2.261000 255 0 0
0.005810 0.143839 2.264000 255 0 0
0.012033 0.144029 2.267000 255 0 0
0.018280 0.144283 2.271000 255 0 0
0.024571 0.144664 2.277000 255 0 0
0.030868 0.144917 2.281000 255 0 0
0.037153 0.145043 2.283000 255 0 0
0.043431 0.145105 2.284000 255 0 0
0.049822 0.145485 2.290000 255 0 0
0.056442 0.146372 2.304000 255 0 0
0.090270 0.150108 2.363000 255 0 0
0.097278 0.150931 2.376000 255 0 0
0.104007 0.151246 2.381000 255 0 0
0.110670 0.151433 2.384000 255 0 0
0.117153 0.151365 2.383000 255 0 0
0.123630 0.151298 2.382000 255 0 0
0.130210 0.151357 2.383000 255 0 0
-0.157245 -0.040216 2.473060 255 255 0
-0.084442 -0.038997 2.442871 255 255 0
-0.068001 -0.037662 2.440941 255 255 0
-0.038913 -0.033115 2.447615 255 255 0
-0.015788 -0.030037 2.450444 255 255 0
-0.010414 -0.031435 2.441346 255 255 0
-0.018519 -0.036264 2.423043 255 255 0
-0.013979 -0.037880 2.413348 255 255 0
-0.001876 -0.037555 2.408889 255 255 0
0.002651 -0.039164 2.399229 255 255 0
0.020596 -0.037310 2.398951 255 255 0
0.051914 -0.031972 2.408176 255 255 0
0.048860 -0.035511 2.393335 255 255 0
0.040805 -0.040364 2.374893 255 255 0
0.009391 -0.051337 2.339691 255 255 0
-0.225085 -0.094377 2.397533 0 255 0
-0.258787 -0.080612 2.432540 0 255 0
-0.269501 -0.074178 2.451793 0 255 0
-0.255458 -0.075567 2.454354 0 255 0
-0.240541 -0.077212 2.456409 0 255 0
-0.229883 -0.077501 2.461374 0 255 0
-0.218355 -0.078047 2.465819 0 255 0
-0.204240 -0.079384 2.468626 0 255 0
-0.193538 -0.079640 2.473739 0 255 0
-0.189694 -0.077758 2.483358 0 255 0
-0.170375 -0.080654 2.482993 0 255 0
-0.143282 -0.085914 2.477750 0 255 0
-0.112703 -0.092201 2.470451 0 255 0
-0.352561 0.130156 2.146000 255 0 0
-0.350109 0.131439 2.167000 255 0 0
-0.345000 0.131752 2.172000 255 0 0
-0.339238 0.131822 2.173000 255 0 0
-0.332549 0.131527 2.168000 255 0 0
-0.327242 0.131779 2.172000 255 0 0
-0.322061 0.132091 2.177000 255 0 0
-0.317431 0.132646 2.186000 255 0 0
-0.314034 0.133747 2.204000 255 0 0
-0.300199 0.141438 2.330000 255 0 0
-0.291315 0.140232 2.310000 255 0 0
-0.284268 0.139876 2.304000 255 0 0
-0.277131 0.139459 2.297000 255 0 0
-0.269560 0.138799 2.286000 255 0 0
-0.262509 0.138382 2.279000 255 0 0
-0.255720 0.138085 2.274000 255 0 0
-0.249396 0.138032 2.273000 255 0 0
-0.242970 0.137918 2.271000 255 0 0
-0.236866 0.137986 2.272000 255 0 0
-0.230249 0.137750 2.268000 255 0 0
-0.223751 0.137574 2.265000 255 0 0
-0.217077 0.137277 2.260000 255 0 0
-0.210709 0.137162 2.258000 255 0 0
-0.204080 0.136864 2.253000 255 0 0
-0.197565 0.136627 2.249000 255 0 0
-0.190986 0.136329 2.244000 255 0 0
-0.184434 0.136031 2.239000 255 0 0
-0.177828 0.135672 2.233000 255 0 0
-0.171486 0.135495 2.230000 255 0 0
-0.165011 0.135197 2.225000 255 0 0
-0.158634 0.134958 2.221000 255 0 0
-0.152278 0.134720 2.217000 255 0 0
-0.146339 0.134846 2.219000 255 0 0
-0.140389 0.134972 2.221000 255 0 0
-0.134246 0.134916 2.220000 255 0 0
-0.128108 0.134859 2.219000 255 0 0
-0.121919 0.134741 2.217000 255 0 0
-0.115898 0.134806 2.218000 255 0 0
-0.109871 0.134870 2.219000 255 0 0
-0.103885 0.134995 2.221000 255 0 0
-0.097843 0.135059 2.222000 255 0 0
-0.091754 0.135062 2.222000 255 0 0
-0.085819 0.135308 2.226000 255 0 0
-0.079826 0.135493 2.229000 255 0 0
-0.073849 0.135738 2.233000 255 0 0
-0.067759 0.135801 2.234000 255 0 0
-0.061746 0.136046 2.238000 255 0 0
-0.055711 0.136291 2.242000 255 0 0
-0.049631 0.136475 2.245000 255 0 0
-0.043496 0.136538 2.246000 255 0 0
-0.037372 0.136661 2.248000 255 0 0
-0.031251 0.136844 2.251000 255 0 0
-0.025091 0.136906 2.252000 255 0 0
-0.018917 0.136906 2.252000 255 0 0
-0.012749 0.136968 2.253000 255 0 0
-0.006575 0.137029 2.254000 255 0 0
-0.000395 0.137150 2.256000 255 0 0
0.005787 0.137090 2.255000 255 0 0
0.011980 0.137211 2.257000 255 0 0
0.018209 0.137514 2.262000 255 0 0
0.024507 0.138061 2.271000 255 0 0
0.030801 0.138364 2.276000 255 0 0
0.037106 0.138606 2.280000 255 0 0
0.043375 0.138666 2.281000 255 0 0
0.049759 0.139029 2.287000 255 0 0
0.056567 0.140364 2.309000 255 0 0
0.090808 0.144487 2.377000 255 0 0
0.097445 0.144666 2.380000 255 0 0
0.104185 0.144967 2.385000 255 0 0
0.110906 0.145207 2.389000 255 0 0
0.117304 0.145021 2.386000 255 0 0
0.123789 0.144956 2.385000 255 0 0
0.130104 0.144709 2.381000 255 0 0
-0.189003 -0.051070 2.493350 255 255 0
-0.179195 -0.051488 2.486503 255 255 0
-0.089354 -0.051583 2.440929 255 255 0
-0.072068 -0.049996 2.439535 255 255 0
-0.051433 -0.047532 2.440495 255 255 0
-0.007744 -0.041898 2.444436 255 255 0
-0.015003 -0.046545 2.426719 255 255 0
-0.018874 -0.050333 2.411250 255 255 0
-0.003409 -0.049112 2.409086 255 255 0
0.001960 -0.050502 2.399998 255 255 0
0.011517 -0.050794 2.393848 255 255 0
0.023574 -0.050421 2.389498 255 255 0
0.040630 -0.048720 2.388742 255 255 0
0.021729 -0.056478 2.362569 255 255 0
0.012892 -0.061611 2.343408 255 255 0
-0.222973 -0.106038 2.397407 0 255 0
-0.247271 -0.095163 2.426047 0 255 0
-0.257581 -0.085745 2.457093 0 255 0
-0.246946 -0.086070 2.462007 0 255 0
-0.236296 -0.086385 2.466965 0 255 0
-0.219640 -0.088582 2.468017 0 255 0
-0.203817 -0.090491 2.469712 0 255 0
-0.185399 -0.093192 2.469805 0 255 0
-0.172105 -0.094261 2.473330 0 255 0
-0.171681 -0.091297 2.485230 0 255 0
-0.149762 -0.095024 2.483320 0 255 0
-0.135557 -0.096324 2.486465 0 255 0
-0.349795 0.125399 2.165000 255 0 0
-0.344374 0.125582 2.168000 255 0 0
-0.338778 0.125706 2.170000 255 0 0
-0.332404 0.125541 2.167000 255 0 0
-0.326950 0.125724 2.170000 255 0 0
-0.321921 0.126080 2.176000 255 0 0
-0.317440 0.126667 2.186000 255 0 0
-0.314185 0.127777 2.205000 255 0 0
-0.290693 0.133622 2.305000 255 0 0
-0.284399 0.133629 2.305000 255 0 0
-0.277501 0.133347 2.300000 255 0 0
-0.270157 0.132833 2.291000 255 0 0
-0.262747 0.132261 2.281000 255 0 0
-0.255615 0.131804 2.273000 255 0 0
-0.249074 0.131637 2.270000 255 0 0
-0.242656 0.131528 2.268000 255 0 0
-0.236352 0.131477 2.267000 255 0 0
-0.229849 0.131309 2.264000 255 0 0
-0.223363 0.131142 2.261000 255 0 0
-0.216891 0.130974 2.258000 255 0 0
-0.210435 0.130806 2.255000 255 0 0
-0.203905 0.130580 2.251000 255 0 0
-0.197219 0.130237 2.245000 255 0 0
-0.190736 0.130011 2.241000 255 0 0
-0.184192 0.129726 2.236000 255 0 0
-0.177674 0.129441 2.231000 255 0 0
-0.171337 0.129272 2.228000 255 0 0
-0.165016 0.129103 2.225000 255 0 0
-0.158853 0.129050 2.224000 255 0 0
-0.152557 0.128881 2.221000 255 0 0
-0.146476 0.128885 2.221000 255 0 0
-0.140456 0.128947 2.222000 255 0 0
-0.134371 0.128951 2.222000 255 0 0
-0.128227 0.128897 2.221000 255 0 0
-0.122033 0.128785 2.219000 255 0 0
-0.116006 0.128846 2.220000 255 0 0
-0.110023 0.128966 2.222000 255 0 0
-0.103981 0.129027 2.223000 255 0 0
-0.097934 0.129088 2.224000 255 0 0
-0.091840 0.129091 2.224000 255 0 0
-0.085937 0.129384 2.229000 255 0 0
-0.079972 0.129618 2.233000 255 0 0
-0.074050 0.129969 2.239000 255 0 0
-0.067974 0.130087 2.241000 255 0 0
-0.061969 0.130379 2.246000 255 0 0
-0.055862 0.130497 2.248000 255 0 0
-0.049699 0.130499 2.248000 255 0 0
-0.043517 0.130442 2.247000 255 0 0
-0.037390 0.130559 2.249000 255 0 0
-0.031252 0.130677 2.251000 255 0 0
-0.025081 0.130677 2.251000 255 0 0
-0.018901 0.130620 2.250000 255 0 0
-0.012726 0.130562 2.249000 255 0 0
-0.006566 0.130679 2.251000 255 0 0
-0.000395 0.130737 2.252000 255 0 0
0.005780 0.130737 2.252000 255 0 0
0.011970 0.130911 2.255000 255 0 0
0.018201 0.131259 2.261000 255 0 0
0.024497 0.131781 2.270000 255 0 0
0.030802 0.132128 2.276000 255 0 0
0.037074 0.132243 2.278000 255 0 0
0.043338 0.132300 2.279000 255 0 0
0.049717 0.132647 2.285000 255 0 0
0.056593 0.134097 2.310000 255 0 0
0.097530 0.138262 2.382000 255 0 0
0.104188 0.138433 2.385000 255 0 0
0.110863 0.138604 2.388000 255 0 0
0.117308 0.138485 2.386000 255 0 0
0.123793 0.138423 2.385000 255 0 0
0.130108 0.138187 2.381000 255 0 0
-0.181127 -0.060672 2.499743 255 255 0
-0.175594 -0.062137 2.490199 255 255 0
-0.149216 -0.061194 2.480993 255 255 0
-0.096409 -0.067600 2.424584 255 255 0
-0.069002 -0.063349 2.429991 255 255 0
-0.039960 -0.058634 2.436680 255 255 0
-0.025291 -0.057621 2.433792 255 255 0
-0.019902 -0.059014 2.424647 255 255 0
-0.015358 -0.060626 2.414936 255 255 0
-0.029760 -0.070038 2.379227 255 255 0
-0.007603 -0.067005 2.381744 255 255 0
0.014514 -0.063952 2.384373 255 255 0
0.027395 -0.063326 2.380625 255 255 0
0.004346 -0.072277 2.351463 255 255 0
0.000542 -0.076118 2.335822 255 255 0
-0.199189 -0.127890 2.370239 0 255 0
-0.197884 -0.125177 2.381656 0 255 0
-0.234921 -0.110071 2.419002 0 255 0
-0.250317 -0.098941 2.453549 0 255 0
-0.243949 -0.097914 2.461341 0 255 0
-0.235865 -0.097430 2.468019 0 255 0
-0.233762 -0.095030 2.478674 0 255 0
-0.205111 -0.101070 2.471925 0 255 0
-0.179845 -0.105991 2.467563 0 255 0
-0.172556 -0.105189 2.475012 0 255 0
-0.166976 -0.103840 2.483593 0 255 0
-0.163971 -0.101678 2.493843 0 255 0
-0.152364 -0.102211 2.498608 0 255 0
-0.121803 -0.108651 2.491411 0 255 0
-0.044151 -0.126521 2.467227 0 255 0
-0.355537 0.119416 2.164000 255 0 0
-0.349965 0.119535 2.166000 255 0 0
-0.344223 0.119599 2.167000 255 0 0
-0.338319 0.119607 2.167000 255 0 0
-0.331953 0.119450 2.164000 255 0 0
-0.326506 0.119623 2.167000 255 0 0
-0.321782 0.120073 2.175000 255 0 0
-0.317303 0.120633 2.185000 255 0 0
-0.314336 0.121801 2.206000 255 0 0
-0.284160 0.127211 2.303000 255 0 0
-0.277267 0.126942 2.298000 255 0 0
-0.270518 0.126729 2.294000 255 0 0
-0.263445 0.126349 2.287000 255 0 0
-0.256521 0.126024 2.281000 255 0 0
-0.249520 0.125644 2.274000 255 0 0
-0.242876 0.125430 2.270000 255 0 0
-0.236254 0.125215 2.266000 255 0 0
-0.229754 0.125056 2.263000 255 0 0
-0.223072 0.124786 2.258000 255 0 0
-0.216609 0.124626 2.255000 255 0 0
-0.210068 0.124411 2.251000 255 0 0
-0.203729 0.124306 2.249000 255 0 0
-0.197137 0.124035 2.244000 255 0 0
-0.190571 0.123764 2.239000 255 0 0
-0.184032 0.123493 2.234000 255 0 0
-0.177520 0.123221 2.229000 255 0 0
-0.171342 0.123171 2.228000 255 0 0
-0.164946 0.122954 2.224000 255 0 0
-0.158786 0.122904 2.223000 255 0 0
-0.152562 0.122797 2.221000 255 0 0
-0.146612 0.122912 2.223000 255 0 0
-0.140524 0.122916 2.223000 255 0 0
-0.134435 0.122920 2.223000 255 0 0
-0.128231 0.122813 2.221000 255 0 0
-0.122146 0.122817 2.221000 255 0 0
-0.116114 0.122875 2.222000 255 0 0
-0.110224 0.123100 2.226000 255 0 0
-0.104265 0.123269 2.229000 255 0 0
-0.098201 0.123327 2.230000 255 0 0
-0.092131 0.123385 2.231000 255 0 0
-0.086133 0.123553 2.234000 255 0 0
-0.080153 0.123777 2.238000 255 0 0
-0.074151 0.124000 2.242000 255 0 0
-0.068097 0.124168 2.245000 255 0 0
-0.061971 0.124225 2.246000 255 0 0
-0.055814 0.124227 2.246000 255 0 0
-0.049590 0.124063 2.243000 255 0 0
-0.043441 0.124064 2.243000 255 0 0
-0.037308 0.124121 2.244000 255 0 0
-0.031184 0.124232 2.246000 255 0 0
-0.025015 0.124178 2.245000 255 0 0
-0.018851 0.124123 2.244000 255 0 0
-0.012710 0.124234 2.246000 255 0 0
-0.006563 0.124456 2.250000 255 0 0
-0.000395 0.124622 2.253000 255 0 0
0.005783 0.124622 2.253000 255 0 0
0.011971 0.124732 2.255000 255 0 0
0.018185 0.124953 2.259000 255 0 0
0.024444 0.125284 2.265000 255 0 0
0.030735 0.125615 2.271000 255 0 0
0.037010 0.125780 2.274000 255 0 0
0.043245 0.125779 2.274000 255 0 0
0.049522 0.125888 2.276000 255 0 0
0.056203 0.126882 2.294000 255 0 0
0.063390 0.128706 2.327000 255 0 0
0.091654 0.132679 2.399000 255 0 0
0.097369 0.131515 2.378000 255 0 0
0.104148 0.131844 2.384000 255 0 0
0.110913 0.132117 2.389000 255 0 0
0.117459 0.132114 2.389000 255 0 0
0.123952 0.132055 2.388000 255 0 0
0.130385 0.131941 2.386000 255 0 0
-0.172848 -0.072994 2.493351 255 255 0
-0.160507 -0.072714 2.488171 255 255 0
-0.143929 -0.071337 2.485776 255 255 0
-0.136730 -0.072344 2.477418 255 255 0
-0.092008 -0.077865 2.428853 255 255 0
-0.068834 -0.074643 2.431417 255 255 0
-0.040646 -0.070071 2.437513 255 255 0
-0.032716 -0.070801 2.430036 255 255 0
-0.028159 -0.072416 2.420288 255 255 0
-0.021085 -0.073361 2.412276 255 255 0
-0.026605 -0.077651 2.395597 255 255 0
-0.025399 -0.080162 2.383519 255 255 0
-0.014978 -0.080208 2.377852 255 255 0
0.018849 -0.073956 2.388653 255 255 0
0.039242 -0.071273 2.390208 255 255 0
0.034559 -0.075340 2.374114 255 255 0
-0.000121 -0.087550 2.336577 255 255 0
-0.223440 -0.124789 2.412556 0 255 0
-0.243466 -0.115153 2.438205 0 255 0
-0.236240 -0.114409 2.445455 0 255 0
-0.229860 -0.113384 2.453297 0 255 0
-0.233728 -0.109043 2.467947 0 255 0
-0.240172 -0.103884 2.484245 0 255 0
-0.220956 -0.106982 2.483670 0 255 0
-0.177295 -0.114758 2.479475 0 255 0
-0.173437 -0.112873 2.489158 0 255 0
-0.160988 -0.113713 2.493340 0 255 0
-0.153680 -0.112909 2.500866 0 255 0
-0.137761 -0.114815 2.502964 0 255 0
-0.358009 0.114286 2.179000 255 0 0
-0.350297 0.113717 2.168000 255 0 0
-0.344232 0.113673 2.167000 255 0 0
-0.338171 0.113628 2.166000 255 0 0
-0.331961 0.113531 2.164000 255 0 0
-0.326062 0.113539 2.164000 255 0 0
-0.321050 0.113862 2.170000 255 0 0
-0.316730 0.114446 2.181000 255 0 0
-0.314059 0.115661 2.204000 255 0 0
-0.294239 0.122476 2.333000 255 0 0
-0.284044 0.120856 2.302000 255 0 0
-0.277033 0.120548 2.296000 255 0 0
-0.270879 0.120608 2.297000 255 0 0
-0.264028 0.120352 2.292000 255 0 0
-0.257427 0.120201 2.289000 255 0 0
-0.250514 0.119892 2.283000 255 0 0
-0.243846 0.119688 2.279000 255 0 0
-0.237094 0.119432 2.274000 255 0 0
-0.230166 0.119070 2.267000 255 0 0
-0.223276 0.118708 2.260000 255 0 0
-0.216807 0.118557 2.257000 255 0 0
-0.210447 0.118457 2.255000 255 0 0
-0.204097 0.118357 2.253000 255 0 0
-0.197582 0.118152 2.249000 255 0 0
-0.191087 0.117947 2.245000 255 0 0
-0.184614 0.117742 2.241000 255 0 0
-0.178162 0.117537 2.237000 255 0 0
-0.171731 0.117331 2.233000 255 0 0
-0.165247 0.117073 2.228000 255 0 0
-0.158933 0.116920 2.225000 255 0 0
-0.152772 0.116871 2.224000 255 0 0
-0.146682 0.116875 2.224000 255 0 0
-0.140528 0.116826 2.223000 255 0 0
-0.134499 0.116883 2.224000 255 0 0
-0.128350 0.116834 2.223000 255 0 0
-0.122425 0.116995 2.226000 255 0 0
-0.116326 0.116998 2.226000 255 0 0
-0.110425 0.117211 2.230000 255 0 0
-0.104455 0.117372 2.233000 255 0 0
-0.098468 0.117532 2.236000 255 0 0
-0.092382 0.117587 2.237000 255 0 0
-0.086328 0.117695 2.239000 255 0 0
-0.080299 0.117855 2.242000 255 0 0
-0.074186 0.117910 2.243000 255 0 0
-0.068068 0.117964 2.244000 255 0 0
-0.061917 0.117966 2.244000 255 0 0
-0.055815 0.118073 2.246000 255 0 0
-0.049569 0.117864 2.242000 255 0 0
-0.043403 0.117813 2.241000 255 0 0
-0.037243 0.117761 2.240000 255 0 0
-0.031129 0.117867 2.242000 255 0 0
-0.024982 0.117868 2.242000 255 0 0
-0.018860 0.118026 2.245000 255 0 0
-0.012721 0.118184 2.248000 255 0 0
-0.006569 0.118395 2.252000 255 0 0
-0.000395 0.118553 2.255000 255 0 0
0.005796 0.118710 2.258000 255 0 0
0.012003 0.118868 2.261000 255 0 0
0.018210 0.118920 2.262000 255 0 0
0.024445 0.119077 2.265000 255 0 0
0.030722 0.119339 2.270000 255 0 0
0.036979 0.119443 2.272000 255 0 0
0.043208 0.119442 2.272000 255 0 0
0.049437 0.119441 2.272000 255 0 0
0.055959 0.120071 2.284000 255 0 0
0.062902 0.121383 2.309000 255 0 0
0.090969 0.125160 2.381000 255 0 0
0.097331 0.124947 2.377000 255 0 0
0.104194 0.125365 2.385000 255 0 0
0.110869 0.125519 2.388000 255 0 0
0.117560 0.125674 2.391000 255 0 0
0.124163 0.125723 2.392000 255 0 0
-0.157767 -0.083538 2.491320 255 255 0
-0.142048 -0.082341 2.488371 255 255 0
-0.095600 -0.087366 2.440777 255 255 0
-0.085920 -0.087667 2.434247 255 255 0
-0.061075 -0.083935 2.437941 255 255 0
-0.039646 -0.081077 2.439488 255 255 0
-0.022461 -0.079322 2.438286 255 255 0
-0.022117 -0.082054 2.425695 255 255 0
-0.013369 -0.082535 2.418846 255 255 0
-0.012182 -0.085043 2.406819 255 255 0
-0.005124 -0.085969 2.398848 255 255 0
0.008622 -0.085076 2.395566 255 255 0
0.025689 -0.083263 2.394688 255 255 0
0.041891 -0.081664 2.393303 255 255 0
0.035544 -0.086211 2.376035 255 255 0
0.025884 -0.091683 2.356332 255 255 0
-0.197968 -0.147363 2.384367 0 255 0
-0.227299 -0.128299 2.440808 0 255 0
-0.235415 -0.122534 2.458333 0 255 0
-0.242696 -0.117061 2.475226 0 255 0
-0.240594 -0.114658 2.485872 0 255 0
-0.225664 -0.116417 2.488114 0 255 0
-0.208145 -0.118992 2.488756 0 255 0
-0.193171 -0.120719 2.491148 0 255 0
-0.173888 -0.123810 2.490849 0 255 0
-0.154578 -0.126880 2.490648 0 255 0
-0.142111 -0.127733 2.494919 0 255 0
-0.133926 -0.127202 2.501970 0 255 0
-0.350628 0.107888 2.170000 255 0 0
-0.344239 0.107747 2.167000 255 0 0
-0.338178 0.107705 2.166000 255 0 0
-0.331815 0.107563 2.163000 255 0 0
-0.325768 0.107521 2.162000 255 0 0
-0.320613 0.107777 2.167000 255 0 0
-0.316301 0.108331 2.178000 255 0 0
-0.313496 0.109432 2.200000 255 0 0
-0.291850 0.115146 2.314000 255 0 0
-0.283557 0.114357 2.298000 255 0 0
-0.276919 0.114214 2.295000 255 0 0
-0.270768 0.114270 2.296000 255 0 0
-0.264380 0.114227 2.295000 255 0 0
-0.257771 0.114084 2.292000 255 0 0
-0.250959 0.113841 2.287000 255 0 0
-0.244387 0.113698 2.284000 255 0 0
-0.237830 0.113554 2.281000 255 0 0
-0.230883 0.113212 2.274000 255 0 0
-0.224072 0.112918 2.268000 255 0 0
-0.217485 0.112725 2.264000 255 0 0
-0.211292 0.112730 2.264000 255 0 0
-0.204827 0.112586 2.261000 255 0 0
-0.198377 0.112441 2.258000 255 0 0
-0.191858 0.112247 2.254000 255 0 0
-0.185443 0.112102 2.251000 255 0 0
-0.179043 0.111957 2.248000 255 0 0
-0.172505 0.111713 2.243000 255 0 0
-0.165919 0.111418 2.237000 255 0 0
-0.159437 0.111173 2.232000 255 0 0
-0.153257 0.111127 2.231000 255 0 0
-0.147213 0.111181 2.232000 255 0 0
-0.141100 0.111185 2.232000 255 0 0
-0.134987 0.111188 2.232000 255 0 0
-0.128699 0.111042 2.229000 255 0 0
-0.122648 0.111095 2.230000 255 0 0
-0.116486 0.111048 2.229000 255 0 0
-0.110527 0.111201 2.232000 255 0 0
-0.104505 0.111303 2.234000 255 0 0
-0.098471 0.111405 2.236000 255 0 0
-0.092425 0.111508 2.238000 255 0 0
-0.086369 0.111610 2.240000 255 0 0
-0.080265 0.111662 2.241000 255 0 0
-0.074155 0.111713 2.242000 255 0 0
-0.068010 0.111715 2.242000 255 0 0
-0.061836 0.111667 2.241000 255 0 0
-0.055717 0.111718 2.242000 255 0 0
-0.049504 0.111570 2.239000 255 0 0
-0.043366 0.111571 2.239000 255 0 0
-0.037210 0.111523 2.238000 255 0 0
-0.031116 0.111673 2.241000 255 0 0
-0.025016 0.111873 2.245000 255 0 0
-0.018894 0.112073 2.249000 255 0 0
-0.012750 0.112273 2.253000 255 0 0
-0.006584 0.112472 2.257000 255 0 0
-0.000396 0.112572 2.259000 255 0 0
0.005798 0.112572 2.259000 255 0 0
0.011992 0.112572 2.259000 255 0 0
0.018194 0.112621 2.260000 255 0 0
0.024402 0.112671 2.261000 255 0 0
0.030669 0.112919 2.266000 255 0 0
0.036931 0.113068 2.269000 255 0 0
0.043190 0.113166 2.271000 255 0 0
0.049373 0.113065 2.269000 255 0 0
0.055765 0.113413 2.276000 255 0 0
0.062522 0.114358 2.295000 255 0 0
0.097538 0.118683 2.382000 255 0 0
0.104285 0.118929 2.387000 255 0 0
0.110919 0.119026 2.389000 255 0 0
0.117613 0.119173 2.392000 255 0 0
0.124322 0.119319 2.395000 255 0 0
-0.170766 -0.095579 2.497493 255 255 0
-0.168644 -0.097914 2.485782 255 255 0
-0.165668 -0.100027 2.474608 255 255 0
-0.077306 -0.096766 2.441324 255 255 0
-0.069336 -0.097491 2.433714 255 255 0
-0.023148 -0.090745 2.439110 255 255 0
-0.026159 -0.094399 2.424222 255 255 0
-0.023283 -0.096463 2.413323 255 255 0
-0.004478 -0.094184 2.413401 255 255 0
0.013457 -0.092119 2.412989 255 255 0
0.022160 -0.092562 2.406251 255 255 0
0.025839 -0.094378 2.396032 255 255 0
0.022840 -0.098037 2.381110 255 255 0
0.040698 -0.095934 2.380910 255 255 0
0.031042 -0.101445 2.361227 255 255 0
0.028902 -0.104886 2.346825 255 255 0
-0.239667 -0.135202 2.450412 0 255 0
-0.247785 -0.129411 2.467898 0 255 0
-0.254215 -0.124195 2.484188 0 255 0
-0.237603 -0.126565 2.485256 0 255 0
-0.216692 -0.130317 2.483610 0 255 0
-0.217995 -0.126782 2.496542 0 255 0
-0.214167 -0.124925 2.506123 0 255 0
-0.189769 -0.129748 2.502472 0 255 0
-0.160187 -0.136210 2.495655 0 255 0
-0.148587 -0.136816 2.500470 0 255 0
-0.139551 -0.136581 2.506969 0 255 0
-0.110723 -0.142691 2.501051 0 255 0
-0.361475 0.103356 2.200000 255 0 0
-0.349827 0.101719 2.165000 255 0 0
-0.343611 0.101632 2.163000 255 0 0
-0.337717 0.101640 2.163000 255 0 0
-0.331515 0.101553 2.161000 255 0 0
-0.325624 0.101560 2.161000 255 0 0
-0.320472 0.101802 2.166000 255 0 0
-0.316018 0.102278 2.176000 255 0 0
-0.312933 0.103225 2.196000 255 0 0
-0.292361 0.109001 2.318000 255 0 0
-0.284057 0.108255 2.302000 255 0 0
-0.277287 0.108073 2.298000 255 0 0
-0.271010 0.108079 2.298000 255 0 0
-0.264731 0.108085 2.298000 255 0 0
-0.257890 0.107856 2.293000 255 0 0
-0.251184 0.107674 2.289000 255 0 0
-0.244392 0.107444 2.284000 255 0 0
-0.237836 0.107309 2.281000 255 0 0
-0.231091 0.107079 2.276000 255 0 0
-0.224472 0.106896 2.272000 255 0 0
-0.217970 0.106760 2.269000 255 0 0
-0.211577 0.106671 2.267000 255 0 0
-0.205013 0.106488 2.263000 255 0 0
-0.198646 0.106398 2.261000 255 0 0
-0.192374 0.106356 2.260000 255 0 0
-0.186024 0.106266 2.258000 255 0 0
-0.179605 0.106129 2.255000 255 0 0
-0.173047 0.105898 2.250000 255 0 0
-0.166517 0.105667 2.245000 255 0 0
-0.159941 0.105388 2.239000 255 0 0
-0.153673 0.105298 2.237000 255 0 0
-0.147547 0.105301 2.237000 255 0 0
-0.141420 0.105305 2.237000 255 0 0
-0.135353 0.105355 2.238000 255 0 0
-0.129164 0.105311 2.237000 255 0 0
-0.123036 0.105314 2.237000 255 0 0
-0.116803 0.105223 2.235000 255 0 0
-0.110827 0.105367 2.238000 255 0 0
-0.104694 0.105370 2.238000 255 0 0
-0.098649 0.105466 2.240000 255 0 0
-0.092510 0.105469 2.240000 255 0 0
-0.086371 0.105471 2.240000 255 0 0
-0.080195 0.105426 2.239000 255 0 0
-0.074124 0.105522 2.241000 255 0 0
-0.068042 0.105618 2.243000 255 0 0
-0.061920 0.105667 2.244000 255 0 0
-0.055768 0.105668 2.244000 255 0 0
-0.049550 0.105528 2.241000 255 0 0
-0.043425 0.105576 2.242000 255 0 0
-0.037278 0.105577 2.242000 255 0 0
-0.031200 0.105814 2.247000 255 0 0
-0.025084 0.106003 2.251000 255 0 0
-0.018953 0.106239 2.256000 255 0 0
-0.012773 0.106286 2.257000 255 0 0
-0.006587 0.106333 2.258000 255 0 0
-0.000396 0.106334 2.258000 255 0 0
0.005798 0.106381 2.259000 255 0 0
0.011998 0.106427 2.260000 255 0 0
0.018195 0.106427 2.260000 255 0 0
0.024413 0.106521 2.262000 255 0 0
0.030670 0.106708 2.266000 255 0 0
0.036915 0.106802 2.268000 255 0 0
0.043172 0.106895 2.270000 255 0 0
0.049396 0.106894 2.270000 255 0 0
0.055791 0.107222 2.277000 255 0 0
0.062442 0.107927 2.292000 255 0 0
0.097581 0.112202 2.383000 255 0 0
0.104375 0.112482 2.389000 255 0 0
0.111061 0.112621 2.392000 255 0 0
0.117763 0.112759 2.395000 255 0 0
0.124326 0.112756 2.395000 255 0 0
-0.184630 -0.107903 2.503214 255 255 0
-0.182495 -0.110248 2.491473 255 255 0
-0.183759 -0.113493 2.477554 255 255 0
-0.173119 -0.113589 2.471232 255 255 0
-0.154855 -0.111645 2.469877 255 255 0
-0.064951 -0.107676 2.437975 255 255 0
-0.039325 -0.103563 2.442309 255 255 0
-0.026354 -0.102874 2.438229 255 255 0
-0.035234 -0.108162 2.419324 255 255 0
-0.022280 -0.107465 2.415292 255 255 0
-0.002645 -0.104908 2.415933 255 255 0
0.024489 -0.100249 2.421889 255 255 0
0.005590 -0.108329 2.395958 255 255 0
0.011793 -0.109457 2.387437 255 255 0
0.016322 -0.111048 2.377759 255 255 0
0.014183 -0.114505 2.363366 255 255 0
0.032866 -0.112122 2.363749 255 255 0
-0.237540 -0.153149 2.426056 0 255 0
