ply
format ascii 1.0
element vertex 1327
property double x
property double y
property double z
property uchar red
property uchar green
property uchar blue
end_header
0.108732 0.431472 2.218000 255 0 0
0.114534 0.430490 2.213000 255 0 0
0.120307 0.429509 2.208000 255 0 0
0.126224 0.429110 2.206000 255 0 0
0.132370 0.429489 2.208000 255 0 0
0.138902 0.431034 2.216000 255 0 0
0.145347 0.432190 2.222000 255 0 0
-0.126357 0.482008 2.327538 255 255 0
-0.112252 0.481207 2.324435 255 255 0
-0.091252 0.481129 2.326215 255 255 0
-0.077199 0.480355 2.323253 255 255 0
-0.070071 0.478875 2.315487 255 255 0
-0.063812 0.477309 2.307133 255 255 0
-0.048948 0.476653 2.304921 255 255 0
-0.036688 0.475735 2.300930 255 255 0
-0.023587 0.474919 2.297606 255 255 0
-0.007932 0.474389 2.296198 255 255 0
0.011129 0.474242 2.297353 255 255 0
0.025873 0.473648 2.295470 255 255 0
0.038027 0.472786 2.291769 255 255 0
0.056147 0.472590 2.292531 255 255 0
0.072528 0.472222 2.292112 255 255 0
0.080352 0.470921 2.285412 255 255 0
0.082203 0.468960 2.274271 255 255 0
0.084057 0.466998 2.263119 255 255 0
0.092718 0.465803 2.257101 255 255 0
0.092024 0.463553 2.244011 255 255 0
-0.291419 0.392155 2.217344 0 255 0
-0.281588 0.392983 2.222023 0 255 0
-0.272614 0.393975 2.227384 0 255 0
-0.267979 0.395741 2.235986 0 255 0
-0.271177 0.398885 2.250347 0 255 0
-0.264801 0.400348 2.257667 0 255 0
-0.258420 0.401816 2.265005 0 255 0
-0.238068 0.400872 2.262257 0 255 0
-0.220307 0.400401 2.261495 0 255 0
-0.200773 0.399650 2.259565 0 255 0
-0.196087 0.401461 2.268333 0 255 0
-0.193150 0.403573 2.278352 0 255 0
-0.192842 0.406131 2.290224 0 255 0
-0.185521 0.407503 2.297150 0 255 0
-0.172925 0.407998 2.300418 0 255 0
-0.163827 0.409092 2.306183 0 255 0
-0.156479 0.410488 2.313200 0 255 0
-0.144721 0.411161 2.317211 0 255 0
-0.135592 0.412280 2.323081 0 255 0
-0.123807 0.412975 2.327182 0 255 0
-0.117303 0.414545 2.334923 0 255 0
-0.103727 0.414972 2.337917 0 255 0
-0.088364 0.415127 2.339784 0 255 0
-0.071212 0.415012 2.340539 0 255 0
-0.055807 0.415199 2.342552 0 255 0
-0.342322 0.420969 2.198000 255 0 0
-0.334964 0.419268 2.189000 255 0 0
-0.328706 0.418907 2.187000 255 0 0
-0.322901 0.419120 2.188000 255 0 0
-0.316656 0.418759 2.186000 255 0 0
-0.310704 0.418781 2.186000 255 0 0
-0.304612 0.418610 2.185000 255 0 0
-0.298252 0.418056 2.182000 255 0 0
-0.291639 0.417119 2.177000 255 0 0
-0.284659 0.415606 2.169000 255 0 0
-0.278236 0.414859 2.165000 255 0 0
-0.272588 0.415262 2.167000 255 0 0
-0.267298 0.416240 2.172000 255 0 0
-0.262341 0.417792 2.180000 255 0 0
-0.256869 0.418577 2.184000 255 0 0
-0.250686 0.418212 2.182000 255 0 0
-0.244064 0.417080 2.176000 255 0 0
-0.237583 0.416139 2.171000 255 0 0
-0.230809 0.414623 2.163000 255 0 0
-0.224390 0.413681 2.158000 255 0 0
-0.217693 0.412164 2.150000 255 0 0
-0.211729 0.411988 2.149000 255 0 0
-0.205483 0.411237 2.145000 255 0 0
-0.199351 0.410677 2.142000 255 0 0
-0.193054 0.409733 2.137000 255 0 0
-0.186959 0.409172 2.134000 255 0 0
-0.181134 0.409186 2.134000 255 0 0
-0.175145 0.408816 2.132000 255 0 0
-0.169245 0.408637 2.131000 255 0 0
-0.163504 0.408842 2.132000 255 0 0
-0.157904 0.409430 2.135000 255 0 0
-0.152145 0.409633 2.136000 255 0 0
-0.146380 0.409837 2.137000 255 0 0
-0.140610 0.410039 2.138000 255 0 0
-0.134896 0.410434 2.140000 255 0 0
-0.129111 0.410636 2.141000 255 0 0
-0.123262 0.410646 2.141000 255 0 0
-0.117413 0.410655 2.141000 255 0 0
-0.111616 0.410856 2.142000 255 0 0
-0.105812 0.411056 2.143000 255 0 0
-0.099863 0.410681 2.141000 255 0 0
-0.093749 0.409537 2.135000 255 0 0
-0.087791 0.408969 2.132000 255 0 0
-0.081926 0.408784 2.131000 255 0 0
-0.076102 0.408790 2.131000 255 0 0
-0.070245 0.408604 2.130000 255 0 0
-0.064362 0.408226 2.128000 255 0 0
-0.058573 0.408423 2.129000 255 0 0
-0.052803 0.408811 2.131000 255 0 0
-0.047022 0.409198 2.133000 255 0 0
-0.041153 0.408818 2.131000 255 0 0
-0.035311 0.408629 2.130000 255 0 0
-0.029460 0.408248 2.128000 255 0 0
-0.023654 0.408442 2.129000 255 0 0
-0.017825 0.408252 2.128000 255 0 0
-0.012024 0.408829 2.131000 255 0 0
-0.006207 0.409405 2.134000 255 0 0
-0.000373 0.409789 2.136000 255 0 0
0.005472 0.410172 2.138000 255 0 0
0.011332 0.410747 2.141000 255 0 0
0.017218 0.411514 2.145000 255 0 0
0.023136 0.412471 2.150000 255 0 0
0.029013 0.412469 2.150000 255 0 0
0.034940 0.413042 2.153000 255 0 0
0.040920 0.413998 2.158000 255 0 0
0.046950 0.415146 2.164000 255 0 0
0.052987 0.416101 2.169000 255 0 0
0.059025 0.416864 2.173000 255 0 0
0.065054 0.417435 2.176000 255 0 0
0.071100 0.418005 2.179000 255 0 0
0.077409 0.419917 2.189000 255 0 0
0.083925 0.422596 2.203000 255 0 0
0.090354 0.424508 2.213000 255 0 0
0.096663 0.425651 2.219000 255 0 0
0.102773 0.425835 2.220000 255 0 0
0.108937 0.426211 2.222000 255 0 0
0.114750 0.425243 2.217000 255 0 0
0.120589 0.424466 2.213000 255 0 0
0.126577 0.424265 2.212000 255 0 0
0.132800 0.424830 2.215000 255 0 0
0.139289 0.426162 2.222000 255 0 0
0.145555 0.426726 2.225000 255 0 0
0.152041 0.427865 2.231000 255 0 0
-0.124518 0.471300 2.330040 255 255 0
-0.108689 0.470713 2.328129 255 255 0
-0.087700 0.470687 2.329902 255 255 0
-0.073654 0.469946 2.326937 255 255 0
-0.069980 0.468108 2.316746 255 255 0
-0.062859 0.466642 2.308994 255 255 0
-0.052303 0.465553 2.303712 255 255 0
-0.036604 0.465034 2.302159 255 255 0
-0.024365 0.464151 2.298207 255 255 0
-0.006139 0.463940 2.298644 255 255 0
0.011199 0.463650 2.298543 255 255 0
0.024227 0.462898 2.295399 255 255 0
0.038091 0.462252 2.292936 255 255 0
0.061330 0.462678 2.297463 255 255 0
0.081114 0.462738 2.299575 255 255 0
0.089781 0.461551 2.293528 255 255 0
0.087367 0.459100 2.279225 255 255 0
0.086666 0.456840 2.266165 255 255 0
0.090223 0.455069 2.256292 255 255 0
0.093781 0.453299 2.246418 255 255 0
-0.288863 0.383996 2.228586 0 255 0
-0.281635 0.385280 2.235222 0 255 0
-0.277876 0.387193 2.244445 0 255 0
-0.280208 0.390195 2.258138 0 255 0
-0.271227 0.391180 2.263531 0 255 0
-0.255266 0.390939 2.263891 0 255 0
-0.233175 0.389639 2.259909 0 255 0
-0.215418 0.389129 2.259178 0 255 0
-0.196762 0.388486 2.257905 0 255 0
-0.197319 0.391208 2.270430 0 255 0
-0.196132 0.393624 2.281691 0 255 0
-0.192320 0.395586 2.291085 0 255 0
-0.177985 0.395743 2.293098 0 255 0
-0.168019 0.396665 2.298238 0 255 0
-0.162433 0.398344 2.306469 0 255 0
-0.152447 0.399282 2.311676 0 255 0
-0.140690 0.399933 2.315710 0 255 0
-0.132441 0.401187 2.322204 0 255 0
-0.124182 0.402447 2.328727 0 255 0
-0.120324 0.404449 2.338267 0 255 0
-0.106755 0.404845 2.341266 0 255 0
-0.090519 0.404817 2.342547 0 255 0
-0.075143 0.404952 2.344492 0 255 0
-0.061517 0.405391 2.347683 0 255 0
-0.049644 0.406132 2.352104 0 255 0
-0.343435 0.416319 2.205000 255 0 0
-0.335599 0.414076 2.193000 255 0 0
-0.328729 0.412965 2.187000 255 0 0
-0.322923 0.413176 2.188000 255 0 0
-0.316677 0.412820 2.186000 255 0 0
-0.310867 0.413030 2.187000 255 0 0
-0.304633 0.412673 2.185000 255 0 0
-0.298546 0.412505 2.184000 255 0 0
-0.292061 0.411770 2.180000 255 0 0
-0.285073 0.410279 2.172000 255 0 0
-0.278384 0.409165 2.166000 255 0 0
-0.272607 0.409374 2.167000 255 0 0
-0.267686 0.410904 2.175000 255 0 0
-0.262962 0.412812 2.185000 255 0 0
-0.257594 0.413775 2.190000 255 0 0
-0.251738 0.413983 2.191000 255 0 0
-0.245428 0.413434 2.188000 255 0 0
-0.238585 0.411940 2.180000 255 0 0
-0.231466 0.409878 2.169000 255 0 0
-0.224718 0.408383 2.161000 255 0 0
-0.218013 0.406887 2.153000 255 0 0
-0.211844 0.406336 2.150000 255 0 0
-0.205690 0.405785 2.147000 255 0 0
-0.199645 0.405422 2.145000 255 0 0
-0.193340 0.404491 2.140000 255 0 0
-0.187323 0.404128 2.138000 255 0 0
-0.181318 0.403764 2.136000 255 0 0
-0.175487 0.403777 2.136000 255 0 0
-0.169496 0.403412 2.134000 255 0 0
-0.163746 0.403614 2.135000 255 0 0
-0.157990 0.403815 2.136000 255 0 0
-0.152228 0.404016 2.137000 255 0 0
-0.146460 0.404216 2.138000 255 0 0
-0.140818 0.404795 2.141000 255 0 0
-0.135096 0.405183 2.143000 255 0 0
-0.129302 0.405383 2.144000 255 0 0
-0.123329 0.405014 2.142000 255 0 0
-0.117422 0.404835 2.141000 255 0 0
-0.111624 0.405033 2.142000 255 0 0
-0.105771 0.405041 2.142000 255 0 0
-0.099825 0.404671 2.140000 255 0 0
-0.093713 0.403544 2.134000 255 0 0
-0.087798 0.403173 2.132000 255 0 0
-0.081971 0.403179 2.132000 255 0 0
-0.076144 0.403186 2.132000 255 0 0
-0.070283 0.403002 2.131000 255 0 0
-0.064368 0.402440 2.128000 255 0 0
-0.058605 0.402823 2.130000 255 0 0
-0.052832 0.403206 2.132000 255 0 0
-0.047070 0.403777 2.135000 255 0 0
-0.041175 0.403214 2.132000 255 0 0
-0.035330 0.403027 2.131000 255 0 0
-0.029462 0.402463 2.128000 255 0 0
-0.023667 0.402843 2.130000 255 0 0
-0.017826 0.402466 2.128000 255 0 0
-0.012025 0.403035 2.131000 255 0 0
-0.006202 0.403225 2.132000 255 0 0
-0.000373 0.403792 2.135000 255 0 0
0.005469 0.404170 2.137000 255 0 0
0.011339 0.405115 2.142000 255 0 0
0.017219 0.405682 2.145000 255 0 0
0.023159 0.407004 2.152000 255 0 0
0.029056 0.407191 2.153000 255 0 0
0.035007 0.407945 2.157000 255 0 0
0.040942 0.408320 2.159000 255 0 0
0.046975 0.409452 2.165000 255 0 0
0.053040 0.410582 2.171000 255 0 0
0.059084 0.411334 2.175000 255 0 0
0.065179 0.412275 2.180000 255 0 0
0.071301 0.413215 2.185000 255 0 0
0.077733 0.415668 2.198000 255 0 0
0.084160 0.417742 2.209000 255 0 0
0.090565 0.419437 2.218000 255 0 0
0.096845 0.420375 2.223000 255 0 0
0.103012 0.420745 2.225000 255 0 0
0.109142 0.420926 2.226000 255 0 0
0.114862 0.419594 2.219000 255 0 0
0.120816 0.419206 2.217000 255 0 0
0.126759 0.418819 2.215000 255 0 0
0.133110 0.419754 2.220000 255 0 0
0.139488 0.420689 2.225000 255 0 0
0.145893 0.421623 2.230000 255 0 0
0.152393 0.422746 2.236000 255 0 0
-0.099075 0.460883 2.336014 255 255 0
-0.079830 0.460726 2.336595 255 255 0
-0.069247 0.459641 2.331225 255 255 0
-0.064714 0.457900 2.321648 255 255 0
-0.061043 0.456064 2.311468 255 255 0
-0.047911 0.455284 2.308016 255 255 0
-0.032220 0.454802 2.306463 255 255 0
-0.015698 0.454431 2.305595 255 255 0
-0.002631 0.453685 2.302328 255 255 0
0.011271 0.453047 2.299736 255 255 0
0.021729 0.452028 2.294707 255 255 0
0.039865 0.451904 2.295359 255 255 0
0.057971 0.451796 2.296098 255 255 0
0.080310 0.452201 2.300079 255 255 0
0.089829 0.451129 2.294656 255 255 0
0.090824 0.449060 2.282899 255 255 0
0.085022 0.446183 2.266013 255 255 0
0.091131 0.444714 2.258056 255 255 0
0.092993 0.442740 2.246892 255 255 0
-0.302479 0.373619 2.227892 0 255 0
-0.298733 0.375519 2.237076 0 255 0
-0.290646 0.376626 2.243048 0 255 0
-0.284289 0.378058 2.250328 0 255 0
-0.275318 0.379020 2.255713 0 255 0
-0.265465 0.379834 2.260495 0 255 0
-0.249505 0.379560 2.260886 0 255 0
-0.234394 0.379458 2.261982 0 255 0
-0.213155 0.378283 2.258754 0 255 0
-0.192759 0.377286 2.256255 0 255 0
-0.194183 0.380177 2.269416 0 255 0
-0.193865 0.382756 2.281310 0 255 0
-0.184797 0.383796 2.287013 0 255 0
-0.173090 0.384386 2.290904 0 255 0
-0.163123 0.385292 2.296070 0 255 0
-0.163676 0.388031 2.308590 0 255 0
-0.157208 0.389555 2.316231 0 255 0
-0.143701 0.389877 2.319054 0 255 0
-0.133696 0.390814 2.324346 0 255 0
-0.128082 0.392509 2.332672 0 255 0
-0.124226 0.394507 2.342208 0 255 0
-0.108020 0.394425 2.343426 0 255 0
-0.097087 0.395248 2.348269 0 255 0
-0.083491 0.395639 2.351389 0 255 0
-0.066339 0.395456 2.352222 0 255 0
-0.343925 0.410886 2.208000 255 0 0
-0.336080 0.408675 2.196000 255 0 0
-0.329051 0.407394 2.189000 255 0 0
-0.322945 0.407230 2.188000 255 0 0
-0.316843 0.407065 2.187000 255 0 0
-0.310889 0.407087 2.187000 255 0 0
-0.304654 0.406735 2.185000 255 0 0
-0.298430 0.406384 2.183000 255 0 0
-0.292215 0.406031 2.181000 255 0 0
-0.285617 0.405121 2.176000 255 0 0
-0.278917 0.404023 2.170000 255 0 0
-0.273130 0.404229 2.171000 255 0 0
-0.268321 0.405924 2.180000 255 0 0
-0.263462 0.407618 2.189000 255 0 0
-0.257847 0.408195 2.192000 255 0 0
-0.252446 0.409145 2.197000 255 0 0
-0.246455 0.409163 2.197000 255 0 0
-0.239807 0.408063 2.191000 255 0 0
-0.232123 0.405100 2.175000 255 0 0
-0.225359 0.403626 2.167000 255 0 0
-0.218637 0.402152 2.159000 255 0 0
-0.212549 0.401796 2.157000 255 0 0
-0.206280 0.401066 2.153000 255 0 0
-0.200032 0.400336 2.149000 255 0 0
-0.193625 0.399233 2.143000 255 0 0
-0.187688 0.399061 2.142000 255 0 0
-0.181586 0.398515 2.139000 255 0 0
-0.175664 0.398342 2.138000 255 0 0
-0.169668 0.397983 2.136000 255 0 0
-0.163912 0.398182 2.137000 255 0 0
-0.158150 0.398380 2.138000 255 0 0
-0.152311 0.398392 2.138000 255 0 0
-0.146540 0.398590 2.139000 255 0 0
-0.140829 0.398973 2.141000 255 0 0
-0.135043 0.399170 2.142000 255 0 0
-0.129312 0.399553 2.144000 255 0 0
-0.123396 0.399377 2.143000 255 0 0
-0.117596 0.399572 2.144000 255 0 0
-0.111737 0.399581 2.144000 255 0 0
-0.105829 0.399403 2.143000 255 0 0
-0.099832 0.398852 2.140000 255 0 0
-0.093764 0.397928 2.135000 255 0 0
-0.087846 0.397562 2.133000 255 0 0
-0.081978 0.397382 2.132000 255 0 0
-0.076114 0.397202 2.131000 255 0 0
-0.070223 0.396835 2.129000 255 0 0
-0.064403 0.396840 2.129000 255 0 0
-0.058638 0.397218 2.131000 255 0 0
-0.052861 0.397595 2.133000 255 0 0
-0.047008 0.397412 2.132000 255 0 0
-0.041159 0.397229 2.131000 255 0 0
-0.035349 0.397419 2.132000 255 0 0
-0.029506 0.397235 2.131000 255 0 0
-0.023680 0.397237 2.131000 255 0 0
-0.017844 0.397052 2.130000 255 0 0
-0.012032 0.397426 2.132000 255 0 0
-0.006205 0.397613 2.133000 255 0 0
-0.000373 0.397987 2.135000 255 0 0
0.005470 0.398359 2.137000 255 0 0
0.011334 0.399104 2.141000 255 0 0
0.017229 0.400035 2.146000 255 0 0
0.023182 0.401525 2.154000 255 0 0
0.029126 0.402268 2.158000 255 0 0
0.035108 0.403198 2.163000 255 0 0
0.041040 0.403381 2.164000 255 0 0
0.047065 0.404310 2.169000 255 0 0
0.053118 0.405238 2.174000 255 0 0
0.059170 0.405979 2.178000 255 0 0
0.065304 0.407093 2.184000 255 0 0
0.071502 0.408392 2.191000 255 0 0
0.078093 0.411555 2.208000 255 0 0
0.084510 0.413412 2.218000 255 0 0
0.090899 0.414897 2.226000 255 0 0
0.097027 0.415076 2.227000 255 0 0
0.103113 0.415068 2.227000 255 0 0
0.109101 0.414687 2.225000 255 0 0
0.114975 0.413933 2.221000 255 0 0
0.120989 0.413737 2.220000 255 0 0
0.127055 0.413728 2.220000 255 0 0
0.133300 0.414277 2.223000 255 0 0
0.139624 0.415012 2.227000 255 0 0
0.146035 0.415933 2.232000 255 0 0
0.152609 0.417226 2.239000 255 0 0
0.162127 0.426158 2.287000 255 0 0
-0.096382 0.450330 2.339100 255 255 0
-0.080600 0.449834 2.337269 255 255 0
-0.068293 0.448963 2.333095 255 255 0
-0.063759 0.447224 2.323515 255 255 0
-0.056646 0.445780 2.315766 255 255 0
-0.044381 0.444931 2.311705 255 255 0
-0.026123 0.444784 2.311989 255 255 0
-0.007895 0.444652 2.312359 255 255 0
-0.000839 0.443240 2.304771 255 255 0
0.004496 0.441631 2.295962 255 255 0
0.014104 0.440528 2.290281 255 255 0
0.036514 0.440949 2.294027 255 255 0
0.081215 0.441853 2.301849 255 255 0
0.090731 0.440798 2.296419 255 255 0
0.095131 0.439132 2.287208 255 255 0
0.091880 0.436538 2.272253 255 255 0
0.096285 0.434872 2.263028 255 255 0
-0.289817 0.360967 2.219564 0 255 0
-0.292127 0.364009 2.233304 0 255 0
-0.290108 0.366237 2.243799 0 255 0
-0.282882 0.367499 2.250449 0 255 0
-0.263484 0.366521 2.248202 0 255 0
-0.250146 0.366684 2.250492 0 255 0
-0.237660 0.367019 2.253471 0 255 0
-0.229515 0.368161 2.259650 0 255 0
-0.192254 0.366681 2.257112 0 255 0
-0.184065 0.367857 2.263437 0 255 0
-0.183736 0.370452 2.275362 0 255 0
-0.179911 0.372418 2.284804 0 255 0
-0.172583 0.373765 2.291793 0 255 0
-0.161741 0.374497 2.296359 0 255 0
-0.161412 0.377094 2.308276 0 255 0
-0.154943 0.378610 2.315932 0 255 0
-0.145832 0.379672 2.321794 0 255 0
-0.133192 0.380129 2.325285 0 255 0
-0.127578 0.381819 2.333621 0 255 0
-0.121079 0.383360 2.341375 0 255 0
-0.111047 0.384302 2.346772 0 255 0
-0.100121 0.385102 2.351619 0 255 0
-0.086532 0.385461 2.354743 0 255 0
-0.066737 0.384787 2.353826 0 255 0
-0.354393 0.409997 2.236000 255 0 0
-0.344259 0.405252 2.210000 255 0 0
-0.336714 0.403441 2.200000 255 0 0
-0.329524 0.401995 2.192000 255 0 0
-0.322966 0.401283 2.188000 255 0 0
-0.317010 0.401305 2.188000 255 0 0
-0.311194 0.401509 2.189000 255 0 0
-0.304814 0.400980 2.186000 255 0 0
-0.298587 0.400633 2.184000 255 0 0
-0.292503 0.400470 2.183000 255 0 0
-0.286293 0.400123 2.181000 255 0 0
-0.279579 0.399042 2.175000 255 0 0
-0.273652 0.399061 2.175000 255 0 0
-0.268709 0.400548 2.183000 255 0 0
-0.263721 0.402034 2.191000 255 0 0
-0.258101 0.402603 2.194000 255 0 0
-0.252923 0.403906 2.201000 255 0 0
-0.247594 0.405025 2.207000 255 0 0
-0.241137 0.404308 2.203000 255 0 0
-0.233101 0.400838 2.184000 255 0 0
-0.225687 0.398285 2.170000 255 0 0
-0.219058 0.397017 2.163000 255 0 0
-0.212959 0.396665 2.161000 255 0 0
-0.206679 0.395946 2.157000 255 0 0
-0.200326 0.395043 2.152000 255 0 0
-0.194091 0.394324 2.148000 255 0 0
-0.188140 0.394154 2.147000 255 0 0
-0.182024 0.393617 2.144000 255 0 0
-0.175924 0.393080 2.141000 255 0 0
-0.169839 0.392542 2.138000 255 0 0
-0.164154 0.392921 2.140000 255 0 0
-0.158310 0.392934 2.140000 255 0 0
-0.152394 0.392762 2.139000 255 0 0
-0.146551 0.392773 2.139000 255 0 0
-0.140905 0.393335 2.142000 255 0 0
-0.135053 0.393345 2.142000 255 0 0
-0.129322 0.393723 2.144000 255 0 0
-0.123463 0.393732 2.144000 255 0 0
-0.117769 0.394292 2.147000 255 0 0
-0.111954 0.394485 2.148000 255 0 0
-0.105985 0.394126 2.146000 255 0 0
-0.099980 0.393583 2.143000 255 0 0
-0.093859 0.392488 2.137000 255 0 0
-0.087977 0.392312 2.136000 255 0 0
-0.082022 0.391767 2.133000 255 0 0
-0.076120 0.391406 2.131000 255 0 0
-0.070228 0.391044 2.129000 255 0 0
-0.064438 0.391233 2.130000 255 0 0
-0.058697 0.391789 2.133000 255 0 0
-0.052890 0.391977 2.134000 255 0 0
-0.047055 0.391981 2.134000 255 0 0
-0.041201 0.391801 2.133000 255 0 0
-0.035369 0.391804 2.133000 255 0 0
-0.029536 0.391806 2.133000 255 0 0
-0.023693 0.391625 2.132000 255 0 0
-0.017854 0.391443 2.131000 255 0 0
-0.012033 0.391628 2.132000 255 0 0
-0.006206 0.391812 2.133000 255 0 0
-0.000373 0.392547 2.137000 255 0 0
0.005478 0.393098 2.140000 255 0 0
0.011351 0.393832 2.144000 255 0 0
0.017254 0.394749 2.149000 255 0 0
0.023206 0.396033 2.156000 255 0 0
0.029169 0.396950 2.161000 255 0 0
0.035159 0.397866 2.166000 255 0 0
0.041138 0.398414 2.169000 255 0 0
0.047199 0.399513 2.175000 255 0 0
0.053244 0.400243 2.179000 255 0 0
0.059283 0.400790 2.182000 255 0 0
0.065398 0.401704 2.187000 255 0 0
0.071769 0.403902 2.199000 255 0 0
0.078417 0.407203 2.217000 255 0 0
0.084859 0.409033 2.227000 255 0 0
0.091151 0.409945 2.232000 255 0 0
0.097208 0.409754 2.231000 255 0 0
0.103306 0.409746 2.231000 255 0 0
0.109159 0.408819 2.226000 255 0 0
0.115087 0.408260 2.223000 255 0 0
0.121053 0.407884 2.221000 255 0 0
0.127065 0.407690 2.220000 255 0 0
0.133311 0.408231 2.223000 255 0 0
0.139635 0.408956 2.227000 255 0 0
0.146112 0.410046 2.233000 255 0 0
0.152621 0.411137 2.239000 255 0 0
0.159942 0.414247 2.256000 255 0 0
-0.106031 0.440646 2.346475 255 255 0
-0.094554 0.439682 2.341588 255 255 0
-0.082230 0.438826 2.337346 255 255 0
-0.072511 0.437681 2.331347 255 255 0
-0.063666 0.436442 2.324777 255 255 0
-0.053971 0.435309 2.318846 255 255 0
-0.035697 0.435194 2.319055 255 255 0
-0.020029 0.434790 2.317510 255 255 0
-0.007815 0.433992 2.313574 255 255 0
0.000096 0.432692 2.306598 255 255 0
0.007143 0.431293 2.299026 255 255 0
0.016747 0.430209 2.293344 255 255 0
0.039146 0.430688 2.297079 255 255 0
0.062358 0.431291 2.301553 255 255 0
0.079564 0.431184 2.301728 255 255 0
0.089932 0.430251 2.296919 255 255 0
0.098585 0.429114 2.290877 255 255 0
0.097884 0.426818 2.277847 255 255 0
0.099737 0.424838 2.266712 255 255 0
-0.284097 0.349550 2.216431 0 255 0
-0.288129 0.352942 2.231477 0 255 0
-0.286972 0.355341 2.242630 0 255 0
-0.271936 0.355121 2.243546 0 255 0
-0.246457 0.352962 2.236896 0 255 0
-0.233979 0.353268 2.239882 0 255 0
-0.225833 0.354396 2.246077 0 255 0
-0.224645 0.356823 2.257329 0 255 0
-0.210389 0.356835 2.259177 0 255 0
-0.195242 0.356702 2.260466 0 255 0
-0.183565 0.357224 2.264307 0 255 0
-0.183232 0.359827 2.276237 0 255 0
-0.182029 0.362269 2.287534 0 255 0
-0.177329 0.364077 2.296365 0 255 0
-0.167371 0.364943 2.301539 0 255 0
-0.167921 0.367702 2.314052 0 255 0
-0.157948 0.368580 2.319273 0 255 0
-0.149719 0.369778 2.325740 0 255 0
-0.133572 0.369585 2.326829 0 255 0
-0.128838 0.371423 2.335770 0 255 0
-0.120579 0.372646 2.342337 0 255 0
-0.114074 0.374184 2.350118 0 255 0
-0.099627 0.374347 2.352606 0 255 0
-0.085160 0.374525 2.355158 0 255 0
-0.065373 0.373803 2.354263 0 255 0
-0.049978 0.373862 2.356379 0 255 0
-0.351246 0.400307 2.216000 255 0 0
-0.343503 0.398342 2.205000 255 0 0
-0.336430 0.397099 2.198000 255 0 0
-0.329846 0.396398 2.194000 255 0 0
-0.323135 0.395516 2.189000 255 0 0
-0.317320 0.395718 2.190000 255 0 0
-0.311215 0.395559 2.189000 255 0 0
-0.305114 0.395399 2.188000 255 0 0
-0.298744 0.394877 2.185000 255 0 0
-0.292657 0.394716 2.184000 255 0 0
-0.286576 0.394555 2.183000 255 0 0
-0.280113 0.393852 2.179000 255 0 0
-0.274174 0.393871 2.179000 255 0 0
-0.268974 0.394974 2.185000 255 0 0
-0.263740 0.396077 2.191000 255 0 0
-0.258119 0.396638 2.194000 255 0 0
-0.252941 0.397921 2.201000 255 0 0
-0.247724 0.399205 2.208000 255 0 0
-0.241264 0.398499 2.204000 255 0 0
-0.233331 0.395261 2.186000 255 0 0
-0.226015 0.392927 2.173000 255 0 0
-0.219479 0.391858 2.167000 255 0 0
-0.213467 0.391693 2.166000 255 0 0
-0.207173 0.390985 2.162000 255 0 0
-0.200713 0.389914 2.156000 255 0 0
-0.194286 0.388844 2.150000 255 0 0
-0.188242 0.388496 2.148000 255 0 0
-0.182207 0.388148 2.146000 255 0 0
-0.176266 0.387980 2.145000 255 0 0
-0.170170 0.387450 2.142000 255 0 0
-0.164397 0.387644 2.143000 255 0 0
-0.158544 0.387656 2.143000 255 0 0
-0.152762 0.387848 2.144000 255 0 0
-0.146836 0.387679 2.143000 255 0 0
-0.141113 0.388051 2.145000 255 0 0
-0.135190 0.387881 2.144000 255 0 0
-0.129452 0.388253 2.146000 255 0 0
-0.123646 0.388443 2.147000 255 0 0
-0.117943 0.388995 2.150000 255 0 0
-0.112015 0.388823 2.149000 255 0 0
-0.105993 0.388288 2.146000 255 0 0
-0.100034 0.387934 2.144000 255 0 0
-0.093998 0.387218 2.140000 255 0 0
-0.088107 0.387044 2.139000 255 0 0
-0.082106 0.386327 2.135000 255 0 0
-0.076162 0.385790 2.132000 255 0 0
-0.070267 0.385434 2.130000 255 0 0
-0.064504 0.385801 2.132000 255 0 0
-0.058729 0.386168 2.134000 255 0 0
-0.052894 0.386172 2.134000 255 0 0
-0.047037 0.385995 2.133000 255 0 0
-0.041204 0.385998 2.133000 255 0 0
-0.035405 0.386363 2.135000 255 0 0
-0.029580 0.386547 2.136000 255 0 0
-0.023728 0.386368 2.135000 255 0 0
-0.017889 0.386369 2.135000 255 0 0
-0.012051 0.386370 2.135000 255 0 0
-0.006215 0.386552 2.136000 255 0 0
-0.000374 0.386914 2.138000 255 0 0
0.005489 0.388000 2.144000 255 0 0
0.011373 0.388723 2.148000 255 0 0
0.017287 0.389627 2.153000 255 0 0
0.023240 0.390711 2.159000 255 0 0
0.029212 0.391614 2.164000 255 0 0
0.035210 0.392516 2.169000 255 0 0
0.041237 0.393418 2.174000 255 0 0
0.047290 0.394320 2.179000 255 0 0
0.053321 0.394859 2.182000 255 0 0
0.059369 0.395397 2.185000 255 0 0
0.065643 0.397202 2.195000 255 0 0
0.072232 0.400454 2.213000 255 0 0
0.078883 0.403524 2.230000 255 0 0
0.085132 0.404242 2.234000 255 0 0
0.091321 0.404597 2.236000 255 0 0
0.097303 0.404047 2.233000 255 0 0
0.103407 0.404039 2.233000 255 0 0
0.109265 0.403126 2.228000 255 0 0
0.115251 0.402756 2.226000 255 0 0
0.121117 0.402023 2.222000 255 0 0
0.127189 0.402014 2.222000 255 0 0
0.133321 0.402185 2.223000 255 0 0
0.139771 0.403260 2.229000 255 0 0
0.146123 0.403973 2.233000 255 0 0
0.152496 0.404685 2.237000 255 0 0
0.158820 0.405216 2.240000 255 0 0
-0.106792 0.429672 2.347183 255 255 0
-0.092726 0.429034 2.344075 255 255 0
-0.082994 0.427899 2.338029 255 255 0
-0.074137 0.426668 2.331416 255 255 0
-0.068733 0.425032 2.322413 255 255 0
-0.057315 0.424121 2.317673 255 255 0
-0.035608 0.424462 2.320296 255 255 0
-0.017371 0.424406 2.320575 255 255 0
-0.012020 0.422798 2.311717 255 255 0
-0.009241 0.420878 2.301016 255 255 0
-0.002185 0.419484 2.293410 255 255 0
0.014262 0.419260 2.292671 255 255 0
0.041776 0.420432 2.300131 255 255 0
0.069240 0.421630 2.307731 255 255 0
0.086433 0.421567 2.307912 255 255 0
0.090837 0.419903 2.298686 255 255 0
0.100337 0.418890 2.293274 255 255 0
0.099638 0.416581 2.280248 255 255 0
0.104037 0.414923 2.271035 255 255 0
-0.277214 0.340501 2.224512 0 255 0
-0.274312 0.342580 2.234419 0 255 0
-0.261005 0.342666 2.236664 0 255 0
-0.239001 0.341110 2.232611 0 255 0
-0.225652 0.341229 2.234998 0 255 0
-0.215762 0.342020 2.239965 0 255 0
-0.211952 0.343967 2.249367 0 255 0
-0.200304 0.344446 2.253143 0 255 0
-0.186896 0.344610 2.255721 0 255 0
-0.183941 0.346736 2.265802 0 255 0
-0.184477 0.349511 2.278351 0 255 0
-0.182400 0.351797 2.289032 0 255 0
-0.179448 0.353923 2.299094 0 255 0
-0.169495 0.354768 2.304273 0 255 0
-0.167414 0.357059 2.314958 0 255 0
-0.154813 0.357440 2.318376 0 255 0
-0.149217 0.359102 2.326670 0 255 0
-0.132197 0.358714 2.327176 0 255 0
-0.126583 0.360391 2.335531 0 255 0
-0.117443 0.361445 2.341517 0 255 0
-0.112698 0.363288 2.350502 0 255 0
-0.098254 0.363420 2.353007 0 255 0
-0.081144 0.363100 2.353816 0 255 0
-0.064894 0.362954 2.355289 0 255 0
-0.050388 0.363132 2.358002 0 255 0
-0.350476 0.393393 2.211000 255 0 0
-0.343057 0.391814 2.202000 255 0 0
-0.335993 0.390590 2.195000 255 0 0
-0.329717 0.390256 2.193000 255 0 0
-0.323304 0.389743 2.190000 255 0 0
-0.317341 0.389764 2.190000 255 0 0
-0.311235 0.389607 2.189000 255 0 0
-0.305274 0.389628 2.189000 255 0 0
-0.299037 0.389292 2.187000 255 0 0
-0.292811 0.388956 2.185000 255 0 0
-0.286727 0.388797 2.184000 255 0 0
-0.280389 0.388282 2.181000 255 0 0
-0.274571 0.388479 2.182000 255 0 0
-0.268992 0.389032 2.185000 255 0 0
-0.263758 0.390119 2.191000 255 0 0
-0.258490 0.391205 2.197000 255 0 0
-0.253534 0.392826 2.206000 255 0 0
-0.248190 0.393912 2.212000 255 0 0
-0.241391 0.392683 2.205000 255 0 0
-0.233561 0.389672 2.188000 255 0 0
-0.226343 0.387551 2.176000 255 0 0
-0.219798 0.386498 2.170000 255 0 0
-0.213680 0.386158 2.168000 255 0 0
-0.207475 0.385638 2.165000 255 0 0
-0.201193 0.384941 2.161000 255 0 0
-0.194752 0.383886 2.155000 255 0 0
-0.188518 0.383188 2.151000 255 0 0
-0.182391 0.382667 2.148000 255 0 0
-0.176361 0.382324 2.146000 255 0 0
-0.170341 0.381980 2.144000 255 0 0
-0.164562 0.382170 2.145000 255 0 0
-0.158778 0.382361 2.146000 255 0 0
-0.152915 0.382372 2.146000 255 0 0
-0.146984 0.382205 2.145000 255 0 0
-0.141321 0.382750 2.148000 255 0 0
-0.135452 0.382761 2.148000 255 0 0
-0.129643 0.382949 2.149000 255 0 0
-0.123770 0.382958 2.149000 255 0 0
-0.117952 0.383146 2.150000 255 0 0
-0.112024 0.382976 2.149000 255 0 0
-0.106001 0.382450 2.146000 255 0 0
-0.100089 0.382279 2.145000 255 0 0
-0.094093 0.381752 2.142000 255 0 0
-0.088196 0.381581 2.141000 255 0 0
-0.082227 0.381053 2.138000 255 0 0
-0.076310 0.380702 2.136000 255 0 0
-0.070437 0.380529 2.135000 255 0 0
-0.064569 0.380356 2.134000 255 0 0
-0.058789 0.380718 2.136000 255 0 0
-0.052973 0.380900 2.137000 255 0 0
-0.047129 0.380904 2.137000 255 0 0
-0.041265 0.380729 2.136000 255 0 0
-0.035424 0.380732 2.136000 255 0 0
-0.029596 0.380913 2.137000 255 0 0
-0.023763 0.381093 2.138000 255 0 0
-0.017907 0.380917 2.137000 255 0 0
-0.012068 0.381096 2.138000 255 0 0
-0.006221 0.381097 2.138000 255 0 0
-0.000375 0.382166 2.144000 255 0 0
0.005502 0.383057 2.149000 255 0 0
0.011411 0.384126 2.155000 255 0 0
0.017329 0.384660 2.158000 255 0 0
0.023274 0.385371 2.162000 255 0 0
0.029214 0.385726 2.164000 255 0 0
0.035229 0.386793 2.170000 255 0 0
0.041297 0.388038 2.177000 255 0 0
0.047380 0.389104 2.183000 255 0 0
0.053423 0.389634 2.186000 255 0 0
0.059564 0.390700 2.192000 255 0 0
0.065977 0.393190 2.206000 255 0 0
0.072759 0.397284 2.229000 255 0 0
0.079208 0.399061 2.239000 255 0 0
0.085329 0.399054 2.239000 255 0 0
0.091410 0.398870 2.238000 255 0 0
0.097485 0.398684 2.237000 255 0 0
0.103507 0.398320 2.235000 255 0 0
0.109372 0.397421 2.230000 255 0 0
0.115312 0.396878 2.227000 255 0 0
0.121180 0.396156 2.223000 255 0 0
0.127256 0.396147 2.223000 255 0 0
0.133511 0.396671 2.226000 255 0 0
0.139970 0.397730 2.232000 255 0 0
0.146199 0.398076 2.234000 255 0 0
0.152371 0.398243 2.235000 255 0 0
0.158264 0.397697 2.232000 255 0 0
-0.102366 0.419302 2.351461 255 255 0
-0.083994 0.419217 2.351337 255 255 0
-0.071687 0.418417 2.347105 255 255 0
-0.068009 0.416577 2.336905 255 255 0
-0.065192 0.414633 2.326101 255 255 0
-0.055499 0.413535 2.320148 255 255 0
-0.038093 0.413400 2.319712 255 255 0
-0.019859 0.413386 2.319970 255 255 0
-0.016218 0.411567 2.309869 255 255 0
-0.010010 0.410072 2.301620 255 255 0
0.003031 0.409444 2.298339 255 255 0
0.023737 0.409803 2.300710 255 255 0
0.046965 0.410507 2.305054 255 255 0
0.069300 0.411123 2.308887 255 255 0
0.088190 0.411321 2.310313 255 255 0
0.094293 0.409881 2.302350 255 255 0
0.101241 0.408555 2.295037 255 255 0
0.100545 0.406232 2.282012 255 255 0
0.099858 0.403906 2.268960 255 255 0
-0.268045 0.328322 2.218853 0 255 0
-0.268597 0.331086 2.231351 0 255 0
-0.260490 0.332158 2.237452 0 255 0
-0.241966 0.331220 2.235960 0 255 0
-0.221679 0.329967 2.233293 0 255 0
-0.161142 0.329147 2.238549 0 255 0
-0.187470 0.339518 2.281700 0 255 0
-0.186265 0.341970 2.292992 0 255 0
-0.179820 0.343442 2.300600 0 255 0
-0.170744 0.344430 2.306397 0 255 0
-0.168663 0.346724 2.317083 0 255 0
-0.156943 0.347239 2.321115 0 255 0
-0.151348 0.348894 2.329409 0 255 0
-0.136971 0.348946 2.331724 0 255 0
-0.133118 0.350935 2.341264 0 255 0
-0.123987 0.351967 2.347243 0 255 0
-0.116606 0.353326 2.354440 0 255 0
-0.099528 0.352948 2.355181 0 255 0
-0.081545 0.352430 2.355416 0 255 0
-0.067948 0.352717 2.358656 0 255 0
-0.350023 0.386856 2.208000 255 0 0
-0.343079 0.385827 2.202000 255 0 0
-0.336015 0.384622 2.195000 255 0 0
-0.329739 0.384293 2.193000 255 0 0
-0.323178 0.383613 2.189000 255 0 0
-0.317072 0.383459 2.188000 255 0 0
-0.311114 0.383479 2.188000 255 0 0
-0.305294 0.383675 2.189000 255 0 0
-0.299331 0.383695 2.189000 255 0 0
-0.293099 0.383364 2.187000 255 0 0
-0.286877 0.383033 2.185000 255 0 0
-0.280537 0.382526 2.182000 255 0 0
-0.274715 0.382720 2.183000 255 0 0
-0.269257 0.383440 2.187000 255 0 0
-0.264017 0.384510 2.193000 255 0 0
-0.258861 0.385756 2.200000 255 0 0
-0.253896 0.387352 2.209000 255 0 0
-0.248320 0.388070 2.213000 255 0 0
-0.241627 0.387035 2.207000 255 0 0
-0.233898 0.384246 2.191000 255 0 0
-0.226880 0.382509 2.181000 255 0 0
-0.220320 0.381472 2.175000 255 0 0
-0.214188 0.381137 2.173000 255 0 0
-0.208065 0.380801 2.171000 255 0 0
-0.201674 0.379939 2.166000 255 0 0
-0.195128 0.378725 2.159000 255 0 0
-0.189058 0.378388 2.157000 255 0 0
-0.182744 0.377524 2.152000 255 0 0
-0.176702 0.377187 2.150000 255 0 0
-0.170672 0.376848 2.148000 255 0 0
-0.164805 0.376861 2.148000 255 0 0
-0.159011 0.377048 2.149000 255 0 0
-0.153069 0.376884 2.148000 255 0 0
-0.147269 0.377070 2.149000 255 0 0
-0.141529 0.377432 2.151000 255 0 0
-0.135715 0.377618 2.152000 255 0 0
-0.129894 0.377803 2.153000 255 0 0
-0.124010 0.377813 2.153000 255 0 0
-0.118016 0.377471 2.151000 255 0 0
-0.112032 0.377128 2.149000 255 0 0
-0.105960 0.376435 2.145000 255 0 0
-0.100050 0.376267 2.144000 255 0 0
-0.094144 0.376099 2.143000 255 0 0
-0.088244 0.375930 2.142000 255 0 0
-0.082349 0.375761 2.141000 255 0 0
-0.076423 0.375416 2.139000 255 0 0
-0.070509 0.375070 2.137000 255 0 0
-0.064604 0.374724 2.135000 255 0 0
-0.058821 0.375080 2.137000 255 0 0
-0.052977 0.375084 2.137000 255 0 0
-0.047132 0.375088 2.137000 255 0 0
-0.041269 0.374916 2.136000 255 0 0
-0.035460 0.375270 2.138000 255 0 0
-0.029612 0.375273 2.138000 255 0 0
-0.023787 0.375626 2.140000 255 0 0
-0.017942 0.375803 2.141000 255 0 0
-0.012081 0.375628 2.140000 255 0 0
-0.006233 0.375980 2.142000 255 0 0
-0.000375 0.376858 2.147000 255 0 0
0.005515 0.378087 2.154000 255 0 0
0.011428 0.378788 2.158000 255 0 0
0.017362 0.379489 2.162000 255 0 0
0.023319 0.380190 2.166000 255 0 0
0.029297 0.380890 2.170000 255 0 0
0.035297 0.381589 2.174000 255 0 0
0.041357 0.382639 2.180000 255 0 0
0.047406 0.383338 2.184000 255 0 0
0.053501 0.384212 2.189000 255 0 0
0.059813 0.386314 2.201000 255 0 0
0.066490 0.390170 2.223000 255 0 0
0.073287 0.394026 2.245000 255 0 0
0.079532 0.394547 2.248000 255 0 0
0.085488 0.393663 2.243000 255 0 0
0.091417 0.392779 2.238000 255 0 0
0.097579 0.392948 2.239000 255 0 0
0.103561 0.392414 2.236000 255 0 0
0.109429 0.391528 2.231000 255 0 0
0.115165 0.390291 2.224000 255 0 0
0.121135 0.389931 2.222000 255 0 0
0.127437 0.390624 2.226000 255 0 0
0.133701 0.391141 2.229000 255 0 0
0.140168 0.392183 2.235000 255 0 0
0.146341 0.392348 2.236000 255 0 0
0.152587 0.392688 2.238000 255 0 0
0.158701 0.392677 2.238000 255 0 0
-0.117201 0.408896 2.355357 255 255 0
-0.098807 0.408840 2.355142 255 255 0
-0.083032 0.408481 2.353224 255 255 0
-0.071590 0.407600 2.348384 255 255 0
-0.066189 0.405975 2.339383 255 255 0
-0.065951 0.403704 2.326770 255 255 0
-0.057118 0.402515 2.320198 255 255 0
-0.041431 0.402202 2.318526 255 255 0
-0.023199 0.402230 2.318758 255 255 0
-0.019553 0.400409 2.308643 255 255 0
-0.009065 0.399469 2.303458 255 255 0
0.003117 0.398759 2.299550 255 255 0
0.024669 0.399281 2.302526 255 255 0
0.049593 0.400268 2.308102 255 255 0
0.075323 0.401390 2.314429 255 255 0
0.091648 0.401300 2.313971 255 255 0
0.099448 0.400094 2.307275 255 255 0
0.104692 0.398554 2.298702 255 255 0
0.104844 0.396333 2.286321 255 255 0
-0.250582 0.311737 2.194861 0 255 0
-0.264943 0.317284 2.217705 0 255 0
-0.268085 0.320576 2.232133 0 255 0
-0.267773 0.323177 2.243974 0 255 0
-0.256198 0.323555 2.247552 0 255 0
-0.116271 0.309823 2.207747 0 255 0
-0.183485 0.328194 2.280117 0 255 0
-0.183147 0.330822 2.292037 0 255 0
-0.181067 0.333116 2.302718 0 255 0
-0.172869 0.334252 2.309131 0 255 0
-0.165537 0.335560 2.316179 0 255 0
-0.153818 0.336053 2.320232 0 255 0
-0.149098 0.337867 2.329143 0 255 0
-0.140865 0.339031 2.335669 0 255 0
-0.136135 0.340852 2.344607 0 255 0
-0.127009 0.341867 2.350587 0 255 0
-0.119632 0.343212 2.357784 0 255 0
-0.101684 0.342631 2.357944 0 255 0
-0.086353 0.342551 2.359947 0 255 0
-0.071002 0.342486 2.362021 0 255 0
-0.349728 0.380507 2.206000 255 0 0
-0.343101 0.379838 2.202000 255 0 0
-0.336342 0.378998 2.197000 255 0 0
-0.330061 0.378674 2.195000 255 0 0
-0.323642 0.378177 2.192000 255 0 0
-0.317093 0.377508 2.188000 255 0 0
-0.310992 0.377356 2.187000 255 0 0
-0.305175 0.377548 2.188000 255 0 0
-0.299214 0.377568 2.188000 255 0 0
-0.293387 0.377760 2.189000 255 0 0
-0.287290 0.377607 2.188000 255 0 0
-0.281070 0.377281 2.186000 255 0 0
-0.274986 0.377127 2.185000 255 0 0
-0.269522 0.377836 2.189000 255 0 0
-0.264396 0.379062 2.196000 255 0 0
-0.259232 0.380289 2.203000 255 0 0
-0.254488 0.382205 2.214000 255 0 0
-0.249347 0.383604 2.222000 255 0 0
-0.243067 0.383275 2.220000 255 0 0
-0.235302 0.380530 2.204000 255 0 0
-0.227832 0.378129 2.190000 255 0 0
-0.221045 0.376763 2.182000 255 0 0
-0.214794 0.376260 2.179000 255 0 0
-0.208367 0.375412 2.174000 255 0 0
-0.202060 0.374736 2.170000 255 0 0
-0.195503 0.373541 2.163000 255 0 0
-0.189597 0.373555 2.163000 255 0 0
-0.183181 0.372532 2.157000 255 0 0
-0.176797 0.371509 2.151000 255 0 0
-0.170684 0.371003 2.148000 255 0 0
-0.164893 0.371188 2.149000 255 0 0
-0.159245 0.371718 2.152000 255 0 0
-0.153294 0.371556 2.151000 255 0 0
-0.147486 0.371740 2.152000 255 0 0
-0.141605 0.371751 2.152000 255 0 0
-0.135851 0.372107 2.154000 255 0 0
-0.129964 0.372116 2.154000 255 0 0
-0.124077 0.372126 2.154000 255 0 0
-0.118134 0.371962 2.153000 255 0 0
-0.112145 0.371625 2.151000 255 0 0
-0.106166 0.371287 2.149000 255 0 0
-0.100104 0.370604 2.145000 255 0 0
-0.094239 0.370611 2.145000 255 0 0
-0.088292 0.370273 2.143000 255 0 0
-0.082432 0.370279 2.143000 255 0 0
-0.076501 0.369939 2.141000 255 0 0
-0.070580 0.369599 2.139000 255 0 0
-0.064700 0.369431 2.138000 255 0 0
-0.058880 0.369609 2.139000 255 0 0
-0.053030 0.369613 2.139000 255 0 0
-0.047224 0.369963 2.141000 255 0 0
-0.041330 0.369620 2.139000 255 0 0
-0.035479 0.369623 2.139000 255 0 0
-0.029628 0.369626 2.139000 255 0 0
-0.023811 0.370146 2.142000 255 0 0
-0.017952 0.370148 2.142000 255 0 0
-0.012093 0.370149 2.142000 255 0 0
-0.006242 0.370668 2.145000 255 0 0
-0.000376 0.371878 2.152000 255 0 0
0.005526 0.372914 2.158000 255 0 0
0.011445 0.373432 2.161000 255 0 0
0.017380 0.373949 2.164000 255 0 0
0.023353 0.374812 2.169000 255 0 0
0.029326 0.375328 2.172000 255 0 0
0.035365 0.376363 2.178000 255 0 0
0.041436 0.377397 2.184000 255 0 0
0.047561 0.378603 2.191000 255 0 0
0.053725 0.379809 2.198000 255 0 0
0.060198 0.382742 2.215000 255 0 0
0.067004 0.387057 2.240000 255 0 0
0.073685 0.389989 2.257000 255 0 0
0.079680 0.389120 2.252000 255 0 0
0.085609 0.388077 2.246000 255 0 0
0.091546 0.387206 2.241000 255 0 0
0.097717 0.387372 2.242000 255 0 0
0.103662 0.386673 2.238000 255 0 0
0.109437 0.385456 2.231000 255 0 0
0.115225 0.384411 2.225000 255 0 0
0.121253 0.384229 2.224000 255 0 0
0.127561 0.384911 2.228000 255 0 0
0.133770 0.385247 2.230000 255 0 0
0.139990 0.385582 2.232000 255 0 0
0.146286 0.386090 2.235000 255 0 0
0.152734 0.386943 2.240000 255 0 0
-0.115361 0.398182 2.357859 255 255 0
-0.097838 0.398062 2.357041 255 255 0
-0.084655 0.397412 2.353326 255 255 0
-0.074074 0.396443 2.347874 255 255 0
-0.066950 0.395041 2.340060 255 255 0
-0.065848 0.392870 2.328045 255 255 0
-0.053582 0.392139 2.323887 255 255 0
-0.035331 0.392198 2.324036 255 255 0
-0.017112 0.392273 2.324271 255 255 0
-0.016893 0.390005 2.311717 255 255 0
-0.006409 0.389087 2.306530 255 255 0
0.006621 0.388517 2.303237 255 255 0
0.031573 0.389549 2.308687 255 255 0
0.054776 0.390376 2.313017 255 255 0
0.093404 0.391058 2.316370 255 255 0
0.106298 0.390559 2.313455 255 255 0
0.111535 0.389026 2.304898 255 255 0
0.104903 0.385867 2.287450 255 255 0
-0.274264 0.306051 2.213677 0 255 0
-0.276536 0.309187 2.227466 0 255 0
-0.277088 0.311969 2.239942 0 255 0
-0.273319 0.313878 2.249216 0 255 0
-0.258287 0.313535 2.250255 0 255 0
-0.165924 0.311471 2.256698 0 255 0
-0.182652 0.320150 2.292931 0 255 0
-0.180570 0.322448 2.303617 0 255 0
-0.176741 0.324410 2.313081 0 255 0
-0.166790 0.325202 2.318309 0 255 0
-0.155952 0.325836 2.322973 0 255 0
-0.147728 0.326980 2.329484 0 255 0
-0.142126 0.328628 2.337816 0 255 0
-0.134765 0.329949 2.344972 0 255 0
-0.125640 0.330948 2.350967 0 255 0
-0.114746 0.331626 2.355815 0 255 0
-0.098561 0.331332 2.357182 0 255 0
-0.086756 0.331871 2.361550 0 255 0
-0.074055 0.332259 2.365385 0 255 0
-0.357526 0.376352 2.217000 255 0 0
-0.349750 0.374507 2.206000 255 0 0
-0.343123 0.373849 2.202000 255 0 0
-0.336517 0.373192 2.198000 255 0 0
-0.330232 0.372873 2.196000 255 0 0
-0.323515 0.372045 2.191000 255 0 0
-0.317114 0.371556 2.188000 255 0 0
-0.311154 0.371576 2.188000 255 0 0
-0.305195 0.371596 2.188000 255 0 0
-0.299370 0.371786 2.189000 255 0 0
-0.293540 0.371975 2.190000 255 0 0
-0.287441 0.371825 2.189000 255 0 0
-0.281217 0.371504 2.187000 255 0 0
-0.275130 0.371352 2.186000 255 0 0
-0.269663 0.372050 2.190000 255 0 0
-0.264535 0.373257 2.197000 255 0 0
-0.259485 0.374634 2.205000 255 0 0
-0.254966 0.376860 2.218000 255 0 0
-0.250487 0.379257 2.232000 255 0 0
-0.244617 0.379613 2.234000 255 0 0
-0.236920 0.377081 2.219000 255 0 0
-0.229408 0.374718 2.205000 255 0 0
-0.222175 0.372694 2.193000 255 0 0
-0.215795 0.372030 2.189000 255 0 0
-0.209149 0.370855 2.182000 255 0 0
-0.202633 0.369850 2.176000 255 0 0
-0.196150 0.368844 2.170000 255 0 0
-0.190049 0.368518 2.168000 255 0 0
-0.183449 0.367171 2.160000 255 0 0
-0.177057 0.366164 2.154000 255 0 0
-0.170855 0.365497 2.150000 255 0 0
-0.165059 0.365679 2.151000 255 0 0
-0.159256 0.365860 2.152000 255 0 0
-0.153448 0.366042 2.153000 255 0 0
-0.147634 0.366223 2.154000 255 0 0
-0.141813 0.366403 2.155000 255 0 0
-0.135924 0.366413 2.155000 255 0 0
-0.130094 0.366593 2.156000 255 0 0
-0.124143 0.366432 2.155000 255 0 0
-0.118198 0.366271 2.154000 255 0 0
-0.112205 0.365939 2.152000 255 0 0
-0.106223 0.365607 2.150000 255 0 0
-0.100251 0.365275 2.148000 255 0 0
-0.094334 0.365112 2.147000 255 0 0
-0.088422 0.364949 2.146000 255 0 0
-0.082515 0.364785 2.145000 255 0 0
-0.076578 0.364451 2.143000 255 0 0
-0.070585 0.363776 2.139000 255 0 0
-0.064735 0.363781 2.139000 255 0 0
-0.058912 0.363956 2.140000 255 0 0
-0.053084 0.364130 2.141000 255 0 0
-0.047272 0.364474 2.143000 255 0 0
-0.041391 0.364307 2.142000 255 0 0
-0.035532 0.364310 2.142000 255 0 0
-0.029672 0.364312 2.142000 255 0 0
-0.023835 0.364654 2.144000 255 0 0
-0.017978 0.364826 2.145000 255 0 0
-0.012105 0.364657 2.144000 255 0 0
-0.006246 0.364998 2.146000 255 0 0
-0.000376 0.366019 2.152000 255 0 0
0.005524 0.366869 2.157000 255 0 0
0.011440 0.367379 2.160000 255 0 0
0.017381 0.368058 2.164000 255 0 0
0.023365 0.369077 2.170000 255 0 0
0.029369 0.369925 2.175000 255 0 0
0.035400 0.370773 2.180000 255 0 0
0.041496 0.371961 2.187000 255 0 0
0.047652 0.373318 2.195000 255 0 0
0.053924 0.375185 2.206000 255 0 0
0.060556 0.378923 2.228000 255 0 0
0.067487 0.383680 2.256000 255 0 0
0.073984 0.385375 2.266000 255 0 0
0.079863 0.383839 2.257000 255 0 0
0.085730 0.382472 2.249000 255 0 0
0.091717 0.381785 2.245000 255 0 0
0.097812 0.381608 2.244000 255 0 0
0.103670 0.380581 2.238000 255 0 0
0.109396 0.379212 2.230000 255 0 0
0.115234 0.378354 2.225000 255 0 0
0.121371 0.378515 2.226000 255 0 0
0.127685 0.379186 2.230000 255 0 0
0.133720 0.379007 2.229000 255 0 0
0.139813 0.378997 2.229000 255 0 0
0.146362 0.380176 2.236000 255 0 0
0.153018 0.381526 2.244000 255 0 0
0.159859 0.383215 2.254000 255 0 0
-0.115249 0.387245 2.359182 255 255 0
-0.096006 0.387389 2.359535 255 255 0
-0.083689 0.386656 2.355219 255 255 0
-0.075694 0.385371 2.347967 255 255 0
-0.070287 0.383753 2.338941 255 255 0
-0.068320 0.381684 2.327516 255 255 0
-0.057770 0.380750 2.322130 255 255 0
-0.036950 0.381193 2.324073 255 255 0
-0.011885 0.382227 2.329168 255 255 0
-0.014234 0.379605 2.314790 255 255 0
-0.004609 0.378594 2.308986 255 255 0
0.007563 0.377936 2.305069 255 255 0
0.041883 0.380313 2.317323 255 255 0
0.068472 0.381671 2.324153 255 255 0
0.092461 0.382703 2.329246 255 255 0
0.100259 0.381522 2.322535 255 255 0
0.110596 0.380700 2.317739 255 255 0
0.115829 0.379174 2.309188 255 255 0
0.111741 0.376342 2.293662 255 255 0
-0.285295 0.295208 2.210958 0 255 0
-0.281526 0.297112 2.220240 0 255 0
-0.283799 0.300261 2.234007 0 255 0
-0.277440 0.301634 2.241361 0 255 0
-0.273670 0.303541 2.250639 0 255 0
-0.257779 0.302988 2.251059 0 255 0
-0.173283 0.302267 2.263159 0 255 0
-0.182505 0.306815 2.281898 0 255 0
-0.182161 0.309462 2.293828 0 255 0
-0.186183 0.312962 2.308790 0 255 0
-0.180612 0.314578 2.317028 0 255 0
-0.169793 0.315178 2.321651 0 255 0
-0.156336 0.315281 2.324511 0 255 0
-0.147239 0.316241 2.330430 0 255 0
-0.139008 0.317378 2.336980 0 255 0
-0.131645 0.318690 2.344153 0 255 0
-0.126030 0.320342 2.352535 0 255 0
-0.118654 0.321665 2.359752 0 255 0
-0.104237 0.321664 2.362298 0 255 0
-0.091561 0.322010 2.366077 0 255 0
-0.077106 0.322037 2.368748 0 255 0
-0.062632 0.322080 2.371483 0 255 0
-0.356742 0.369487 2.212000 255 0 0
-0.349454 0.368172 2.204000 255 0 0
-0.342832 0.367525 2.200000 255 0 0
-0.336385 0.367045 2.197000 255 0 0
-0.330103 0.366732 2.195000 255 0 0
-0.323683 0.366251 2.192000 255 0 0
-0.316989 0.365436 2.187000 255 0 0
-0.311032 0.365456 2.187000 255 0 0
-0.305354 0.365810 2.189000 255 0 0
-0.299527 0.365997 2.190000 255 0 0
-0.293693 0.366183 2.191000 255 0 0
-0.287591 0.366035 2.190000 255 0 0
-0.281622 0.366054 2.190000 255 0 0
-0.275778 0.366240 2.191000 255 0 0
-0.270174 0.366759 2.194000 255 0 0
-0.265034 0.367947 2.201000 255 0 0
-0.259973 0.369302 2.209000 255 0 0
-0.255673 0.371827 2.224000 255 0 0
-0.251514 0.374687 2.241000 255 0 0
-0.246057 0.375707 2.247000 255 0 0
-0.238431 0.373383 2.233000 255 0 0
-0.230777 0.370890 2.218000 255 0 0
-0.223508 0.368899 2.206000 255 0 0
-0.216698 0.367577 2.198000 255 0 0
-0.210026 0.366421 2.191000 255 0 0
-0.203206 0.364930 2.182000 255 0 0
-0.196797 0.364108 2.177000 255 0 0
-0.190326 0.363118 2.171000 255 0 0
-0.183717 0.361793 2.163000 255 0 0
-0.177152 0.360468 2.155000 255 0 0
-0.171026 0.359978 2.152000 255 0 0
-0.165147 0.359990 2.152000 255 0 0
-0.159342 0.360169 2.153000 255 0 0
-0.153673 0.360682 2.156000 255 0 0
-0.147850 0.360860 2.157000 255 0 0
-0.142021 0.361038 2.158000 255 0 0
-0.135997 0.360713 2.156000 255 0 0
-0.130043 0.360556 2.155000 255 0 0
-0.124152 0.360565 2.155000 255 0 0
-0.118261 0.360574 2.155000 255 0 0
-0.112317 0.360415 2.154000 255 0 0
-0.106231 0.359753 2.150000 255 0 0
-0.100212 0.359259 2.147000 255 0 0
-0.094297 0.359099 2.146000 255 0 0
-0.088470 0.359273 2.147000 255 0 0
-0.082560 0.359112 2.146000 255 0 0
-0.076583 0.358615 2.143000 255 0 0
-0.070623 0.358119 2.140000 255 0 0
-0.064800 0.358291 2.141000 255 0 0
-0.059027 0.358798 2.144000 255 0 0
-0.053187 0.358969 2.145000 255 0 0
-0.047342 0.359140 2.146000 255 0 0
-0.041432 0.358809 2.144000 255 0 0
-0.035567 0.358812 2.144000 255 0 0
-0.029702 0.358814 2.144000 255 0 0
-0.023848 0.358984 2.145000 255 0 0
-0.017988 0.359152 2.146000 255 0 0
-0.012123 0.359321 2.147000 255 0 0
-0.006255 0.359656 2.149000 255 0 0
-0.000377 0.360661 2.155000 255 0 0
0.005529 0.361330 2.159000 255 0 0
0.011452 0.361831 2.162000 255 0 0
0.017390 0.362332 2.165000 255 0 0
0.023389 0.363502 2.172000 255 0 0
0.029425 0.364672 2.179000 255 0 0
0.035484 0.365674 2.185000 255 0 0
0.041594 0.366842 2.192000 255 0 0
0.047851 0.368847 2.204000 255 0 0
0.054344 0.372023 2.223000 255 0 0
0.061159 0.376537 2.250000 255 0 0
0.068001 0.380382 2.273000 255 0 0
0.074251 0.380544 2.274000 255 0 0
0.080010 0.378363 2.261000 255 0 0
0.085889 0.377018 2.253000 255 0 0
0.091928 0.376509 2.250000 255 0 0
0.097950 0.376000 2.247000 255 0 0
0.103770 0.374822 2.240000 255 0 0
0.109502 0.373475 2.232000 255 0 0
0.115501 0.373132 2.230000 255 0 0
0.121598 0.373124 2.230000 255 0 0
0.127751 0.373282 2.231000 255 0 0
0.133670 0.372771 2.228000 255 0 0
0.139823 0.372928 2.229000 255 0 0
0.146504 0.374423 2.238000 255 0 0
0.153302 0.376086 2.248000 255 0 0
0.160013 0.377413 2.256000 255 0 0
-0.128356 0.376915 2.364370 255 255 0
-0.107367 0.377319 2.365812 255 255 0
-0.089001 0.377400 2.365580 255 255 0
-0.078417 0.376467 2.360085 255 255 0
-0.071288 0.375082 2.352243 255 255 0
-0.068463 0.373124 2.341425 255 255 0
-0.066495 0.371051 2.330002 255 255 0
-0.053376 0.370487 2.326424 255 255 0
-0.031711 0.371100 2.328971 255 255 0
-0.006662 0.372201 2.334060 255 255 0
-0.009866 0.369445 2.319084 255 255 0
-0.002809 0.368099 2.311441 255 255 0
0.011064 0.367705 2.308753 255 255 0
0.054739 0.371485 2.327803 255 255 0
0.077048 0.372323 2.331541 255 255 0
0.096768 0.372823 2.333517 255 255 0
0.105411 0.371776 2.327439 255 255 0
0.113194 0.370614 2.320760 255 255 0
0.119273 0.369216 2.312844 255 255 0
0.118573 0.366848 2.299865 255 255 0
-0.283931 0.284494 2.211078 0 255 0
-0.287919 0.288023 2.226151 0 255 0
-0.284153 0.289924 2.235421 0 255 0
-0.278658 0.291468 2.243420 0 255 0
-0.268837 0.292121 2.248256 0 255 0
-0.252948 0.291533 2.248706 0 255 0
-0.182021 0.296103 2.282795 0 255 0
-0.178188 0.298062 2.292282 0 255 0
-0.183072 0.301760 2.307864 0 255 0
-0.186226 0.305102 2.322186 0 255 0
-0.178035 0.306195 2.328616 0 255 0
-0.169835 0.307294 2.335075 0 255 0
-0.157252 0.307544 2.338568 0 255 0
-0.145529 0.307977 2.342713 0 255 0
-0.133790 0.308421 2.346906 0 255 0
-0.129932 0.310405 2.356472 0 255 0
-0.118170 0.310868 2.360743 0 255 0
-0.102001 0.310498 2.362131 0 255 0
-0.086688 0.310312 2.364179 0 255 0
-0.076636 0.311149 2.369784 0 255 0
-0.064810 0.311661 2.374271 0 255 0
-0.364586 0.365255 2.223000 255 0 0
-0.356602 0.363305 2.211000 255 0 0
-0.349317 0.362012 2.203000 255 0 0
-0.342542 0.361211 2.198000 255 0 0
-0.336099 0.360739 2.195000 255 0 0
-0.329823 0.360431 2.193000 255 0 0
-0.323260 0.359794 2.189000 255 0 0
-0.316864 0.359321 2.186000 255 0 0
-0.310768 0.359177 2.185000 255 0 0
-0.305373 0.359854 2.189000 255 0 0
-0.299683 0.360202 2.191000 255 0 0
-0.293846 0.360385 2.192000 255 0 0
-0.287478 0.359911 2.189000 255 0 0
