ply
format ascii 1.0
element vertex 1330
property double x
property double y
property double z
property uchar red
property uchar green
property uchar blue
end_header
-0.278143 0.304087 2.308000 255 0 0
-0.271963 0.304235 2.309000 255 0 0
-0.265891 0.304513 2.311000 255 0 0
-0.259807 0.304792 2.313000 255 0 0
-0.253712 0.305070 2.315000 255 0 0
-0.247605 0.305349 2.317000 255 0 0
-0.241902 0.306154 2.323000 255 0 0
-0.235862 0.306563 2.326000 255 0 0
-0.230002 0.307236 2.331000 255 0 0
-0.223922 0.307644 2.334000 255 0 0
-0.218291 0.308712 2.342000 255 0 0
-0.211891 0.308725 2.342000 255 0 0
-0.202332 0.303991 2.306000 255 0 0
-0.194754 0.302026 2.291000 255 0 0
-0.187340 0.300192 2.277000 255 0 0
-0.179604 0.297698 2.258000 255 0 0
-0.172432 0.295994 2.245000 255 0 0
-0.165627 0.294818 2.236000 255 0 0
-0.159085 0.294037 2.230000 255 0 0
-0.152369 0.292859 2.221000 255 0 0
-0.145635 0.291550 2.211000 255 0 0
-0.139082 0.290504 2.203000 255 0 0
-0.132633 0.289589 2.196000 255 0 0
-0.126394 0.289069 2.192000 255 0 0
-0.120068 0.288286 2.186000 255 0 0
-0.113825 0.287633 2.181000 255 0 0
-0.107709 0.287245 2.178000 255 0 0
-0.101515 0.286592 2.173000 255 0 0
-0.095568 0.286598 2.173000 255 0 0
-0.089497 0.286208 2.170000 255 0 0
-0.083595 0.286345 2.171000 255 0 0
-0.077546 0.285954 2.168000 255 0 0
-0.071545 0.285695 2.166000 255 0 0
-0.065585 0.285568 2.165000 255 0 0
-0.059658 0.285572 2.165000 255 0 0
-0.053731 0.285575 2.165000 255 0 0
-0.047803 0.285578 2.165000 255 0 0
-0.041914 0.285845 2.167000 255 0 0
-0.035964 0.285715 2.166000 255 0 0
-0.030020 0.285586 2.165000 255 0 0
-0.024092 0.285587 2.165000 255 0 0
-0.018180 0.285852 2.167000 255 0 0
-0.012252 0.285985 2.168000 255 0 0
-0.006319 0.286118 2.169000 255 0 0
-0.000380 0.286514 2.172000 255 0 0
0.005573 0.286777 2.174000 255 0 0
0.011541 0.287173 2.177000 255 0 0
0.017535 0.287699 2.181000 255 0 0
0.023539 0.288094 2.184000 255 0 0
0.029546 0.288356 2.186000 255 0 0
0.035532 0.288354 2.186000 255 0 0
0.041574 0.288747 2.189000 255 0 0
0.047676 0.289404 2.194000 255 0 0
0.053830 0.290192 2.200000 255 0 0
0.059989 0.290848 2.205000 255 0 0
0.066175 0.291504 2.210000 255 0 0
0.072323 0.291895 2.213000 255 0 0
0.078558 0.292550 2.218000 255 0 0
0.084706 0.292809 2.220000 255 0 0
0.090823 0.292935 2.221000 255 0 0
0.096989 0.293193 2.223000 255 0 0
0.103073 0.293187 2.223000 255 0 0
0.109402 0.293840 2.228000 255 0 0
0.115499 0.293833 2.228000 255 0 0
0.121814 0.294353 2.232000 255 0 0
0.127920 0.294345 2.232000 255 0 0
0.134808 0.296052 2.245000 255 0 0
0.139756 0.293538 2.226000 255 0 0
0.146369 0.294584 2.234000 255 0 0
0.152070 0.293784 2.228000 255 0 0
0.157524 0.292587 2.219000 255 0 0
0.162929 0.291391 2.210000 255 0 0
0.168590 0.290722 2.205000 255 0 0
0.174618 0.290711 2.205000 255 0 0
0.180400 0.290305 2.202000 255 0 0
0.185996 0.289635 2.197000 255 0 0
0.191214 0.288437 2.188000 255 0 0
0.196833 0.287899 2.184000 255 0 0
0.202708 0.287755 2.183000 255 0 0
0.208960 0.288138 2.186000 255 0 0
0.214538 0.287598 2.182000 255 0 0
0.219993 0.286927 2.177000 255 0 0
-0.100625 0.242636 2.425226 255 255 0
-0.088319 0.242245 2.420679 255 255 0
-0.074316 0.242158 2.417340 255 255 0
-0.062905 0.241641 2.412318 255 255 0
-0.049799 0.241427 2.408510 255 255 0
-0.040991 0.240482 2.401827 255 255 0
-0.029629 0.239989 2.396941 255 255 0
-0.014017 0.240251 2.395058 255 255 0
0.005832 0.241274 2.396215 255 255 0
0.021388 0.241565 2.394486 255 255 0
0.024157 0.239609 2.383844 255 255 0
0.038825 0.239768 2.381618 255 255 0
0.046678 0.238726 2.374626 255 255 0
0.057914 0.238298 2.370086 255 255 0
0.052191 0.234830 2.353412 255 255 0
0.053256 0.232576 2.341575 255 255 0
0.061936 0.231698 2.335249 255 255 0
0.079049 0.232365 2.335117 255 255 0
0.081792 0.230424 2.324543 255 255 0
0.087911 0.204440 2.189141 255 255 0
0.146495 0.213175 2.221916 255 255 0
0.163368 0.213967 2.222443 255 255 0
0.173566 0.213490 2.217817 255 255 0
0.175449 0.211412 2.206665 255 255 0
0.172362 0.208364 2.191547 255 255 0
-0.240779 0.171021 2.340219 0 255 0
-0.223155 0.169605 2.339967 0 255 0
-0.207236 0.168622 2.341001 0 255 0
-0.193892 0.168275 2.343903 0 255 0
-0.177931 0.167324 2.345078 0 255 0
-0.168885 0.168032 2.351070 0 255 0
-0.158961 0.168544 2.356506 0 255 0
-0.164662 0.172743 2.372557 0 255 0
-0.161683 0.174894 2.382706 0 255 0
-0.154354 0.176029 2.389942 0 255 0
-0.141792 0.175953 2.393723 0 255 0
-0.135315 0.177305 2.401601 0 255 0
-0.132322 0.179469 2.411798 0 255 0
-0.091070 0.184324 2.445910 0 255 0
-0.080162 0.184721 2.451146 0 255 0
-0.289871 0.296857 2.301000 255 0 0
-0.284210 0.297518 2.306000 255 0 0
-0.278159 0.297792 2.308000 255 0 0
-0.271742 0.297678 2.307000 255 0 0
-0.265791 0.298080 2.310000 255 0 0
-0.259710 0.298353 2.312000 255 0 0
-0.253836 0.298884 2.316000 255 0 0
-0.247833 0.299286 2.319000 255 0 0
-0.242125 0.300074 2.325000 255 0 0
-0.236281 0.300733 2.330000 255 0 0
-0.230311 0.301263 2.334000 255 0 0
-0.224223 0.301663 2.337000 255 0 0
-0.218304 0.302321 2.342000 255 0 0
-0.211723 0.302076 2.340000 255 0 0
-0.202081 0.297311 2.303000 255 0 0
-0.194766 0.295774 2.291000 255 0 0
-0.187681 0.294494 2.281000 255 0 0
-0.180092 0.292310 2.264000 255 0 0
-0.172673 0.290255 2.248000 255 0 0
-0.165637 0.288715 2.236000 255 0 0
-0.158952 0.287692 2.228000 255 0 0
-0.152378 0.286797 2.221000 255 0 0
-0.145907 0.286032 2.215000 255 0 0
-0.139406 0.285136 2.208000 255 0 0
-0.133003 0.284370 2.202000 255 0 0
-0.126633 0.283603 2.196000 255 0 0
-0.120295 0.282835 2.190000 255 0 0
-0.113937 0.281938 2.183000 255 0 0
-0.107715 0.281299 2.178000 255 0 0
-0.101614 0.280918 2.175000 255 0 0
-0.095706 0.281053 2.176000 255 0 0
-0.089667 0.280801 2.174000 255 0 0
-0.083678 0.280677 2.173000 255 0 0
-0.077586 0.280165 2.169000 255 0 0
-0.071582 0.279911 2.167000 255 0 0
-0.065619 0.279786 2.166000 255 0 0
-0.059662 0.279661 2.165000 255 0 0
-0.053734 0.279664 2.165000 255 0 0
-0.047806 0.279668 2.165000 255 0 0
-0.041917 0.279929 2.167000 255 0 0
-0.035983 0.279931 2.167000 255 0 0
-0.030036 0.279804 2.166000 255 0 0
-0.024093 0.279676 2.165000 255 0 0
-0.018190 0.280065 2.168000 255 0 0
-0.012264 0.280325 2.170000 255 0 0
-0.006331 0.280713 2.173000 255 0 0
-0.000381 0.280971 2.175000 255 0 0
0.005581 0.281229 2.177000 255 0 0
0.011558 0.281616 2.180000 255 0 0
0.017552 0.282003 2.183000 255 0 0
0.023551 0.282260 2.185000 255 0 0
0.029561 0.282517 2.187000 255 0 0
0.035566 0.282644 2.188000 255 0 0
0.041595 0.282900 2.190000 255 0 0
0.047722 0.283672 2.196000 255 0 0
0.053882 0.284444 2.202000 255 0 0
0.060074 0.285216 2.208000 255 0 0
0.066269 0.285858 2.213000 255 0 0
0.072458 0.286370 2.217000 255 0 0
0.078740 0.287141 2.223000 255 0 0
0.084940 0.287523 2.226000 255 0 0
0.091115 0.287776 2.228000 255 0 0
0.097213 0.287770 2.228000 255 0 0
0.103311 0.287764 2.228000 255 0 0
0.109556 0.288145 2.231000 255 0 0
0.115713 0.288268 2.232000 255 0 0
0.121930 0.288519 2.234000 255 0 0
0.135476 0.291344 2.256000 255 0 0
0.141460 0.290949 2.253000 255 0 0
0.146902 0.289519 2.242000 255 0 0
0.152284 0.288090 2.231000 255 0 0
0.157605 0.286660 2.220000 255 0 0
0.163234 0.285876 2.214000 255 0 0
0.168676 0.284833 2.206000 255 0 0
0.174708 0.284823 2.206000 255 0 0
0.180411 0.284296 2.202000 255 0 0
0.185923 0.283511 2.196000 255 0 0
0.191226 0.282467 2.188000 255 0 0
0.196845 0.281939 2.184000 255 0 0
0.202813 0.281927 2.184000 255 0 0
0.209067 0.282303 2.187000 255 0 0
0.214452 0.281516 2.181000 255 0 0
0.219804 0.280729 2.175000 255 0 0
-0.116265 0.231384 2.428920 255 255 0
-0.098783 0.231901 2.427739 255 255 0
-0.083907 0.231984 2.424912 255 255 0
-0.066481 0.232529 2.423886 255 255 0
-0.057652 0.231588 2.417134 255 255 0
-0.043699 0.231556 2.413913 255 255 0
-0.035752 0.230479 2.406654 255 255 0
-0.021837 0.230466 2.403537 255 255 0
-0.002826 0.231375 2.404026 255 255 0
0.014449 0.231997 2.403419 255 255 0
0.025735 0.231564 2.398723 255 255 0
0.026801 0.229301 2.386893 255 255 0
0.035517 0.228419 2.380456 255 255 0
0.047615 0.228159 2.376463 255 255 0
0.055457 0.227136 2.369492 255 255 0
0.055670 0.224723 2.357071 255 255 0
0.060118 0.223083 2.347684 255 255 0
0.071324 0.222693 2.343210 255 255 0
0.079137 0.221686 2.336316 255 255 0
0.076824 0.218801 2.322029 255 255 0
0.123289 0.198012 2.204885 255 255 0
0.158472 0.202411 2.219648 255 255 0
0.166182 0.201463 2.213038 255 255 0
0.168075 0.199375 2.201860 255 255 0
0.165001 0.196301 2.186720 255 255 0
-0.227002 0.159874 2.343899 0 255 0
-0.208499 0.158223 2.343139 0 255 0
-0.194296 0.157636 2.345454 0 255 0
-0.173146 0.155396 2.343078 0 255 0
-0.167565 0.156922 2.351460 0 255 0
-0.161980 0.158452 2.359859 0 255 0
-0.168545 0.162884 2.376487 0 255 0
-0.162961 0.164414 2.384877 0 255 0
-0.153024 0.164918 2.390373 0 255 0
-0.143947 0.165637 2.396488 0 255 0
-0.135730 0.166569 2.403215 0 255 0
-0.131863 0.168529 2.412842 0 255 0
-0.094996 0.174321 2.449819 0 255 0
-0.082342 0.174291 2.453937 0 255 0
-0.071425 0.174675 2.459222 0 255 0
-0.290391 0.291085 2.305000 255 0 0
-0.284595 0.291606 2.309000 255 0 0
-0.278295 0.291621 2.309000 255 0 0
-0.271758 0.291384 2.307000 255 0 0
-0.265576 0.291525 2.308000 255 0 0
-0.259724 0.292045 2.312000 255 0 0
-0.253850 0.292565 2.316000 255 0 0
-0.247954 0.293084 2.320000 255 0 0
-0.242243 0.293856 2.326000 255 0 0
-0.236498 0.294628 2.332000 255 0 0
-0.230522 0.295146 2.336000 255 0 0
-0.224428 0.295538 2.339000 255 0 0
-0.218130 0.295677 2.340000 255 0 0
-0.211464 0.295310 2.337000 255 0 0
-0.201742 0.290520 2.299000 255 0 0
-0.194862 0.289647 2.292000 255 0 0
-0.187692 0.288268 2.281000 255 0 0
-0.180501 0.286762 2.269000 255 0 0
-0.172760 0.284245 2.249000 255 0 0
-0.165721 0.282738 2.237000 255 0 0
-0.159032 0.281737 2.229000 255 0 0
-0.152524 0.280987 2.223000 255 0 0
-0.146114 0.280364 2.218000 255 0 0
-0.139604 0.279488 2.211000 255 0 0
-0.133132 0.278611 2.204000 255 0 0
-0.126756 0.277860 2.198000 255 0 0
-0.120577 0.277488 2.195000 255 0 0
-0.114257 0.276737 2.189000 255 0 0
-0.108019 0.276111 2.184000 255 0 0
-0.101761 0.275359 2.178000 255 0 0
-0.095755 0.275239 2.177000 255 0 0
-0.089672 0.274865 2.174000 255 0 0
-0.083721 0.274870 2.174000 255 0 0
-0.077662 0.274496 2.171000 255 0 0
-0.071686 0.274374 2.170000 255 0 0
-0.065714 0.274251 2.169000 255 0 0
-0.059748 0.274129 2.168000 255 0 0
-0.053787 0.274006 2.167000 255 0 0
-0.047831 0.273882 2.166000 255 0 0
-0.041900 0.273885 2.166000 255 0 0
-0.035969 0.273887 2.166000 255 0 0
-0.030051 0.274016 2.167000 255 0 0
-0.024117 0.274017 2.167000 255 0 0
-0.018199 0.274272 2.169000 255 0 0
-0.012271 0.274525 2.171000 255 0 0
-0.006337 0.275032 2.175000 255 0 0
-0.000381 0.275285 2.177000 255 0 0
0.005586 0.275538 2.179000 255 0 0
0.011559 0.275664 2.180000 255 0 0
0.017561 0.276169 2.184000 255 0 0
0.023574 0.276547 2.187000 255 0 0
0.029617 0.277051 2.191000 255 0 0
0.035650 0.277302 2.193000 255 0 0
0.041693 0.277552 2.195000 255 0 0
0.047790 0.278055 2.199000 255 0 0
0.053910 0.278558 2.203000 255 0 0
0.060105 0.279313 2.209000 255 0 0
0.066333 0.280068 2.215000 255 0 0
0.072561 0.280696 2.220000 255 0 0
0.078816 0.281324 2.225000 255 0 0
0.085021 0.281698 2.228000 255 0 0
0.091366 0.282451 2.234000 255 0 0
0.097525 0.282572 2.235000 255 0 0
0.103596 0.282440 2.234000 255 0 0
0.109808 0.282686 2.236000 255 0 0
0.115876 0.282553 2.235000 255 0 0
0.122047 0.282672 2.236000 255 0 0
0.141719 0.285304 2.257000 255 0 0
0.146845 0.283273 2.241000 255 0 0
0.152020 0.281494 2.227000 255 0 0
0.157614 0.280600 2.220000 255 0 0
0.163317 0.279959 2.215000 255 0 0
0.168992 0.279317 2.210000 255 0 0
0.174797 0.278928 2.207000 255 0 0
0.180340 0.278159 2.201000 255 0 0
0.185679 0.277138 2.193000 255 0 0
0.190800 0.275863 2.183000 255 0 0
0.196406 0.275347 2.179000 255 0 0
0.202453 0.275461 2.180000 255 0 0
0.208793 0.275955 2.184000 255 0 0
0.214465 0.275564 2.181000 255 0 0
0.220221 0.275299 2.179000 255 0 0
-0.125034 0.221265 2.437255 255 255 0
-0.107538 0.221813 2.436003 255 255 0
-0.091788 0.222072 2.433688 255 255 0
-0.076923 0.222194 2.430868 255 255 0
-0.063795 0.222022 2.426960 255 255 0
-0.049833 0.222014 2.423687 255 255 0
-0.033325 0.222476 2.422225 255 255 0
-0.021118 0.222185 2.417912 255 255 0
-0.012343 0.221286 2.411300 255 255 0
0.003241 0.221630 2.409440 255 255 0
0.022207 0.222606 2.410021 255 255 0
0.039438 0.223288 2.409504 255 255 0
0.043042 0.221491 2.399505 255 255 0
0.045797 0.219539 2.388906 255 255 0
0.047705 0.217430 2.377700 255 255 0
0.053852 0.216105 2.369509 255 255 0
0.054070 0.213680 2.357082 255 255 0
0.061057 0.212516 2.349515 255 255 0
0.071415 0.211990 2.344420 255 255 0
0.074166 0.210042 2.333828 255 255 0
0.060908 0.205064 2.311495 255 255 0
0.095119 0.181704 2.184005 255 255 0
0.135303 0.187178 2.202557 255 255 0
0.160468 0.189709 2.209577 255 255 0
0.168174 0.188775 2.202967 255 255 0
0.165933 0.185847 2.188485 255 255 0
0.168669 0.183915 2.177929 255 255 0
-0.239824 0.149527 2.342029 0 255 0
-0.228256 0.149515 2.346024 0 255 0
-0.203716 0.146332 2.341086 0 255 0
-0.180003 0.143388 2.336870 0 255 0
-0.163177 0.142159 2.337524 0 255 0
-0.162785 0.144949 2.349493 0 255 0
-0.157195 0.146475 2.357913 0 255 0
-0.160278 0.150101 2.372208 0 255 0
-0.154687 0.151629 2.380630 0 255 0
-0.148223 0.152953 2.388486 0 255 0
-0.140013 0.153866 2.395205 0 255 0
-0.132664 0.154993 2.402528 0 255 0
-0.132280 0.157780 2.414465 0 255 0
-0.091044 0.162491 2.448678 0 255 0
-0.081895 0.163250 2.455054 0 255 0
-0.073611 0.164221 2.462020 0 255 0
-0.064440 0.164996 2.468464 0 255 0
-0.284981 0.285677 2.312000 255 0 0
-0.278430 0.285445 2.310000 255 0 0
-0.271890 0.285213 2.308000 255 0 0
-0.265705 0.285351 2.309000 255 0 0
-0.260076 0.286107 2.315000 255 0 0
-0.254084 0.286492 2.318000 255 0 0
-0.248074 0.286876 2.321000 255 0 0
-0.242048 0.287261 2.324000 255 0 0
-0.236511 0.288263 2.332000 255 0 0
-0.230634 0.288894 2.337000 255 0 0
-0.224728 0.289525 2.342000 255 0 0
-0.218608 0.289908 2.345000 255 0 0
-0.211838 0.289426 2.341000 255 0 0
-0.201841 0.284369 2.300000 255 0 0
-0.194789 0.283267 2.291000 255 0 0
-0.187702 0.282041 2.281000 255 0 0
-0.180750 0.280939 2.272000 255 0 0
-0.173077 0.278600 2.253000 255 0 0
-0.165805 0.276755 2.238000 255 0 0
-0.159042 0.275651 2.229000 255 0 0
-0.152601 0.275042 2.224000 255 0 0
-0.146320 0.274679 2.221000 255 0 0
-0.139928 0.274069 2.216000 255 0 0
-0.133563 0.273459 2.211000 255 0 0
-0.127109 0.272601 2.204000 255 0 0
-0.120858 0.272113 2.200000 255 0 0
-0.114472 0.271254 2.193000 255 0 0
-0.108223 0.270642 2.188000 255 0 0
-0.102000 0.270030 2.183000 255 0 0
-0.095849 0.269541 2.179000 255 0 0
-0.089760 0.269175 2.176000 255 0 0
-0.083726 0.268933 2.174000 255 0 0
-0.077667 0.268567 2.171000 255 0 0
-0.071723 0.268571 2.171000 255 0 0
-0.065779 0.268575 2.171000 255 0 0
-0.059807 0.268455 2.170000 255 0 0
-0.053815 0.268211 2.168000 255 0 0
-0.047856 0.268091 2.167000 255 0 0
-0.041903 0.267970 2.166000 255 0 0
-0.035988 0.268096 2.167000 255 0 0
-0.030067 0.268221 2.168000 255 0 0
-0.024141 0.268347 2.169000 255 0 0
-0.018209 0.268472 2.170000 255 0 0
-0.012283 0.268844 2.173000 255 0 0
-0.006340 0.269215 2.176000 255 0 0
-0.000381 0.269587 2.179000 255 0 0
0.005586 0.269587 2.179000 255 0 0
0.011570 0.269957 2.182000 255 0 0
0.017570 0.270328 2.185000 255 0 0
0.023586 0.270697 2.188000 255 0 0
0.029633 0.271191 2.192000 255 0 0
0.035668 0.271436 2.194000 255 0 0
0.041714 0.271681 2.196000 255 0 0
0.047837 0.272297 2.201000 255 0 0
0.053937 0.272665 2.204000 255 0 0
0.060136 0.273404 2.210000 255 0 0
0.066337 0.274019 2.215000 255 0 0
0.072565 0.274633 2.220000 255 0 0
0.078820 0.275248 2.225000 255 0 0
0.085065 0.275737 2.229000 255 0 0
0.091494 0.276722 2.237000 255 0 0
0.097661 0.276840 2.238000 255 0 0
0.103834 0.276958 2.239000 255 0 0
0.109962 0.276951 2.239000 255 0 0
0.116038 0.276821 2.238000 255 0 0
0.122163 0.276814 2.238000 255 0 0
0.128058 0.276312 2.234000 255 0 0
0.135913 0.279891 2.263000 255 0 0
0.147182 0.277772 2.246000 255 0 0
0.152302 0.275909 2.231000 255 0 0
0.157907 0.275034 2.224000 255 0 0
0.163695 0.274530 2.220000 255 0 0
0.169308 0.273778 2.214000 255 0 0
0.174887 0.273027 2.208000 255 0 0
0.180022 0.271656 2.197000 255 0 0
0.185097 0.270286 2.186000 255 0 0
0.190461 0.269410 2.179000 255 0 0
0.196056 0.268904 2.175000 255 0 0
0.202001 0.268893 2.175000 255 0 0
0.208422 0.269499 2.180000 255 0 0
0.214477 0.269611 2.181000 255 0 0
0.220334 0.269475 2.180000 255 0 0
-0.086516 0.211967 2.438486 255 255 0
-0.069945 0.212433 2.436818 255 255 0
-0.057685 0.212139 2.432340 255 255 0
-0.043732 0.212165 2.429074 255 255 0
-0.025526 0.212981 2.428778 255 255 0
-0.010767 0.213187 2.426231 255 255 0
0.000555 0.212780 2.421402 255 255 0
0.011008 0.212224 2.416028 255 255 0
0.035067 0.214195 2.420169 255 255 0
0.046326 0.213820 2.415512 255 255 0
0.056720 0.213294 2.410305 255 255 0
0.052674 0.210075 2.394945 255 255 0
0.055425 0.208123 2.384357 255 255 0
0.057330 0.206010 2.373161 255 255 0
0.064314 0.204858 2.365597 255 255 0
0.069601 0.203388 2.356834 255 255 0
0.073196 0.201599 2.346857 255 255 0
0.071732 0.198840 2.333194 255 255 0
0.059330 0.193970 2.311478 255 255 0
0.129601 0.175313 2.199146 255 255 0
0.166376 0.180265 2.215260 255 255 0
0.174904 0.179515 2.209313 255 255 0
0.174316 0.176910 2.196166 255 255 0
0.167122 0.172943 2.177716 255 255 0
-0.237628 0.138325 2.341733 0 255 0
-0.227787 0.138720 2.346949 0 255 0
-0.199805 0.134615 2.339643 0 255 0
-0.175235 0.131399 2.334864 0 255 0
-0.166196 0.132056 2.340888 0 255 0
-0.170131 0.135918 2.355803 0 255 0
-0.162815 0.137008 2.363033 0 255 0
-0.158961 0.138952 2.372630 0 255 0
-0.152501 0.140263 2.380481 0 255 0
-0.148641 0.142212 2.390092 0 255 0
-0.144780 0.144163 2.399709 0 255 0
-0.138307 0.145485 2.407604 0 255 0
-0.137923 0.148277 2.419528 0 255 0
-0.134058 0.150232 2.429154 0 255 0
-0.127575 0.151563 2.437083 0 255 0
-0.116721 0.151860 2.442206 0 255 0
-0.100610 0.150924 2.443999 0 255 0
-0.285119 0.279489 2.313000 255 0 0
-0.278566 0.279262 2.311000 255 0 0
-0.272141 0.279156 2.310000 255 0 0
-0.265950 0.279291 2.311000 255 0 0
-0.260315 0.280030 2.317000 255 0 0
-0.254207 0.280286 2.319000 255 0 0
-0.248195 0.280662 2.322000 255 0 0
-0.242061 0.280917 2.324000 255 0 0
-0.236524 0.281897 2.332000 255 0 0
-0.230745 0.282635 2.338000 255 0 0
-0.224837 0.283252 2.343000 255 0 0
-0.218900 0.283869 2.348000 255 0 0
-0.212302 0.283639 2.346000 255 0 0
-0.202203 0.278573 2.304000 255 0 0
-0.195055 0.277375 2.294000 255 0 0
-0.187713 0.275814 2.281000 255 0 0
-0.180919 0.274978 2.274000 255 0 0
-0.173241 0.272690 2.255000 255 0 0
-0.165962 0.270886 2.240000 255 0 0
-0.159122 0.269685 2.230000 255 0 0
-0.152679 0.269090 2.225000 255 0 0
-0.146328 0.268614 2.221000 255 0 0
-0.139999 0.268139 2.217000 255 0 0
-0.133571 0.267421 2.211000 255 0 0
-0.127232 0.266824 2.206000 255 0 0
-0.120865 0.266105 2.200000 255 0 0
-0.114583 0.265507 2.195000 255 0 0
-0.108427 0.265150 2.192000 255 0 0
-0.102147 0.264431 2.186000 255 0 0
-0.095943 0.263832 2.181000 255 0 0
-0.089848 0.263474 2.178000 255 0 0
-0.083808 0.263237 2.176000 255 0 0
-0.077743 0.262879 2.173000 255 0 0
-0.071760 0.262762 2.172000 255 0 0
-0.065843 0.262887 2.173000 255 0 0
-0.059920 0.263012 2.174000 255 0 0
-0.053918 0.262773 2.172000 255 0 0
-0.047925 0.262534 2.170000 255 0 0
-0.041924 0.262174 2.167000 255 0 0
-0.035990 0.262176 2.167000 255 0 0
-0.030083 0.262420 2.169000 255 0 0
-0.024187 0.262906 2.173000 255 0 0
-0.018252 0.263149 2.175000 255 0 0
-0.012301 0.263271 2.176000 255 0 0
-0.006344 0.263392 2.177000 255 0 0
-0.000382 0.263756 2.180000 255 0 0
0.005592 0.263876 2.181000 255 0 0
0.011587 0.264360 2.185000 255 0 0
0.017595 0.264722 2.188000 255 0 0
0.023631 0.265205 2.192000 255 0 0
0.029661 0.265445 2.194000 255 0 0
0.035703 0.265685 2.196000 255 0 0
0.041774 0.266046 2.199000 255 0 0
0.047883 0.266527 2.203000 255 0 0
0.053989 0.266887 2.206000 255 0 0
0.060166 0.267489 2.211000 255 0 0
0.066371 0.268090 2.216000 255 0 0
0.072602 0.268691 2.221000 255 0 0
0.078825 0.269170 2.225000 255 0 0
0.085108 0.269770 2.230000 255 0 0
0.091540 0.270733 2.238000 255 0 0
0.097842 0.271211 2.242000 255 0 0
0.104025 0.271327 2.243000 255 0 0
0.110165 0.271320 2.243000 255 0 0
0.116304 0.271314 2.243000 255 0 0
0.122498 0.271428 2.244000 255 0 0
0.128811 0.271784 2.247000 255 0 0
0.147452 0.272123 2.250000 255 0 0
0.152515 0.270179 2.234000 255 0 0
0.158271 0.269566 2.229000 255 0 0
0.163778 0.268589 2.221000 255 0 0
0.169470 0.267975 2.216000 255 0 0
0.174817 0.266877 2.207000 255 0 0
0.180114 0.265779 2.198000 255 0 0
0.184938 0.264076 2.184000 255 0 0
0.190210 0.263098 2.176000 255 0 0
0.195707 0.262483 2.171000 255 0 0
0.201733 0.262593 2.172000 255 0 0
0.207860 0.262823 2.174000 255 0 0
0.213899 0.262932 2.175000 255 0 0
0.219437 0.262437 2.171000 255 0 0
-0.093540 0.202168 2.447868 255 255 0
-0.080389 0.202038 2.443851 255 255 0
-0.067258 0.201918 2.439891 255 255 0
-0.055859 0.201494 2.434834 255 255 0
-0.035069 0.202815 2.436191 255 255 0
-0.013461 0.204312 2.438231 255 255 0
0.004694 0.205194 2.438041 255 255 0
0.012588 0.204181 2.430901 255 255 0
0.022175 0.203492 2.424964 255 255 0
0.039407 0.204251 2.424387 255 255 0
0.054059 0.204543 2.422108 255 255 0
0.061046 0.203397 2.414527 255 255 0
0.057850 0.200318 2.399780 255 255 0
0.059750 0.198204 2.388602 255 255 0
0.065039 0.196738 2.379830 255 255 0
0.074550 0.196088 2.374100 255 255 0
0.078138 0.194302 2.364144 255 255 0
0.077508 0.191698 2.351130 255 255 0
0.070144 0.187776 2.333180 255 255 0
0.133867 0.165447 2.203536 255 255 0
0.154038 0.167086 2.206601 255 255 0
0.168376 0.167544 2.205188 255 255 0
0.172763 0.165952 2.195959 255 255 0
0.170537 0.162984 2.181461 255 255 0
-0.232494 0.129217 2.351478 0 255 0
-0.208844 0.126122 2.347171 0 255 0
-0.173536 0.123038 2.347212 0 255 0
-0.169686 0.124976 2.356797 0 255 0
-0.163236 0.126270 2.364625 0 255 0
-0.157647 0.127783 2.373056 0 255 0
-0.152922 0.129514 2.382085 0 255 0
-0.150797 0.131888 2.392861 0 255 0
-0.145199 0.133409 2.401323 0 255 0
-0.143945 0.135997 2.412673 0 255 0
-0.142692 0.138582 2.424012 0 255 0
-0.137089 0.140109 2.432493 0 255 0
-0.130609 0.141429 2.440422 0 255 0
-0.121505 0.142123 2.446677 0 255 0
-0.105405 0.141146 2.448473 0 255 0
-0.285627 0.273648 2.317000 255 0 0
-0.279063 0.273427 2.315000 255 0 0
-0.272508 0.273205 2.313000 255 0 0
-0.266424 0.273456 2.315000 255 0 0
-0.260666 0.274060 2.320000 255 0 0
-0.254659 0.274428 2.323000 255 0 0
-0.248636 0.274796 2.326000 255 0 0
-0.242491 0.275045 2.328000 255 0 0
-0.236841 0.275885 2.335000 255 0 0
-0.231054 0.276607 2.341000 255 0 0
-0.225233 0.277328 2.347000 255 0 0
-0.219658 0.278404 2.356000 255 0 0
-0.212404 0.277352 2.347000 255 0 0
-0.203004 0.273345 2.313000 255 0 0
-0.195236 0.271347 2.296000 255 0 0
-0.187806 0.269703 2.282000 255 0 0
-0.180929 0.268768 2.274000 255 0 0
-0.173558 0.267004 2.259000 255 0 0
-0.166194 0.265123 2.243000 255 0 0
-0.159274 0.263832 2.232000 255 0 0
-0.152756 0.263131 2.226000 255 0 0
-0.146337 0.262548 2.221000 255 0 0
-0.140007 0.262083 2.217000 255 0 0
-0.133759 0.261736 2.214000 255 0 0
-0.127297 0.260916 2.207000 255 0 0
-0.120872 0.260096 2.200000 255 0 0
-0.114538 0.259393 2.194000 255 0 0
-0.108433 0.259163 2.192000 255 0 0
-0.102246 0.258696 2.188000 255 0 0
-0.096080 0.258229 2.184000 255 0 0
-0.089977 0.257879 2.181000 255 0 0
-0.083890 0.257529 2.178000 255 0 0
-0.077855 0.257298 2.176000 255 0 0
-0.071831 0.257065 2.174000 255 0 0
-0.065877 0.257069 2.174000 255 0 0
-0.059896 0.256955 2.173000 255 0 0
-0.053921 0.256840 2.172000 255 0 0
-0.047950 0.256724 2.171000 255 0 0
-0.041985 0.256609 2.170000 255 0 0
-0.036025 0.256493 2.169000 255 0 0
-0.030126 0.256849 2.172000 255 0 0
-0.024222 0.257324 2.176000 255 0 0
-0.018278 0.257562 2.178000 255 0 0
-0.012318 0.257681 2.179000 255 0 0
-0.006350 0.257681 2.179000 255 0 0
-0.000382 0.258154 2.183000 255 0 0
0.005602 0.258391 2.185000 255 0 0
0.011614 0.258982 2.190000 255 0 0
0.017620 0.259099 2.191000 255 0 0
0.023665 0.259571 2.195000 255 0 0
0.029677 0.259569 2.195000 255 0 0
0.035737 0.259922 2.198000 255 0 0
0.041795 0.260156 2.200000 255 0 0
0.047951 0.260863 2.206000 255 0 0
0.054090 0.261333 2.210000 255 0 0
0.060279 0.261921 2.215000 255 0 0
0.066464 0.262391 2.219000 255 0 0
0.072672 0.262860 2.223000 255 0 0
0.078936 0.263447 2.228000 255 0 0
0.085265 0.264152 2.234000 255 0 0
0.091627 0.264856 2.240000 255 0 0
0.097891 0.265205 2.243000 255 0 0
0.104170 0.265554 2.246000 255 0 0
0.110417 0.265785 2.248000 255 0 0
0.116570 0.265778 2.248000 255 0 0
0.122832 0.266008 2.250000 255 0 0
0.129334 0.266710 2.256000 255 0 0
0.148575 0.267987 2.267000 255 0 0
0.152934 0.264787 2.240000 255 0 0
0.158564 0.263951 2.233000 255 0 0
0.163935 0.262760 2.223000 255 0 0
0.169556 0.262041 2.217000 255 0 0
0.174669 0.260614 2.205000 255 0 0
0.179715 0.259186 2.193000 255 0 0
0.184441 0.257403 2.178000 255 0 0
0.189958 0.256802 2.173000 255 0 0
0.195537 0.256318 2.169000 255 0 0
0.201559 0.256426 2.170000 255 0 0
0.207489 0.256415 2.170000 255 0 0
0.213419 0.256403 2.170000 255 0 0
0.219044 0.256037 2.167000 255 0 0
-0.106585 0.191234 2.453330 255 255 0
-0.091700 0.191439 2.450382 255 255 0
-0.075981 0.191816 2.448070 255 255 0
-0.062858 0.191727 2.444110 255 255 0
-0.051466 0.191328 2.439055 255 255 0
-0.034962 0.191901 2.437516 255 255 0
-0.009946 0.194097 2.441862 255 255 0
0.009906 0.195347 2.442833 255 255 0
0.027167 0.196130 2.442144 255 255 0
0.027374 0.193681 2.429770 255 255 0
0.040342 0.193670 2.426238 255 255 0
0.048194 0.192691 2.419202 255 255 0
0.059431 0.192371 2.414576 255 255 0
0.055392 0.189105 2.399225 255 255 0
0.056451 0.186819 2.387435 255 255 0
0.064282 0.185851 2.380457 255 255 0
0.072949 0.185053 2.374111 255 255 0
0.081604 0.184262 2.367795 255 255 0
0.083503 0.182145 2.356621 255 255 0
0.136744 0.152777 2.194058 255 255 0
0.155236 0.154128 2.195847 255 255 0
0.172042 0.155148 2.196413 255 255 0
0.175603 0.153385 2.186522 255 255 0
-0.245303 0.118936 2.349590 0 255 0
-0.236336 0.119508 2.355405 0 255 0
-0.210113 0.115690 2.349318 0 255 0
-0.188166 0.112999 2.346338 0 255 0
-0.178278 0.113395 2.351753 0 255 0
-0.174430 0.115328 2.361331 0 255 0
-0.168851 0.116827 2.369740 0 255 0
-0.169329 0.119851 2.382251 0 255 0
-0.167213 0.122220 2.392997 0 255 0
-0.163364 0.124157 2.402579 0 255 0
-0.156909 0.125448 2.410436 0 255 0
-0.153054 0.127389 2.420034 0 255 0
-0.148329 0.129117 2.429066 0 255 0
-0.138376 0.129564 2.434693 0 255 0
-0.131027 0.130660 2.442061 0 255 0
-0.128030 0.132826 2.452272 0 255 0
-0.118050 0.133294 2.457993 0 255 0
-0.044764 0.133156 2.484982 0 255 0
-0.292090 0.267425 2.318000 255 0 0
-0.285765 0.267439 2.318000 255 0 0
-0.279318 0.267338 2.317000 255 0 0
-0.272876 0.267237 2.316000 255 0 0
-0.266784 0.267482 2.318000 255 0 0
-0.260792 0.267842 2.321000 255 0 0
-0.254892 0.268317 2.325000 255 0 0
-0.248970 0.268791 2.329000 255 0 0
-0.242920 0.269151 2.332000 255 0 0
-0.236955 0.269625 2.336000 255 0 0
-0.230968 0.270099 2.340000 255 0 0
-0.225341 0.271034 2.348000 255 0 0
-0.219763 0.272085 2.357000 255 0 0
-0.212054 0.270481 2.343000 255 0 0
-0.203630 0.267837 2.320000 255 0 0
-0.195586 0.265538 2.300000 255 0 0
-0.188063 0.263817 2.285000 255 0 0
-0.181098 0.262788 2.276000 255 0 0
-0.173798 0.261181 2.262000 255 0 0
-0.166574 0.259574 2.248000 255 0 0
-0.159568 0.258197 2.236000 255 0 0
-0.152902 0.257282 2.228000 255 0 0
-0.146411 0.256597 2.222000 255 0 0
-0.140078 0.256143 2.218000 255 0 0
-0.133706 0.255573 2.213000 255 0 0
-0.127419 0.255118 2.209000 255 0 0
-0.121044 0.254432 2.203000 255 0 0
-0.114805 0.253977 2.199000 255 0 0
-0.108588 0.253521 2.195000 255 0 0
-0.102439 0.253180 2.192000 255 0 0
-0.096173 0.252493 2.186000 255 0 0
-0.090106 0.252267 2.184000 255 0 0
-0.083972 0.251810 2.180000 255 0 0
-0.077967 0.251699 2.179000 255 0 0
-0.071901 0.251356 2.176000 255 0 0
-0.065911 0.251245 2.175000 255 0 0
-0.059927 0.251133 2.174000 255 0 0
-0.053949 0.251020 2.173000 255 0 0
-0.048019 0.251139 2.174000 255 0 0
-0.042065 0.251141 2.174000 255 0 0
-0.036094 0.251028 2.173000 255 0 0
-0.030155 0.251145 2.174000 255 0 0
-0.024234 0.251493 2.177000 255 0 0
-0.018288 0.251726 2.179000 255 0 0
-0.012319 0.251727 2.179000 255 0 0
-0.006356 0.251958 2.181000 255 0 0
-0.000383 0.252536 2.186000 255 0 0
0.005616 0.252998 2.190000 255 0 0
0.011636 0.253460 2.194000 255 0 0
0.017653 0.253574 2.195000 255 0 0
0.023709 0.254035 2.199000 255 0 0
0.029746 0.254149 2.200000 255 0 0
0.035788 0.254263 2.201000 255 0 0
0.041874 0.254607 2.204000 255 0 0
0.048041 0.255298 2.210000 255 0 0
0.054191 0.255757 2.214000 255 0 0
0.060364 0.256216 2.218000 255 0 0
0.066558 0.256674 2.222000 255 0 0
0.072806 0.257248 2.227000 255 0 0
0.079117 0.257937 2.233000 255 0 0
0.085499 0.258741 2.240000 255 0 0
0.091796 0.259198 2.244000 255 0 0
0.098115 0.259655 2.248000 255 0 0
0.104362 0.259880 2.250000 255 0 0
0.110718 0.260336 2.254000 255 0 0
0.116940 0.260445 2.255000 255 0 0
0.123167 0.260554 2.256000 255 0 0
0.129513 0.260894 2.259000 255 0 0
0.140021 0.269201 2.331000 255 0 0
0.149369 0.263180 2.279000 255 0 0
0.152942 0.258668 2.240000 255 0 0
0.158431 0.257620 2.231000 255 0 0
0.163796 0.256457 2.221000 255 0 0
0.169259 0.255524 2.213000 255 0 0
0.174361 0.254129 2.201000 255 0 0
0.179561 0.252965 2.191000 255 0 0
0.184620 0.251685 2.180000 255 0 0
0.190056 0.250983 2.174000 255 0 0
0.195908 0.250857 2.173000 255 0 0
0.201848 0.250846 2.173000 255 0 0
0.207596 0.250604 2.171000 255 0 0
0.213135 0.250132 2.167000 255 0 0
0.218449 0.249428 2.161000 255 0 0
-0.115345 0.181044 2.461687 255 255 0
-0.100445 0.181274 2.458678 255 255 0
-0.085570 0.181516 2.455733 255 255 0
-0.068148 0.182256 2.454566 255 255 0
-0.056748 0.181875 2.449472 255 255 0
-0.045365 0.181502 2.444425 255 255 0
-0.028873 0.182117 2.442889 255 255 0
-0.003019 0.184545 2.447812 255 255 0
0.020229 0.186504 2.451117 255 255 0
0.032364 0.186347 2.446932 255 255 0
0.031717 0.183725 2.433982 255 255 0
0.032780 0.181430 2.422190 255 255 0
0.046581 0.181620 2.419272 255 255 0
0.054425 0.180657 2.412250 255 255 0
0.053787 0.178032 2.399275 255 255 0
0.057390 0.176238 2.389277 255 255 0
0.066910 0.175619 2.383500 255 255 0
0.073884 0.174501 2.375942 255 255 0
0.075788 0.172377 2.364758 255 255 0
0.076853 0.170083 2.352954 255 255 0
0.114501 0.137290 2.177641 255 255 0
0.141284 0.140442 2.185875 255 255 0
0.161405 0.142204 2.189006 255 255 0
0.171584 0.141853 2.184341 255 255 0
0.171853 0.139376 2.171790 255 255 0
-0.232427 0.107802 2.353940 0 255 0
-0.213107 0.105698 2.352659 0 255 0
-0.190310 0.102728 2.349098 0 255 0
-0.179563 0.102881 2.353925 0 255 0
-0.173988 0.104370 2.362330 0 255 0
-0.173596 0.107185 2.374263 0 255 0
-0.177537 0.111096 2.389097 0 255 0
-0.173694 0.113025 2.398663 0 255 0
-0.169849 0.114956 2.408231 0 255 0
-0.162532 0.116015 2.415503 0 255 0
-0.157812 0.117734 2.424518 0 255 0
-0.151352 0.119020 2.432401 0 255 0
-0.138796 0.118796 2.436327 0 255 0
-0.131447 0.119880 2.443703 0 255 0
-0.127578 0.121831 2.453355 0 255 0
-0.121089 0.123140 2.461331 0 255 0
-0.064907 0.124022 2.486723 0 255 0
-0.024611 0.120183 2.486253 0 255 0
-0.291979 0.260984 2.317000 255 0 0
-0.285780 0.261111 2.318000 255 0 0
-0.279212 0.260900 2.316000 255 0 0
-0.273008 0.261027 2.317000 255 0 0
-0.267143 0.261491 2.321000 255 0 0
-0.261142 0.261842 2.324000 255 0 0
-0.255453 0.262531 2.330000 255 0 0
-0.249410 0.262882 2.333000 255 0 0
-0.243350 0.263233 2.336000 255 0 0
-0.237272 0.263584 2.339000 255 0 0
-0.231078 0.263821 2.341000 255 0 0
-0.225449 0.264735 2.349000 255 0 0
-0.218935 0.264633 2.348000 255 0 0
-0.211160 0.262954 2.333000 255 0 0
-0.203728 0.261612 2.321000 255 0 0
-0.195682 0.259369 2.301000 255 0 0
-0.188155 0.257688 2.286000 255 0 0
-0.180949 0.256345 2.274000 255 0 0
-0.174038 0.255340 2.265000 255 0 0
-0.166879 0.253883 2.252000 255 0 0
-0.160005 0.252765 2.242000 255 0 0
-0.153322 0.251871 2.234000 255 0 0
-0.146616 0.250864 2.225000 255 0 0
-0.140149 0.250196 2.219000 255 0 0
-0.133835 0.249752 2.215000 255 0 0
-0.127542 0.249308 2.211000 255 0 0
-0.121270 0.248864 2.207000 255 0 0
-0.114968 0.248306 2.202000 255 0 0
-0.108643 0.247636 2.196000 255 0 0
-0.102444 0.247191 2.192000 255 0 0
-0.096179 0.246519 2.186000 255 0 0
-0.090193 0.246524 2.186000 255 0 0
-0.084054 0.246078 2.182000 255 0 0
-0.078078 0.246083 2.182000 255 0 0
-0.071971 0.245636 2.178000 255 0 0
-0.065945 0.245414 2.176000 255 0 0
-0.059958 0.245304 2.175000 255 0 0
-0.053976 0.245195 2.174000 255 0 0
-0.048066 0.245423 2.176000 255 0 0
-0.042125 0.245538 2.177000 255 0 0
-0.036162 0.245541 2.177000 255 0 0
-0.030199 0.245542 2.177000 255 0 0
-0.024235 0.245544 2.177000 255 0 0
-0.018280 0.245658 2.178000 255 0 0
-0.012320 0.245772 2.179000 255 0 0
-0.006359 0.246110 2.182000 255 0 0
-0.000383 0.246675 2.187000 255 0 0
0.005618 0.247126 2.191000 255 0 0
0.011642 0.247576 2.195000 255 0 0
0.017687 0.248027 2.199000 255 0 0
0.023732 0.248251 2.201000 255 0 0
0.029788 0.248475 2.203000 255 0 0
0.035839 0.248586 2.204000 255 0 0
0.041952 0.249035 2.208000 255 0 0
0.048109 0.249597 2.213000 255 0 0
0.054317 0.250271 2.219000 255 0 0
0.060476 0.250606 2.222000 255 0 0
0.066681 0.251053 2.226000 255 0 0
0.072909 0.251501 2.230000 255 0 0
0.079193 0.252060 2.235000 255 0 0
0.085580 0.252845 2.242000 255 0 0
0.091965 0.253517 2.248000 255 0 0
0.098295 0.253963 2.252000 255 0 0
0.104646 0.254409 2.256000 255 0 0
0.111019 0.254854 2.260000 255 0 0
0.117257 0.254960 2.261000 255 0 0
0.123392 0.254841 2.260000 255 0 0
0.129348 0.254383 2.256000 255 0 0
0.147224 0.264291 2.344000 255 0 0
0.148263 0.255037 2.262000 255 0 0
0.153292 0.253112 2.245000 255 0 0
0.158511 0.251638 2.232000 255 0 0
0.163953 0.250615 2.223000 255 0 0
0.169192 0.249366 2.212000 255 0 0
0.174291 0.248004 2.200000 255 0 0
0.179324 0.246642 2.188000 255 0 0
0.184460 0.245505 2.178000 255 0 0
0.190153 0.245157 2.175000 255 0 0
0.195919 0.244922 2.173000 255 0 0
0.201673 0.244686 2.171000 255 0 0
0.207415 0.244450 2.169000 255 0 0
0.213146 0.244213 2.167000 255 0 0
0.218461 0.243526 2.161000 255 0 0
-0.101177 0.170032 2.459504 255 255 0
-0.082875 0.170963 2.458812 255 255 0
-0.059464 0.172896 2.461624 255 255 0
-0.046364 0.172872 2.457689 255 255 0
-0.030721 0.173355 2.455533 255 255 0
-0.016810 0.173519 2.452296 255 255 0
0.009021 0.176021 2.457232 255 255 0
0.025431 0.176713 2.455897 255 255 0
0.036706 0.176417 2.451132 255 255 0
0.033507 0.173282 2.436431 255 255 0
0.035420 0.171147 2.425229 255 255 0
0.044124 0.170359 2.418755 255 255 0
0.053665 0.169745 2.412906 255 255 0
0.053879 0.167275 2.400525 255 255 0
0.057483 0.165482 2.390522 255 255 0
0.067847 0.165050 2.385338 255 255 0
0.073975 0.163773 2.377170 255 255 0
0.075039 0.161472 2.365375 255 255 0
0.073581 0.158654 2.351737 255 255 0
0.129003 0.127015 2.177233 255 255 0
0.147478 0.128462 2.178999 255 255 0
0.154370 0.127404 2.171653 255 255 0
0.157958 0.125628 2.161686 255 255 0
-0.241792 0.096648 2.349630 0 255 0
-0.226804 0.095609 2.351291 0 255 0
-0.206627 0.093236 2.349448 0 255 0
-0.188145 0.091333 2.348892 0 255 0
-0.176537 0.091242 2.353149 0 255 0
-0.177866 0.094514 2.366271 0 255 0
-0.179203 0.097780 2.379368 0 255 0
-0.182278 0.101487 2.393603 0 255 0
-0.174975 0.102524 2.400841 0 255 0
-0.173729 0.105116 2.412145 0 255 0
-0.171620 0.107486 2.422865 0 255 0
-0.161700 0.107873 2.428425 0 255 0
-0.151769 0.108270 2.434026 0 255 0
-0.140087 0.108236 2.438532 0 255 0
-0.135351 0.109963 2.447608 0 255 0
-0.127999 0.111038 2.455006 0 255 0
-0.124999 0.113207 2.465229 0 255 0
-0.018057 0.107453 2.483667 0 255 0
-0.291363 0.254109 2.312000 255 0 0
-0.285424 0.254452 2.315000 255 0 0
-0.279226 0.254576 2.316000 255 0 0
-0.273139 0.254810 2.318000 255 0 0
-0.267271 0.255263 2.322000 255 0 0
-0.261380 0.255716 2.326000 255 0 0
-0.255466 0.256168 2.330000 255 0 0
-0.249530 0.256621 2.334000 255 0 0
-0.243258 0.256743 2.335000 255 0 0
-0.237183 0.257085 2.338000 255 0 0
-0.231189 0.257537 2.342000 255 0 0
-0.225556 0.258428 2.350000 255 0 0
-0.218108 0.257230 2.339000 255 0 0
-0.210356 0.255591 2.324000 255 0 0
-0.203563 0.255052 2.319000 255 0 0
-0.195947 0.253412 2.304000 255 0 0
-0.188412 0.251772 2.289000 255 0 0
-0.181038 0.250242 2.275000 255 0 0
-0.173970 0.249041 2.264000 255 0 0
-0.166888 0.247730 2.252000 255 0 0
-0.160227 0.246969 2.245000 255 0 0
-0.153673 0.246317 2.239000 255 0 0
-0.146888 0.245225 2.229000 255 0 0
-0.140283 0.244352 2.221000 255 0 0
-0.133842 0.243699 2.215000 255 0 0
-0.127664 0.243486 2.213000 255 0 0
-0.121442 0.243163 2.210000 255 0 0
-0.115235 0.242839 2.207000 255 0 0
-0.108847 0.242075 2.200000 255 0 0
-0.102496 0.241310 2.193000 255 0 0
-0.096228 0.240655 2.187000 255 0 0
-0.090198 0.240550 2.186000 255 0 0
-0.084097 0.240225 2.183000 255 0 0
-0.078083 0.240119 2.182000 255 0 0
-0.072008 0.239793 2.179000 255 0 0
-0.065979 0.239576 2.177000 255 0 0
-0.060017 0.239580 2.177000 255 0 0
-0.054079 0.239693 2.178000 255 0 0
-0.048157 0.239916 2.180000 255 0 0
-0.042185 0.239918 2.180000 255 0 0
-0.036214 0.239920 2.180000 255 0 0
-0.030228 0.239812 2.179000 255 0 0
-0.024259 0.239814 2.179000 255 0 0
-0.018290 0.239815 2.179000 255 0 0
-0.012337 0.240146 2.182000 255 0 0
-0.006368 0.240476 2.185000 255 0 0
-0.000383 0.240917 2.189000 255 0 0
0.005624 0.241357 2.193000 255 0 0
0.011653 0.241797 2.197000 255 0 0
0.017712 0.242346 2.202000 255 0 0
0.023776 0.242675 2.205000 255 0 0
0.029844 0.242894 2.207000 255 0 0
0.035906 0.243002 2.208000 255 0 0
0.042049 0.243550 2.213000 255 0 0
0.048198 0.243988 2.217000 255 0 0
0.054418 0.244646 2.223000 255 0 0
0.060534 0.244753 2.224000 255 0 0
0.066775 0.245299 2.229000 255 0 0
0.072978 0.245626 2.232000 255 0 0
0.079268 0.246172 2.237000 255 0 0
0.085623 0.246828 2.243000 255 0 0
0.092052 0.247593 2.250000 255 0 0
0.098474 0.248248 2.256000 255 0 0
0.104883 0.248793 2.261000 255 0 0
0.111319 0.249338 2.266000 255 0 0
0.117679 0.249662 2.269000 255 0 0
0.123944 0.249765 2.270000 255 0 0
0.129871 0.249208 2.265000 255 0 0
0.148796 0.249736 2.270000 255 0 0
0.153095 0.246648 2.242000 255 0 0
0.158377 0.245320 2.230000 255 0 0
0.163888 0.244431 2.222000 255 0 0
0.169201 0.243323 2.212000 255 0 0
0.174221 0.241884 2.199000 255 0 0
0.179334 0.240664 2.188000 255 0 0
0.184555 0.239665 2.179000 255 0 0
0.190163 0.239216 2.175000 255 0 0
0.195929 0.238986 2.173000 255 0 0
0.201590 0.238645 2.170000 255 0 0
0.207330 0.238415 2.168000 255 0 0
0.213059 0.238184 2.166000 255 0 0
0.218472 0.237624 2.161000 255 0 0
-0.101048 0.158939 2.460898 255 255 0
-0.076752 0.161080 2.464156 255 255 0
-0.051643 0.163410 2.468104 255 255 0
-0.034279 0.164256 2.467037 255 255 0
-0.021216 0.164278 2.463181 255 255 0
-0.003905 0.165151 2.462264 255 255 0
0.018492 0.167052 2.464901 255 255 0
0.030628 0.166942 2.460673 255 255 0
0.039343 0.166163 2.454160 255 255 0
0.042947 0.164369 2.444159 255 255 0
0.047399 0.162746 2.434748 255 255 0
0.055242 0.161808 2.427709 255 255 0
0.057991 0.159846 2.417131 255 255 0
0.058204 0.157368 2.404760 255 255 0
0.063496 0.155921 2.395963 255 255 0
0.071318 0.154994 2.388982 255 255 0
0.079130 0.154073 2.382026 255 255 0
0.081034 0.151940 2.370850 255 255 0
0.078733 0.148935 2.356618 255 255 0
0.069717 0.144527 2.337461 255 255 0
0.115406 0.110611 2.154624 255 255 0
0.136352 0.112651 2.158336 255 255 0
0.149022 0.112880 2.155561 255 255 0
-0.244771 0.086726 2.352959 0 255 0
-0.227210 0.084966 2.352834 0 255 0
-0.202740 0.081404 2.348037 0 255 0
-0.180816 0.078550 2.345141 0 255 0
-0.176103 0.080251 2.354150 0 255 0
-0.176565 0.083311 2.366689 0 255 0
-0.180488 0.087269 2.381545 0 255 0
-0.175779 0.088969 2.390540 0 255 0
-0.173661 0.091345 2.401282 0 255 0
-0.176742 0.095063 2.415480 0 255 0
-0.173766 0.097211 2.425622 0 255 0
-0.168187 0.098691 2.434046 0 255 0
-0.154792 0.098175 2.437362 0 255 0
-0.137903 0.096785 2.438471 0 255 0
-0.132295 0.098287 2.446997 0 255 0
-0.131905 0.101117 2.458907 0 255 0
-0.128035 0.103064 2.468565 0 255 0
-0.295755 0.246174 2.297000 255 0 0
-0.291503 0.247902 2.313000 255 0 0
-0.285561 0.248238 2.316000 255 0 0
-0.279360 0.248359 2.317000 255 0 0
-0.273153 0.248479 2.318000 255 0 0
-0.267284 0.248921 2.322000 255 0 0
-0.261168 0.249148 2.324000 255 0 0
-0.255260 0.249590 2.328000 255 0 0
-0.249114 0.249817 2.330000 255 0 0
-0.243062 0.250150 2.333000 255 0 0
-0.237195 0.250698 2.338000 255 0 0
-0.231694 0.251675 2.347000 255 0 0
-0.225568 0.252008 2.350000 255 0 0
-0.217186 0.249767 2.329000 255 0 0
-0.209824 0.248598 2.318000 255 0 0
-0.203311 0.248394 2.316000 255 0 0
-0.196127 0.247332 2.306000 255 0 0
-0.188586 0.245733 2.291000 255 0 0
-0.180968 0.243918 2.274000 255 0 0
-0.173979 0.242855 2.264000 255 0 0
-0.167045 0.241791 2.254000 255 0 0
-0.160521 0.241263 2.249000 255 0 0
-0.153956 0.240627 2.243000 255 0 0
-0.147291 0.239777 2.235000 255 0 0
-0.140416 0.238497 2.223000 255 0 0
-0.133849 0.237646 2.215000 255 0 0
-0.127555 0.237223 2.211000 255 0 0
-0.121448 0.237122 2.210000 255 0 0
-0.115189 0.236699 2.206000 255 0 0
-0.108902 0.236169 2.201000 255 0 0
-0.102595 0.235530 2.195000 255 0 0
-0.096321 0.234892 2.189000 255 0 0
-0.090162 0.234468 2.185000 255 0 0
-0.084063 0.234150 2.182000 255 0 0
-0.078087 0.234154 2.182000 255 0 0
-0.072045 0.233944 2.180000 255 0 0
-0.066074 0.233947 2.180000 255 0 0
-0.060075 0.233843 2.179000 255 0 0
-0.054106 0.233846 2.179000 255 0 0
-0.048137 0.233849 2.179000 255 0 0
-0.042168 0.233852 2.179000 255 0 0
-0.036199 0.233854 2.179000 255 0 0
-0.030244 0.233963 2.180000 255 0 0
-0.024260 0.233857 2.179000 255 0 0
-0.018299 0.233965 2.180000 255 0 0
-0.012344 0.234288 2.183000 255 0 0
-0.006369 0.234503 2.185000 255 0 0
-0.000383 0.234718 2.187000 255 0 0
0.005622 0.235254 2.192000 255 0 0
0.011664 0.236005 2.199000 255 0 0
0.017729 0.236541 2.204000 255 0 0
0.023810 0.236969 2.208000 255 0 0
0.029900 0.237290 2.211000 255 0 0
0.036022 0.237717 2.215000 255 0 0
0.042128 0.237930 2.217000 255 0 0
0.048288 0.238357 2.221000 255 0 0
0.054470 0.238783 2.225000 255 0 0
0.060619 0.238995 2.227000 255 0 0
0.066838 0.239421 2.231000 255 0 0
0.073080 0.239846 2.235000 255 0 0
0.079378 0.240379 2.240000 255 0 0
0.085704 0.240911 2.245000 255 0 0
0.092097 0.241550 2.251000 255 0 0
0.098567 0.242297 2.258000 255 0 0
0.105028 0.242935 2.264000 255 0 0
0.111374 0.243251 2.267000 255 0 0
0.117788 0.243675 2.271000 255 0 0
0.124169 0.243990 2.274000 255 0 0
0.130624 0.244413 2.278000 255 0 0
0.143659 0.245364 2.287000 255 0 0
0.149590 0.244820 2.282000 255 0 0
0.152966 0.240306 2.240000 255 0 0
0.158527 0.239440 2.232000 255 0 0
0.163970 0.238467 2.223000 255 0 0
0.169210 0.237278 2.212000 255 0 0
0.174072 0.235660 2.197000 255 0 0
0.179097 0.234364 2.185000 255 0 0
0.184310 0.233390 2.176000 255 0 0
0.189998 0.233058 2.173000 255 0 0
0.195578 0.232620 2.169000 255 0 0
0.201136 0.232181 2.165000 255 0 0
0.206958 0.232063 2.164000 255 0 0
0.212971 0.232160 2.165000 255 0 0
0.218382 0.231613 2.160000 255 0 0
0.219954 0.221298 2.064000 255 0 0
-0.104645 0.149691 2.472638 255 255 0
-0.091485 0.149690 2.468492 255 255 0
-0.068921 0.151561 2.470626 255 255 0
-0.045542 0.153621 2.473440 255 255 0
-0.029043 0.154342 2.471805 255 255 0
-0.016842 0.154224 2.467379 255 255 0
-0.006367 0.153773 2.461853 255 255 0
0.012616 0.155045 2.462151 255 255 0
0.025607 0.155129 2.458475 255 255 0
0.038578 0.155225 2.454855 255 255 0
0.046431 0.154293 2.447776 255 255 0
0.054276 0.153367 2.440723 255 255 0
0.058720 0.151751 2.431332 255 255 0
0.062315 0.149962 2.421354 255 255 0
0.065064 0.147999 2.410780 255 255 0
0.068660 0.146210 2.400800 255 255 0
0.074787 0.144949 2.392624 255 255 0
0.078379 0.143162 2.382653 255 255 0
0.085340 0.142082 2.375107 255 255 0
0.092294 0.141005 2.367580 255 255 0
0.118024 0.100310 2.157748 255 255 0
0.140608 0.102777 2.162763 255 255 0
0.154094 0.103221 2.160648 255 255 0
-0.245171 0.076116 2.354489 0 255 0
-0.227619 0.074313 2.354381 0 255 0
-0.188538 0.066774 2.339507 0 255 0
-0.177396 0.069703 2.356333 0 255 0
-0.164919 0.069345 2.360075 0 255 0
-0.147249 0.067630 2.360371 0 255 0
-0.165834 0.075489 2.385165 0 255 0
-0.175811 0.081053 2.404045 0 255 0
-0.175426 0.083883 2.415933 0 255 0
-0.176778 0.087162 2.428952 0 255 0
-0.172936 0.089084 2.438519 0 255 0
-0.158682 0.088309 2.441266 0 255 0
-0.148750 0.088671 2.446909 0 255 0
-0.134460 0.087922 2.449776 0 255 0
-0.131459 0.090090 2.460000 0 255 0
-0.135423 0.094040 2.474693 0 255 0
-0.297571 0.241363 2.311000 255 0 0
-0.292399 0.242317 2.320000 255 0 0
-0.285821 0.242121 2.318000 255 0 0
-0.279253 0.241926 2.316000 255 0 0
-0.273048 0.242043 2.317000 255 0 0
-0.267067 0.242369 2.320000 255 0 0
-0.261181 0.242800 2.324000 255 0 0
-0.255053 0.243021 2.326000 255 0 0
-0.249127 0.243451 2.330000 255 0 0
-0.242761 0.243463 2.330000 255 0 0
-0.237003 0.244102 2.336000 255 0 0
-0.231607 0.245158 2.346000 255 0 0
-0.225195 0.245169 2.346000 255 0 0
-0.217010 0.243194 2.327000 255 0 0
-0.209924 0.242369 2.319000 255 0 0
-0.203321 0.242065 2.316000 255 0 0
-0.196392 0.241344 2.309000 255 0 0
-0.188678 0.239576 2.292000 255 0 0
-0.180977 0.237704 2.274000 255 0 0
-0.173757 0.236354 2.261000 255 0 0
-0.167127 0.235735 2.255000 255 0 0
-0.160601 0.235221 2.250000 255 0 0
-0.154101 0.234706 2.245000 255 0 0
-0.147496 0.233982 2.238000 255 0 0
-0.140613 0.232734 2.226000 255 0 0
-0.133976 0.231800 2.217000 255 0 0
-0.127619 0.231284 2.212000 255 0 0
-0.121399 0.230977 2.209000 255 0 0
-0.115247 0.230774 2.207000 255 0 0
-0.109056 0.230466 2.204000 255 0 0
-0.102788 0.229948 2.199000 255 0 0
-0.096502 0.229326 2.193000 255 0 0
-0.090249 0.228703 2.187000 255 0 0
-0.084105 0.228289 2.183000 255 0 0
-0.078091 0.228189 2.182000 255 0 0
-0.072114 0.228193 2.182000 255 0 0
-0.066107 0.228092 2.181000 255 0 0
-0.060161 0.228200 2.182000 255 0 0
-0.054159 0.228098 2.181000 255 0 0
-0.048184 0.228101 2.181000 255 0 0
-0.042209 0.228103 2.181000 255 0 0
-0.036251 0.228210 2.182000 255 0 0
-0.030273 0.228211 2.182000 255 0 0
-0.024284 0.228108 2.181000 255 0 0
-0.018300 0.228005 2.180000 255 0 0
-0.012333 0.228110 2.181000 255 0 0
-0.006366 0.228424 2.184000 255 0 0
-0.000383 0.228947 2.189000 255 0 0
0.005627 0.229470 2.194000 255 0 0
0.011675 0.230202 2.201000 255 0 0
0.017738 0.230620 2.205000 255 0 0
0.023833 0.231141 2.210000 255 0 0
0.029928 0.231454 2.213000 255 0 0
0.036056 0.231870 2.217000 255 0 0
0.042149 0.231973 2.218000 255 0 0
0.048355 0.232598 2.224000 255 0 0
0.054546 0.233014 2.228000 255 0 0
0.060758 0.233429 2.232000 255 0 0
0.066962 0.233740 2.235000 255 0 0
0.073214 0.234154 2.239000 255 0 0
0.079560 0.234778 2.245000 255 0 0
0.085823 0.235087 2.248000 255 0 0
0.092184 0.235606 2.253000 255 0 0
0.098572 0.236124 2.258000 255 0 0
0.105034 0.236746 2.264000 255 0 0
0.111429 0.237159 2.268000 255 0 0
0.117795 0.237466 2.271000 255 0 0
0.124176 0.237774 2.274000 255 0 0
0.130573 0.238081 2.277000 255 0 0
0.148942 0.237537 2.272000 255 0 0
0.153316 0.234707 2.245000 255 0 0
0.158748 0.233654 2.235000 255 0 0
0.163978 0.232391 2.223000 255 0 0
0.168989 0.230919 2.209000 255 0 0
0.173764 0.229238 2.193000 255 0 0
0.178860 0.228079 2.182000 255 0 0
0.184065 0.227130 2.173000 255 0 0
0.189745 0.226807 2.170000 255 0 0
0.195227 0.226275 2.165000 255 0 0
0.200867 0.225952 2.162000 255 0 0
0.206777 0.225942 2.162000 255 0 0
0.212785 0.226036 2.163000 255 0 0
0.218190 0.225503 2.158000 255 0 0
-0.099366 0.139601 2.477405 255 255 0
-0.084500 0.139974 2.474387 255 255 0
-0.064521 0.141390 2.474827 255 255 0
-0.042010 0.143340 2.477067 255 255 0
-0.025521 0.144102 2.475427 255 255 0
-0.011619 0.144358 2.472146 255 255 0
-0.002856 0.143584 2.465475 255 255 0
0.011007 0.143859 2.462301 255 255 0
0.023146 0.143797 2.458028 255 255 0
0.037815 0.144269 2.455554 255 255 0
0.048216 0.143877 2.450220 255 255 0
0.059451 0.143667 2.445515 255 255 0
0.061349 0.141527 2.434363 255 255 0
0.064943 0.139740 2.424387 255 255 0
0.071918 0.138661 2.416794 255 255 0
