ply
format ascii 1.0
element vertex 1297
property double x
property double y
property double z
property uchar red
property uchar green
property uchar blue
end_header
-0.213505 -0.143068 2.288000 255 0 0
-0.206340 -0.142449 2.278000 255 0 0
-0.200021 -0.142393 2.277000 255 0 0
-0.193706 -0.142336 2.276000 255 0 0
-0.187560 -0.142405 2.277000 255 0 0
-0.181090 -0.142223 2.274000 255 0 0
-0.174481 -0.141916 2.269000 255 0 0
-0.167900 -0.141608 2.264000 255 0 0
-0.161345 -0.141301 2.259000 255 0 0
-0.155366 -0.141493 2.262000 255 0 0
-0.149238 -0.141561 2.263000 255 0 0
-0.143104 -0.141628 2.264000 255 0 0
-0.137025 -0.141758 2.266000 255 0 0
-0.131165 -0.142137 2.272000 255 0 0
-0.125271 -0.142517 2.278000 255 0 0
-0.119188 -0.142708 2.281000 255 0 0
-0.113087 -0.142900 2.284000 255 0 0
-0.106970 -0.143091 2.287000 255 0 0
-0.101188 -0.143782 2.298000 255 0 0
-0.095427 -0.144599 2.311000 255 0 0
-0.089904 -0.145916 2.332000 255 0 0
-0.083907 -0.146607 2.343000 255 0 0
-0.077783 -0.147173 2.352000 255 0 0
-0.071519 -0.147551 2.358000 255 0 0
-0.065497 -0.148554 2.374000 255 0 0
-0.059959 -0.150997 2.413000 255 0 0
-0.053256 -0.150748 2.409000 255 0 0
-0.046478 -0.150186 2.400000 255 0 0
-0.039649 -0.149249 2.385000 255 0 0
-0.032917 -0.148374 2.371000 255 0 0
-0.026338 -0.147937 2.364000 255 0 0
-0.019790 -0.147437 2.356000 255 0 0
-0.013286 -0.146937 2.348000 255 0 0
-0.006846 -0.146875 2.347000 255 0 0
-0.000412 -0.147188 2.352000 255 0 0
0.006028 -0.147000 2.349000 255 0 0
0.012463 -0.146937 2.348000 255 0 0
0.018900 -0.146937 2.348000 255 0 0
0.025359 -0.147061 2.350000 255 0 0
0.031747 -0.146810 2.346000 255 0 0
0.038179 -0.146809 2.346000 255 0 0
0.044705 -0.147120 2.351000 255 0 0
0.051280 -0.147494 2.357000 255 0 0
0.057913 -0.147931 2.364000 255 0 0
0.064529 -0.148241 2.369000 255 0 0
0.071232 -0.148677 2.376000 255 0 0
0.077712 -0.148612 2.375000 255 0 0
0.083902 -0.148047 2.366000 255 0 0
0.090195 -0.147731 2.361000 255 0 0
-0.097906 -0.518164 2.731468 255 255 0
-0.073918 -0.512196 2.732728 255 255 0
-0.039885 -0.502297 2.740046 255 255 0
-0.035312 -0.503782 2.730146 255 255 0
-0.032419 -0.505919 2.719254 255 255 0
-0.004384 -0.498245 2.723425 255 255 0
-0.012399 -0.504627 2.706041 255 255 0
-0.022062 -0.511677 2.687572 255 255 0
-0.014990 -0.512173 2.679221 255 255 0
-0.006257 -0.512008 2.671916 255 255 0
-0.010871 -0.517105 2.656405 255 255 0
-0.006310 -0.518585 2.646537 255 255 0
-0.236125 -0.151790 2.326000 255 0 0
-0.228975 -0.151275 2.318000 255 0 0
-0.221388 -0.150434 2.305000 255 0 0
-0.213778 -0.149527 2.291000 255 0 0
-0.206062 -0.148489 2.275000 255 0 0
-0.199839 -0.148496 2.275000 255 0 0
-0.193785 -0.148633 2.277000 255 0 0
-0.187719 -0.148769 2.279000 255 0 0
-0.181004 -0.148384 2.273000 255 0 0
-0.174476 -0.148128 2.269000 255 0 0
-0.168117 -0.148003 2.267000 255 0 0
-0.161839 -0.147944 2.266000 255 0 0
-0.155567 -0.147883 2.265000 255 0 0
-0.149431 -0.147954 2.266000 255 0 0
-0.143226 -0.147959 2.266000 255 0 0
-0.137323 -0.148290 2.271000 255 0 0
-0.131276 -0.148490 2.274000 255 0 0
-0.125267 -0.148755 2.278000 255 0 0
-0.119027 -0.148759 2.278000 255 0 0
-0.112984 -0.149025 2.282000 255 0 0
-0.107013 -0.149420 2.288000 255 0 0
-0.101184 -0.150077 2.298000 255 0 0
-0.095424 -0.150929 2.311000 255 0 0
-0.089708 -0.151977 2.327000 255 0 0
-0.083689 -0.152633 2.337000 255 0 0
-0.077615 -0.153289 2.347000 255 0 0
-0.071638 -0.154271 2.362000 255 0 0
-0.059485 -0.156365 2.394000 255 0 0
-0.053276 -0.157412 2.410000 255 0 0
-0.046534 -0.156957 2.403000 255 0 0
-0.039731 -0.156109 2.390000 255 0 0
-0.033027 -0.155392 2.379000 255 0 0
-0.026449 -0.155066 2.374000 255 0 0
-0.019907 -0.154806 2.370000 255 0 0
-0.013348 -0.154088 2.359000 255 0 0
-0.006878 -0.154023 2.358000 255 0 0
-0.000413 -0.154088 2.359000 255 0 0
0.006049 -0.153958 2.357000 255 0 0
0.012489 -0.153696 2.353000 255 0 0
0.018932 -0.153630 2.352000 255 0 0
0.025380 -0.153629 2.352000 255 0 0
0.031828 -0.153628 2.352000 255 0 0
0.038292 -0.153693 2.353000 255 0 0
0.044875 -0.154148 2.360000 255 0 0
0.051453 -0.154473 2.365000 255 0 0
0.058009 -0.154667 2.368000 255 0 0
0.064527 -0.154731 2.369000 255 0 0
0.071230 -0.155186 2.376000 255 0 0
0.077677 -0.155053 2.374000 255 0 0
0.084112 -0.154919 2.372000 255 0 0
-0.094774 -0.525335 2.747568 255 255 0
-0.098569 -0.530117 2.732628 255 255 0
-0.037208 -0.512781 2.743129 255 255 0
-0.029278 -0.512946 2.735218 255 255 0
-0.034775 -0.518375 2.719348 255 255 0
-0.015125 -0.513923 2.718472 255 255 0
0.003654 -0.509785 2.717189 255 255 0
-0.021897 -0.523148 2.689148 255 255 0
-0.013991 -0.523303 2.681297 255 255 0
0.003915 -0.519477 2.679614 255 255 0
-0.142854 -0.598412 2.510162 255 255 0
-0.237133 -0.158835 2.336000 255 0 0
-0.229264 -0.157823 2.321000 255 0 0
-0.221381 -0.156742 2.305000 255 0 0
-0.213864 -0.155866 2.292000 255 0 0
-0.206599 -0.155125 2.281000 255 0 0
-0.200271 -0.155063 2.280000 255 0 0
-0.194034 -0.155070 2.280000 255 0 0
-0.187795 -0.155076 2.280000 255 0 0
-0.181078 -0.154674 2.274000 255 0 0
-0.174701 -0.154544 2.272000 255 0 0
-0.168408 -0.154482 2.271000 255 0 0
-0.162120 -0.154420 2.270000 255 0 0
-0.155630 -0.154153 2.266000 255 0 0
-0.149360 -0.154090 2.265000 255 0 0
-0.143221 -0.154163 2.266000 255 0 0
-0.137318 -0.154508 2.271000 255 0 0
-0.131387 -0.154853 2.276000 255 0 0
-0.125318 -0.155062 2.279000 255 0 0
-0.119127 -0.155134 2.280000 255 0 0
-0.113080 -0.155410 2.284000 255 0 0
-0.107103 -0.155822 2.290000 255 0 0
-0.101225 -0.156438 2.299000 255 0 0
-0.095380 -0.157190 2.310000 255 0 0
-0.089590 -0.158146 2.324000 255 0 0
-0.083507 -0.158693 2.332000 255 0 0
-0.077480 -0.159445 2.343000 255 0 0
-0.059855 -0.163943 2.409000 255 0 0
-0.053363 -0.164286 2.414000 255 0 0
-0.046630 -0.163879 2.408000 255 0 0
-0.039829 -0.163064 2.396000 255 0 0
-0.033109 -0.162317 2.385000 255 0 0
-0.026493 -0.161841 2.378000 255 0 0
-0.019982 -0.161910 2.379000 255 0 0
-0.013438 -0.161638 2.375000 255 0 0
-0.006915 -0.161367 2.371000 255 0 0
-0.000414 -0.160958 2.365000 255 0 0
0.006064 -0.160822 2.363000 255 0 0
0.012505 -0.160345 2.356000 255 0 0
0.018964 -0.160345 2.356000 255 0 0
0.025411 -0.160276 2.355000 255 0 0
0.031908 -0.160479 2.358000 255 0 0
0.038355 -0.160410 2.357000 255 0 0
0.044911 -0.160749 2.362000 255 0 0
0.051408 -0.160815 2.363000 255 0 0
0.057958 -0.161017 2.366000 255 0 0
0.064470 -0.161083 2.367000 255 0 0
0.071138 -0.161489 2.373000 255 0 0
0.077707 -0.161623 2.375000 255 0 0
0.084641 -0.162437 2.387000 255 0 0
-0.092497 -0.539445 2.737700 255 255 0
-0.072735 -0.535000 2.736480 255 255 0
-0.041252 -0.525906 2.742264 255 255 0
-0.014022 -0.518439 2.745738 255 255 0
-0.011986 -0.520902 2.734401 255 255 0
-0.021667 -0.528018 2.716043 255 255 0
-0.026302 -0.533152 2.700626 255 255 0
0.016694 -0.519305 2.714002 255 255 0
-0.024673 -0.539108 2.676257 255 255 0
-0.126860 -0.603973 2.521809 255 255 0
-0.111401 -0.601134 2.518412 255 255 0
-0.237328 -0.165369 2.338000 255 0 0
-0.229355 -0.164245 2.322000 255 0 0
-0.221662 -0.163263 2.308000 255 0 0
-0.214417 -0.162563 2.298000 255 0 0
-0.206773 -0.161509 2.283000 255 0 0
-0.200089 -0.161162 2.278000 255 0 0
-0.193772 -0.161098 2.277000 255 0 0
-0.187624 -0.161176 2.278000 255 0 0
-0.181072 -0.160899 2.274000 255 0 0
-0.174695 -0.160764 2.272000 255 0 0
-0.168328 -0.160629 2.270000 255 0 0
-0.162043 -0.160564 2.269000 255 0 0
-0.155556 -0.160286 2.265000 255 0 0
-0.149421 -0.160362 2.266000 255 0 0
-0.143532 -0.160721 2.271000 255 0 0
-0.137495 -0.160939 2.274000 255 0 0
-0.131325 -0.161014 2.275000 255 0 0
-0.125039 -0.160948 2.274000 255 0 0
-0.119123 -0.161377 2.280000 255 0 0
-0.113076 -0.161664 2.284000 255 0 0
-0.107146 -0.162164 2.291000 255 0 0
-0.101221 -0.162734 2.299000 255 0 0
-0.095583 -0.163870 2.315000 255 0 0
-0.089663 -0.164652 2.326000 255 0 0
-0.083576 -0.165221 2.334000 255 0 0
-0.077345 -0.165578 2.339000 255 0 0
-0.060623 -0.172736 2.440000 255 0 0
-0.053516 -0.171393 2.421000 255 0 0
-0.046667 -0.170616 2.410000 255 0 0
-0.039928 -0.170051 2.402000 255 0 0
-0.033260 -0.169628 2.396000 255 0 0
-0.026670 -0.169487 2.394000 255 0 0
-0.020091 -0.169346 2.392000 255 0 0
-0.013505 -0.168993 2.387000 255 0 0
-0.006956 -0.168852 2.385000 255 0 0
-0.000417 -0.168356 2.378000 255 0 0
0.006087 -0.167931 2.372000 255 0 0
0.012531 -0.167152 2.361000 255 0 0
0.019011 -0.167222 2.362000 255 0 0
0.025432 -0.166868 2.357000 255 0 0
0.031920 -0.167008 2.359000 255 0 0
0.038354 -0.166865 2.357000 255 0 0
0.044872 -0.167076 2.360000 255 0 0
0.051362 -0.167145 2.361000 255 0 0
0.057858 -0.167214 2.362000 255 0 0
0.064386 -0.167353 2.364000 255 0 0
0.071045 -0.167776 2.370000 255 0 0
0.077867 -0.168481 2.380000 255 0 0
0.085276 -0.170248 2.405000 255 0 0
-0.089370 -0.546580 2.753787 255 255 0
-0.078858 -0.545751 2.747155 255 255 0
-0.056597 -0.540250 2.747429 255 255 0
-0.034377 -0.534730 2.747815 255 255 0
-0.013510 -0.532996 2.734987 255 255 0
-0.042425 -0.547857 2.705121 255 255 0
-0.019497 -0.548602 2.680886 255 255 0
-0.129089 -0.616909 2.521874 255 255 0
-0.123555 -0.618110 2.512119 255 255 0
-0.237116 -0.171619 2.336000 255 0 0
-0.228853 -0.170232 2.317000 255 0 0
-0.221270 -0.169285 2.304000 255 0 0
-0.214503 -0.168925 2.299000 255 0 0
-0.207219 -0.168124 2.288000 255 0 0
-0.200697 -0.167911 2.285000 255 0 0
-0.193765 -0.167330 2.277000 255 0 0
-0.187535 -0.167337 2.277000 255 0 0
-0.180986 -0.167050 2.273000 255 0 0
-0.174765 -0.167056 2.273000 255 0 0
-0.168025 -0.166548 2.266000 255 0 0
-0.161751 -0.166481 2.265000 255 0 0
-0.155276 -0.166192 2.261000 255 0 0
-0.149481 -0.166639 2.267000 255 0 0
-0.143717 -0.167159 2.274000 255 0 0
-0.137610 -0.167311 2.276000 255 0 0
-0.131262 -0.167169 2.274000 255 0 0
-0.124924 -0.167027 2.272000 255 0 0
-0.119171 -0.167693 2.281000 255 0 0
-0.113170 -0.168065 2.286000 255 0 0
-0.107235 -0.168584 2.293000 255 0 0
-0.101129 -0.168882 2.297000 255 0 0
-0.095455 -0.169988 2.312000 255 0 0
-0.089776 -0.171242 2.329000 255 0 0
-0.083752 -0.171980 2.339000 255 0 0
-0.077607 -0.172571 2.347000 255 0 0
-0.060845 -0.180079 2.449000 255 0 0
-0.053668 -0.178537 2.428000 255 0 0
-0.046781 -0.177657 2.416000 255 0 0
-0.039959 -0.176776 2.404000 255 0 0
-0.033301 -0.176410 2.399000 255 0 0
-0.026669 -0.176043 2.394000 255 0 0
-0.020073 -0.175750 2.390000 255 0 0
-0.013527 -0.175824 2.391000 255 0 0
-0.006970 -0.175751 2.390000 255 0 0
-0.000418 -0.175457 2.386000 255 0 0
0.006097 -0.174721 2.376000 255 0 0
0.012562 -0.174059 2.367000 255 0 0
0.019035 -0.173912 2.365000 255 0 0
0.025463 -0.173543 2.360000 255 0 0
0.031919 -0.173468 2.359000 255 0 0
0.038369 -0.173394 2.358000 255 0 0
0.044927 -0.173760 2.363000 255 0 0
0.051360 -0.173611 2.361000 255 0 0
0.057905 -0.173829 2.364000 255 0 0
0.064466 -0.174048 2.367000 255 0 0
0.071282 -0.174854 2.378000 255 0 0
0.078192 -0.175733 2.390000 255 0 0
0.085592 -0.177495 2.414000 255 0 0
-0.077410 -0.553509 2.762226 255 255 0
-0.071118 -0.554330 2.753184 255 255 0
-0.037115 -0.544067 2.760316 255 255 0
-0.020796 -0.540833 2.757297 255 255 0
-0.036352 -0.550377 2.735556 255 255 0
-0.045169 -0.557244 2.717680 255 255 0
-0.069850 -0.570536 2.690236 255 255 0
-0.238529 -0.179077 2.350000 255 0 0
-0.229141 -0.176800 2.320000 255 0 0
-0.221646 -0.175894 2.308000 255 0 0
-0.214401 -0.175139 2.298000 255 0 0
-0.206668 -0.173928 2.282000 255 0 0
-0.200338 -0.173859 2.281000 255 0 0
-0.193758 -0.173562 2.277000 255 0 0
-0.187528 -0.173569 2.277000 255 0 0
-0.180820 -0.173118 2.271000 255 0 0
-0.174605 -0.173125 2.271000 255 0 0
-0.167945 -0.172674 2.265000 255 0 0
-0.161745 -0.172680 2.265000 255 0 0
-0.155407 -0.172534 2.263000 255 0 0
-0.149608 -0.172997 2.269000 255 0 0
-0.143585 -0.173231 2.272000 255 0 0
-0.137424 -0.173313 2.273000 255 0 0
-0.131142 -0.173242 2.272000 255 0 0
-0.124974 -0.173323 2.273000 255 0 0
-0.119271 -0.174090 2.283000 255 0 0
-0.113265 -0.174476 2.288000 255 0 0
-0.107231 -0.174861 2.293000 255 0 0
-0.101082 -0.175094 2.296000 255 0 0
-0.095369 -0.176166 2.310000 255 0 0
-0.089695 -0.177466 2.327000 255 0 0
-0.083820 -0.178537 2.341000 255 0 0
-0.061190 -0.187853 2.463000 255 0 0
-0.053777 -0.185567 2.433000 255 0 0
-0.046779 -0.184272 2.416000 255 0 0
-0.040024 -0.183664 2.408000 255 0 0
-0.033341 -0.183208 2.402000 255 0 0
-0.026713 -0.182904 2.398000 255 0 0
-0.020123 -0.182752 2.396000 255 0 0
-0.013566 -0.182905 2.398000 255 0 0
-0.006993 -0.182906 2.398000 255 0 0
-0.000418 -0.182067 2.387000 255 0 0
0.006094 -0.181151 2.375000 255 0 0
0.012556 -0.180464 2.366000 255 0 0
0.019034 -0.180388 2.365000 255 0 0
0.025484 -0.180158 2.362000 255 0 0
0.031945 -0.180081 2.361000 255 0 0
0.038449 -0.180232 2.363000 255 0 0
0.045020 -0.180611 2.368000 255 0 0
0.051467 -0.180457 2.366000 255 0 0
0.057976 -0.180531 2.367000 255 0 0
0.064518 -0.180681 2.369000 255 0 0
0.071370 -0.181594 2.381000 255 0 0
0.078385 -0.182735 2.396000 255 0 0
-0.059182 -0.561181 2.761636 255 255 0
-0.032761 -0.553864 2.764375 255 255 0
-0.022322 -0.552960 2.757913 255 255 0
-0.034514 -0.561208 2.738153 255 255 0
-0.055875 -0.573209 2.712838 255 255 0
-0.066319 -0.580814 2.693861 255 255 0
-0.029151 -0.575720 2.677971 255 255 0
-0.239332 -0.186138 2.358000 255 0 0
-0.229627 -0.183541 2.325000 255 0 0
-0.222022 -0.182524 2.312000 255 0 0
-0.214673 -0.181664 2.301000 255 0 0
-0.207022 -0.180487 2.286000 255 0 0
-0.200769 -0.180495 2.286000 255 0 0
-0.194091 -0.180108 2.281000 255 0 0
-0.187603 -0.179879 2.278000 255 0 0
-0.180654 -0.179175 2.269000 255 0 0
-0.174368 -0.179103 2.268000 255 0 0
-0.167864 -0.178794 2.264000 255 0 0
-0.161810 -0.178958 2.266000 255 0 0
-0.155333 -0.178648 2.262000 255 0 0
-0.149404 -0.178970 2.266000 255 0 0
-0.143263 -0.179055 2.267000 255 0 0
-0.137358 -0.179455 2.272000 255 0 0
-0.131310 -0.179698 2.275000 255 0 0
-0.125244 -0.179940 2.278000 255 0 0
-0.119319 -0.180419 2.284000 255 0 0
-0.113211 -0.180660 2.287000 255 0 0
-0.107227 -0.181138 2.293000 255 0 0
-0.101210 -0.181617 2.299000 255 0 0
-0.095365 -0.182489 2.310000 255 0 0
-0.089615 -0.183678 2.325000 255 0 0
-0.083781 -0.184867 2.340000 255 0 0
-0.053686 -0.191912 2.429000 255 0 0
-0.046874 -0.191282 2.421000 255 0 0
-0.040123 -0.190731 2.414000 255 0 0
-0.033423 -0.190258 2.408000 255 0 0
-0.026700 -0.189390 2.397000 255 0 0
-0.020088 -0.188996 2.392000 255 0 0
-0.013549 -0.189234 2.395000 255 0 0
-0.006993 -0.189471 2.398000 255 0 0
-0.000418 -0.188523 2.386000 255 0 0
0.006094 -0.187654 2.375000 255 0 0
0.012572 -0.187180 2.369000 255 0 0
0.019065 -0.187179 2.369000 255 0 0
0.025537 -0.187020 2.367000 255 0 0
0.032025 -0.187019 2.367000 255 0 0
0.038545 -0.187175 2.369000 255 0 0
0.045152 -0.187648 2.375000 255 0 0
0.051639 -0.187567 2.374000 255 0 0
0.058121 -0.187486 2.373000 255 0 0
0.064542 -0.187246 2.370000 255 0 0
0.071517 -0.188508 2.386000 255 0 0
0.078480 -0.189532 2.399000 255 0 0
-0.025141 -0.568961 2.745192 255 255 0
-0.006438 -0.571289 2.718517 255 255 0
-0.238003 -0.191526 2.345000 255 0 0
-0.230013 -0.190228 2.329000 255 0 0
-0.222493 -0.189257 2.317000 255 0 0
-0.215131 -0.188367 2.306000 255 0 0
-0.207014 -0.186741 2.286000 255 0 0
-0.200323 -0.186341 2.281000 255 0 0
-0.193913 -0.186185 2.279000 255 0 0
-0.187678 -0.186193 2.279000 255 0 0
-0.181045 -0.185792 2.274000 255 0 0
-0.174592 -0.185554 2.271000 255 0 0
-0.168154 -0.185316 2.268000 255 0 0
-0.161804 -0.185159 2.266000 255 0 0
-0.155395 -0.184920 2.263000 255 0 0
-0.149266 -0.185008 2.264000 255 0 0
-0.143258 -0.185259 2.267000 255 0 0
-0.137353 -0.185673 2.272000 255 0 0
-0.131478 -0.186169 2.278000 255 0 0
-0.125624 -0.186747 2.285000 255 0 0
-0.119471 -0.186915 2.287000 255 0 0
-0.113207 -0.186920 2.287000 255 0 0
-0.107223 -0.187415 2.293000 255 0 0
-0.101382 -0.188236 2.303000 255 0 0
-0.095485 -0.189058 2.313000 255 0 0
-0.089534 -0.189879 2.323000 255 0 0
-0.060515 -0.199131 2.436000 255 0 0
-0.053728 -0.198725 2.431000 255 0 0
-0.046969 -0.198318 2.426000 255 0 0
-0.040254 -0.197993 2.422000 255 0 0
-0.033519 -0.197423 2.415000 255 0 0
-0.026777 -0.196525 2.404000 255 0 0
-0.020113 -0.195790 2.395000 255 0 0
-0.013548 -0.195790 2.395000 255 0 0
-0.006987 -0.195873 2.396000 255 0 0
-0.000418 -0.195219 2.388000 255 0 0
0.006106 -0.194565 2.380000 255 0 0
0.012598 -0.194074 2.374000 255 0 0
0.019121 -0.194237 2.376000 255 0 0
0.025611 -0.194072 2.374000 255 0 0
0.032118 -0.194071 2.374000 255 0 0
0.038657 -0.194233 2.376000 255 0 0
0.045302 -0.194804 2.383000 255 0 0
0.051854 -0.194883 2.384000 255 0 0
0.058314 -0.194636 2.381000 255 0 0
0.064785 -0.194470 2.379000 255 0 0
0.071663 -0.195448 2.391000 255 0 0
-0.229707 -0.196345 2.326000 255 0 0
-0.222772 -0.195848 2.320000 255 0 0
-0.215776 -0.195266 2.313000 255 0 0
-0.207730 -0.193670 2.294000 255 0 0
-0.200578 -0.192834 2.284000 255 0 0
-0.193735 -0.192251 2.277000 255 0 0
-0.187588 -0.192343 2.278000 255 0 0
-0.181197 -0.192182 2.276000 255 0 0
-0.174815 -0.192021 2.274000 255 0 0
-0.168221 -0.191606 2.269000 255 0 0
-0.161797 -0.191359 2.266000 255 0 0
-0.155595 -0.191366 2.266000 255 0 0
-0.149590 -0.191625 2.269000 255 0 0
-0.143757 -0.192138 2.275000 255 0 0
-0.137589 -0.192229 2.276000 255 0 0
-0.131703 -0.192741 2.282000 255 0 0
-0.125619 -0.193000 2.285000 255 0 0
-0.119518 -0.193258 2.288000 255 0 0
-0.113202 -0.193179 2.287000 255 0 0
-0.107312 -0.193859 2.295000 255 0 0
-0.101289 -0.194370 2.301000 255 0 0
-0.095481 -0.195388 2.313000 255 0 0
-0.089260 -0.195646 2.316000 255 0 0
-0.053903 -0.206055 2.439000 255 0 0
-0.047238 -0.206142 2.440000 255 0 0
-0.040418 -0.205468 2.432000 255 0 0
-0.033614 -0.204624 2.422000 255 0 0
-0.026854 -0.203696 2.411000 255 0 0
-0.020145 -0.202684 2.399000 255 0 0
-0.013531 -0.202093 2.392000 255 0 0
-0.006960 -0.201671 2.387000 255 0 0
-0.000418 -0.201756 2.388000 255 0 0
0.006124 -0.201671 2.387000 255 0 0
0.012635 -0.201164 2.381000 255 0 0
0.019128 -0.200825 2.377000 255 0 0
0.025621 -0.200655 2.375000 255 0 0
0.032184 -0.200992 2.379000 255 0 0
0.038769 -0.201328 2.383000 255 0 0
0.045414 -0.201833 2.389000 255 0 0
0.051896 -0.201578 2.386000 255 0 0
0.058312 -0.201153 2.381000 255 0 0
0.064918 -0.201404 2.384000 255 0 0
0.072200 -0.203513 2.409000 255 0 0
-0.229303 -0.202357 2.322000 255 0 0
-0.222475 -0.201931 2.317000 255 0 0
-0.215300 -0.201156 2.308000 255 0 0
-0.207540 -0.199770 2.292000 255 0 0
-0.200394 -0.198907 2.282000 255 0 0
-0.193897 -0.198654 2.279000 255 0 0
-0.187663 -0.198662 2.279000 255 0 0
-0.181348 -0.198583 2.278000 255 0 0
-0.175038 -0.198503 2.277000 255 0 0
-0.168511 -0.198162 2.273000 255 0 0
-0.161933 -0.197733 2.268000 255 0 0
-0.155794 -0.197827 2.269000 255 0 0
-0.149517 -0.197746 2.268000 255 0 0
-0.143688 -0.198276 2.274000 255 0 0
-0.137341 -0.198107 2.272000 255 0 0
-0.131582 -0.198811 2.280000 255 0 0
-0.125394 -0.198903 2.281000 255 0 0
-0.119565 -0.199606 2.289000 255 0 0
-0.113296 -0.199611 2.289000 255 0 0
-0.107494 -0.200488 2.299000 255 0 0
-0.101329 -0.200754 2.302000 255 0 0
-0.095477 -0.201718 2.313000 255 0 0
-0.053790 -0.212294 2.434000 255 0 0
-0.047430 -0.213692 2.450000 255 0 0
-0.040533 -0.212734 2.439000 255 0 0
-0.033696 -0.211777 2.428000 255 0 0
-0.026964 -0.211167 2.421000 255 0 0
-0.020287 -0.210732 2.416000 255 0 0
-0.013592 -0.209599 2.403000 255 0 0
-0.006960 -0.208204 2.387000 255 0 0
-0.000419 -0.208466 2.390000 255 0 0
0.006137 -0.208640 2.392000 255 0 0
0.012676 -0.208378 2.389000 255 0 0
0.019159 -0.207680 2.381000 255 0 0
0.025652 -0.207417 2.378000 255 0 0
0.032224 -0.207765 2.382000 255 0 0
0.038816 -0.208112 2.386000 255 0 0
0.045469 -0.208633 2.392000 255 0 0
0.051959 -0.208370 2.389000 255 0 0
0.058285 -0.207582 2.380000 255 0 0
0.065215 -0.208888 2.395000 255 0 0
0.072616 -0.211327 2.423000 255 0 0
-0.228997 -0.208437 2.319000 255 0 0
-0.222274 -0.208087 2.315000 255 0 0
-0.215198 -0.207378 2.307000 255 0 0
-0.207803 -0.206308 2.295000 255 0 0
-0.200825 -0.205598 2.287000 255 0 0
-0.194314 -0.205337 2.284000 255 0 0
-0.187902 -0.205165 2.282000 255 0 0
-0.181659 -0.205173 2.282000 255 0 0
-0.175108 -0.204821 2.278000 255 0 0
-0.168652 -0.204559 2.275000 255 0 0
-0.161998 -0.204027 2.269000 255 0 0
-0.155856 -0.204124 2.270000 255 0 0
-0.149577 -0.204040 2.269000 255 0 0
-0.143618 -0.204407 2.273000 255 0 0
-0.137396 -0.204413 2.273000 255 0 0
-0.131576 -0.205048 2.280000 255 0 0
-0.125388 -0.205144 2.281000 255 0 0
-0.119560 -0.205869 2.289000 255 0 0
-0.113341 -0.205964 2.290000 255 0 0
-0.107536 -0.206869 2.300000 255 0 0
-0.101325 -0.207053 2.302000 255 0 0
-0.095432 -0.207957 2.312000 255 0 0
-0.047408 -0.220307 2.449000 255 0 0
-0.040564 -0.219589 2.441000 255 0 0
-0.033750 -0.218781 2.432000 255 0 0
-0.027030 -0.218332 2.427000 255 0 0
-0.020345 -0.217974 2.423000 255 0 0
-0.013643 -0.216985 2.412000 255 0 0
-0.006980 -0.215366 2.394000 255 0 0
-0.000419 -0.215366 2.394000 255 0 0
0.006144 -0.215456 2.395000 255 0 0
0.012697 -0.215276 2.393000 255 0 0
0.019191 -0.214555 2.385000 255 0 0
0.025705 -0.214374 2.383000 255 0 0
0.032249 -0.214463 2.384000 255 0 0
0.038864 -0.214911 2.389000 255 0 0
0.045429 -0.214999 2.390000 255 0 0
0.051869 -0.214547 2.385000 255 0 0
0.058307 -0.214185 2.381000 255 0 0
0.065076 -0.214992 2.390000 255 0 0
-0.229185 -0.214963 2.321000 255 0 0
-0.222552 -0.214695 2.318000 255 0 0
-0.215469 -0.213964 2.310000 255 0 0
-0.208428 -0.213232 2.302000 255 0 0
-0.200904 -0.211944 2.288000 255 0 0
-0.194391 -0.211675 2.285000 255 0 0
-0.187811 -0.211313 2.281000 255 0 0
-0.181651 -0.211414 2.282000 255 0 0
-0.175023 -0.210959 2.277000 255 0 0
-0.168793 -0.210967 2.277000 255 0 0
-0.161990 -0.210233 2.269000 255 0 0
-0.155781 -0.210240 2.269000 255 0 0
-0.149241 -0.209784 2.264000 255 0 0
-0.143359 -0.210254 2.269000 255 0 0
-0.137208 -0.210353 2.270000 255 0 0
-0.131397 -0.211007 2.277000 255 0 0
-0.125163 -0.211013 2.277000 255 0 0
-0.119398 -0.211853 2.286000 255 0 0
-0.113236 -0.212044 2.288000 255 0 0
-0.107531 -0.213161 2.300000 255 0 0
-0.101496 -0.213722 2.306000 255 0 0
-0.095716 -0.214931 2.319000 255 0 0
-0.047580 -0.227842 2.458000 255 0 0
-0.040646 -0.226731 2.446000 255 0 0
-0.033860 -0.226177 2.440000 255 0 0
-0.027084 -0.225437 2.432000 255 0 0
-0.020353 -0.224696 2.424000 255 0 0
-0.013665 -0.223956 2.416000 255 0 0
-0.007003 -0.222658 2.402000 255 0 0
-0.000420 -0.222473 2.400000 255 0 0
0.006149 -0.222195 2.397000 255 0 0
0.012718 -0.222194 2.397000 255 0 0
0.019254 -0.221823 2.393000 255 0 0
0.025769 -0.221451 2.389000 255 0 0
0.032302 -0.221357 2.388000 255 0 0
0.038845 -0.221355 2.388000 255 0 0
0.045389 -0.221353 2.388000 255 0 0
0.051911 -0.221258 2.387000 255 0 0
0.058402 -0.221070 2.385000 255 0 0
0.065400 -0.222643 2.402000 255 0 0
0.071861 -0.222269 2.398000 255 0 0
-0.229273 -0.221403 2.322000 255 0 0
-0.222734 -0.221223 2.320000 255 0 0
-0.216019 -0.220851 2.316000 255 0 0
-0.209052 -0.220194 2.309000 255 0 0
-0.201509 -0.218868 2.295000 255 0 0
-0.194637 -0.218209 2.288000 255 0 0
-0.187803 -0.217550 2.281000 255 0 0
-0.181642 -0.217654 2.282000 255 0 0
-0.174938 -0.217090 2.276000 255 0 0
-0.168637 -0.217003 2.275000 255 0 0
-0.161983 -0.216438 2.269000 255 0 0
-0.155842 -0.216541 2.270000 255 0 0
-0.149497 -0.216357 2.268000 255 0 0
-0.143479 -0.216650 2.271000 255 0 0
-0.137443 -0.216943 2.274000 255 0 0
-0.131564 -0.217522 2.280000 255 0 0
-0.125322 -0.217528 2.280000 255 0 0
-0.119340 -0.218010 2.285000 255 0 0
-0.113330 -0.218493 2.290000 255 0 0
-0.107480 -0.219357 2.299000 255 0 0
-0.101579 -0.220221 2.308000 255 0 0
-0.095794 -0.221466 2.321000 255 0 0
-0.047559 -0.234471 2.457000 255 0 0
-0.040660 -0.233519 2.447000 255 0 0
-0.033858 -0.232852 2.440000 255 0 0
-0.027061 -0.231900 2.430000 255 0 0
-0.020326 -0.231042 2.421000 255 0 0
-0.013658 -0.230470 2.415000 255 0 0
-0.007017 -0.229707 2.407000 255 0 0
-0.000420 -0.229135 2.401000 255 0 0
0.006151 -0.228848 2.398000 255 0 0
0.012707 -0.228561 2.395000 255 0 0
0.019253 -0.228370 2.393000 255 0 0
0.025767 -0.227987 2.389000 255 0 0
0.032327 -0.228081 2.390000 255 0 0
0.038860 -0.227984 2.389000 255 0 0
0.045406 -0.227982 2.389000 255 0 0
0.051886 -0.227693 2.386000 255 0 0
0.058595 -0.228359 2.393000 255 0 0
0.065369 -0.229119 2.401000 255 0 0
-0.230053 -0.228535 2.330000 255 0 0
-0.222724 -0.227565 2.320000 255 0 0
-0.215822 -0.226986 2.314000 255 0 0
-0.209133 -0.226604 2.310000 255 0 0
-0.201500 -0.225142 2.295000 255 0 0
-0.194543 -0.224366 2.287000 255 0 0
-0.187876 -0.223885 2.282000 255 0 0
-0.181554 -0.223795 2.281000 255 0 0
-0.174853 -0.223215 2.275000 255 0 0
-0.168555 -0.223125 2.274000 255 0 0
-0.162047 -0.222741 2.270000 255 0 0
-0.155835 -0.222748 2.270000 255 0 0
-0.149424 -0.222461 2.267000 255 0 0
-0.143346 -0.222664 2.269000 255 0 0
-0.137256 -0.222867 2.271000 255 0 0
-0.131269 -0.223266 2.275000 255 0 0
-0.125206 -0.223567 2.278000 255 0 0
-0.119386 -0.224358 2.286000 255 0 0
-0.113622 -0.225345 2.296000 255 0 0
-0.107848 -0.226430 2.307000 255 0 0
-0.102147 -0.227809 2.321000 255 0 0
-0.096326 -0.229090 2.334000 255 0 0
-0.047750 -0.242173 2.467000 255 0 0
-0.040775 -0.240900 2.454000 255 0 0
-0.033926 -0.240018 2.445000 255 0 0
-0.027082 -0.238743 2.432000 255 0 0
-0.020351 -0.237959 2.424000 255 0 0
-0.013663 -0.237174 2.416000 255 0 0
-0.007008 -0.235997 2.404000 255 0 0
-0.000420 -0.235212 2.396000 255 0 0
0.006141 -0.235015 2.394000 255 0 0
0.012690 -0.234819 2.392000 255 0 0
0.019260 -0.235014 2.394000 255 0 0
0.025788 -0.234718 2.391000 255 0 0
0.032366 -0.234913 2.393000 255 0 0
0.038858 -0.234519 2.389000 255 0 0
0.045442 -0.234713 2.391000 255 0 0
0.052058 -0.235005 2.394000 255 0 0
0.058862 -0.235984 2.404000 255 0 0
0.065911 -0.237650 2.421000 255 0 0
-0.230832 -0.235710 2.338000 255 0 0
-0.221466 -0.232595 2.307000 255 0 0
-0.214786 -0.232202 2.303000 255 0 0
-0.208580 -0.232313 2.304000 255 0 0
-0.201402 -0.231315 2.294000 255 0 0
-0.194789 -0.230921 2.290000 255 0 0
-0.188032 -0.230325 2.284000 255 0 0
-0.181625 -0.230132 2.282000 255 0 0
-0.174845 -0.229435 2.275000 255 0 0
-0.168398 -0.229141 2.272000 255 0 0
-0.162110 -0.229048 2.271000 255 0 0
-0.155896 -0.229055 2.271000 255 0 0
-0.149747 -0.229164 2.272000 255 0 0
-0.143718 -0.229474 2.275000 255 0 0
-0.137612 -0.229682 2.277000 255 0 0
-0.131436 -0.229790 2.278000 255 0 0
-0.125420 -0.230200 2.282000 255 0 0
-0.119642 -0.231113 2.291000 255 0 0
-0.114061 -0.232532 2.305000 255 0 0
-0.108217 -0.233546 2.315000 255 0 0
-0.102538 -0.235064 2.330000 255 0 0
-0.096569 -0.236078 2.340000 255 0 0
-0.047728 -0.248820 2.466000 255 0 0
-0.040806 -0.247813 2.456000 255 0 0
-0.034021 -0.247411 2.452000 255 0 0
-0.027192 -0.246404 2.442000 255 0 0
-0.020442 -0.245699 2.435000 255 0 0
-0.013714 -0.244691 2.425000 255 0 0
-0.007022 -0.243077 2.409000 255 0 0
-0.000420 -0.242169 2.400000 255 0 0
0.006148 -0.241866 2.397000 255 0 0
0.012711 -0.241765 2.396000 255 0 0
0.019284 -0.241865 2.397000 255 0 0
0.025830 -0.241662 2.395000 255 0 0
0.032405 -0.241761 2.396000 255 0 0
0.038954 -0.241658 2.395000 255 0 0
0.045610 -0.242161 2.400000 255 0 0
0.052207 -0.242259 2.401000 255 0 0
0.059030 -0.243266 2.411000 255 0 0
0.065091 -0.241244 2.391000 255 0 0
-0.230031 -0.241271 2.330000 255 0 0
-0.220879 -0.238278 2.301000 255 0 0
-0.214030 -0.237668 2.295000 255 0 0
-0.207846 -0.237781 2.296000 255 0 0
-0.200954 -0.237066 2.289000 255 0 0
-0.194439 -0.236765 2.286000 255 0 0
-0.187858 -0.236361 2.282000 255 0 0
-0.181457 -0.236163 2.280000 255 0 0
-0.174990 -0.235861 2.277000 255 0 0
-0.168464 -0.235455 2.273000 255 0 0
-0.162102 -0.235256 2.271000 255 0 0
-0.155820 -0.235160 2.270000 255 0 0
-0.149739 -0.235375 2.272000 255 0 0
-0.143521 -0.235382 2.272000 255 0 0
-0.137363 -0.235493 2.273000 255 0 0
-0.131256 -0.235707 2.275000 255 0 0
-0.125468 -0.236542 2.283000 255 0 0
-0.119845 -0.237792 2.295000 255 0 0
-0.114204 -0.239145 2.308000 255 0 0
-0.108258 -0.239979 2.316000 255 0 0
-0.102576 -0.241539 2.331000 255 0 0
-0.096606 -0.242580 2.341000 255 0 0
-0.047455 -0.254113 2.452000 255 0 0
-0.040920 -0.255255 2.463000 255 0 0
-0.034131 -0.254946 2.460000 255 0 0
-0.027346 -0.254533 2.456000 255 0 0
-0.020508 -0.253187 2.443000 255 0 0
-0.013736 -0.251737 2.429000 255 0 0
-0.007043 -0.250390 2.416000 255 0 0
-0.000422 -0.249769 2.410000 255 0 0
0.006168 -0.249250 2.405000 255 0 0
0.012742 -0.248939 2.402000 255 0 0
0.019323 -0.248938 2.402000 255 0 0
0.025915 -0.249040 2.403000 255 0 0
0.032498 -0.249039 2.403000 255 0 0
0.039066 -0.248933 2.402000 255 0 0
0.045703 -0.249242 2.405000 255 0 0
0.052357 -0.249551 2.408000 255 0 0
0.059199 -0.250584 2.418000 255 0 0
-0.229724 -0.247318 2.327000 255 0 0
-0.220484 -0.244141 2.297000 255 0 0
-0.213460 -0.243301 2.289000 255 0 0
-0.207655 -0.243843 2.294000 255 0 0
-0.201119 -0.243534 2.291000 255 0 0
-0.194685 -0.243332 2.289000 255 0 0
-0.187602 -0.242278 2.279000 255 0 0
-0.181050 -0.241862 2.275000 255 0 0
-0.174674 -0.241659 2.273000 255 0 0
-0.168382 -0.241561 2.272000 255 0 0
-0.162166 -0.241569 2.272000 255 0 0
-0.156018 -0.241684 2.273000 255 0 0
-0.149995 -0.242011 2.276000 255 0 0
-0.143703 -0.241912 2.275000 255 0 0
-0.137537 -0.242025 2.276000 255 0 0
-0.131481 -0.242351 2.279000 255 0 0
-0.125627 -0.243102 2.286000 255 0 0
-0.119995 -0.244385 2.298000 255 0 0
-0.114149 -0.245348 2.307000 255 0 0
-0.108300 -0.246417 2.317000 255 0 0
-0.102483 -0.247699 2.329000 255 0 0
-0.096724 -0.249300 2.344000 255 0 0
-0.046814 -0.257307 2.419000 255 0 0
-0.041067 -0.262947 2.472000 255 0 0
-0.034254 -0.262630 2.469000 255 0 0
-0.027389 -0.261674 2.460000 255 0 0
-0.020499 -0.259761 2.442000 255 0 0
-0.013735 -0.258379 2.429000 255 0 0
-0.007060 -0.257635 2.422000 255 0 0
-0.000424 -0.257635 2.422000 255 0 0
0.006196 -0.256996 2.416000 255 0 0
0.012799 -0.256677 2.413000 255 0 0
0.019362 -0.256038 2.407000 255 0 0
0.025956 -0.256036 2.407000 255 0 0
0.032551 -0.256035 2.407000 255 0 0
0.039210 -0.256459 2.411000 255 0 0
0.045891 -0.256882 2.415000 255 0 0
0.052550 -0.257092 2.417000 255 0 0
0.059563 -0.258791 2.433000 255 0 0
-0.228922 -0.252803 2.319000 255 0 0
-0.220185 -0.250089 2.294000 255 0 0
-0.213542 -0.249664 2.290000 255 0 0
-0.207373 -0.249784 2.291000 255 0 0
-0.201021 -0.249685 2.290000 255 0 0
-0.194250 -0.249041 2.284000 255 0 0
-0.187510 -0.248397 2.278000 255 0 0
-0.181121 -0.248188 2.276000 255 0 0
-0.174742 -0.247979 2.274000 255 0 0
-0.168447 -0.247879 2.273000 255 0 0
-0.162229 -0.247888 2.273000 255 0 0
-0.156147 -0.248114 2.275000 255 0 0
-0.150054 -0.248340 2.277000 255 0 0
-0.143696 -0.248130 2.275000 255 0 0
-0.137470 -0.248137 2.275000 255 0 0
-0.131531 -0.248689 2.280000 255 0 0
-0.125840 -0.249787 2.290000 255 0 0
-0.120302 -0.251321 2.304000 255 0 0
-0.114539 -0.252527 2.315000 255 0 0
-0.108528 -0.253296 2.322000 255 0 0
-0.102610 -0.254393 2.332000 255 0 0
-0.097008 -0.256471 2.351000 255 0 0
-0.041298 -0.271232 2.486000 255 0 0
-0.034280 -0.269598 2.471000 255 0 0
-0.027366 -0.268181 2.458000 255 0 0
-0.020481 -0.266219 2.440000 255 0 0
-0.013728 -0.264910 2.428000 255 0 0
-0.007071 -0.264693 2.426000 255 0 0
-0.000425 -0.265020 2.429000 255 0 0
0.006214 -0.264365 2.423000 255 0 0
0.012825 -0.263819 2.418000 255 0 0
0.019401 -0.263164 2.412000 255 0 0
0.025998 -0.263053 2.411000 255 0 0
0.032576 -0.262834 2.409000 255 0 0
0.039273 -0.263486 2.415000 255 0 0
0.046002 -0.264139 2.421000 255 0 0
0.052830 -0.265118 2.430000 255 0 0
0.060172 -0.268170 2.458000 255 0 0
-0.228022 -0.258132 2.310000 255 0 0
-0.220366 -0.256579 2.296000 255 0 0
-0.214184 -0.256702 2.297000 255 0 0
-0.207905 -0.256713 2.297000 255 0 0
-0.201362 -0.256388 2.294000 255 0 0
-0.194325 -0.255393 2.285000 255 0 0
-0.187583 -0.254732 2.279000 255 0 0
-0.181191 -0.254518 2.277000 255 0 0
-0.174809 -0.254304 2.275000 255 0 0
-0.168661 -0.254425 2.276000 255 0 0
-0.162434 -0.254434 2.276000 255 0 0
-0.156482 -0.254889 2.280000 255 0 0
-0.150243 -0.254898 2.280000 255 0 0
-0.144004 -0.254906 2.280000 255 0 0
-0.137765 -0.254913 2.280000 255 0 0
-0.131871 -0.255591 2.286000 255 0 0
-0.125943 -0.256269 2.292000 255 0 0
-0.120400 -0.257841 2.306000 255 0 0
-0.114533 -0.258854 2.315000 255 0 0
-0.108802 -0.260313 2.328000 255 0 0
-0.102780 -0.261214 2.336000 255 0 0
-0.097374 -0.263903 2.360000 255 0 0
-0.041412 -0.278811 2.493000 255 0 0
-0.034430 -0.277582 2.482000 255 0 0
-0.027475 -0.276018 2.468000 255 0 0
-0.020580 -0.274230 2.452000 255 0 0
-0.013784 -0.272666 2.438000 255 0 0
-0.007088 -0.271995 2.432000 255 0 0
-0.000426 -0.272107 2.433000 255 0 0
0.006231 -0.271771 2.430000 255 0 0
0.012851 -0.270988 2.423000 255 0 0
0.019416 -0.269981 2.414000 255 0 0
0.025975 -0.269420 2.409000 255 0 0
0.032601 -0.269642 2.411000 255 0 0
0.039352 -0.270647 2.420000 255 0 0
0.046228 -0.272098 2.433000 255 0 0
0.053110 -0.273214 2.443000 255 0 0
0.060364 -0.275783 2.466000 255 0 0
-0.228504 -0.265013 2.315000 255 0 0
-0.220834 -0.263422 2.301000 255 0 0
-0.214639 -0.263548 2.302000 255 0 0
-0.207623 -0.262644 2.294000 255 0 0
-0.200825 -0.261968 2.288000 255 0 0
-0.193804 -0.260948 2.279000 255 0 0
-0.187573 -0.260958 2.279000 255 0 0
-0.181340 -0.260968 2.279000 255 0 0
-0.174800 -0.260519 2.275000 255 0 0
-0.168651 -0.260643 2.276000 255 0 0
-0.162283 -0.260423 2.274000 255 0 0
-0.156405 -0.261004 2.279000 255 0 0
-0.150235 -0.261127 2.280000 255 0 0
-0.144123 -0.261364 2.282000 255 0 0
-0.137938 -0.261486 2.283000 255 0 0
-0.132094 -0.262296 2.290000 255 0 0
-0.126156 -0.262990 2.296000 255 0 0
-0.120446 -0.264257 2.307000 255 0 0
-0.114576 -0.265294 2.316000 255 0 0
-0.108936 -0.267018 2.331000 255 0 0
-0.103039 -0.268284 2.342000 255 0 0
-0.097410 -0.270467 2.361000 255 0 0
-0.048760 -0.288715 2.520000 255 0 0
-0.041742 -0.287915 2.513000 255 0 0
-0.034664 -0.286314 2.499000 255 0 0
-0.027708 -0.285170 2.489000 255 0 0
-0.020714 -0.282765 2.468000 255 0 0
-0.013834 -0.280360 2.447000 255 0 0
-0.007091 -0.278756 2.433000 255 0 0
-0.000425 -0.277955 2.426000 255 0 0
0.006221 -0.277955 2.426000 255 0 0
0.012829 -0.277152 2.419000 255 0 0
0.019407 -0.276464 2.413000 255 0 0
0.025974 -0.276004 2.409000 255 0 0
0.032627 -0.276461 2.413000 255 0 0
0.039334 -0.277146 2.419000 255 0 0
0.046187 -0.278519 2.431000 255 0 0
0.053107 -0.279891 2.443000 255 0 0
0.060410 -0.282752 2.468000 255 0 0
-0.228492 -0.271335 2.315000 255 0 0
-0.221494 -0.270527 2.308000 255 0 0
-0.214721 -0.269952 2.303000 255 0 0
-0.207702 -0.269026 2.295000 255 0 0
-0.200639 -0.267982 2.286000 255 0 0
-0.193794 -0.267172 2.279000 255 0 0
-0.187562 -0.267182 2.279000 255 0 0
-0.181092 -0.266841 2.276000 255 0 0
-0.174637 -0.266499 2.273000 255 0 0
-0.168346 -0.266391 2.272000 255 0 0
-0.162345 -0.266752 2.275000 255 0 0
-0.156533 -0.267464 2.281000 255 0 0
-0.150622 -0.268059 2.286000 255 0 0
-0.144494 -0.268302 2.288000 255 0 0
-0.138293 -0.268427 2.289000 255 0 0
-0.132260 -0.268904 2.293000 255 0 0
-0.126314 -0.269614 2.299000 255 0 0
-0.120387 -0.270442 2.306000 255 0 0
-0.114421 -0.271270 2.313000 255 0 0
-0.108930 -0.273387 2.331000 255 0 0
-0.103297 -0.275387 2.348000 255 0 0
-0.048874 -0.296305 2.526000 255 0 0
-0.042022 -0.296777 2.530000 255 0 0
-0.034898 -0.295137 2.516000 255 0 0
-0.027851 -0.293496 2.502000 255 0 0
-0.020872 -0.291738 2.487000 255 0 0
-0.013896 -0.288337 2.458000 255 0 0
-0.007102 -0.285874 2.437000 255 0 0
-0.000425 -0.284584 2.426000 255 0 0
0.006223 -0.284701 2.427000 255 0 0
0.012828 -0.283762 2.419000 255 0 0
0.019414 -0.283175 2.414000 255 0 0
0.025972 -0.282587 2.409000 255 0 0
0.032706 -0.283758 2.419000 255 0 0
0.039413 -0.284343 2.424000 255 0 0
0.046318 -0.285983 2.438000 255 0 0
0.053082 -0.286449 2.442000 255 0 0
-0.228874 -0.278135 2.319000 255 0 0
-0.221578 -0.276948 2.309000 255 0 0
-0.215082 -0.276720 2.307000 255 0 0
-0.207962 -0.275653 2.298000 255 0 0
-0.200715 -0.274344 2.287000 255 0 0
-0.193613 -0.273156 2.277000 255 0 0
-0.187305 -0.273046 2.276000 255 0 0
-0.181002 -0.272937 2.275000 255 0 0
-0.174550 -0.272587 2.272000 255 0 0
-0.168188 -0.272356 2.270000 255 0 0
-0.162265 -0.272845 2.274000 255 0 0
-0.156525 -0.273694 2.281000 255 0 0
-0.150811 -0.274663 2.289000 255 0 0
-0.144675 -0.274911 2.291000 255 0 0
-0.138527 -0.275159 2.293000 255 0 0
-0.132425 -0.275527 2.296000 255 0 0
-0.126581 -0.276495 2.304000 255 0 0
-0.120641 -0.277342 2.311000 255 0 0
-0.114909 -0.278789 2.323000 255 0 0
-0.109345 -0.280835 2.340000 255 0 0
-0.104039 -0.283842 2.365000 255 0 0
-0.049084 -0.304527 2.537000 255 0 0
-0.042036 -0.303809 2.531000 255 0 0
-0.034952 -0.302491 2.520000 255 0 0
-0.027916 -0.301052 2.508000 255 0 0
-0.020938 -0.299493 2.495000 255 0 0
-0.014014 -0.297574 2.479000 255 0 0
-0.007136 -0.293973 2.449000 255 0 0
-0.000426 -0.292053 2.433000 255 0 0
0.006225 -0.291452 2.428000 255 0 0
0.012844 -0.290732 2.422000 255 0 0
0.019461 -0.290491 2.420000 255 0 0
0.026100 -0.290609 2.421000 255 0 0
0.032772 -0.290968 2.424000 255 0 0
0.039410 -0.290966 2.424000 255 0 0
0.046239 -0.292163 2.434000 255 0 0
0.053035 -0.292881 2.440000 255 0 0
0.060427 -0.296358 2.469000 255 0 0
-0.230046 -0.285938 2.331000 255 0 0
-0.223101 -0.285215 2.325000 255 0 0
-0.215909 -0.284123 2.316000 255 0 0
-0.209127 -0.283521 2.311000 255 0 0
-0.201757 -0.282061 2.299000 255 0 0
-0.193942 -0.279864 2.281000 255 0 0
-0.187130 -0.279015 2.274000 255 0 0
-0.180594 -0.278535 2.270000 255 0 0
-0.174617 -0.278913 2.273000 255 0 0
-0.168179 -0.278555 2.270000 255 0 0
-0.162541 -0.279546 2.278000 255 0 0
-0.156927 -0.280660 2.287000 255 0 0
-0.151264 -0.281773 2.296000 255 0 0
-0.145046 -0.281904 2.297000 255 0 0
-0.138821 -0.282035 2.298000 255 0 0
-0.132764 -0.282534 2.302000 255 0 0
-0.126959 -0.283646 2.311000 255 0 0
-0.121104 -0.284758 2.320000 255 0 0
-0.115348 -0.286238 2.332000 255 0 0
-0.110039 -0.289068 2.355000 255 0 0
-0.048713 -0.309124 2.518000 255 0 0
-0.041867 -0.309495 2.521000 255 0 0
-0.034825 -0.308270 2.511000 255 0 0
-0.027881 -0.307535 2.505000 255 0 0
-0.020995 -0.307168 2.502000 255 0 0
-0.014058 -0.305328 2.487000 255 0 0
-0.007188 -0.302873 2.467000 255 0 0
-0.000429 -0.301032 2.452000 255 0 0
0.006258 -0.299681 2.441000 255 0 0
0.012922 -0.299189 2.437000 255 0 0
0.019532 -0.298206 2.429000 255 0 0
0.026174 -0.298082 2.428000 255 0 0
0.032797 -0.297835 2.426000 255 0 0
0.039489 -0.298201 2.429000 255 0 0
0.046350 -0.299549 2.440000 255 0 0
0.053206 -0.300528 2.448000 255 0 0
0.060522 -0.303594 2.473000 255 0 0
-0.232007 -0.294809 2.351000 255 0 0
-0.224624 -0.293567 2.341000 255 0 0
-0.217575 -0.292702 2.334000 255 0 0
-0.210201 -0.291335 2.323000 255 0 0
-0.202448 -0.289340 2.307000 255 0 0
-0.194186 -0.286467 2.284000 255 0 0
-0.186790 -0.284722 2.270000 255 0 0
-0.180584 -0.284732 2.270000 255 0 0
-0.174838 -0.285495 2.276000 255 0 0
-0.168762 -0.285756 2.278000 255 0 0
-0.162746 -0.286142 2.281000 255 0 0
-0.156918 -0.286904 2.287000 255 0 0
-0.151189 -0.287917 2.295000 255 0 0
-0.145227 -0.288553 2.300000 255 0 0
-0.139176 -0.289063 2.304000 255 0 0
-0.133217 -0.289824 2.310000 255 0 0
-0.127391 -0.290961 2.319000 255 0 0
-0.121462 -0.291972 2.327000 255 0 0
-0.115984 -0.294237 2.345000 255 0 0
-0.110827 -0.297632 2.372000 255 0 0
-0.048885 -0.317131 2.527000 255 0 0
-0.041715 -0.315251 2.512000 255 0 0
-0.034781 -0.314752 2.508000 255 0 0
-0.027879 -0.314377 2.505000 255 0 0
-0.020994 -0.314002 2.502000 255 0 0
-0.014091 -0.312873 2.493000 255 0 0
-0.007211 -0.310615 2.475000 255 0 0
-0.000431 -0.309235 2.464000 255 0 0
0.006281 -0.307478 2.450000 255 0 0
0.012959 -0.306724 2.444000 255 0 0
0.019620 -0.306221 2.440000 255 0 0
0.026270 -0.305843 2.437000 255 0 0
0.032903 -0.305465 2.434000 255 0 0
0.039552 -0.305337 2.433000 255 0 0
0.046405 -0.306590 2.443000 255 0 0
0.053464 -0.308720 2.460000 255 0 0
-0.233276 -0.302890 2.364000 255 0 0
-0.225763 -0.301494 2.353000 255 0 0
-0.217935 -0.299585 2.338000 255 0 0
-0.210098 -0.297547 2.322000 255 0 0
-0.202348 -0.295509 2.306000 255 0 0
-0.194600 -0.293342 2.289000 255 0 0
-0.187273 -0.291687 2.276000 255 0 0
-0.180891 -0.291441 2.274000 255 0 0
-0.174981 -0.291965 2.278000 255 0 0
-0.168900 -0.292231 2.280000 255 0 0
-0.162807 -0.292497 2.282000 255 0 0
-0.157115 -0.293532 2.290000 255 0 0
-0.151510 -0.294823 2.300000 255 0 0
-0.145660 -0.295729 2.307000 255 0 0
-0.139590 -0.296251 2.311000 255 0 0
-0.133556 -0.296900 2.316000 255 0 0
-0.127658 -0.297933 2.324000 255 0 0
-0.121716 -0.298966 2.332000 255 0 0
-0.116125 -0.301025 2.348000 255 0 0
-0.048766 -0.323262 2.521000 255 0 0
-0.041779 -0.322624 2.516000 255 0 0
-0.034848 -0.322242 2.513000 255 0 0
-0.027967 -0.322243 2.513000 255 0 0
-0.021043 -0.321604 2.508000 255 0 0
-0.014124 -0.320451 2.499000 255 0 0
-0.007266 -0.319810 2.494000 255 0 0
-0.000435 -0.318785 2.486000 255 0 0
0.006342 -0.317246 2.474000 255 0 0
0.013043 -0.315450 2.460000 255 0 0
0.019683 -0.313910 2.448000 255 0 0
0.026365 -0.313652 2.446000 255 0 0
0.033036 -0.313394 2.444000 255 0 0
0.039875 -0.314546 2.453000 255 0 0
0.046820 -0.316082 2.465000 255 0 0
0.053939 -0.318259 2.482000 255 0 0
-0.225558 -0.307653 2.351000 255 0 0
-0.217456 -0.305310 2.333000 255 0 0
-0.209362 -0.302837 2.314000 255 0 0
-0.201898 -0.301147 2.301000 255 0 0
-0.194504 -0.299458 2.288000 255 0 0
-0.187838 -0.298815 2.283000 255 0 0
-0.181358 -0.298433 2.280000 255 0 0
-0.175201 -0.298575 2.281000 255 0 0
-0.169112 -0.298847 2.283000 255 0 0
-0.163083 -0.299249 2.286000 255 0 0
-0.157380 -0.300306 2.294000 255 0 0
-0.151698 -0.301494 2.303000 255 0 0
-0.145841 -0.302419 2.310000 255 0 0
-0.140065 -0.303606 2.319000 255 0 0
-0.134009 -0.304269 2.324000 255 0 0
-0.128089 -0.305325 2.332000 255 0 0
-0.121917 -0.305856 2.336000 255 0 0
-0.116217 -0.307697 2.350000 255 0 0
-0.110860 -0.310715 2.373000 255 0 0
-0.048859 -0.330800 2.526000 255 0 0
-0.041910 -0.330541 2.524000 255 0 0
-0.034957 -0.330151 2.521000 255 0 0
-0.028087 -0.330545 2.524000 255 0 0
-0.021159 -0.330285 2.522000 255 0 0
-0.014225 -0.329631 2.517000 255 0 0
-0.007321 -0.329108 2.513000 255 0 0
-0.000439 -0.328585 2.509000 255 0 0
0.006398 -0.326882 2.496000 255 0 0
0.013100 -0.323607 2.471000 255 0 0
0.019762 -0.321904 2.458000 255 0 0
0.026450 -0.321378 2.454000 255 0 0
0.033223 -0.321900 2.458000 255 0 0
0.040116 -0.323208 2.468000 255 0 0
0.047121 -0.324907 2.481000 255 0 0
0.053979 -0.325297 2.484000 255 0 0
-0.224489 -0.312598 2.340000 255 0 0
-0.216045 -0.309672 2.318000 255 0 0
-0.208083 -0.307280 2.300000 255 0 0
-0.201008 -0.306090 2.291000 255 0 0
-0.194407 -0.305567 2.287000 255 0 0
-0.187991 -0.305311 2.285000 255 0 0
-0.181586 -0.305055 2.283000 255 0 0
-0.175114 -0.304665 2.280000 255 0 0
-0.168880 -0.304676 2.280000 255 0 0
-0.163073 -0.305488 2.286000 255 0 0
-0.157439 -0.306700 2.295000 255 0 0
-0.151689 -0.307779 2.303000 255 0 0
-0.145705 -0.308457 2.308000 255 0 0
-0.140177 -0.310203 2.321000 255 0 0
-0.134289 -0.311280 2.329000 255 0 0
-0.128411 -0.312492 2.338000 255 0 0
-0.122171 -0.312900 2.341000 255 0 0
-0.116358 -0.314512 2.353000 255 0 0
-0.110620 -0.316524 2.368000 255 0 0
-0.049166 -0.339835 2.542000 255 0 0
-0.042106 -0.339035 2.536000 255 0 0
-0.035107 -0.338503 2.532000 255 0 0
-0.028152 -0.338238 2.530000 255 0 0
-0.021225 -0.338239 2.530000 255 0 0
-0.014264 -0.337438 2.524000 255 0 0
-0.007344 -0.337038 2.521000 255 0 0
-0.000440 -0.336236 2.515000 255 0 0
0.006434 -0.335567 2.510000 255 0 0
0.013184 -0.332492 2.487000 255 0 0
0.019849 -0.330084 2.469000 255 0 0
0.026523 -0.329013 2.461000 255 0 0
0.033289 -0.329279 2.463000 255 0 0
0.040227 -0.330881 2.475000 255 0 0
0.047099 -0.331546 2.480000 255 0 0
0.053954 -0.331944 2.483000 255 0 0
-0.214075 -0.313132 2.297000 255 0 0
-0.207166 -0.312191 2.290000 255 0 0
-0.200382 -0.311385 2.284000 255 0 0
-0.193970 -0.311125 2.282000 255 0 0
-0.187651 -0.311000 2.281000 255 0 0
-0.181256 -0.310739 2.279000 255 0 0
-0.175026 -0.310750 2.279000 255 0 0
-0.168943 -0.311033 2.281000 255 0 0
-0.163206 -0.311998 2.288000 255 0 0
-0.157361 -0.312826 2.294000 255 0 0
-0.151745 -0.314200 2.304000 255 0 0
-0.145823 -0.315027 2.310000 255 0 0
-0.140229 -0.316673 2.322000 255 0 0
-0.134396 -0.317909 2.331000 255 0 0
-0.128568 -0.319281 2.341000 255 0 0
-0.122215 -0.319425 2.342000 255 0 0
-0.116301 -0.320797 2.352000 255 0 0
-0.110473 -0.322577 2.365000 255 0 0
-0.056276 -0.347724 2.549000 255 0 0
-0.049220 -0.347182 2.545000 255 0 0
-0.042203 -0.346776 2.542000 255 0 0
-0.035105 -0.345414 2.532000 255 0 0
-0.028173 -0.345416 2.532000 255 0 0
-0.021232 -0.345281 2.531000 255 0 0
-0.014268 -0.344464 2.525000 255 0 0
-0.007323 -0.342964 2.514000 255 0 0
-0.000439 -0.342282 2.509000 255 0 0
0.006425 -0.342009 2.507000 255 0 0
0.013236 -0.340644 2.497000 255 0 0
0.019969 -0.338870 2.484000 255 0 0
0.026683 -0.337777 2.476000 255 0 0
0.033422 -0.337365 2.473000 255 0 0
0.040127 -0.336817 2.469000 255 0 0
0.046925 -0.337087 2.471000 255 0 0
0.053646 -0.336811 2.469000 255 0 0
-0.212944 -0.317729 2.285000 255 0 0
-0.206882 -0.318020 2.287000 255 0 0
-0.200194 -0.317337 2.282000 255 0 0
-0.194213 -0.317767 2.285000 255 0 0
-0.187886 -0.317639 2.284000 255 0 0
-0.181643 -0.317651 2.284000 255 0 0
-0.175553 -0.317940 2.286000 255 0 0
-0.169451 -0.318229 2.288000 255 0 0
-0.163409 -0.318657 2.291000 255 0 0
-0.157351 -0.319085 2.294000 255 0 0
-0.151670 -0.320346 2.303000 255 0 0
-0.145940 -0.321608 2.312000 255 0 0
-0.140280 -0.323147 2.323000 255 0 0
-0.134445 -0.324408 2.332000 255 0 0
-0.128615 -0.325807 2.342000 255 0 0
-0.122416 -0.326372 2.346000 255 0 0
-0.116591 -0.328049 2.358000 255 0 0
-0.110559 -0.329308 2.367000 255 0 0
-0.055919 -0.352454 2.533000 255 0 0
-0.049217 -0.354127 2.545000 255 0 0
-0.042167 -0.353434 2.540000 255 0 0
-0.035158 -0.352880 2.536000 255 0 0
-0.028171 -0.352326 2.532000 255 0 0
-0.021214 -0.351910 2.529000 255 0 0
-0.014256 -0.351076 2.523000 255 0 0
-0.007323 -0.349824 2.514000 255 0 0
-0.000439 -0.349546 2.512000 255 0 0
0.006430 -0.349129 2.509000 255 0 0
0.013267 -0.348293 2.503000 255 0 0
0.020080 -0.347596 2.498000 255 0 0
0.026832 -0.346481 2.490000 255 0 0
0.033528 -0.345227 2.481000 255 0 0
0.040190 -0.344112 2.473000 255 0 0
0.046884 -0.343552 2.469000 255 0 0
0.053577 -0.343131 2.466000 255 0 0
-0.213024 -0.324102 2.286000 255 0 0
-0.206778 -0.324115 2.286000 255 0 0
-0.200269 -0.323702 2.283000 255 0 0
-0.194116 -0.323857 2.284000 255 0 0
-0.188038 -0.324152 2.286000 255 0 0
-0.181870 -0.324306 2.287000 255 0 0
-0.176002 -0.325026 2.292000 255 0 0
-0.169737 -0.325037 2.292000 255 0 0
-0.163684 -0.325473 2.295000 255 0 0
-0.157478 -0.325625 2.296000 255 0 0
-0.151529 -0.326344 2.301000 255 0 0
-0.146057 -0.328198 2.314000 255 0 0
-0.140513 -0.330051 2.327000 255 0 0
-0.134897 -0.331904 2.340000 255 0 0
-0.128991 -0.333189 2.349000 255 0 0
-0.122826 -0.333906 2.354000 255 0 0
-0.116979 -0.335616 2.366000 255 0 0
-0.110926 -0.336900 2.375000 255 0 0
-0.055805 -0.358655 2.528000 255 0 0
-0.048982 -0.359368 2.533000 255 0 0
-0.042015 -0.359087 2.531000 255 0 0
-0.035142 -0.359657 2.535000 255 0 0
-0.028191 -0.359518 2.534000 255 0 0
-0.021221 -0.358952 2.530000 255 0 0
-0.014278 -0.358527 2.527000 255 0 0
-0.007340 -0.357535 2.520000 255 0 0
-0.000441 -0.357393 2.519000 255 0 0
0.006443 -0.356684 2.514000 255 0 0
0.013277 -0.355406 2.505000 255 0 0
0.020119 -0.355121 2.503000 255 0 0
0.026885 -0.353985 2.495000 255 0 0
0.033593 -0.352706 2.486000 255 0 0
0.040285 -0.351710 2.479000 255 0 0
0.047052 -0.351565 2.478000 255 0 0
0.053835 -0.351562 2.478000 255 0 0
-0.219542 -0.330754 2.289000 255 0 0
-0.213197 -0.330624 2.288000 255 0 0
-0.206946 -0.330637 2.288000 255 0 0
-0.200958 -0.331083 2.291000 255 0 0
-0.194698 -0.331096 2.291000 255 0 0
-0.188602 -0.331397 2.293000 255 0 0
-0.182335 -0.331409 2.293000 255 0 0
-0.176452 -0.332144 2.298000 255 0 0
-0.170170 -0.332155 2.298000 255 0 0
-0.164173 -0.332744 2.302000 255 0 0
-0.157811 -0.332610 2.301000 255 0 0
-0.151716 -0.333053 2.304000 255 0 0
-0.145921 -0.334220 2.312000 255 0 0
-0.140685 -0.336831 2.330000 255 0 0
-0.135004 -0.338575 2.342000 255 0 0
-0.129037 -0.339740 2.350000 255 0 0
-0.123026 -0.340905 2.358000 255 0 0
