ply
format ascii 1.0
element vertex 1323
property double x
property double y
property double z
property uchar red
property uchar green
property uchar blue
end_header
-0.000389 0.147258 2.222000 255 0 0
0.005705 0.147324 2.223000 255 0 0
0.011815 0.147522 2.226000 255 0 0
0.017934 0.147654 2.228000 255 0 0
0.024095 0.147985 2.233000 255 0 0
0.030271 0.148249 2.237000 255 0 0
0.036452 0.148447 2.240000 255 0 0
0.042612 0.148512 2.241000 255 0 0
0.048863 0.148842 2.246000 255 0 0
0.055142 0.149171 2.251000 255 0 0
0.061476 0.149567 2.257000 255 0 0
0.067842 0.149962 2.263000 255 0 0
0.074175 0.150225 2.267000 255 0 0
0.080565 0.150554 2.272000 255 0 0
0.086868 0.150683 2.274000 255 0 0
0.093386 0.151144 2.281000 255 0 0
0.100029 0.151737 2.290000 255 0 0
0.106814 0.152462 2.301000 255 0 0
0.159055 0.148249 2.238000 255 0 0
0.163410 0.146653 2.214000 255 0 0
0.167863 0.145257 2.193000 255 0 0
0.172517 0.144125 2.176000 255 0 0
0.177816 0.143590 2.168000 255 0 0
0.183409 0.143319 2.164000 255 0 0
0.188980 0.143048 2.160000 255 0 0
0.195249 0.143307 2.164000 255 0 0
0.201075 0.143234 2.163000 255 0 0
0.206608 0.142962 2.159000 255 0 0
-0.094655 -0.024623 2.460595 255 255 0
-0.061214 -0.019157 2.469826 255 255 0
-0.031228 -0.014498 2.476976 255 255 0
-0.019071 -0.014226 2.472387 255 255 0
-0.014542 -0.015839 2.462726 255 255 0
0.026569 -0.011025 2.465240 255 255 0
0.036113 -0.011347 2.459152 255 255 0
0.033017 -0.014847 2.444415 255 255 0
0.047595 -0.013885 2.441852 255 255 0
0.045347 -0.017177 2.427672 255 255 0
0.042273 -0.020688 2.412871 255 255 0
0.050949 -0.021208 2.406280 255 255 0
0.073011 -0.018288 2.409186 255 255 0
0.151707 -0.063465 2.161386 255 255 0
-0.136607 -0.120734 2.298342 0 255 0
-0.207611 -0.095100 2.359786 0 255 0
-0.216543 -0.089181 2.378181 0 255 0
-0.210997 -0.087839 2.386625 0 255 0
-0.208862 -0.085421 2.397398 0 255 0
-0.203311 -0.084074 2.405860 0 255 0
-0.178089 -0.088856 2.401148 0 255 0
-0.164811 -0.089885 2.404560 0 255 0
-0.158366 -0.088776 2.412579 0 255 0
-0.156203 -0.086337 2.423447 0 255 0
-0.114952 -0.092812 2.421053 0 255 0
-0.040264 -0.084029 2.497776 0 255 0
-0.004583 -0.088333 2.500813 0 255 0
-0.316114 0.146326 2.307000 255 0 0
-0.312371 0.147540 2.326000 255 0 0
-0.306813 0.147930 2.332000 255 0 0
-0.300576 0.148002 2.333000 255 0 0
-0.294207 0.148011 2.333000 255 0 0
-0.288084 0.148146 2.335000 255 0 0
-0.282190 0.148409 2.339000 255 0 0
-0.276863 0.148988 2.348000 255 0 0
-0.243844 0.148457 2.339000 255 0 0
-0.236028 0.147575 2.325000 255 0 0
-0.228288 0.146694 2.311000 255 0 0
-0.220432 0.145685 2.295000 255 0 0
-0.213129 0.144994 2.284000 255 0 0
-0.206429 0.144683 2.279000 255 0 0
-0.199843 0.144435 2.275000 255 0 0
-0.193618 0.144441 2.275000 255 0 0
-0.187146 0.144257 2.272000 255 0 0
-0.180690 0.144072 2.269000 255 0 0
-0.174018 0.143697 2.263000 255 0 0
-0.167527 0.143448 2.259000 255 0 0
-0.160914 0.143072 2.253000 255 0 0
-0.154471 0.142823 2.249000 255 0 0
-0.147983 0.142511 2.244000 255 0 0
-0.141775 0.142452 2.243000 255 0 0
-0.135390 0.142202 2.239000 255 0 0
-0.129085 0.142016 2.236000 255 0 0
-0.122685 0.141703 2.231000 255 0 0
-0.116365 0.141452 2.227000 255 0 0
-0.110115 0.141265 2.224000 255 0 0
-0.104022 0.141269 2.224000 255 0 0
-0.097884 0.141209 2.223000 255 0 0
-0.091751 0.141148 2.222000 255 0 0
-0.085508 0.140897 2.218000 255 0 0
-0.079430 0.140900 2.218000 255 0 0
-0.073318 0.140839 2.217000 255 0 0
-0.067272 0.140905 2.218000 255 0 0
-0.061192 0.140907 2.218000 255 0 0
-0.055187 0.141099 2.221000 255 0 0
-0.049099 0.141101 2.221000 255 0 0
-0.043011 0.141102 2.221000 255 0 0
-0.036873 0.140913 2.218000 255 0 0
-0.030834 0.141105 2.221000 255 0 0
-0.024745 0.141106 2.221000 255 0 0
-0.018664 0.141170 2.222000 255 0 0
-0.012573 0.141170 2.222000 255 0 0
-0.006478 0.141107 2.221000 255 0 0
-0.000389 0.141107 2.221000 255 0 0
0.005705 0.141234 2.223000 255 0 0
0.011805 0.141298 2.224000 255 0 0
0.017934 0.141551 2.228000 255 0 0
0.024107 0.141932 2.234000 255 0 0
0.030313 0.142312 2.240000 255 0 0
0.036502 0.142502 2.243000 255 0 0
0.042689 0.142627 2.245000 255 0 0
0.048974 0.143007 2.251000 255 0 0
0.055291 0.143386 2.257000 255 0 0
0.061614 0.143702 2.262000 255 0 0
0.067934 0.143954 2.266000 255 0 0
0.074308 0.144269 2.271000 255 0 0
0.080745 0.144648 2.277000 255 0 0
0.087252 0.145090 2.284000 255 0 0
0.093716 0.145405 2.289000 255 0 0
0.100163 0.145656 2.293000 255 0 0
0.106725 0.146033 2.299000 255 0 0
0.159131 0.142184 2.239000 255 0 0
0.163341 0.140528 2.213000 255 0 0
0.167868 0.139253 2.193000 255 0 0
0.172443 0.138104 2.175000 255 0 0
0.177657 0.137527 2.166000 255 0 0
0.183245 0.137268 2.162000 255 0 0
0.188986 0.137135 2.160000 255 0 0
0.195075 0.137256 2.162000 255 0 0
0.200896 0.137186 2.161000 255 0 0
0.206136 0.136735 2.154000 255 0 0
-0.066487 -0.028938 2.480467 255 255 0
-0.055980 -0.029087 2.474608 255 255 0
-0.036173 -0.026893 2.474988 255 255 0
-0.005957 -0.024799 2.469787 255 255 0
-0.001439 -0.026404 2.460151 255 255 0
0.017413 -0.024368 2.460271 255 255 0
0.039600 -0.021457 2.462788 255 255 0
0.039030 -0.024332 2.449795 255 255 0
0.047713 -0.024841 2.443170 255 255 0
0.057226 -0.025129 2.437159 255 255 0
0.065047 -0.025842 2.430012 255 255 0
0.064481 -0.028719 2.417005 255 255 0
0.068946 -0.030297 2.407520 255 255 0
-0.161276 -0.120956 2.329203 0 255 0
-0.194001 -0.107373 2.364056 0 255 0
-0.193550 -0.104398 2.376058 0 255 0
-0.193103 -0.101426 2.388044 0 255 0
-0.189246 -0.099536 2.397712 0 255 0
-0.184533 -0.097914 2.406813 0 255 0
-0.163567 -0.101395 2.405087 0 255 0
-0.154554 -0.101099 2.411417 0 255 0
-0.142104 -0.101866 2.415520 0 255 0
-0.139927 -0.099416 2.426430 0 255 0
-0.127453 -0.100165 2.430614 0 255 0
-0.033983 -0.103628 2.470407 0 255 0
-0.023961 -0.103488 2.476686 0 255 0
-0.028143 -0.095882 2.504265 0 255 0
-0.013770 -0.097031 2.507947 0 255 0
-0.316946 0.140380 2.313000 255 0 0
-0.311977 0.140995 2.323000 255 0 0
-0.306427 0.141368 2.329000 255 0 0
-0.300327 0.141498 2.331000 255 0 0
-0.294216 0.141628 2.333000 255 0 0
-0.288092 0.141758 2.335000 255 0 0
-0.282198 0.142009 2.339000 255 0 0
-0.277107 0.142685 2.350000 255 0 0
-0.243330 0.141751 2.334000 255 0 0
-0.235528 0.140908 2.320000 255 0 0
-0.228295 0.140368 2.311000 255 0 0
-0.220919 0.139707 2.300000 255 0 0
-0.213322 0.138863 2.286000 255 0 0
-0.205982 0.138140 2.274000 255 0 0
-0.199322 0.137842 2.269000 255 0 0
-0.193114 0.137848 2.269000 255 0 0
-0.187070 0.137975 2.271000 255 0 0
-0.180616 0.137799 2.268000 255 0 0
-0.174023 0.137500 2.263000 255 0 0
-0.167606 0.137323 2.260000 255 0 0
-0.161134 0.137085 2.256000 255 0 0
-0.154682 0.136847 2.252000 255 0 0
-0.148186 0.136548 2.247000 255 0 0
-0.141843 0.136370 2.244000 255 0 0
-0.135455 0.136131 2.240000 255 0 0
-0.129089 0.135892 2.236000 255 0 0
-0.122689 0.135592 2.231000 255 0 0
-0.116264 0.135231 2.225000 255 0 0
-0.110020 0.135052 2.222000 255 0 0
-0.103885 0.134995 2.221000 255 0 0
-0.097755 0.134937 2.220000 255 0 0
-0.091589 0.134819 2.218000 255 0 0
-0.085434 0.134700 2.216000 255 0 0
-0.079325 0.134642 2.215000 255 0 0
-0.073254 0.134644 2.215000 255 0 0
-0.067274 0.134829 2.218000 255 0 0
-0.061194 0.134831 2.218000 255 0 0
-0.055139 0.134893 2.219000 255 0 0
-0.049034 0.134834 2.218000 255 0 0
-0.042974 0.134896 2.219000 255 0 0
-0.036890 0.134898 2.219000 255 0 0
-0.030821 0.134959 2.220000 255 0 0
-0.024757 0.135082 2.222000 255 0 0
-0.018682 0.135204 2.224000 255 0 0
-0.012590 0.135265 2.225000 255 0 0
-0.006490 0.135266 2.225000 255 0 0
-0.000390 0.135266 2.225000 255 0 0
0.005716 0.135387 2.227000 255 0 0
0.011837 0.135569 2.230000 255 0 0
0.017975 0.135751 2.233000 255 0 0
0.024162 0.136115 2.239000 255 0 0
0.030368 0.136419 2.244000 255 0 0
0.036569 0.136600 2.247000 255 0 0
0.042805 0.136842 2.251000 255 0 0
0.049106 0.137205 2.257000 255 0 0
0.055415 0.137507 2.262000 255 0 0
0.061698 0.137688 2.265000 255 0 0
0.068026 0.137929 2.269000 255 0 0
0.074409 0.138231 2.274000 255 0 0
0.080818 0.138532 2.279000 255 0 0
0.087293 0.138894 2.285000 255 0 0
0.093719 0.139135 2.289000 255 0 0
0.100079 0.139253 2.291000 255 0 0
0.106496 0.139432 2.294000 255 0 0
0.159349 0.136235 2.242000 255 0 0
0.163568 0.134650 2.216000 255 0 0
0.167950 0.133309 2.194000 255 0 0
0.172449 0.132149 2.175000 255 0 0
0.177663 0.131597 2.166000 255 0 0
0.183166 0.131288 2.161000 255 0 0
0.188904 0.131160 2.159000 255 0 0
0.194720 0.131094 2.158000 255 0 0
0.200530 0.131027 2.157000 255 0 0
0.205951 0.130718 2.152000 255 0 0
-0.098086 -0.045360 2.473922 255 255 0
-0.059552 -0.038442 2.486357 255 255 0
-0.046513 -0.037924 2.482189 255 255 0
-0.026722 -0.035675 2.482580 255 255 0
-0.000203 -0.031686 2.487591 255 255 0
0.019511 -0.029399 2.488196 255 255 0
0.024281 -0.033661 2.466206 255 255 0
0.043928 -0.031341 2.466998 255 255 0
0.054289 -0.031397 2.461528 255 255 0
0.053715 -0.034282 2.448555 255 255 0
0.056506 -0.036296 2.437889 255 255 0
0.069357 -0.035683 2.434243 255 255 0
0.066279 -0.039230 2.419483 255 255 0
0.066560 -0.041903 2.407045 255 255 0
-0.202978 -0.115578 2.371514 0 255 0
-0.186348 -0.117795 2.372480 0 255 0
-0.180777 -0.116447 2.381028 0 255 0
-0.173494 -0.115641 2.388442 0 255 0
-0.172183 -0.112926 2.399885 0 255 0
-0.170875 -0.110213 2.411317 0 255 0
-0.148183 -0.114271 2.408564 0 255 0
-0.136588 -0.114791 2.413264 0 255 0
-0.133547 -0.112604 2.423634 0 255 0
-0.102202 -0.119298 2.415544 0 255 0
-0.025518 -0.120839 2.454052 0 255 0
-0.014104 -0.117941 2.472066 0 255 0
-0.024829 -0.111476 2.491242 0 255 0
-0.020856 -0.109502 2.501302 0 255 0
-0.013415 -0.108577 2.509253 0 255 0
-0.317777 0.134400 2.319000 255 0 0
-0.312657 0.134930 2.328000 255 0 0
-0.306830 0.135170 2.332000 255 0 0
-0.300465 0.135179 2.332000 255 0 0
-0.294350 0.135303 2.334000 255 0 0
-0.288471 0.135543 2.338000 255 0 0
-0.282568 0.135782 2.342000 255 0 0
-0.277468 0.136428 2.353000 255 0 0
-0.244797 0.136174 2.348000 255 0 0
-0.235433 0.134499 2.319000 255 0 0
-0.228104 0.133926 2.309000 255 0 0
-0.220829 0.133352 2.299000 255 0 0
-0.213515 0.132720 2.288000 255 0 0
-0.206169 0.132030 2.276000 255 0 0
-0.199328 0.131630 2.269000 255 0 0
-0.192864 0.131461 2.266000 255 0 0
-0.186663 0.131467 2.266000 255 0 0
-0.180302 0.131356 2.264000 255 0 0
-0.173798 0.131129 2.260000 255 0 0
-0.167389 0.130960 2.257000 255 0 0
-0.161138 0.130907 2.256000 255 0 0
-0.155030 0.130970 2.257000 255 0 0
-0.148454 0.130626 2.251000 255 0 0
-0.141974 0.130340 2.246000 255 0 0
-0.135399 0.129938 2.239000 255 0 0
-0.129093 0.129768 2.236000 255 0 0
-0.122693 0.129481 2.231000 255 0 0
-0.116372 0.129252 2.227000 255 0 0
-0.110072 0.129024 2.223000 255 0 0
-0.103841 0.128853 2.220000 255 0 0
-0.097714 0.128798 2.219000 255 0 0
-0.091592 0.128743 2.218000 255 0 0
-0.085436 0.128629 2.216000 255 0 0
-0.079255 0.128457 2.213000 255 0 0
-0.073157 0.128402 2.212000 255 0 0
-0.067185 0.128578 2.215000 255 0 0
-0.061086 0.128522 2.214000 255 0 0
-0.055042 0.128582 2.215000 255 0 0
-0.048992 0.128641 2.216000 255 0 0
-0.042975 0.128817 2.219000 255 0 0
-0.036908 0.128876 2.220000 255 0 0
-0.030836 0.128935 2.221000 255 0 0
-0.024758 0.128994 2.222000 255 0 0
-0.018682 0.129111 2.224000 255 0 0
-0.012585 0.129111 2.224000 255 0 0
-0.006490 0.129169 2.225000 255 0 0
-0.000390 0.129228 2.226000 255 0 0
0.005726 0.129518 2.231000 255 0 0
0.011864 0.129750 2.235000 255 0 0
0.018032 0.130040 2.240000 255 0 0
0.024238 0.130387 2.246000 255 0 0
0.030423 0.130503 2.248000 255 0 0
0.036667 0.130792 2.253000 255 0 0
0.042920 0.131023 2.257000 255 0 0
0.049216 0.131312 2.262000 255 0 0
0.055515 0.131542 2.266000 255 0 0
0.061808 0.131715 2.269000 255 0 0
0.068148 0.131945 2.273000 255 0 0
0.074509 0.132175 2.277000 255 0 0
0.080892 0.132405 2.281000 255 0 0
0.087373 0.132751 2.287000 255 0 0
0.093722 0.132864 2.289000 255 0 0
0.100038 0.132919 2.290000 255 0 0
0.106267 0.132858 2.289000 255 0 0
0.159780 0.130443 2.248000 255 0 0
0.163942 0.128872 2.221000 255 0 0
0.168261 0.127532 2.198000 255 0 0
0.172771 0.126425 2.179000 255 0 0
0.177832 0.125782 2.168000 255 0 0
0.183172 0.125371 2.161000 255 0 0
0.188909 0.125249 2.159000 255 0 0
0.194545 0.125070 2.156000 255 0 0
0.200164 0.124890 2.153000 255 0 0
0.205383 0.124478 2.146000 255 0 0
-0.097922 -0.056674 2.475378 255 255 0
-0.061101 -0.050083 2.486668 255 255 0
-0.040442 -0.047583 2.487520 255 255 0
-0.014742 -0.043758 2.491848 255 255 0
0.007529 -0.040782 2.494049 255 255 0
0.025540 -0.038879 2.493525 255 255 0
0.033401 -0.039587 2.486250 255 255 0
0.031987 -0.042704 2.472706 255 255 0
0.050777 -0.040550 2.472929 255 255 0
0.052723 -0.042785 2.461696 255 255 0
0.058032 -0.044138 2.452774 255 255 0
0.059143 -0.046595 2.440951 255 255 0
0.061097 -0.048833 2.429699 255 255 0
0.058870 -0.052183 2.415502 255 255 0
0.063343 -0.053759 2.405988 255 255 0
-0.192777 -0.126833 2.378181 0 255 0
-0.181248 -0.127424 2.382684 0 255 0
-0.179083 -0.124981 2.393549 0 255 0
-0.170093 -0.124733 2.399838 0 255 0
-0.161092 -0.124478 2.406162 0 255 0
-0.147807 -0.125581 2.409689 0 255 0
-0.125947 -0.129400 2.407639 0 255 0
-0.126320 -0.126116 2.420291 0 255 0
-0.131844 -0.121206 2.436276 0 255 0
0.002968 -0.137928 2.450338 0 255 0
-0.030530 -0.121160 2.496266 0 255 0
-0.018773 -0.121584 2.501540 0 255 0
0.001660 -0.124649 2.501584 0 255 0
-0.319429 0.128719 2.331000 255 0 0
-0.313068 0.128727 2.331000 255 0 0
-0.307101 0.128900 2.334000 255 0 0
-0.300730 0.128908 2.334000 255 0 0
-0.294484 0.128971 2.335000 255 0 0
-0.288478 0.129145 2.338000 255 0 0
-0.282576 0.129373 2.342000 255 0 0
-0.235541 0.128206 2.320000 255 0 0
-0.227814 0.127438 2.306000 255 0 0
-0.220451 0.126837 2.295000 255 0 0
-0.213428 0.126400 2.287000 255 0 0
-0.206175 0.125798 2.276000 255 0 0
-0.199421 0.125472 2.270000 255 0 0
-0.192614 0.125090 2.263000 255 0 0
-0.186421 0.125096 2.263000 255 0 0
-0.180069 0.124990 2.261000 255 0 0
-0.173572 0.124774 2.257000 255 0 0
-0.167097 0.124558 2.253000 255 0 0
-0.160786 0.124452 2.251000 255 0 0
-0.154622 0.124456 2.251000 255 0 0
-0.148326 0.124350 2.249000 255 0 0
-0.141978 0.124188 2.246000 255 0 0
-0.135584 0.123971 2.242000 255 0 0
-0.129154 0.123698 2.237000 255 0 0
-0.122696 0.123370 2.231000 255 0 0
-0.116427 0.123207 2.228000 255 0 0
-0.110224 0.123100 2.226000 255 0 0
-0.104031 0.122992 2.224000 255 0 0
-0.097761 0.122774 2.220000 255 0 0
-0.091594 0.122666 2.218000 255 0 0
-0.085400 0.122502 2.215000 255 0 0
-0.079258 0.122394 2.213000 255 0 0
-0.073192 0.122396 2.213000 255 0 0
-0.067126 0.122398 2.213000 255 0 0
-0.061032 0.122345 2.212000 255 0 0
-0.054969 0.122347 2.212000 255 0 0
-0.048949 0.122459 2.214000 255 0 0
-0.042976 0.122737 2.219000 255 0 0
-0.036959 0.122959 2.223000 255 0 0
-0.030878 0.123015 2.224000 255 0 0
-0.024792 0.123071 2.225000 255 0 0
-0.018708 0.123183 2.227000 255 0 0
-0.012614 0.123294 2.229000 255 0 0
-0.006514 0.123515 2.233000 255 0 0
-0.000392 0.123626 2.235000 255 0 0
0.005747 0.123847 2.239000 255 0 0
0.011896 0.123958 2.241000 255 0 0
0.018065 0.124123 2.244000 255 0 0
0.024260 0.124344 2.248000 255 0 0
0.030464 0.124509 2.251000 255 0 0
0.036701 0.124729 2.255000 255 0 0
0.042940 0.124894 2.258000 255 0 0
0.049218 0.125114 2.262000 255 0 0
0.055492 0.125278 2.265000 255 0 0
0.061810 0.125498 2.269000 255 0 0
0.068150 0.125717 2.273000 255 0 0
0.074478 0.125881 2.276000 255 0 0
0.080823 0.126045 2.279000 255 0 0
0.087184 0.126208 2.282000 255 0 0
0.093520 0.126316 2.284000 255 0 0
0.099867 0.126424 2.286000 255 0 0
0.106177 0.126477 2.287000 255 0 0
0.112935 0.127026 2.297000 255 0 0
0.159643 0.124176 2.246000 255 0 0
0.164242 0.123010 2.225000 255 0 0
0.168649 0.121789 2.203000 255 0 0
0.173252 0.120789 2.185000 255 0 0
0.178001 0.119955 2.170000 255 0 0
0.183346 0.119563 2.163000 255 0 0
0.188827 0.119282 2.158000 255 0 0
0.194551 0.119166 2.156000 255 0 0
0.199891 0.118829 2.150000 255 0 0
0.204910 0.118326 2.141000 255 0 0
-0.055020 -0.059772 2.491994 255 255 0
-0.024218 -0.054579 2.499556 255 255 0
-0.000237 -0.051118 2.502787 255 255 0
0.007653 -0.051828 2.495421 255 255 0
0.022283 -0.050765 2.492615 255 255 0
0.031832 -0.051019 2.486460 255 255 0
0.039685 -0.051710 2.479198 255 255 0
0.046687 -0.052619 2.471389 255 255 0
0.053682 -0.053524 2.463600 255 255 0
0.058990 -0.054872 2.454674 255 255 0
0.044176 -0.061588 2.431798 255 255 0
0.050336 -0.062719 2.423419 255 255 0
0.049798 -0.065643 2.410361 255 255 0
0.058460 -0.066096 2.403761 255 255 0
-0.201357 -0.138285 2.373040 0 255 0
-0.198350 -0.136124 2.383298 0 255 0
-0.193641 -0.134520 2.392404 0 255 0
-0.186372 -0.133745 2.399798 0 255 0
-0.166302 -0.137120 2.398658 0 255 0
-0.166690 -0.133839 2.411253 0 255 0
-0.151705 -0.135528 2.413648 0 255 0
-0.131569 -0.138854 2.412733 0 255 0
-0.143461 -0.128710 2.445247 0 255 0
-0.003611 -0.147435 2.455948 0 255 0
-0.031907 -0.132168 2.498623 0 255 0
-0.008913 -0.136107 2.497016 0 255 0
-0.010985 -0.132253 2.510824 0 255 0
-0.012199 -0.128673 2.524077 0 255 0
-0.319026 0.122184 2.328000 255 0 0
-0.313882 0.122664 2.337000 255 0 0
-0.307372 0.122619 2.336000 255 0 0
-0.300738 0.122522 2.334000 255 0 0
-0.294618 0.122634 2.336000 255 0 0
-0.288856 0.122904 2.341000 255 0 0
-0.283186 0.123226 2.347000 255 0 0
-0.235547 0.121854 2.320000 255 0 0
-0.227228 0.120809 2.300000 255 0 0
-0.220073 0.120343 2.291000 255 0 0
-0.213153 0.119980 2.284000 255 0 0
-0.206452 0.119723 2.279000 255 0 0
-0.199778 0.119466 2.274000 255 0 0
-0.193045 0.119156 2.268000 255 0 0
-0.186509 0.118951 2.264000 255 0 0
-0.180073 0.118798 2.261000 255 0 0
-0.173577 0.118592 2.257000 255 0 0
-0.167176 0.118439 2.254000 255 0 0
-0.160862 0.118338 2.252000 255 0 0
-0.154627 0.118290 2.251000 255 0 0
-0.148265 0.118136 2.248000 255 0 0
-0.141855 0.117930 2.244000 255 0 0
-0.135406 0.117671 2.239000 255 0 0
-0.129042 0.117464 2.235000 255 0 0
-0.122700 0.117258 2.231000 255 0 0
-0.116483 0.117156 2.229000 255 0 0
-0.110277 0.117054 2.227000 255 0 0
-0.104034 0.116899 2.224000 255 0 0
-0.097852 0.116796 2.222000 255 0 0
-0.091721 0.116746 2.221000 255 0 0
-0.085595 0.116696 2.220000 255 0 0
-0.079439 0.116593 2.218000 255 0 0
-0.073293 0.116490 2.216000 255 0 0
-0.067219 0.116492 2.216000 255 0 0
-0.061117 0.116441 2.215000 255 0 0
-0.055070 0.116496 2.216000 255 0 0
-0.048995 0.116497 2.216000 255 0 0
-0.043035 0.116814 2.222000 255 0 0
-0.037010 0.117025 2.226000 255 0 0
-0.030935 0.117131 2.228000 255 0 0
-0.024826 0.117132 2.228000 255 0 0
-0.018717 0.117132 2.228000 255 0 0
-0.012637 0.117396 2.233000 255 0 0
-0.006529 0.117659 2.238000 255 0 0
-0.000393 0.117922 2.243000 255 0 0
0.005757 0.117922 2.243000 255 0 0
0.011902 0.117869 2.242000 255 0 0
0.018065 0.117974 2.244000 255 0 0
0.024261 0.118183 2.248000 255 0 0
0.030479 0.118393 2.252000 255 0 0
0.036718 0.118602 2.256000 255 0 0
0.042979 0.118812 2.260000 255 0 0
0.049241 0.118968 2.263000 255 0 0
0.055494 0.119072 2.265000 255 0 0
0.061730 0.119123 2.266000 255 0 0
0.068062 0.119331 2.270000 255 0 0
0.074350 0.119434 2.272000 255 0 0
0.080755 0.119695 2.277000 255 0 0
0.087034 0.119745 2.278000 255 0 0
0.093441 0.119953 2.282000 255 0 0
0.099782 0.120056 2.284000 255 0 0
0.106319 0.120368 2.290000 255 0 0
0.113184 0.120996 2.302000 255 0 0
0.160358 0.118549 2.256000 255 0 0
0.164542 0.117126 2.229000 255 0 0
0.168806 0.115861 2.205000 255 0 0
0.173335 0.114858 2.186000 255 0 0
0.178006 0.114012 2.170000 255 0 0
0.183266 0.113587 2.162000 255 0 0
0.188745 0.113320 2.157000 255 0 0
0.194466 0.113210 2.155000 255 0 0
0.199710 0.112837 2.148000 255 0 0
0.204533 0.112254 2.137000 255 0 0
-0.050638 -0.069878 2.496203 255 255 0
-0.007163 -0.061264 2.512130 255 255 0
0.010875 -0.059291 2.511464 255 255 0
-0.009948 -0.067573 2.484963 255 255 0
0.019875 -0.062459 2.492280 255 255 0
0.021844 -0.064713 2.480991 255 255 0
0.034756 -0.064049 2.477118 255 255 0
0.042604 -0.064725 2.469859 255 255 0
0.053801 -0.064495 2.464931 255 255 0
0.033948 -0.072616 2.438641 255 255 0
0.050172 -0.071027 2.437199 255 255 0
0.055488 -0.072373 2.428245 255 255 0
0.055785 -0.075081 2.415787 255 255 0
0.064440 -0.075515 2.409195 255 255 0
-0.226458 -0.141074 2.391506 0 255 0
-0.230273 -0.136680 2.406316 0 255 0
-0.199213 -0.143798 2.397507 0 255 0
-0.180027 -0.146960 2.396879 0 255 0
-0.163371 -0.149264 2.398058 0 255 0
-0.162899 -0.146249 2.410098 0 255 0
-0.168410 -0.141287 2.426078 0 255 0
-0.149152 -0.144397 2.425696 0 255 0
-0.145262 -0.142492 2.435489 0 255 0
-0.144794 -0.139480 2.447515 0 255 0
-0.029317 -0.141219 2.511039 0 255 0
-0.313890 0.116269 2.337000 255 0 0
-0.307248 0.116177 2.335000 255 0 0
-0.300616 0.116085 2.333000 255 0 0
-0.294373 0.116141 2.334000 255 0 0
-0.288493 0.116347 2.338000 255 0 0
-0.283073 0.116752 2.346000 255 0 0
-0.234640 0.115054 2.311000 255 0 0
-0.226937 0.114362 2.297000 255 0 0
-0.219982 0.114019 2.290000 255 0 0
-0.213065 0.113676 2.283000 255 0 0
-0.206367 0.113432 2.278000 255 0 0
-0.199871 0.113288 2.275000 255 0 0
-0.193220 0.113044 2.270000 255 0 0
-0.186761 0.112899 2.267000 255 0 0
-0.180237 0.112705 2.263000 255 0 0
-0.173658 0.112460 2.258000 255 0 0
-0.167032 0.112165 2.252000 255 0 0
-0.160794 0.112120 2.251000 255 0 0
-0.154425 0.111974 2.248000 255 0 0
-0.148202 0.111928 2.247000 255 0 0
-0.141796 0.111733 2.243000 255 0 0
-0.135531 0.111637 2.241000 255 0 0
-0.129046 0.111341 2.235000 255 0 0
-0.122758 0.111195 2.232000 255 0 0
-0.116486 0.111048 2.229000 255 0 0
-0.110280 0.110952 2.227000 255 0 0
-0.104084 0.110855 2.225000 255 0 0
-0.097942 0.110808 2.224000 255 0 0
-0.091806 0.110760 2.223000 255 0 0
-0.085636 0.110663 2.221000 255 0 0
-0.079513 0.110615 2.220000 255 0 0
-0.073461 0.110667 2.221000 255 0 0
-0.067403 0.110719 2.222000 255 0 0
-0.061256 0.110621 2.220000 255 0 0
-0.055170 0.110622 2.220000 255 0 0
-0.049128 0.110723 2.222000 255 0 0
-0.043153 0.111023 2.228000 255 0 0
-0.037111 0.111224 2.232000 255 0 0
-0.031005 0.111274 2.233000 255 0 0
-0.024882 0.111275 2.233000 255 0 0
-0.018751 0.111226 2.232000 255 0 0
-0.012660 0.111475 2.237000 255 0 0
-0.006543 0.111775 2.243000 255 0 0
-0.000394 0.112024 2.248000 255 0 0
0.005767 0.111974 2.247000 255 0 0
0.011918 0.111874 2.245000 255 0 0
0.018082 0.111924 2.246000 255 0 0
0.024262 0.112023 2.248000 255 0 0
0.030480 0.112221 2.252000 255 0 0
0.036687 0.112320 2.254000 255 0 0
0.042924 0.112469 2.257000 255 0 0
0.049155 0.112567 2.259000 255 0 0
0.055373 0.112615 2.260000 255 0 0
0.061596 0.112664 2.261000 255 0 0
0.067854 0.112762 2.263000 255 0 0
0.074188 0.112959 2.267000 255 0 0
0.080650 0.113306 2.274000 255 0 0
0.086998 0.113453 2.277000 255 0 0
0.093361 0.113601 2.280000 255 0 0
0.099697 0.113698 2.282000 255 0 0
0.106415 0.114193 2.292000 255 0 0
0.113433 0.114938 2.307000 255 0 0
0.120273 0.115433 2.317000 255 0 0
0.164841 0.111220 2.233000 255 0 0
0.168887 0.109871 2.206000 255 0 0
0.173261 0.108820 2.185000 255 0 0
0.177847 0.107969 2.168000 255 0 0
0.183017 0.107517 2.159000 255 0 0
0.188487 0.107263 2.154000 255 0 0
0.194290 0.107209 2.153000 255 0 0
0.199529 0.106855 2.146000 255 0 0
0.204251 0.106253 2.134000 255 0 0
-0.042874 -0.079071 2.502631 255 255 0
-0.001117 -0.070780 2.517430 255 255 0
0.000862 -0.073043 2.506119 255 255 0
-0.006127 -0.080516 2.476120 255 255 0
0.025339 -0.074853 2.484627 255 255 0
0.034038 -0.075294 2.477899 255 255 0
0.044407 -0.075275 2.472349 255 255 0
0.042173 -0.078670 2.458208 255 255 0
0.065099 -0.075214 2.461370 255 255 0
0.062862 -0.078608 2.447236 255 255 0
0.063983 -0.081089 2.435400 255 255 0
0.060097 -0.084953 2.420036 255 255 0
0.062069 -0.087211 2.408744 255 255 0
-0.246438 -0.145430 2.406458 0 255 0
-0.219678 -0.151240 2.400440 0 255 0
-0.186074 -0.159286 2.389968 0 255 0
-0.167737 -0.162205 2.389971 0 255 0
-0.167261 -0.159181 2.402021 0 255 0
-0.165084 -0.156723 2.412920 0 255 0
-0.168883 -0.152299 2.427765 0 255 0
-0.161591 -0.151530 2.435266 0 255 0
-0.147452 -0.152995 2.438318 0 255 0
-0.129872 -0.155564 2.439209 0 255 0
-0.041060 -0.148958 2.519748 0 255 0
-0.034505 -0.147822 2.528205 0 255 0
-0.014101 -0.151042 2.528306 0 255 0
-0.318767 0.109350 2.326000 255 0 0
-0.313762 0.109827 2.336000 255 0 0
-0.307255 0.109787 2.335000 255 0 0
-0.300494 0.109653 2.332000 255 0 0
-0.294379 0.109753 2.334000 255 0 0
-0.288746 0.110042 2.340000 255 0 0
-0.234137 0.108490 2.306000 255 0 0
-0.226547 0.107884 2.293000 255 0 0
-0.219796 0.107654 2.288000 255 0 0
-0.213071 0.107424 2.283000 255 0 0
-0.206644 0.107335 2.281000 255 0 0
-0.200139 0.107198 2.278000 255 0 0
-0.193395 0.106920 2.272000 255 0 0
-0.186848 0.106737 2.268000 255 0 0
-0.180082 0.106412 2.261000 255 0 0
-0.173663 0.106275 2.258000 255 0 0
-0.167332 0.106184 2.256000 255 0 0
-0.161227 0.106235 2.257000 255 0 0
-0.154772 0.106051 2.253000 255 0 0
-0.148206 0.105772 2.247000 255 0 0
-0.141736 0.105540 2.242000 255 0 0
-0.135534 0.105497 2.241000 255 0 0
-0.129222 0.105359 2.238000 255 0 0
-0.122871 0.105173 2.234000 255 0 0
-0.116593 0.105035 2.231000 255 0 0
-0.110332 0.104896 2.228000 255 0 0
-0.104133 0.104805 2.226000 255 0 0
-0.098077 0.104854 2.227000 255 0 0
-0.092015 0.104904 2.228000 255 0 0
-0.085793 0.104765 2.225000 255 0 0
-0.079730 0.104814 2.226000 255 0 0
-0.073595 0.104769 2.225000 255 0 0
-0.067587 0.104912 2.228000 255 0 0
-0.061396 0.104772 2.225000 255 0 0
-0.055296 0.104773 2.225000 255 0 0
-0.049240 0.104869 2.227000 255 0 0
-0.043212 0.105058 2.231000 255 0 0
-0.037195 0.105342 2.237000 255 0 0
-0.031075 0.105390 2.238000 255 0 0
-0.024950 0.105438 2.239000 255 0 0
-0.018802 0.105391 2.238000 255 0 0
-0.012688 0.105580 2.242000 255 0 0
-0.006546 0.105674 2.244000 255 0 0
-0.000394 0.105816 2.247000 255 0 0
0.005763 0.105721 2.245000 255 0 0
0.011918 0.105721 2.245000 255 0 0
0.018082 0.105768 2.246000 255 0 0
0.024230 0.105720 2.245000 255 0 0
0.030413 0.105814 2.247000 255 0 0
0.036622 0.105954 2.250000 255 0 0
0.042868 0.106142 2.254000 255 0 0
0.049091 0.106235 2.256000 255 0 0
0.055325 0.106327 2.258000 255 0 0
0.061515 0.106326 2.258000 255 0 0
0.067766 0.106419 2.260000 255 0 0
0.074157 0.106699 2.266000 255 0 0
0.080688 0.107121 2.275000 255 0 0
0.087038 0.107261 2.278000 255 0 0
0.093405 0.107400 2.281000 255 0 0
0.099743 0.107491 2.283000 255 0 0
0.106464 0.107960 2.293000 255 0 0
0.113387 0.108569 2.306000 255 0 0
0.120121 0.108943 2.314000 255 0 0
0.165555 0.109625 2.329000 255 0 0
0.165067 0.105244 2.236000 255 0 0
0.168662 0.103686 2.203000 255 0 0
0.173106 0.102741 2.183000 255 0 0
0.177933 0.102078 2.169000 255 0 0
0.182936 0.101556 2.158000 255 0 0
0.188492 0.101364 2.154000 255 0 0
0.194024 0.101171 2.150000 255 0 0
0.199348 0.100884 2.144000 255 0 0
0.203777 0.100173 2.129000 255 0 0
-0.042729 -0.090273 2.504058 255 255 0
-0.015357 -0.085732 2.509351 255 255 0
-0.008295 -0.086640 2.501352 255 255 0
-0.020635 -0.092800 2.480442 255 255 0
-0.007672 -0.092107 2.476381 255 255 0
0.008637 -0.090487 2.474646 255 255 0
0.029961 -0.087475 2.476406 255 255 0
0.036974 -0.088358 2.468544 255 255 0
0.057399 -0.085546 2.469900 255 255 0
0.061867 -0.087108 2.460387 255 255 0
0.062150 -0.089826 2.447981 255 255 0
0.070799 -0.090228 2.441381 255 255 0
0.064406 -0.094809 2.424283 255 255 0
0.058033 -0.099400 2.407126 255 255 0
-0.216344 -0.166600 2.387234 0 255 0
-0.171255 -0.175438 2.381308 0 255 0
-0.189486 -0.166130 2.405934 0 255 0
-0.185621 -0.164249 2.415648 0 255 0
-0.178346 -0.163504 2.423102 0 255 0
-0.162536 -0.165590 2.424947 0 255 0
-0.160360 -0.163131 2.435842 0 255 0
-0.142809 -0.165758 2.436680 0 255 0
-0.129508 -0.166957 2.440383 0 255 0
-0.029144 -0.167438 2.501462 0 255 0
-0.036391 -0.161887 2.518410 0 255 0
-0.028105 -0.161310 2.525840 0 255 0
-0.003380 -0.165951 2.523366 0 255 0
-0.313635 0.103390 2.335000 255 0 0
-0.307393 0.103441 2.336000 255 0 0
-0.300630 0.103314 2.333000 255 0 0
-0.294638 0.103454 2.336000 255 0 0
-0.288876 0.103681 2.341000 255 0 0
-0.234143 0.102175 2.306000 255 0 0
-0.226651 0.101649 2.294000 255 0 0
-0.219705 0.101344 2.287000 255 0 0
-0.212889 0.101082 2.281000 255 0 0
-0.206286 0.100910 2.277000 255 0 0
-0.199968 0.100870 2.276000 255 0 0
-0.193314 0.100653 2.271000 255 0 0
-0.186770 0.100480 2.267000 255 0 0
-0.180007 0.100173 2.260000 255 0 0
-0.173590 0.100044 2.257000 255 0 0
-0.167188 0.099915 2.254000 255 0 0
-0.161159 0.100008 2.256000 255 0 0
-0.154844 0.099923 2.254000 255 0 0
-0.148473 0.099793 2.251000 255 0 0
-0.142118 0.099663 2.248000 255 0 0
-0.136021 0.099711 2.249000 255 0 0
-0.129687 0.099581 2.246000 255 0 0
-0.123204 0.099318 2.240000 255 0 0
-0.116753 0.099054 2.234000 255 0 0
-0.110483 0.098924 2.231000 255 0 0
-0.104323 0.098882 2.230000 255 0 0
-0.098123 0.098796 2.228000 255 0 0
-0.092017 0.098798 2.228000 255 0 0
-0.085833 0.098711 2.226000 255 0 0
-0.079767 0.098757 2.227000 255 0 0
-0.073696 0.098804 2.228000 255 0 0
-0.067679 0.098938 2.231000 255 0 0
-0.061535 0.098895 2.230000 255 0 0
-0.055397 0.098852 2.229000 255 0 0
-0.049286 0.098854 2.229000 255 0 0
-0.043252 0.099032 2.233000 255 0 0
-0.037196 0.099210 2.237000 255 0 0
-0.031062 0.099211 2.237000 255 0 0
-0.024939 0.099256 2.238000 255 0 0
-0.018794 0.099212 2.237000 255 0 0
-0.012677 0.099346 2.240000 255 0 0
-0.006538 0.099390 2.241000 255 0 0
-0.000393 0.099524 2.244000 255 0 0
0.005765 0.099612 2.246000 255 0 0
0.011929 0.099656 2.247000 255 0 0
0.018083 0.099612 2.246000 255 0 0
0.024220 0.099522 2.244000 255 0 0
0.030386 0.099566 2.245000 255 0 0
0.036591 0.099698 2.248000 255 0 0
0.042850 0.099919 2.253000 255 0 0
0.049114 0.100096 2.257000 255 0 0
0.055424 0.100316 2.262000 255 0 0
0.061708 0.100448 2.265000 255 0 0
0.067977 0.100535 2.267000 255 0 0
0.074323 0.100711 2.271000 255 0 0
0.080761 0.100975 2.277000 255 0 0
0.087155 0.101150 2.281000 255 0 0
0.093489 0.101237 2.283000 255 0 0
0.099746 0.101235 2.283000 255 0 0
0.106235 0.101454 2.288000 255 0 0
0.113095 0.101984 2.300000 255 0 0
0.120072 0.102558 2.313000 255 0 0
0.164701 0.098896 2.231000 255 0 0
0.168589 0.097607 2.202000 255 0 0
0.173190 0.096805 2.184000 255 0 0
0.178101 0.096225 2.171000 255 0 0
0.182941 0.095645 2.158000 255 0 0
0.188233 0.095331 2.151000 255 0 0
0.193577 0.095060 2.145000 255 0 0
0.198888 0.094790 2.139000 255 0 0
0.203782 0.094343 2.129000 255 0 0
-0.078459 -0.108366 2.494843 255 255 0
-0.045119 -0.102174 2.503826 255 255 0
-0.025356 -0.099634 2.504079 255 255 0
-0.022502 -0.101690 2.493247 255 255 0
-0.026389 -0.105595 2.477917 255 255 0
-0.020158 -0.106730 2.469314 255 255 0
0.024210 -0.100157 2.473784 255 255 0
0.036264 -0.099636 2.469326 255 255 0
0.043270 -0.100505 2.461475 255 255 0
0.051105 -0.101137 2.454222 255 255 0
0.058931 -0.101764 2.446994 255 255 0
0.077609 -0.099335 2.447354 255 255 0
0.075389 -0.102769 2.433201 255 255 0
0.049835 -0.112804 2.402584 255 255 0
-0.217658 -0.177259 2.389453 0 255 0
-0.196839 -0.181172 2.387600 0 255 0
-0.187031 -0.181313 2.393304 0 255 0
-0.201860 -0.173101 2.415590 0 255 0
-0.209065 -0.167496 2.432658 0 255 0
-0.177969 -0.174806 2.424222 0 255 0
-0.151938 -0.180364 2.419329 0 255 0
-0.147191 -0.178752 2.428581 0 255 0
-0.145858 -0.175996 2.440074 0 255 0
-0.161616 -0.167551 2.462661 0 255 0
-0.026554 -0.176530 2.513920 0 255 0
-0.007366 -0.176218 2.527325 0 255 0
-0.313641 0.097000 2.335000 255 0 0
-0.307531 0.097089 2.337000 255 0 0
-0.300893 0.097012 2.335000 255 0 0
-0.294770 0.097101 2.337000 255 0 0
-0.289375 0.097439 2.345000 255 0 0
-0.234148 0.095860 2.306000 255 0 0
-0.226952 0.095491 2.297000 255 0 0
-0.219997 0.095204 2.290000 255 0 0
-0.212987 0.094876 2.282000 255 0 0
-0.206290 0.094673 2.277000 255 0 0
-0.199621 0.094469 2.272000 255 0 0
-0.193148 0.094348 2.269000 255 0 0
-0.186609 0.094186 2.265000 255 0 0
-0.180091 0.094024 2.261000 255 0 0
-0.173747 0.093944 2.259000 255 0 0
-0.167414 0.093865 2.257000 255 0 0
-0.161306 0.093910 2.258000 255 0 0
-0.154916 0.093788 2.255000 255 0 0
-0.148477 0.093625 2.251000 255 0 0
-0.142122 0.093503 2.248000 255 0 0
-0.136085 0.093590 2.250000 255 0 0
-0.129921 0.093592 2.250000 255 0 0
-0.123647 0.093512 2.248000 255 0 0
-0.117121 0.093223 2.241000 255 0 0
-0.110832 0.093101 2.238000 255 0 0
-0.104652 0.093062 2.237000 255 0 0
-0.098390 0.092939 2.234000 255 0 0
-0.092267 0.092941 2.234000 255 0 0
-0.086144 0.092943 2.234000 255 0 0
-0.080020 0.092945 2.234000 255 0 0
-0.073896 0.092947 2.234000 255 0 0
-0.067802 0.092990 2.235000 255 0 0
-0.061647 0.092949 2.234000 255 0 0
-0.055522 0.092951 2.234000 255 0 0
-0.049353 0.092869 2.232000 255 0 0
-0.043272 0.092953 2.234000 255 0 0
-0.037180 0.093037 2.236000 255 0 0
-0.031063 0.093079 2.237000 255 0 0
-0.024951 0.093163 2.239000 255 0 0
-0.018820 0.093205 2.240000 255 0 0
-0.012694 0.093330 2.243000 255 0 0
-0.006544 0.093331 2.243000 255 0 0
-0.000393 0.093372 2.244000 255 0 0
0.005760 0.093372 2.244000 255 0 0
0.011914 0.093372 2.244000 255 0 0
0.018059 0.093330 2.243000 255 0 0
0.024231 0.093413 2.245000 255 0 0
0.030428 0.093537 2.248000 255 0 0
0.036673 0.093744 2.253000 255 0 0
0.042965 0.093993 2.259000 255 0 0
0.049289 0.094242 2.265000 255 0 0
0.055622 0.094449 2.270000 255 0 0
0.061954 0.094614 2.274000 255 0 0
0.068218 0.094654 2.275000 255 0 0
0.074553 0.094777 2.278000 255 0 0
0.080869 0.094859 2.280000 255 0 0
0.087271 0.095023 2.284000 255 0 0
0.093573 0.095063 2.285000 255 0 0
0.099792 0.095019 2.284000 255 0 0
0.106051 0.095017 2.284000 255 0 0
0.112802 0.095431 2.294000 255 0 0
0.119815 0.096011 2.308000 255 0 0
0.161899 0.091203 2.193000 255 0 0
0.168669 0.091616 2.203000 255 0 0
0.173114 0.090780 2.183000 255 0 0
0.177941 0.090195 2.169000 255 0 0
0.182775 0.089650 2.156000 255 0 0
0.187975 0.089314 2.148000 255 0 0
0.193311 0.089060 2.142000 255 0 0
0.198520 0.088765 2.135000 255 0 0
0.203690 0.088470 2.128000 255 0 0
-0.046659 -0.113869 2.504155 255 255 0
-0.026058 -0.111047 2.504942 255 255 0
-0.024887 -0.113573 2.492986 255 255 0
-0.024554 -0.116335 2.480453 255 255 0
-0.019166 -0.117695 2.471285 255 255 0
0.014269 -0.114062 2.468332 255 255 0
0.026330 -0.113520 2.463832 255 255 0
0.020779 -0.117924 2.447340 255 255 0
0.039518 -0.115481 2.447500 255 255 0
0.057389 -0.113259 2.447172 255 255 0
0.075228 -0.111022 2.446930 255 255 0
0.063838 -0.117090 2.426348 255 255 0
-0.178458 -0.208346 2.339160 0 255 0
-0.208430 -0.194756 2.372156 0 255 0
-0.224057 -0.186171 2.395137 0 255 0
-0.211734 -0.187226 2.399036 0 255 0
-0.188360 -0.192052 2.395549 0 255 0
-0.187038 -0.189302 2.406998 0 255 0
-0.135394 -0.197236 2.409798 0 255 0
-0.130633 -0.195618 2.419107 0 255 0
-0.139519 -0.189394 2.437339 0 255 0
-0.162944 -0.178303 2.464927 0 255 0
-0.021376 -0.186474 2.524822 0 255 0
-0.013941 -0.185635 2.532846 0 255 0
-0.318375 0.090138 2.323000 255 0 0
-0.313647 0.090609 2.335000 255 0 0
-0.307668 0.090731 2.338000 255 0 0
-0.300899 0.090620 2.335000 255 0 0
-0.294776 0.090703 2.337000 255 0 0
-0.289504 0.091058 2.346000 255 0 0
-0.243064 0.090511 2.331000 255 0 0
-0.234254 0.089583 2.307000 255 0 0
-0.227154 0.089277 2.299000 255 0 0
-0.220002 0.088932 2.290000 255 0 0
-0.212991 0.088626 2.282000 255 0 0
-0.206023 0.088319 2.274000 255 0 0
-0.199274 0.088090 2.268000 255 0 0
-0.192727 0.087938 2.264000 255 0 0
-0.186365 0.087864 2.262000 255 0 0
-0.179935 0.087751 2.259000 255 0 0
-0.173597 0.087677 2.257000 255 0 0
-0.167269 0.087603 2.255000 255 0 0
-0.161095 0.087606 2.255000 255 0 0
-0.154782 0.087531 2.253000 255 0 0
-0.148480 0.087457 2.251000 255 0 0
-0.142125 0.087343 2.248000 255 0 0
-0.136209 0.087501 2.252000 255 0 0
-0.130155 0.087582 2.254000 255 0 0
-0.123869 0.087507 2.252000 255 0 0
-0.117437 0.087315 2.247000 255 0 0
-0.111132 0.087200 2.244000 255 0 0
-0.104889 0.087125 2.242000 255 0 0
-0.098612 0.087010 2.239000 255 0 0
-0.092475 0.087012 2.239000 255 0 0
-0.086338 0.087014 2.239000 255 0 0
-0.080129 0.086938 2.237000 255 0 0
-0.073997 0.086940 2.237000 255 0 0
-0.067864 0.086941 2.237000 255 0 0
-0.061786 0.087020 2.239000 255 0 0
-0.055648 0.087021 2.239000 255 0 0
-0.049509 0.087022 2.239000 255 0 0
-0.043350 0.086984 2.238000 255 0 0
-0.037181 0.086907 2.236000 255 0 0
-0.031036 0.086869 2.235000 255 0 0
-0.024940 0.086986 2.238000 255 0 0
-0.018820 0.087065 2.240000 255 0 0
-0.012700 0.087220 2.244000 255 0 0
-0.006547 0.087221 2.244000 255 0 0
-0.000393 0.087221 2.244000 255 0 0
0.005763 0.087260 2.245000 255 0 0
0.011935 0.087376 2.248000 255 0 0
0.018116 0.087453 2.250000 255 0 0
0.024329 0.087608 2.254000 255 0 0
0.030550 0.087724 2.257000 255 0 0
0.036804 0.087879 2.261000 255 0 0
0.043061 0.087995 2.264000 255 0 0
0.049355 0.088150 2.268000 255 0 0
0.055721 0.088382 2.274000 255 0 0
0.062037 0.088497 2.277000 255 0 0
0.068340 0.088574 2.279000 255 0 0
0.074620 0.088611 2.280000 255 0 0
0.080906 0.088648 2.281000 255 0 0
0.087311 0.088802 2.285000 255 0 0
0.093575 0.088800 2.285000 255 0 0
0.099794 0.088759 2.284000 255 0 0
0.106007 0.088718 2.283000 255 0 0
0.112608 0.088988 2.290000 255 0 0
0.119610 0.089530 2.304000 255 0 0
0.166702 0.087720 2.258000 255 0 0
0.169132 0.085813 2.209000 255 0 0
0.173038 0.084761 2.182000 255 0 0
0.177780 0.084175 2.167000 255 0 0
0.182440 0.083588 2.152000 255 0 0
0.187629 0.083274 2.144000 255 0 0
0.193044 0.083076 2.139000 255 0 0
0.198710 0.082995 2.137000 255 0 0
0.203886 0.082719 2.130000 255 0 0
-0.067984 -0.128206 2.504376 255 255 0
-0.044818 -0.124646 2.506701 255 255 0
-0.025069 -0.122006 2.506921 255 255 0
-0.006198 -0.119585 2.506679 255 255 0
-0.005882 -0.122348 2.494200 255 255 0
-0.005558 -0.125114 2.481702 255 255 0
-0.001028 -0.126697 2.472013 255 255 0
0.009375 -0.126615 2.466305 255 255 0
0.018086 -0.127001 2.459498 255 255 0
0.044371 -0.122372 2.464755 255 255 0
0.051368 -0.123217 2.456911 255 255 0
0.060028 -0.123578 2.450245 255 255 0
0.067842 -0.124174 2.443030 255 255 0
-0.189947 -0.215610 2.348397 0 255 0
-0.229604 -0.195351 2.400239 0 255 0
-0.214747 -0.197320 2.402411 0 255 0
-0.178664 -0.206611 2.390365 0 255 0
-0.163748 -0.208536 2.392743 0 255 0
-0.166654 -0.204306 2.407088 0 255 0
-0.143207 -0.209131 2.403913 0 255 0
-0.135897 -0.208395 2.411528 0 255 0
-0.124320 -0.209108 2.416371 0 255 0
-0.114434 -0.209229 2.422379 0 255 0
-0.118190 -0.204706 2.437289 0 255 0
-0.015865 -0.199815 2.523019 0 255 0
-0.021372 -0.194743 2.538882 0 255 0
-0.313787 0.084254 2.336000 255 0 0
-0.307937 0.084403 2.340000 255 0 0
-0.301291 0.084337 2.338000 255 0 0
-0.295033 0.084378 2.339000 255 0 0
-0.289880 0.084744 2.349000 255 0 0
-0.242339 0.083874 2.324000 255 0 0
-0.234563 0.083373 2.310000 255 0 0
-0.227060 0.082944 2.298000 255 0 0
-0.219814 0.082587 2.288000 255 0 0
-0.212621 0.082230 2.278000 255 0 0
-0.205755 0.081981 2.271000 255 0 0
-0.199014 0.081768 2.265000 255 0 0
-0.192645 0.081699 2.263000 255 0 0
-0.186204 0.081595 2.260000 255 0 0
-0.179859 0.081526 2.258000 255 0 0
-0.173523 0.081457 2.256000 255 0 0
-0.167198 0.081388 2.254000 255 0 0
-0.161026 0.081391 2.254000 255 0 0
-0.154648 0.081285 2.251000 255 0 0
-0.148351 0.081216 2.249000 255 0 0
-0.142127 0.081182 2.248000 255 0 0
-0.136151 0.081293 2.251000 255 0 0
-0.130099 0.081368 2.253000 255 0 0
-0.123927 0.081370 2.253000 255 0 0
-0.117649 0.081300 2.251000 255 0 0
-0.111381 0.081230 2.249000 255 0 0
-0.105124 0.081160 2.247000 255 0 0
-0.098834 0.081054 2.244000 255 0 0
-0.092725 0.081092 2.245000 255 0 0
-0.086533 0.081057 2.244000 255 0 0
-0.080310 0.080987 2.242000 255 0 0
-0.074097 0.080916 2.240000 255 0 0
-0.067987 0.080953 2.241000 255 0 0
-0.061870 0.080991 2.242000 255 0 0
-0.055748 0.081028 2.243000 255 0 0
-0.049620 0.081065 2.244000 255 0 0
-0.043468 0.081066 2.244000 255 0 0
-0.037298 0.081030 2.243000 255 0 0
-0.031147 0.081031 2.243000 255 0 0
-0.025008 0.081068 2.244000 255 0 0
-0.018863 0.081104 2.245000 255 0 0
-0.012718 0.081177 2.247000 255 0 0
-0.006553 0.081141 2.246000 255 0 0
-0.000393 0.081105 2.245000 255 0 0
0.005768 0.081177 2.247000 255 0 0
0.011957 0.081358 2.252000 255 0 0
0.018164 0.081502 2.256000 255 0 0
0.024416 0.081718 2.262000 255 0 0
0.030645 0.081790 2.264000 255 0 0
0.036870 0.081825 2.265000 255 0 0
0.043081 0.081825 2.265000 255 0 0
0.049356 0.081932 2.268000 255 0 0
0.055697 0.082112 2.273000 255 0 0
0.062038 0.082255 2.277000 255 0 0
0.068341 0.082326 2.279000 255 0 0
0.074622 0.082361 2.280000 255 0 0
0.080872 0.082359 2.280000 255 0 0
0.087275 0.082502 2.284000 255 0 0
0.093495 0.082464 2.283000 255 0 0
0.099796 0.082499 2.284000 255 0 0
0.106055 0.082497 2.284000 255 0 0
0.112807 0.082856 2.294000 255 0 0
0.168829 0.079616 2.205000 255 0 0
0.172883 0.078710 2.180000 255 0 0
0.177620 0.078165 2.165000 255 0 0
0.182189 0.077584 2.149000 255 0 0
0.187457 0.077328 2.142000 255 0 0
0.193138 0.077253 2.140000 255 0 0
0.198714 0.077141 2.137000 255 0 0
0.203698 0.076812 2.128000 255 0 0
-0.028627 -0.131383 2.518637 255 255 0
-0.015648 -0.130590 2.514450 255 255 0
-0.005217 -0.130502 2.508646 255 255 0
0.013615 -0.128017 2.508482 255 255 0
-0.002891 -0.135572 2.484793 255 255 0
0.000799 -0.137391 2.474540 255 255 0
0.004488 -0.139209 2.464289 255 255 0
0.025771 -0.135972 2.466006 255 255 0
0.053711 -0.130786 2.472407 255 255 0
0.083271 -0.125091 2.480106 255 255 0
0.076863 -0.129777 2.463133 255 255 0
-0.165948 -0.235340 2.333213 0 255 0
-0.212773 -0.215586 2.377777 0 255 0
-0.218222 -0.210454 2.393815 0 255 0
-0.223688 -0.205333 2.409802 0 255 0
-0.176612 -0.218577 2.390340 0 255 0
-0.167639 -0.218468 2.396719 0 255 0
-0.165448 -0.215991 2.407659 0 255 0
-0.149660 -0.218227 2.409580 0 255 0
-0.141506 -0.217801 2.416625 0 255 0
-0.141857 -0.214435 2.429280 0 255 0
-0.112390 -0.221323 2.422467 0 255 0
-0.029324 -0.206912 2.532729 0 255 0
-0.022761 -0.205818 2.541270 0 255 0
-0.000652 -0.209845 2.540516 0 255 0
0.010257 -0.210153 2.546570 0 255 0
-0.317974 0.077322 2.320000 255 0 0
-0.313658 0.077826 2.335000 255 0 0
-0.307679 0.077931 2.338000 255 0 0
-0.301296 0.077936 2.338000 255 0 0
-0.294912 0.077941 2.338000 255 0 0
-0.289514 0.078212 2.346000 255 0 0
-0.242552 0.077575 2.326000 255 0 0
-0.234770 0.077112 2.312000 255 0 0
-0.226866 0.076583 2.296000 255 0 0
-0.219529 0.076219 2.285000 255 0 0
-0.212438 0.075923 2.276000 255 0 0
-0.205758 0.075759 2.271000 255 0 0
-0.199017 0.075563 2.265000 255 0 0
-0.192563 0.075466 2.262000 255 0 0
-0.186207 0.075402 2.260000 255 0 0
-0.179782 0.075305 2.257000 255 0 0
-0.173449 0.075242 2.255000 255 0 0
-0.167127 0.075178 2.253000 255 0 0
-0.160958 0.075181 2.253000 255 0 0
-0.154650 0.075117 2.251000 255 0 0
-0.148353 0.075052 2.249000 255 0 0
-0.142193 0.075055 2.249000 255 0 0
-0.136032 0.075057 2.249000 255 0 0
-0.129929 0.075093 2.250000 255 0 0
-0.123709 0.075062 2.249000 255 0 0
-0.117546 0.075064 2.249000 255 0 0
-0.111383 0.075066 2.249000 255 0 0
-0.105173 0.075034 2.248000 255 0 0
-0.098880 0.074936 2.245000 255 0 0
-0.092727 0.074938 2.245000 255 0 0
-0.086534 0.074906 2.244000 255 0 0
-0.080383 0.074907 2.244000 255 0 0
-0.074165 0.074842 2.242000 255 0 0
-0.068018 0.074843 2.242000 255 0 0
-0.061872 0.074844 2.242000 255 0 0
-0.055725 0.074845 2.242000 255 0 0
-0.049577 0.074846 2.242000 255 0 0
-0.043430 0.074847 2.242000 255 0 0
-0.037282 0.074848 2.242000 255 0 0
-0.031148 0.074882 2.243000 255 0 0
-0.025008 0.074916 2.244000 255 0 0
-0.018863 0.074949 2.245000 255 0 0
-0.012712 0.074983 2.246000 255 0 0
-0.006553 0.074983 2.246000 255 0 0
-0.000394 0.074983 2.246000 255 0 0
0.005776 0.075117 2.250000 255 0 0
0.011973 0.075283 2.255000 255 0 0
0.018197 0.075450 2.260000 255 0 0
0.024438 0.075583 2.264000 255 0 0
0.030673 0.075650 2.266000 255 0 0
0.036887 0.075649 2.266000 255 0 0
0.043119 0.075682 2.267000 255 0 0
0.049401 0.075781 2.270000 255 0 0
0.055747 0.075947 2.275000 255 0 0
0.062040 0.076013 2.277000 255 0 0
0.068312 0.076045 2.278000 255 0 0
0.074558 0.076044 2.278000 255 0 0
0.080803 0.076042 2.278000 255 0 0
0.087200 0.076174 2.282000 255 0 0
0.093537 0.076240 2.284000 255 0 0
0.099929 0.076338 2.287000 255 0 0
0.106243 0.076370 2.288000 255 0 0
0.113054 0.076735 2.299000 255 0 0
0.170104 0.076880 2.304000 255 0 0
0.168602 0.073474 2.202000 255 0 0
0.172727 0.072670 2.178000 255 0 0
0.177459 0.072166 2.163000 255 0 0
0.182107 0.071663 2.148000 255 0 0
0.187548 0.071493 2.143000 255 0 0
0.193322 0.071456 2.142000 255 0 0
0.199089 0.071420 2.141000 255 0 0
0.203893 0.071050 2.130000 255 0 0
-0.040632 -0.143167 2.524878 255 255 0
-0.036918 -0.144998 2.514555 255 255 0
-0.014663 -0.141533 2.516426 255 255 0
-0.003393 -0.141183 2.511171 255 255 0
0.010385 -0.140100 2.507642 255 255 0
0.010697 -0.142878 2.495185 255 255 0
0.000108 -0.148812 2.475377 255 255 0
0.013020 -0.147959 2.471352 255 255 0
0.037636 -0.143689 2.475352 255 255 0
0.076704 -0.138012 2.476841 255 255 0
-0.208670 -0.231470 2.363924 0 255 0
-0.203115 -0.230204 2.372498 0 255 0
-0.207704 -0.225339 2.387990 0 255 0
-0.206381 -0.222578 2.399425 0 255 0
-0.199980 -0.221611 2.407429 0 255 0
-0.184245 -0.223918 2.409207 0 255 0
-0.165943 -0.227102 2.409366 0 255 0
-0.159505 -0.226109 2.417491 0 255 0
-0.153061 -0.225111 2.425637 0 255 0
-0.152568 -0.222037 2.437706 0 255 0
-0.122273 -0.229306 2.430333 0 255 0
-0.038463 -0.215385 2.539811 0 255 0
-0.028459 -0.215458 2.546257 0 255 0
-0.003777 -0.220407 2.543957 0 255 0
-0.318390 0.071063 2.323000 255 0 0
-0.313528 0.071404 2.334000 255 0 0
-0.307552 0.071500 2.337000 255 0 0
-0.301558 0.071597 2.340000 255 0 0
-0.295043 0.071570 2.339000 255 0 0
-0.289766 0.071850 2.348000 255 0 0
-0.250734 0.071721 2.343000 255 0 0
-0.242764 0.071266 2.328000 255 0 0
-0.234977 0.070841 2.314000 255 0 0
-0.226870 0.070293 2.296000 255 0 0
-0.219437 0.069929 2.284000 255 0 0
-0.212162 0.069596 2.273000 255 0 0
-0.205671 0.069507 2.270000 255 0 0
-0.199108 0.069388 2.266000 255 0 0
-0.192822 0.069360 2.265000 255 0 0
-0.186293 0.069240 2.261000 255 0 0
-0.179944 0.069182 2.259000 255 0 0
-0.173529 0.069093 2.256000 255 0 0
-0.167204 0.069034 2.254000 255 0 0
-0.160889 0.068976 2.252000 255 0 0
-0.154653 0.068947 2.251000 255 0 0
-0.148488 0.068950 2.251000 255 0 0
-0.142322 0.068952 2.251000 255 0 0
-0.136095 0.068924 2.250000 255 0 0
-0.129757 0.068834 2.247000 255 0 0
-0.123491 0.068775 2.245000 255 0 0
-0.117287 0.068746 2.244000 255 0 0
-0.111187 0.068778 2.245000 255 0 0
-0.105081 0.068811 2.246000 255 0 0
-0.098926 0.068812 2.246000 255 0 0
-0.092728 0.068783 2.245000 255 0 0
-0.086497 0.068723 2.243000 255 0 0
-0.080313 0.068694 2.242000 255 0 0
-0.074100 0.068634 2.240000 255 0 0
-0.067959 0.068635 2.240000 255 0 0
-0.061845 0.068667 2.241000 255 0 0
-0.055725 0.068698 2.242000 255 0 0
-0.049578 0.068699 2.242000 255 0 0
-0.043469 0.068761 2.244000 255 0 0
-0.037316 0.068762 2.244000 255 0 0
-0.031176 0.068793 2.245000 255 0 0
-0.025031 0.068824 2.246000 255 0 0
-0.018897 0.068917 2.249000 255 0 0
-0.012735 0.068947 2.250000 255 0 0
-0.006565 0.068948 2.250000 255 0 0
-0.000395 0.069009 2.252000 255 0 0
0.005791 0.069131 2.256000 255 0 0
0.011989 0.069193 2.258000 255 0 0
0.018189 0.069223 2.259000 255 0 0
0.024416 0.069315 2.262000 255 0 0
0.030674 0.069437 2.266000 255 0 0
0.036904 0.069467 2.267000 255 0 0
0.043158 0.069527 2.269000 255 0 0
0.049402 0.069557 2.270000 255 0 0
0.055724 0.069679 2.274000 255 0 0
0.062041 0.069770 2.277000 255 0 0
0.068374 0.069861 2.280000 255 0 0
0.074657 0.069890 2.281000 255 0 0
0.080910 0.069889 2.281000 255 0 0
0.087316 0.070010 2.285000 255 0 0
0.093703 0.070101 2.288000 255 0 0
0.100105 0.070191 2.291000 255 0 0
0.106477 0.070251 2.293000 255 0 0
0.113204 0.070525 2.302000 255 0 0
0.167523 0.069494 2.269000 255 0 0
0.168605 0.067439 2.202000 255 0 0
0.172254 0.066518 2.172000 255 0 0
0.177133 0.066117 2.159000 255 0 0
0.181856 0.065686 2.145000 255 0 0
0.187551 0.065621 2.143000 255 0 0
0.193144 0.065527 2.140000 255 0 0
0.198906 0.065493 2.139000 255 0 0
0.203418 0.065061 2.125000 255 0 0
0.206473 0.064201 2.097000 255 0 0
0.213828 0.064688 2.113000 255 0 0
-0.067016 -0.159120 2.521912 255 255 0
-0.038794 -0.153932 2.527423 255 255 0
-0.022431 -0.152119 2.525367 255 255 0
-0.018732 -0.153942 2.515083 255 255 0
0.002639 -0.150645 2.516479 255 255 0
0.023970 -0.147330 2.517981 255 255 0
