ply
format ascii 1.0
element vertex 1329
property double x
property double y
property double z
property uchar red
property uchar green
property uchar blue
end_header
0.075853 0.411477 2.145000 255 0 0
0.081677 0.411278 2.144000 255 0 0
0.087496 0.411080 2.143000 255 0 0
0.093396 0.411265 2.144000 255 0 0
0.099625 0.412792 2.152000 255 0 0
0.105897 0.414318 2.160000 255 0 0
0.112006 0.415077 2.164000 255 0 0
0.117919 0.415068 2.164000 255 0 0
0.123888 0.415250 2.165000 255 0 0
0.129922 0.415624 2.167000 255 0 0
0.135904 0.415805 2.168000 255 0 0
0.141630 0.415219 2.165000 255 0 0
0.147406 0.414824 2.163000 255 0 0
0.153384 0.415004 2.164000 255 0 0
0.159662 0.415951 2.169000 255 0 0
0.165966 0.416898 2.174000 255 0 0
0.172376 0.418035 2.180000 255 0 0
0.178818 0.419172 2.186000 255 0 0
0.185039 0.419734 2.189000 255 0 0
0.191450 0.420678 2.194000 255 0 0
-0.117589 0.472024 2.334818 255 255 0
-0.115610 0.469985 2.323331 255 255 0
-0.111035 0.468220 2.313641 255 255 0
-0.099554 0.467191 2.308794 255 255 0
-0.079466 0.467093 2.310066 255 255 0
-0.057689 0.467199 2.312654 255 255 0
-0.044557 0.466392 2.309223 255 255 0
-0.040042 0.464659 2.299700 255 255 0
-0.032953 0.463210 2.292034 255 255 0
-0.012145 0.463278 2.294304 255 255 0
0.006057 0.463080 2.294809 255 255 0
0.019090 0.462325 2.291649 255 255 0
0.025262 0.460814 2.283526 255 255 0
0.029720 0.459113 2.274157 255 255 0
0.039297 0.457994 2.268588 255 255 0
0.044599 0.456396 2.259878 255 255 0
0.057560 0.455680 2.256915 255 255 0
0.064548 0.454288 2.249527 255 255 0
0.075777 0.453393 2.245370 255 255 0
0.086141 0.452408 2.240613 255 255 0
0.094795 0.451231 2.234601 255 255 0
0.108520 0.450661 2.232517 255 255 0
0.113762 0.449098 2.223968 255 255 0
0.118155 0.447436 2.214773 255 255 0
0.105660 0.443751 2.192432 255 255 0
-0.245405 0.383983 2.232601 0 255 0
-0.248587 0.387156 2.246999 0 255 0
-0.252651 0.390476 2.261991 0 255 0
-0.255855 0.393635 2.276309 0 255 0
-0.252086 0.395561 2.285563 0 255 0
-0.250937 0.397948 2.296695 0 255 0
-0.242795 0.399116 2.302831 0 255 0
-0.227642 0.399079 2.304030 0 255 0
-0.205460 0.397851 2.300355 0 255 0
-0.182369 0.396496 2.296175 0 255 0
-0.163632 0.395916 2.295174 0 255 0
-0.152772 0.396701 2.299756 0 255 0
-0.141020 0.397347 2.303774 0 255 0
-0.129253 0.398005 2.307841 0 255 0
-0.129799 0.400743 2.320395 0 255 0
-0.125944 0.402742 2.329927 0 255 0
-0.113269 0.403275 2.333487 0 255 0
-0.092631 0.402506 2.331745 0 255 0
-0.079033 0.402924 2.334844 0 255 0
-0.311465 0.421928 2.234000 255 0 0
-0.304424 0.420627 2.227000 255 0 0
-0.298224 0.420459 2.226000 255 0 0
-0.291898 0.420101 2.224000 255 0 0
-0.285324 0.419366 2.220000 255 0 0
-0.278394 0.418064 2.213000 255 0 0
-0.271009 0.416005 2.202000 255 0 0
-0.264406 0.415079 2.197000 255 0 0
-0.258299 0.414909 2.196000 255 0 0
-0.253002 0.416061 2.202000 255 0 0
-0.247783 0.417402 2.209000 255 0 0
-0.242088 0.417986 2.212000 255 0 0
-0.235842 0.417626 2.210000 255 0 0
-0.229294 0.416698 2.205000 255 0 0
-0.222874 0.415959 2.201000 255 0 0
-0.216081 0.414463 2.193000 255 0 0
-0.208947 0.412211 2.181000 255 0 0
-0.201972 0.410147 2.170000 255 0 0
-0.195146 0.408272 2.160000 255 0 0
-0.188638 0.406963 2.153000 255 0 0
-0.182251 0.405843 2.147000 255 0 0
-0.176144 0.405289 2.144000 255 0 0
-0.170211 0.405113 2.143000 255 0 0
-0.164130 0.404559 2.140000 255 0 0
-0.158212 0.404382 2.139000 255 0 0
-0.152513 0.404772 2.141000 255 0 0
-0.146871 0.405351 2.144000 255 0 0
-0.141081 0.405551 2.145000 255 0 0
-0.135096 0.405183 2.143000 255 0 0
-0.129181 0.405005 2.142000 255 0 0
-0.123099 0.404258 2.138000 255 0 0
-0.117203 0.404078 2.137000 255 0 0
-0.111312 0.403898 2.136000 255 0 0
-0.105475 0.403907 2.136000 255 0 0
-0.099638 0.403915 2.136000 255 0 0
-0.093845 0.404111 2.137000 255 0 0
-0.087922 0.403740 2.135000 255 0 0
-0.082048 0.403558 2.134000 255 0 0
-0.076144 0.403186 2.132000 255 0 0
-0.070217 0.402624 2.129000 255 0 0
-0.064307 0.402062 2.126000 255 0 0
-0.058468 0.401878 2.125000 255 0 0
-0.052708 0.402260 2.127000 255 0 0
-0.046872 0.402075 2.126000 255 0 0
-0.041002 0.401511 2.123000 255 0 0
-0.035148 0.400947 2.120000 255 0 0
-0.029365 0.401139 2.121000 255 0 0
-0.023567 0.401141 2.121000 255 0 0
-0.017768 0.401142 2.121000 255 0 0
-0.011963 0.400954 2.120000 255 0 0
-0.006164 0.400766 2.119000 255 0 0
-0.000370 0.400577 2.118000 255 0 0
0.005421 0.400577 2.118000 255 0 0
0.011222 0.400955 2.120000 255 0 0
0.017035 0.401332 2.122000 255 0 0
0.022858 0.401708 2.124000 255 0 0
0.028692 0.402085 2.126000 255 0 0
0.034585 0.403028 2.131000 255 0 0
0.040468 0.403592 2.134000 255 0 0
0.046346 0.403967 2.136000 255 0 0
0.052234 0.404341 2.138000 255 0 0
0.058160 0.404904 2.141000 255 0 0
0.064043 0.405089 2.142000 255 0 0
0.070028 0.405840 2.146000 255 0 0
0.075965 0.406212 2.148000 255 0 0
0.081874 0.406395 2.149000 255 0 0
0.087666 0.406010 2.147000 255 0 0
0.093577 0.406192 2.148000 255 0 0
0.099911 0.408076 2.158000 255 0 0
0.106249 0.409770 2.167000 255 0 0
0.112274 0.410139 2.169000 255 0 0
0.118091 0.409752 2.167000 255 0 0
0.123955 0.409554 2.166000 255 0 0
0.130052 0.410111 2.169000 255 0 0
0.136040 0.410290 2.170000 255 0 0
0.141772 0.409712 2.167000 255 0 0
0.147554 0.409323 2.165000 255 0 0
0.153396 0.409122 2.164000 255 0 0
0.159674 0.410055 2.169000 255 0 0
0.165979 0.410988 2.174000 255 0 0
0.172468 0.412299 2.181000 255 0 0
0.178832 0.413230 2.186000 255 0 0
0.184968 0.413595 2.188000 255 0 0
0.191116 0.413959 2.190000 255 0 0
-0.119217 0.460964 2.334928 255 255 0
-0.114639 0.459199 2.325230 255 255 0
-0.109200 0.457530 2.316138 255 255 0
-0.093409 0.456996 2.314308 255 255 0
-0.069886 0.457330 2.318008 255 255 0
-0.049849 0.457304 2.319387 255 255 0
-0.042749 0.455859 2.311687 255 255 0
-0.041673 0.453743 2.299706 255 255 0
-0.033723 0.452400 2.292645 255 255 0
-0.008633 0.453005 2.297993 255 255 0
0.009558 0.452852 2.298492 255 255 0
0.024296 0.452322 2.296580 255 255 0
0.030463 0.450821 2.288466 255 255 0
0.031501 0.448728 2.276590 255 255 0
0.038516 0.447330 2.269121 255 255 0
0.044671 0.445836 2.261039 255 255 0
0.059332 0.445348 2.259338 255 255 0
0.073119 0.444772 2.257062 255 255 0
0.086035 0.444107 2.254205 255 255 0
0.095538 0.443045 2.248825 255 255 0
0.102485 0.441684 2.241539 255 255 0
0.111966 0.440635 2.236219 255 255 0
0.114667 0.438769 2.225719 255 255 0
0.115682 0.436696 2.213905 255 255 0
0.113326 0.434205 2.199446 255 255 0
-0.255022 0.377946 2.252873 0 255 0
-0.252118 0.380030 2.262784 0 255 0
-0.250086 0.382271 2.273323 0 255 0
-0.248055 0.384512 2.283854 0 255 0
-0.246027 0.386752 2.294377 0 255 0
-0.242252 0.388683 2.303648 0 255 0
-0.228855 0.388920 2.306104 0 255 0
-0.206684 0.387635 2.302445 0 255 0
-0.181853 0.385916 2.297052 0 255 0
-0.165754 0.385749 2.297907 0 255 0
-0.155777 0.386663 2.303103 0 255 0
-0.144031 0.387283 2.307125 0 255 0
-0.130512 0.387613 2.309986 0 255 0
-0.126655 0.389611 2.319529 0 255 0
-0.118394 0.390861 2.326078 0 255 0
-0.107479 0.391671 2.330866 0 255 0
-0.090375 0.391450 2.331538 0 255 0
-0.080311 0.392433 2.337024 0 255 0
-0.071119 0.393572 2.343139 0 255 0
-0.064569 0.395162 2.351048 0 255 0
-0.310231 0.414181 2.225000 255 0 0
-0.304035 0.414016 2.224000 255 0 0
-0.298111 0.414223 2.225000 255 0 0
-0.292049 0.414243 2.225000 255 0 0
-0.285601 0.413705 2.222000 255 0 0
-0.278917 0.412794 2.217000 255 0 0
-0.271644 0.410951 2.207000 255 0 0
-0.264786 0.409666 2.200000 255 0 0
-0.258553 0.409313 2.198000 255 0 0
-0.253250 0.410448 2.204000 255 0 0
-0.248025 0.411770 2.211000 255 0 0
-0.242434 0.412532 2.215000 255 0 0
-0.236392 0.412550 2.215000 255 0 0
-0.230558 0.412939 2.217000 255 0 0
-0.224510 0.412956 2.217000 255 0 0
-0.217476 0.411109 2.207000 255 0 0
-0.209729 0.407772 2.189000 255 0 0
-0.202266 0.404807 2.173000 255 0 0
-0.195342 0.402772 2.162000 255 0 0
-0.188827 0.401483 2.155000 255 0 0
-0.182350 0.400192 2.148000 255 0 0
-0.176239 0.399647 2.145000 255 0 0
-0.170224 0.399287 2.143000 255 0 0
-0.164142 0.398741 2.140000 255 0 0
-0.158298 0.398753 2.140000 255 0 0
-0.152525 0.398951 2.141000 255 0 0
-0.146814 0.399335 2.143000 255 0 0
-0.141026 0.399532 2.144000 255 0 0
-0.135106 0.399357 2.143000 255 0 0
-0.129191 0.399181 2.142000 255 0 0
-0.123166 0.398631 2.139000 255 0 0
-0.117267 0.398454 2.138000 255 0 0
-0.111372 0.398276 2.137000 255 0 0
-0.105631 0.398658 2.139000 255 0 0
-0.099832 0.398852 2.140000 255 0 0
-0.094028 0.399046 2.141000 255 0 0
-0.088052 0.398494 2.138000 255 0 0
-0.082093 0.397941 2.135000 255 0 0
-0.076150 0.397388 2.132000 255 0 0
-0.070289 0.397208 2.131000 255 0 0
-0.064373 0.396654 2.128000 255 0 0
-0.058528 0.396472 2.127000 255 0 0
-0.052663 0.396104 2.125000 255 0 0
-0.046853 0.396108 2.125000 255 0 0
-0.041005 0.395738 2.123000 255 0 0
-0.035200 0.395741 2.123000 255 0 0
-0.029395 0.395744 2.123000 255 0 0
-0.023580 0.395559 2.122000 255 0 0
-0.017786 0.395747 2.123000 255 0 0
-0.011970 0.395376 2.121000 255 0 0
-0.006170 0.395377 2.121000 255 0 0
-0.000370 0.395190 2.120000 255 0 0
0.005426 0.395190 2.120000 255 0 0
0.011234 0.395562 2.122000 255 0 0
0.017044 0.395748 2.123000 255 0 0
0.022870 0.396119 2.125000 255 0 0
0.028721 0.396676 2.128000 255 0 0
0.034621 0.397606 2.133000 255 0 0
0.040509 0.398162 2.136000 255 0 0
0.046393 0.398531 2.138000 255 0 0
0.052238 0.398527 2.138000 255 0 0
0.058192 0.399269 2.142000 255 0 0
0.064137 0.399823 2.145000 255 0 0
0.070132 0.400563 2.149000 255 0 0
0.076042 0.400744 2.150000 255 0 0
0.081919 0.400738 2.150000 255 0 0
0.087795 0.400731 2.150000 255 0 0
0.093672 0.400724 2.150000 255 0 0
0.100011 0.402581 2.160000 255 0 0
0.106355 0.404250 2.169000 255 0 0
0.112386 0.404614 2.171000 255 0 0
0.118155 0.404046 2.168000 255 0 0
0.123964 0.403664 2.166000 255 0 0
0.130062 0.404213 2.169000 255 0 0
0.136051 0.404390 2.170000 255 0 0
0.141848 0.404006 2.168000 255 0 0
0.147634 0.403623 2.166000 255 0 0
0.153408 0.403238 2.164000 255 0 0
0.159686 0.404158 2.169000 255 0 0
0.165915 0.404891 2.173000 255 0 0
0.172481 0.406369 2.181000 255 0 0
0.178682 0.406915 2.184000 255 0 0
0.184982 0.407646 2.188000 255 0 0
0.191043 0.407819 2.189000 255 0 0
0.197108 0.407990 2.190000 255 0 0
-0.113667 0.448407 2.327130 255 255 0
-0.102184 0.447419 2.322242 255 255 0
-0.084680 0.447119 2.321626 255 255 0
-0.062037 0.447419 2.324727 255 255 0
-0.043736 0.447249 2.324895 255 255 0
-0.038363 0.445620 2.315982 255 255 0
-0.035569 0.443696 2.305240 255 255 0
-0.025911 0.442567 2.299420 255 255 0
-0.006839 0.442541 2.300441 255 255 0
0.007921 0.442032 2.298447 255 255 0
0.019235 0.441132 2.294023 255 255 0
0.027971 0.439938 2.287765 255 255 0
0.031575 0.438140 2.277765 255 255 0
0.036032 0.436445 2.268396 255 255 0
0.037932 0.434444 2.257131 255 255 0
0.047492 0.433369 2.251581 255 255 0
0.062988 0.433024 2.250537 255 255 0
0.077609 0.432588 2.248921 255 255 0
0.094751 0.432478 2.249301 255 255 0
0.107629 0.431859 2.246529 255 255 0
0.118794 0.431040 2.242513 255 255 0
0.119800 0.428963 2.230728 255 255 0
0.125034 0.427414 2.222194 255 255 0
0.126891 0.425442 2.211045 255 255 0
-0.262904 0.371641 2.271796 0 255 0
-0.255652 0.372926 2.278531 0 255 0
-0.251009 0.374693 2.287169 0 255 0
-0.248981 0.376935 2.297688 0 255 0
-0.243461 0.378548 2.305712 0 255 0
-0.229195 0.378599 2.307558 0 255 0
-0.176961 0.374543 2.294863 0 255 0
-0.160864 0.374342 2.295747 0 255 0
-0.150886 0.375240 2.300968 0 255 0
-0.141774 0.376301 2.306835 0 255 0
-0.128258 0.376603 2.309717 0 255 0
-0.122639 0.378295 2.318069 0 255 0
-0.114376 0.379533 2.324639 0 255 0
-0.106984 0.380931 2.331835 0 255 0
-0.096058 0.381730 2.336680 0 255 0
-0.084237 0.382388 2.340978 0 255 0
-0.075934 0.383659 2.347681 0 255 0
-0.063202 0.384188 2.351482 0 255 0
-0.054877 0.385476 2.358256 0 255 0
-0.032376 0.384394 2.355764 0 255 0
-0.008071 0.383040 2.352228 0 255 0
-0.311368 0.409601 2.233000 255 0 0
-0.303919 0.407788 2.223000 255 0 0
-0.298131 0.408175 2.225000 255 0 0
-0.292069 0.408195 2.225000 255 0 0
-0.286007 0.408215 2.225000 255 0 0
-0.279440 0.407501 2.221000 255 0 0
-0.272402 0.406052 2.213000 255 0 0
-0.265406 0.404603 2.205000 255 0 0
-0.259042 0.404071 2.202000 255 0 0
-0.253728 0.405191 2.208000 255 0 0
-0.248267 0.406126 2.213000 255 0 0
-0.242779 0.407061 2.218000 255 0 0
-0.236836 0.407262 2.219000 255 0 0
-0.231407 0.408380 2.225000 255 0 0
-0.225843 0.409314 2.230000 255 0 0
-0.219069 0.408046 2.223000 255 0 0
-0.210703 0.403656 2.199000 255 0 0
-0.202840 0.400000 2.179000 255 0 0
-0.195718 0.397628 2.166000 255 0 0
-0.189367 0.396724 2.161000 255 0 0
-0.182873 0.395453 2.154000 255 0 0
-0.176746 0.394916 2.151000 255 0 0
-0.170554 0.394194 2.147000 255 0 0
-0.164461 0.393656 2.144000 255 0 0
-0.158384 0.393117 2.141000 255 0 0
-0.152679 0.393496 2.143000 255 0 0
-0.146962 0.393875 2.145000 255 0 0
-0.141168 0.394069 2.146000 255 0 0
-0.135179 0.393712 2.144000 255 0 0
-0.129261 0.393539 2.143000 255 0 0
-0.123291 0.393181 2.141000 255 0 0
-0.117276 0.392640 2.138000 255 0 0
-0.111433 0.392648 2.138000 255 0 0
-0.105689 0.393024 2.140000 255 0 0
-0.099933 0.393399 2.142000 255 0 0
-0.094079 0.393407 2.142000 255 0 0
-0.088059 0.392679 2.138000 255 0 0
-0.082061 0.391951 2.134000 255 0 0
-0.076120 0.391406 2.131000 255 0 0
-0.070261 0.391228 2.130000 255 0 0
-0.064317 0.390499 2.126000 255 0 0
-0.058477 0.390320 2.125000 255 0 0
-0.052593 0.389773 2.122000 255 0 0
-0.046835 0.390144 2.124000 255 0 0
-0.041027 0.390148 2.124000 255 0 0
-0.035236 0.390334 2.125000 255 0 0
-0.029412 0.390153 2.124000 255 0 0
-0.023604 0.390155 2.124000 255 0 0
-0.017796 0.390157 2.124000 255 0 0
-0.011982 0.389974 2.123000 255 0 0
-0.006176 0.389975 2.123000 255 0 0
-0.000371 0.389792 2.122000 255 0 0
0.005437 0.390159 2.124000 255 0 0
0.011256 0.390525 2.126000 255 0 0
0.017077 0.390708 2.127000 255 0 0
0.022894 0.390707 2.127000 255 0 0
0.028750 0.391256 2.130000 255 0 0
0.034656 0.392172 2.135000 255 0 0
0.040570 0.392903 2.139000 255 0 0
0.046462 0.393267 2.141000 255 0 0
0.052315 0.393263 2.141000 255 0 0
0.058305 0.394178 2.146000 255 0 0
0.064262 0.394724 2.149000 255 0 0
0.070235 0.395270 2.152000 255 0 0
0.076083 0.395080 2.151000 255 0 0
0.081963 0.395074 2.151000 255 0 0
0.087925 0.395435 2.153000 255 0 0
0.093897 0.395795 2.155000 255 0 0
0.100250 0.397624 2.165000 255 0 0
0.106462 0.398718 2.171000 255 0 0
0.112395 0.398710 2.171000 255 0 0
0.118055 0.397783 2.166000 255 0 0
0.123859 0.397406 2.164000 255 0 0
0.130072 0.398315 2.169000 255 0 0
0.136061 0.398488 2.170000 255 0 0
0.141924 0.398294 2.169000 255 0 0
0.147440 0.397181 2.163000 255 0 0
0.153349 0.397170 2.163000 255 0 0
0.159698 0.398260 2.169000 255 0 0
0.165927 0.398982 2.173000 255 0 0
0.172415 0.400255 2.180000 255 0 0
0.178695 0.400976 2.184000 255 0 0
0.185081 0.401880 2.189000 255 0 0
0.191231 0.402234 2.191000 255 0 0
0.197122 0.402036 2.190000 255 0 0
-0.119002 0.439172 2.337543 255 255 0
-0.108375 0.438102 2.332021 255 255 0
-0.096037 0.437239 2.327739 255 255 0
-0.078545 0.436983 2.327126 255 255 0
-0.058499 0.437042 2.328410 255 255 0
-0.040208 0.436918 2.328573 255 255 0
-0.033119 0.435497 2.320886 255 255 0
-0.026896 0.433978 2.312606 255 255 0
-0.018106 0.432769 2.306188 255 255 0
0.000953 0.432794 2.307216 255 255 0
0.012277 0.431910 2.302749 255 255 0
0.019311 0.430519 2.295213 255 255 0
0.028046 0.429340 2.288947 255 255 0
0.031651 0.427541 2.278943 255 255 0
0.034405 0.425639 2.268308 255 255 0
0.035458 0.423526 2.256402 255 255 0
0.044168 0.422361 2.250200 255 255 0
0.064759 0.422685 2.252961 255 255 0
0.082768 0.422709 2.253900 255 255 0
0.102442 0.422963 2.256211 255 255 0
0.114462 0.422269 2.252805 255 255 0
0.122235 0.421045 2.246207 255 255 0
0.122395 0.418853 2.233779 255 255 0
0.124251 0.416875 2.222635 255 255 0
0.131169 0.415550 2.215415 255 255 0
-0.273092 0.360579 2.268401 0 255 0
-0.265850 0.361845 2.275113 0 255 0
-0.254248 0.362310 2.278704 0 255 0
-0.253089 0.364717 2.289857 0 255 0
-0.252805 0.367283 2.301621 0 255 0
-0.247289 0.368888 2.309641 0 255 0
-0.233905 0.369064 2.312108 0 255 0
-0.182580 0.365027 2.300045 0 255 0
-0.166495 0.364785 2.300928 0 255 0
-0.155647 0.365503 2.305535 0 255 0
-0.149173 0.367014 2.313215 0 255 0
-0.133912 0.366970 2.314882 0 255 0
-0.124783 0.368030 2.320823 0 255 0
-0.116523 0.369254 2.327397 0 255 0
-0.111776 0.371102 2.336381 0 255 0
-0.100857 0.371876 2.341224 0 255 0
-0.089926 0.372660 2.346111 0 255 0
-0.080746 0.373761 2.352218 0 255 0
-0.068905 0.374412 2.356604 0 255 0
-0.057051 0.375076 2.361041 0 255 0
-0.032792 0.373634 2.357402 0 255 0
-0.311528 0.403711 2.234000 255 0 0
-0.304076 0.401925 2.224000 255 0 0
-0.298151 0.402126 2.225000 255 0 0
-0.292221 0.402327 2.226000 255 0 0
-0.286412 0.402708 2.228000 255 0 0
-0.279962 0.402185 2.225000 255 0 0
-0.272913 0.400759 2.217000 255 0 0
-0.265786 0.399150 2.208000 255 0 0
-0.259296 0.398446 2.204000 255 0 0
-0.253860 0.399368 2.209000 255 0 0
-0.248622 0.400651 2.216000 255 0 0
-0.243344 0.401934 2.223000 255 0 0
-0.237494 0.402313 2.225000 255 0 0
-0.232256 0.403776 2.233000 255 0 0
-0.227075 0.405420 2.242000 255 0 0
-0.220366 0.404351 2.236000 255 0 0
-0.211676 0.399484 2.209000 255 0 0
-0.203041 0.394436 2.181000 255 0 0
-0.196093 0.392461 2.170000 255 0 0
-0.189731 0.391571 2.165000 255 0 0
-0.183311 0.390499 2.159000 255 0 0
-0.176923 0.389427 2.153000 255 0 0
-0.170805 0.388897 2.150000 255 0 0
-0.164780 0.388548 2.148000 255 0 0
-0.158692 0.388018 2.145000 255 0 0
-0.152833 0.388029 2.145000 255 0 0
-0.146905 0.387860 2.144000 255 0 0
-0.141113 0.388051 2.145000 255 0 0
-0.135127 0.387700 2.143000 255 0 0
-0.129332 0.387891 2.144000 255 0 0
-0.123415 0.387719 2.143000 255 0 0
-0.117449 0.387367 2.141000 255 0 0
-0.111598 0.387375 2.141000 255 0 0
-0.105796 0.387565 2.142000 255 0 0
-0.100034 0.387934 2.144000 255 0 0
-0.094086 0.387580 2.142000 255 0 0
-0.088189 0.387406 2.141000 255 0 0
-0.082106 0.386327 2.135000 255 0 0
-0.076162 0.385790 2.132000 255 0 0
-0.070267 0.385434 2.130000 255 0 0
-0.064352 0.384896 2.127000 255 0 0
-0.058509 0.384720 2.126000 255 0 0
-0.052622 0.384181 2.123000 255 0 0
-0.046861 0.384547 2.125000 255 0 0
-0.041088 0.384912 2.127000 255 0 0
-0.035305 0.385277 2.129000 255 0 0
-0.029455 0.384918 2.127000 255 0 0
-0.023617 0.384558 2.125000 255 0 0
-0.017805 0.384560 2.125000 255 0 0
-0.011994 0.384561 2.125000 255 0 0
-0.006186 0.384742 2.126000 255 0 0
-0.000371 0.384562 2.125000 255 0 0
0.005445 0.384923 2.127000 255 0 0
0.011273 0.385285 2.129000 255 0 0
0.017119 0.385827 2.132000 255 0 0
0.022960 0.386006 2.133000 255 0 0
0.028820 0.386366 2.135000 255 0 0
0.034707 0.386906 2.138000 255 0 0
0.040630 0.387627 2.142000 255 0 0
0.046530 0.387986 2.144000 255 0 0
0.052417 0.388163 2.145000 255 0 0
0.058364 0.388702 2.148000 255 0 0
0.064357 0.389421 2.152000 255 0 0
0.070306 0.389777 2.154000 255 0 0
0.076195 0.389772 2.154000 255 0 0
0.082160 0.390128 2.156000 255 0 0
0.088095 0.390302 2.157000 255 0 0
0.094166 0.391019 2.161000 255 0 0
0.100443 0.392459 2.169000 255 0 0
0.106617 0.393356 2.174000 255 0 0
0.112507 0.393166 2.173000 255 0 0
0.118228 0.392434 2.169000 255 0 0
0.124098 0.392244 2.168000 255 0 0
0.130202 0.392777 2.171000 255 0 0
0.136009 0.392405 2.169000 255 0 0
0.141869 0.392214 2.168000 255 0 0
0.147520 0.391479 2.164000 255 0 0
0.153573 0.391830 2.166000 255 0 0
0.159857 0.392722 2.171000 255 0 0
0.166092 0.393434 2.175000 255 0 0
0.172428 0.394326 2.180000 255 0 0
0.178545 0.394674 2.182000 255 0 0
0.184841 0.395384 2.186000 255 0 0
0.191071 0.395913 2.189000 255 0 0
0.197227 0.396261 2.191000 255 0 0
0.203578 0.396969 2.195000 255 0 0
-0.117163 0.428461 2.340045 255 255 0
-0.104813 0.427615 2.335712 255 255 0
-0.089031 0.427186 2.333830 255 255 0
-0.069829 0.427179 2.334427 255 255 0
-0.053242 0.426881 2.333300 255 255 0
-0.037541 0.426494 2.331642 255 255 0
-0.032173 0.424876 2.322736 255 255 0
-0.024235 0.423573 2.315676 255 255 0
-0.013734 0.422589 2.310487 255 255 0
0.001889 0.422243 2.309043 255 255 0
0.007223 0.420644 2.300229 255 255 0
0.009991 0.418730 2.289559 255 255 0
0.022148 0.417986 2.285757 255 255 0
0.030876 0.416824 2.279496 255 255 0
0.036188 0.415240 2.270745 255 255 0
0.033839 0.412688 2.256312 255 255 0
0.044250 0.411753 2.251366 255 255 0
0.064833 0.412129 2.254111 255 255 0
0.085381 0.412524 2.256955 255 255 0
0.099115 0.412061 2.254760 255 255 0
0.113674 0.411720 2.253268 255 255 0
0.123138 0.410729 2.247957 255 255 0
0.126678 0.408969 2.238128 255 255 0
0.126002 0.406653 2.225038 255 255 0
0.127020 0.404557 2.213230 255 255 0
-0.252849 0.351674 2.278882 0 255 0
-0.249944 0.353762 2.288792 0 255 0
-0.248783 0.356176 2.299945 0 255 0
-0.243263 0.357777 2.307983 0 255 0
-0.232501 0.358411 2.312329 0 255 0
-0.215607 0.357926 2.312411 0 255 0
-0.187320 0.355370 2.304608 0 255 0
-0.166868 0.354287 2.302442 0 255 0
-0.153396 0.354504 2.305237 0 255 0
-0.143413 0.355371 2.310511 0 255 0
-0.132542 0.356089 2.315223 0 255 0
-0.122535 0.356975 2.320577 0 255 0
-0.120429 0.359289 2.331349 0 255 0
-0.113925 0.360817 2.339139 0 255 0
-0.103892 0.361724 2.344579 0 255 0
-0.091203 0.362173 2.348289 0 255 0
-0.082909 0.363411 2.354990 0 255 0
-0.071957 0.364192 2.359967 0 255 0
-0.057457 0.364366 2.362659 0 255 0
-0.032326 0.362711 2.358463 0 255 0
-0.311410 0.397459 2.233000 255 0 0
-0.303960 0.395700 2.223000 255 0 0
-0.298172 0.396076 2.225000 255 0 0
-0.292372 0.396452 2.227000 255 0 0
-0.286560 0.396828 2.229000 255 0 0
-0.280233 0.396491 2.227000 255 0 0
-0.273671 0.395798 2.223000 255 0 0
-0.266406 0.394036 2.213000 255 0 0
-0.259667 0.392986 2.207000 255 0 0
-0.254223 0.393894 2.212000 255 0 0
-0.249088 0.395337 2.220000 255 0 0
-0.243690 0.396423 2.226000 255 0 0
-0.237938 0.396974 2.229000 255 0 0
-0.232793 0.398593 2.238000 255 0 0
-0.227496 0.400035 2.246000 255 0 0
-0.220875 0.399160 2.241000 255 0 0
-0.212075 0.394188 2.213000 255 0 0
-0.203800 0.389928 2.189000 255 0 0
-0.196921 0.388162 2.179000 255 0 0
-0.190446 0.387107 2.173000 255 0 0
-0.183919 0.385873 2.166000 255 0 0
-0.177347 0.384461 2.158000 255 0 0
-0.171136 0.383762 2.154000 255 0 0
-0.165023 0.383239 2.151000 255 0 0
-0.158926 0.382717 2.148000 255 0 0
-0.152915 0.382372 2.146000 255 0 0
-0.146984 0.382205 2.145000 255 0 0
-0.141255 0.382572 2.147000 255 0 0
-0.135389 0.382583 2.147000 255 0 0
-0.129522 0.382592 2.147000 255 0 0
-0.123655 0.382602 2.147000 255 0 0
-0.117678 0.382255 2.145000 255 0 0
-0.111815 0.382263 2.145000 255 0 0
-0.105903 0.382093 2.144000 255 0 0
-0.100135 0.382458 2.146000 255 0 0
-0.094181 0.382108 2.144000 255 0 0
-0.088279 0.381937 2.143000 255 0 0
-0.082189 0.380874 2.137000 255 0 0
-0.076310 0.380702 2.136000 255 0 0
-0.070371 0.380173 2.133000 255 0 0
-0.064448 0.379644 2.130000 255 0 0
-0.058541 0.379114 2.127000 255 0 0
-0.052675 0.378761 2.125000 255 0 0
-0.046908 0.379122 2.127000 255 0 0
-0.041092 0.379125 2.127000 255 0 0
-0.035308 0.379484 2.129000 255 0 0
-0.029458 0.379130 2.127000 255 0 0
-0.023641 0.379132 2.127000 255 0 0
-0.017815 0.378956 2.126000 255 0 0
-0.012001 0.378957 2.126000 255 0 0
-0.006195 0.379492 2.129000 255 0 0
-0.000372 0.379493 2.129000 255 0 0
0.005458 0.380027 2.132000 255 0 0
0.011289 0.380027 2.132000 255 0 0
0.017144 0.380560 2.135000 255 0 0
0.022994 0.380737 2.136000 255 0 0
0.028849 0.380913 2.137000 255 0 0
0.034742 0.381445 2.140000 255 0 0
0.040671 0.382156 2.144000 255 0 0
0.046599 0.382687 2.147000 255 0 0
0.052519 0.383040 2.149000 255 0 0
0.058504 0.383748 2.153000 255 0 0
0.064421 0.383922 2.154000 255 0 0
0.070377 0.384273 2.156000 255 0 0
0.076236 0.384089 2.155000 255 0 0
0.082243 0.384618 2.158000 255 0 0
0.088224 0.384968 2.160000 255 0 0
0.094434 0.386209 2.167000 255 0 0
0.100729 0.387627 2.175000 255 0 0
0.106723 0.387797 2.176000 255 0 0
0.112567 0.387433 2.174000 255 0 0
0.118346 0.386889 2.171000 255 0 0
0.124393 0.387237 2.173000 255 0 0
0.130332 0.387227 2.173000 255 0 0
0.136019 0.386504 2.169000 255 0 0
0.141815 0.386137 2.167000 255 0 0
0.147394 0.385236 2.162000 255 0 0
0.153584 0.385937 2.166000 255 0 0
0.159722 0.386460 2.169000 255 0 0
0.166105 0.387517 2.175000 255 0 0
0.172282 0.388039 2.178000 255 0 0
0.178476 0.388561 2.181000 255 0 0
0.184601 0.388904 2.183000 255 0 0
0.190910 0.389603 2.187000 255 0 0
0.197241 0.390301 2.191000 255 0 0
0.203964 0.391712 2.199000 255 0 0
-0.115324 0.417749 2.342548 255 255 0
-0.106430 0.416513 2.335823 255 255 0
-0.088927 0.416328 2.335120 255 255 0
-0.070593 0.416263 2.335100 255 255 0
-0.051429 0.416318 2.335769 255 255 0
-0.037453 0.415756 2.332890 255 255 0
-0.032943 0.414037 2.323368 255 255 0
-0.022432 0.413066 2.318134 255 255 0
-0.010221 0.412317 2.314169 255 255 0
0.007960 0.412331 2.314572 255 255 0
0.013289 0.410740 2.305770 255 255 0
0.015198 0.408718 2.294492 255 255 0
0.021376 0.407239 2.286325 255 255 0
0.031808 0.406310 2.281306 255 255 0
0.037971 0.404840 2.273181 255 255 0
0.034775 0.402160 2.258121 255 255 0
0.043484 0.401024 2.251901 255 255 0
0.069152 0.402118 2.258447 255 255 0
0.089687 0.402566 2.261288 255 255 0
0.098333 0.401464 2.255242 255 255 0
0.105277 0.400142 2.247936 255 255 0
0.113904 0.399051 2.241944 255 255 0
0.125051 0.398306 2.237929 255 255 0
0.125223 0.396089 2.225483 255 255 0
0.127928 0.394213 2.214980 255 255 0
-0.243325 0.342111 2.285236 0 255 0
-0.242156 0.344536 2.296412 0 255 0
-0.237502 0.346300 2.305096 0 255 0
-0.229355 0.347409 2.311320 0 255 0
-0.215086 0.347378 2.313271 0 255 0
-0.185065 0.344422 2.304271 0 255 0
-0.164620 0.343290 2.302131 0 255 0
-0.148524 0.342993 2.303125 0 255 0
-0.139416 0.344005 2.309028 0 255 0
-0.130298 0.345026 2.314966 0 255 0
-0.122048 0.346216 2.321537 0 255 0
-0.120818 0.348693 2.332911 0 255 0
-0.113435 0.350053 2.340113 0 255 0
-0.102525 0.350782 2.344974 0 255 0
-0.089839 0.351205 2.348701 0 255 0
-0.082427 0.352587 2.356002 0 255 0
-0.073242 0.353662 2.362160 0 255 0
-0.056983 0.353489 2.363700 0 255 0
-0.034515 0.352240 2.361265 0 255 0
-0.310873 0.390686 2.229000 255 0 0
-0.303980 0.389654 2.223000 255 0 0
-0.298192 0.390025 2.225000 255 0 0
-0.292392 0.390395 2.227000 255 0 0
-0.286580 0.390766 2.229000 255 0 0
-0.280253 0.390434 2.227000 255 0 0
-0.273936 0.390102 2.225000 255 0 0
-0.266786 0.388543 2.216000 255 0 0
-0.260273 0.387860 2.212000 255 0 0
-0.254471 0.388228 2.214000 255 0 0
-0.249442 0.389824 2.223000 255 0 0
-0.243926 0.390718 2.228000 255 0 0
-0.238381 0.391612 2.233000 255 0 0
-0.233121 0.393032 2.241000 255 0 0
-0.227411 0.393749 2.245000 255 0 0
-0.220397 0.392187 2.236000 255 0 0
-0.211995 0.387993 2.212000 255 0 0
-0.204281 0.384850 2.194000 255 0 0
-0.197568 0.383461 2.186000 255 0 0
-0.190898 0.382072 2.178000 255 0 0
-0.184272 0.380682 2.170000 255 0 0
-0.177606 0.379116 2.161000 255 0 0
-0.171466 0.378603 2.158000 255 0 0
-0.165342 0.378089 2.155000 255 0 0
-0.159233 0.377574 2.152000 255 0 0
-0.153069 0.376884 2.148000 255 0 0
-0.147132 0.376720 2.147000 255 0 0
-0.141332 0.376906 2.148000 255 0 0
-0.135399 0.376740 2.147000 255 0 0
-0.129532 0.376750 2.147000 255 0 0
-0.123664 0.376760 2.147000 255 0 0
-0.117851 0.376944 2.148000 255 0 0
-0.111980 0.376953 2.148000 255 0 0
-0.106059 0.376786 2.147000 255 0 0
-0.100236 0.376969 2.148000 255 0 0
-0.094364 0.376976 2.148000 255 0 0
-0.088450 0.376807 2.147000 255 0 0
-0.082387 0.375936 2.142000 255 0 0
-0.076423 0.375416 2.139000 255 0 0
-0.070509 0.375070 2.137000 255 0 0
-0.064574 0.374549 2.134000 255 0 0
-0.058628 0.373852 2.130000 255 0 0
-0.052754 0.373505 2.128000 255 0 0
-0.046934 0.373509 2.128000 255 0 0
-0.041133 0.373687 2.129000 255 0 0
-0.035327 0.373866 2.130000 255 0 0
-0.029488 0.373693 2.129000 255 0 0
-0.023665 0.373695 2.129000 255 0 0
-0.017833 0.373521 2.128000 255 0 0
-0.012013 0.373522 2.128000 255 0 0
-0.006201 0.374049 2.131000 255 0 0
-0.000372 0.374050 2.131000 255 0 0
0.005464 0.374576 2.134000 255 0 0
0.011301 0.374575 2.134000 255 0 0
0.017162 0.375101 2.137000 255 0 0
0.023017 0.375275 2.138000 255 0 0
0.028892 0.375624 2.140000 255 0 0
0.034777 0.375973 2.142000 255 0 0
0.040712 0.376672 2.146000 255 0 0
0.046646 0.377195 2.149000 255 0 0
0.052596 0.377718 2.152000 255 0 0
0.058536 0.378065 2.154000 255 0 0
0.064456 0.378235 2.155000 255 0 0
0.070447 0.378757 2.158000 255 0 0
0.076313 0.378576 2.157000 255 0 0
0.082325 0.379096 2.160000 255 0 0
0.088312 0.379441 2.162000 255 0 0
0.094616 0.381014 2.171000 255 0 0
0.100921 0.382410 2.179000 255 0 0
0.106878 0.382402 2.179000 255 0 0
0.112731 0.382043 2.177000 255 0 0
0.118627 0.381859 2.176000 255 0 0
0.124689 0.382201 2.178000 255 0 0
0.130522 0.381840 2.176000 255 0 0
0.136092 0.380778 2.170000 255 0 0
0.141825 0.380241 2.167000 255 0 0
0.147678 0.380055 2.166000 255 0 0
0.153738 0.380395 2.168000 255 0 0
0.159808 0.380734 2.170000 255 0 0
0.165964 0.381248 2.173000 255 0 0
0.172216 0.381938 2.177000 255 0 0
0.178325 0.382276 2.179000 255 0 0
0.184530 0.382789 2.182000 255 0 0
0.190662 0.383126 2.184000 255 0 0
0.197435 0.384691 2.193000 255 0 0
0.204257 0.386255 2.202000 255 0 0
-0.132758 0.406994 2.344717 255 255 0
-0.123845 0.405763 2.337928 255 255 0
-0.111494 0.404964 2.333552 255 255 0
-0.091406 0.405138 2.334617 255 255 0
-0.044457 0.406403 2.341861 255 255 0
-0.033069 0.405550 2.337171 255 255 0
-0.031994 0.403399 2.325222 255 255 0
-0.018057 0.402886 2.322426 255 255 0
-0.007567 0.401945 2.317235 255 255 0
0.008040 0.401673 2.315782 255 255 0
0.013369 0.400087 2.306975 255 255 0
0.018695 0.398503 2.298178 255 255 0
0.025722 0.397144 2.290638 255 255 0
0.035297 0.396126 2.284997 255 255 0
0.039754 0.394440 2.275618 255 255 0
0.032312 0.391175 2.257406 255 255 0
0.037628 0.389599 2.248636 255 255 0
0.063292 0.390757 2.255145 255 255 0
0.084673 0.391367 2.258590 255 255 0
0.092477 0.390162 2.251880 255 255 0
0.101118 0.389077 2.245838 255 255 0
0.112281 0.388345 2.241764 255 255 0
0.124271 0.387738 2.238383 255 255 0
0.121920 0.385160 2.223980 255 255 0
0.117897 0.382343 2.208231 255 255 0
-0.230315 0.331837 2.289162 0 255 0
-0.224779 0.333436 2.297268 0 255 0
-0.221856 0.335541 2.307238 0 255 0
-0.210204 0.335982 2.311066 0 255 0
-0.184561 0.333780 2.305164 0 255 0
-0.162377 0.332268 2.301826 0 255 0
-0.147161 0.332099 2.303448 0 255 0
-0.137178 0.332932 2.308762 0 255 0
-0.129813 0.334265 2.315918 0 255 0
-0.125951 0.336256 2.325493 0 255 0
-0.126477 0.339063 2.338051 0 255 0
-0.119100 0.340407 2.345246 0 255 0
-0.106439 0.340788 2.348920 0 255 0
-0.092001 0.340860 2.351472 0 255 0
-0.079305 0.341267 2.355260 0 255 0
-0.069239 0.342166 2.360855 0 255 0
-0.053865 0.342118 2.363004 0 255 0
-0.037587 0.341927 2.364645 0 255 0
-0.320093 0.388399 2.251000 255 0 0
-0.310196 0.383760 2.224000 255 0 0
-0.304137 0.383781 2.224000 255 0 0
-0.298346 0.384146 2.226000 255 0 0
-0.292411 0.384338 2.227000 255 0 0
-0.286470 0.384530 2.228000 255 0 0
-0.280272 0.384376 2.227000 255 0 0
-0.274324 0.384568 2.228000 255 0 0
-0.267647 0.383723 2.223000 255 0 0
-0.261115 0.383051 2.219000 255 0 0
-0.255063 0.383068 2.219000 255 0 0
-0.249796 0.384294 2.226000 255 0 0
-0.244271 0.385174 2.231000 255 0 0
-0.238612 0.385882 2.235000 255 0 0
-0.233242 0.387107 2.242000 255 0 0
-0.227427 0.387641 2.245000 255 0 0
-0.220512 0.386276 2.237000 255 0 0
-0.212393 0.382665 2.216000 255 0 0
-0.205040 0.380262 2.202000 255 0 0
-0.198305 0.378895 2.194000 255 0 0
-0.191526 0.377354 2.185000 255 0 0
-0.184795 0.375813 2.176000 255 0 0
-0.178277 0.374617 2.169000 255 0 0
-0.172035 0.373939 2.165000 255 0 0
-0.165968 0.373606 2.163000 255 0 0
-0.159615 0.372582 2.157000 255 0 0
-0.153366 0.371729 2.152000 255 0 0
-0.147349 0.371395 2.150000 255 0 0
-0.141408 0.371233 2.149000 255 0 0
-0.135598 0.371416 2.150000 255 0 0
-0.129723 0.371425 2.150000 255 0 0
-0.123904 0.371607 2.151000 255 0 0
-0.117970 0.371444 2.150000 255 0 0
-0.111988 0.371107 2.148000 255 0 0
-0.106116 0.371115 2.148000 255 0 0
-0.100244 0.371122 2.148000 255 0 0
-0.094415 0.371302 2.149000 255 0 0
-0.088498 0.371136 2.148000 255 0 0
-0.082471 0.370452 2.144000 255 0 0
-0.076536 0.370112 2.142000 255 0 0
-0.070613 0.369772 2.140000 255 0 0
-0.064670 0.369259 2.137000 255 0 0
-0.058715 0.368572 2.133000 255 0 0
-0.052807 0.368058 2.130000 255 0 0
-0.046960 0.367889 2.129000 255 0 0
-0.041136 0.367892 2.129000 255 0 0
-0.035330 0.368068 2.130000 255 0 0
-0.029504 0.368070 2.130000 255 0 0
-0.023689 0.368245 2.131000 255 0 0
-0.017851 0.368074 2.130000 255 0 0
-0.012025 0.368075 2.130000 255 0 0
-0.006202 0.368249 2.131000 255 0 0
-0.000373 0.368422 2.132000 255 0 0
0.005467 0.368940 2.135000 255 0 0
0.011312 0.369112 2.136000 255 0 0
0.017171 0.369457 2.138000 255 0 0
0.023041 0.369801 2.140000 255 0 0
0.028921 0.370144 2.142000 255 0 0
0.034829 0.370660 2.145000 255 0 0
0.040772 0.371349 2.149000 255 0 0
0.046715 0.371864 2.152000 255 0 0
0.052649 0.372206 2.154000 255 0 0
0.058622 0.372720 2.157000 255 0 0
0.064551 0.372888 2.158000 255 0 0
0.070550 0.373401 2.161000 255 0 0
0.076460 0.373396 2.161000 255 0 0
0.082407 0.373563 2.162000 255 0 0
0.088401 0.373902 2.164000 255 0 0
0.094797 0.375796 2.175000 255 0 0
0.101022 0.376825 2.181000 255 0 0
0.107033 0.376990 2.182000 255 0 0
0.112791 0.376291 2.178000 255 0 0
0.118745 0.376282 2.178000 255 0 0
0.124756 0.376446 2.179000 255 0 0
0.130531 0.375918 2.176000 255 0 0
0.136165 0.375045 2.171000 255 0 0
0.141901 0.374516 2.168000 255 0 0
0.147825 0.374506 2.168000 255 0 0
0.153820 0.374667 2.169000 255 0 0
0.159893 0.375001 2.171000 255 0 0
0.165976 0.375335 2.173000 255 0 0
0.172149 0.375841 2.176000 255 0 0
0.178420 0.376519 2.180000 255 0 0
0.184797 0.377369 2.185000 255 0 0
0.191112 0.378047 2.189000 255 0 0
0.197630 0.379069 2.195000 255 0 0
0.204086 0.379918 2.200000 255 0 0
0.211047 0.381630 2.210000 255 0 0
-0.134366 0.395800 2.344868 255 255 0
-0.123726 0.394800 2.339252 255 255 0
-0.107068 0.394573 2.337843 255 255 0
-0.082686 0.395346 2.341894 255 255 0
-0.060068 0.395922 2.344864 255 255 0
-0.042647 0.395854 2.344326 255 255 0
-0.032980 0.394803 2.338420 255 255 0
-0.026757 0.393313 2.330117 255 255 0
-0.013686 0.392721 2.326713 255 255 0
-0.001490 0.392027 2.322752 255 255 0
0.014961 0.391907 2.321919 255 255 0
0.022845 0.390668 2.314981 255 255 0
0.026455 0.388866 2.304964 255 255 0
0.030066 0.387065 2.294948 255 255 0
0.035378 0.385493 2.286182 255 255 0
0.041537 0.384039 2.278055 255 255 0
0.035800 0.380971 2.261114 255 255 0
0.036870 0.378822 2.249181 255 255 0
0.053201 0.378766 2.248676 255 255 0
0.091704 0.379517 2.252373 255 255 0
0.101189 0.378564 2.246963 255 255 0
0.115725 0.378328 2.245463 255 255 0
0.122651 0.377036 2.238193 255 255 0
0.114411 0.373604 2.219229 255 255 0
0.114609 0.371356 2.206726 255 255 0
0.113974 0.368985 2.193547 255 255 0
-0.232413 0.321784 2.291868 0 255 0
-0.228620 0.323716 2.301212 0 255 0
-0.223955 0.325481 2.309943 0 255 0
-0.208821 0.325220 2.311325 0 255 0
-0.181443 0.322617 2.304228 0 255 0
-0.160140 0.321219 2.301528 0 255 0
-0.144928 0.321017 2.303172 0 255 0
-0.140197 0.322833 2.312120 0 255 0
-0.132836 0.324153 2.319276 0 255 0
-0.132482 0.326804 2.331240 0 255 0
-0.131255 0.329288 2.342591 0 255 0
-0.129153 0.331606 2.353338 0 255 0
-0.112110 0.331133 2.354044 0 255 0
-0.095922 0.330841 2.355419 0 255 0
-0.080592 0.330730 2.357453 0 255 0
-0.071411 0.331772 2.363637 0 255 0
-0.057809 0.332012 2.366955 0 255 0
-0.043306 0.332104 2.369755 0 255 0
-0.020833 0.330763 2.367447 0 255 0
-0.321962 0.384483 2.264000 255 0 0
-0.310495 0.378050 2.226000 255 0 0
-0.304157 0.377730 2.224000 255 0 0
-0.298499 0.378260 2.227000 255 0 0
-0.292431 0.378279 2.227000 255 0 0
-0.286489 0.378468 2.228000 255 0 0
-0.280416 0.378487 2.228000 255 0 0
-0.274465 0.378676 2.229000 255 0 0
-0.267906 0.378014 2.225000 255 0 0
-0.261485 0.377523 2.222000 255 0 0
-0.255310 0.377370 2.221000 255 0 0
-0.249813 0.378237 2.226000 255 0 0
-0.244398 0.379274 2.232000 255 0 0
-0.238842 0.380140 2.237000 255 0 0
-0.233466 0.381346 2.244000 255 0 0
-0.228051 0.382551 2.251000 255 0 0
-0.221710 0.382227 2.249000 255 0 0
-0.213654 0.378843 2.229000 255 0 0
-0.205706 0.375459 2.209000 255 0 0
-0.198681 0.373603 2.198000 255 0 0
-0.191978 0.372257 2.190000 255 0 0
-0.185403 0.371081 2.183000 255 0 0
-0.178947 0.370074 2.177000 255 0 0
-0.172604 0.369237 2.172000 255 0 0
-0.166440 0.368739 2.169000 255 0 0
-0.160070 0.367730 2.163000 255 0 0
-0.153662 0.366552 2.156000 255 0 0
-0.147496 0.365883 2.152000 255 0 0
-0.141418 0.365383 2.149000 255 0 0
-0.135608 0.365563 2.150000 255 0 0
-0.129732 0.365573 2.150000 255 0 0
-0.123913 0.365752 2.151000 255 0 0
-0.117978 0.365591 2.150000 255 0 0
-0.112049 0.365429 2.149000 255 0 0
-0.106173 0.365437 2.149000 255 0 0
-0.100251 0.365275 2.148000 255 0 0
-0.094334 0.365112 2.147000 255 0 0
-0.088463 0.365119 2.147000 255 0 0
-0.082515 0.364785 2.145000 255 0 0
-0.076578 0.364451 2.143000 255 0 0
-0.070618 0.363946 2.140000 255 0 0
-0.064735 0.363781 2.139000 255 0 0
-0.058802 0.363275 2.136000 255 0 0
-0.052910 0.362939 2.134000 255 0 0
-0.047029 0.362603 2.132000 255 0 0
-0.041198 0.362606 2.132000 255 0 0
-0.035382 0.362779 2.133000 255 0 0
-0.029561 0.362952 2.134000 255 0 0
-0.023724 0.362954 2.134000 255 0 0
-0.017886 0.362955 2.134000 255 0 0
-0.012037 0.362616 2.132000 255 0 0
-0.006211 0.362957 2.134000 255 0 0
-0.000373 0.362957 2.134000 255 0 0
0.005470 0.363297 2.136000 255 0 0
0.011329 0.363807 2.139000 255 0 0
0.017212 0.364486 2.143000 255 0 0
0.023107 0.364995 2.146000 255 0 0
0.029018 0.365503 2.149000 255 0 0
0.034913 0.365671 2.150000 255 0 0
0.040851 0.366178 2.153000 255 0 0
0.046762 0.366345 2.154000 255 0 0
0.052751 0.367022 2.158000 255 0 0
0.058681 0.367188 2.159000 255 0 0
0.064645 0.367523 2.161000 255 0 0
0.070556 0.367518 2.161000 255 0 0
0.076572 0.368023 2.164000 255 0 0
0.082566 0.368357 2.166000 255 0 0
0.088571 0.368691 2.168000 255 0 0
0.094935 0.370385 2.178000 255 0 0
0.101261 0.371738 2.186000 255 0 0
0.107336 0.372070 2.188000 255 0 0
0.113110 0.371382 2.184000 255 0 0
0.118972 0.371033 2.182000 255 0 0
0.124879 0.370854 2.181000 255 0 0
0.130661 0.370335 2.178000 255 0 0
0.136300 0.369475 2.173000 255 0 0
0.142108 0.369125 2.171000 255 0 0
0.148040 0.369114 2.171000 255 0 0
0.154044 0.369273 2.172000 255 0 0
0.160125 0.369602 2.174000 255 0 0
0.166065 0.369590 2.174000 255 0 0
0.172162 0.369918 2.176000 255 0 0
0.178351 0.370416 2.179000 255 0 0
0.184979 0.371763 2.187000 255 0 0
0.191301 0.372429 2.191000 255 0 0
0.197824 0.373435 2.197000 255 0 0
0.204101 0.373931 2.200000 255 0 0
0.210871 0.375276 2.208000 255 0 0
-0.119293 0.384383 2.343541 255 255 0
-0.095751 0.385091 2.346891 255 255 0
-0.072251 0.385820 2.350357 255 255 0
-0.047074 0.386796 2.355138 255 255 0
-0.033965 0.386210 2.351612 255 255 0
-0.026025 0.384954 2.344512 255 255 0
-0.024951 0.382790 2.332578 255 255 0
-0.011885 0.382227 2.329168 255 255 0
0.002871 0.381904 2.327039 255 255 0
0.016749 0.381479 2.324359 255 255 0
0.019511 0.379558 2.313714 255 255 0
0.021421 0.377521 2.302443 255 255 0
0.026742 0.375950 2.293652 255 255 0
0.029507 0.374029 2.282996 255 255 0
0.035673 0.372579 2.274845 255 255 0
0.033343 0.369951 2.260407 255 255 0
0.036115 0.368029 2.249731 255 255 0
0.048207 0.367415 2.246034 255 255 0
0.072974 0.368603 2.251950 255 255 0
0.095160 0.369455 2.256070 255 255 0
0.109706 0.369244 2.254517 255 255 0
0.120855 0.368562 2.250449 255 255 0
0.116822 0.365706 2.234769 255 255 0
0.106071 0.361868 2.213842 255 255 0
0.107121 0.359726 2.201964 255 255 0
-0.235379 0.311905 2.295193 0 255 0
-0.235070 0.314525 2.307004 0 255 0
-0.231281 0.316454 2.316339 0 255 0
-0.162274 0.310998 2.304273 0 255 0
-0.150565 0.311439 2.308345 0 255 0
-0.149338 0.313925 2.319693 0 255 0
-0.141111 0.315059 2.326232 0 255 0
-0.136379 0.316873 2.335188 0 255 0
-0.129014 0.318186 2.342370 0 255 0
-0.127786 0.320677 2.353719 0 255 0
-0.108113 0.319664 2.352678 0 255 0
-0.097203 0.320335 2.357602 0 255 0
-0.084521 0.320684 2.361402 0 255 0
-0.077987 0.322202 2.369329 0 255 0
-0.058225 0.321257 2.368586 0 255 0
-0.041082 0.320824 2.369670 0 255 0
-0.017733 0.319265 2.366814 0 255 0
-0.010257 0.320665 2.374365 0 255 0
-0.318428 0.374146 2.239000 255 0 0
-0.310515 0.371994 2.226000 255 0 0
-0.304450 0.372013 2.226000 255 0 0
-0.298653 0.372367 2.228000 255 0 0
-0.292712 0.372554 2.229000 255 0 0
-0.286637 0.372573 2.229000 255 0 0
-0.280561 0.372592 2.229000 255 0 0
-0.274484 0.372610 2.229000 255 0 0
-0.268165 0.372294 2.227000 255 0 0
-0.261738 0.371810 2.224000 255 0 0
-0.255673 0.371827 2.224000 255 0 0
-0.249943 0.372346 2.227000 255 0 0
-0.244524 0.373366 2.233000 255 0 0
-0.238965 0.374219 2.238000 255 0 0
-0.233794 0.375740 2.247000 255 0 0
-0.228877 0.377762 2.259000 255 0 0
-0.223303 0.378781 2.265000 255 0 0
-0.215874 0.376623 2.252000 255 0 0
-0.207211 0.372122 2.225000 255 0 0
-0.199599 0.369293 2.208000 255 0 0
-0.192605 0.367467 2.197000 255 0 0
-0.185840 0.365975 2.188000 255 0 0
-0.179453 0.365151 2.183000 255 0 0
-0.173172 0.364495 2.179000 255 0 0
-0.166759 0.363503 2.173000 255 0 0
-0.160378 0.362511 2.167000 255 0 0
-0.153958 0.361351 2.160000 255 0 0
-0.147713 0.360526 2.155000 255 0 0
-0.141560 0.359867 2.151000 255 0 0
-0.135744 0.360044 2.152000 255 0 0
-0.129923 0.360221 2.153000 255 0 0
-0.124037 0.360230 2.153000 255 0 0
-0.118042 0.359904 2.151000 255 0 0
-0.112109 0.359745 2.150000 255 0 0
-0.106280 0.359921 2.151000 255 0 0
-0.100352 0.359761 2.150000 255 0 0
-0.094341 0.359266 2.147000 255 0 0
-0.088429 0.359105 2.146000 255 0 0
-0.082483 0.358777 2.144000 255 0 0
-0.076583 0.358615 2.143000 255 0 0
-0.070623 0.358119 2.140000 255 0 0
-0.064740 0.357956 2.139000 255 0 0
-0.058834 0.357626 2.137000 255 0 0
-0.052939 0.357296 2.135000 255 0 0
-0.047099 0.357299 2.135000 255 0 0
-0.041259 0.357303 2.135000 255 0 0
-0.035451 0.357640 2.137000 255 0 0
-0.029619 0.357810 2.138000 255 0 0
-0.023759 0.357645 2.137000 255 0 0
-0.017904 0.357479 2.136000 255 0 0
-0.012055 0.357313 2.135000 255 0 0
-0.006220 0.357648 2.137000 255 0 0
-0.000373 0.357481 2.136000 255 0 0
0.005475 0.357815 2.138000 255 0 0
0.011351 0.358652 2.143000 255 0 0
0.017262 0.359655 2.149000 255 0 0
0.023184 0.360323 2.153000 255 0 0
0.029074 0.360321 2.153000 255 0 0
0.034980 0.360486 2.154000 255 0 0
0.040911 0.360818 2.156000 255 0 0
0.046830 0.360982 2.157000 255 0 0
0.052828 0.361647 2.161000 255 0 0
0.058767 0.361811 2.162000 255 0 0
0.064740 0.362141 2.164000 255 0 0
0.070659 0.362136 2.164000 255 0 0
0.076719 0.362800 2.168000 255 0 0
0.082725 0.363129 2.170000 255 0 0
0.088741 0.363457 2.172000 255 0 0
0.095160 0.365291 2.183000 255 0 0
0.101407 0.366288 2.189000 255 0 0
0.107540 0.366782 2.192000 255 0 0
0.113222 0.365770 2.186000 255 0 0
0.119090 0.365427 2.184000 255 0 0
0.124946 0.365083 2.182000 255 0 0
0.130670 0.364405 2.178000 255 0 0
0.136310 0.363559 2.173000 255 0 0
0.142118 0.363214 2.171000 255 0 0
0.148119 0.363371 2.172000 255 0 0
0.154268 0.363862 2.175000 255 0 0
0.160284 0.364018 2.176000 255 0 0
0.166306 0.364174 2.177000 255 0 0
0.172253 0.364162 2.177000 255 0 0
0.178609 0.364986 2.182000 255 0 0
0.184992 0.365809 2.187000 255 0 0
0.191227 0.366298 2.190000 255 0 0
0.197568 0.366953 2.194000 255 0 0
0.203929 0.367608 2.198000 255 0 0
0.210694 0.368931 2.206000 255 0 0
0.217208 0.369753 2.211000 255 0 0
-0.111415 0.374437 2.350193 255 255 0
-0.089612 0.374979 2.352359 255 255 0
-0.065266 0.375886 2.356421 255 255 0
-0.046121 0.376122 2.357007 255 255 0
-0.033875 0.375450 2.352870 255 255 0
-0.029366 0.373741 2.343346 255 255 0
-0.023145 0.372267 2.335039 255 255 0
-0.010084 0.371732 2.331623 255 255 0
0.005521 0.371562 2.330098 255 255 0
0.011707 0.370106 2.321885 255 255 0
0.015329 0.368298 2.311837 255 255 0
0.016394 0.366133 2.299931 255 255 0
0.020870 0.364445 2.290498 255 255 0
0.023643 0.362518 2.279820 255 255 0
0.029816 0.361071 2.271645 255 255 0
0.032589 0.359145 2.260967 255 255 0
0.034516 0.357098 2.249652 255 255 0
0.042373 0.355901 2.242767 255 255 0
0.067137 0.357150 2.248647 255 255 0
0.113153 0.359227 2.258210 255 255 0
0.119237 0.357829 2.250275 255 255 0
0.112684 0.354576 2.232650 255 255 0
0.098582 0.350194 2.209119 255 255 0
0.108047 0.349287 2.203737 255 255 0
0.126733 0.349765 2.205587 255 255 0
-0.240083 0.302382 2.299756 0 255 0
-0.240644 0.305183 2.312173 0 255 0
-0.237730 0.307282 2.322111 0 255 0
-0.211293 0.304680 2.315529 0 255 0
-0.178712 0.300892 2.304818 0 255 0
-0.143971 0.299466 2.305055 0 255 0
-0.145358 0.302478 2.318231 0 255 0
-0.139754 0.304115 2.326588 0 255 0
-0.134145 0.305755 2.334959 0 255 0
-0.125026 0.306717 2.340967 0 255 0
-0.124669 0.309386 2.352924 0 255 0
-0.106757 0.308667 2.353087 0 255 0
-0.102880 0.310666 2.362717 0 255 0
-0.092844 0.311490 2.368265 0 255 0
-0.084558 0.312658 2.375015 0 255 0
-0.059525 0.310658 2.370800 0 255 0
-0.038862 0.309519 2.369590 0 255 0
-0.019053 0.308567 2.369057 0 255 0
-0.318163 0.367724 2.237000 255 0 0
-0.310953 0.366429 2.229000 255 0 0
-0.304880 0.366449 2.229000 255 0 0
-0.298672 0.366304 2.228000 255 0 0
-0.292863 0.366652 2.230000 255 0 0
-0.286784 0.366671 2.230000 255 0 0
-0.280705 0.366689 2.230000 255 0 0
-0.274502 0.366543 2.229000 255 0 0
-0.268303 0.366397 2.228000 255 0 0
-0.261991 0.366085 2.226000 255 0 0
-0.255575 0.365609 2.223000 255 0 0
-0.249735 0.365955 2.225000 255 0 0
-0.244431 0.367123 2.232000 255 0 0
-0.239408 0.368784 2.242000 255 0 0
-0.234539 0.370774 2.254000 255 0 0
-0.229906 0.373258 2.269000 255 0 0
-0.224797 0.375083 2.280000 255 0 0
-0.217518 0.373288 2.269000 255 0 0
-0.209088 0.369355 2.245000 255 0 0
-0.200969 0.365749 2.223000 255 0 0
-0.193408 0.362966 2.206000 255 0 0
-0.186363 0.361005 2.194000 255 0 0
-0.179795 0.359866 2.187000 255 0 0
-0.173423 0.359055 2.182000 255 0 0
-0.167001 0.358080 2.176000 255 0 0
-0.160389 0.356610 2.167000 255 0 0
-0.154040 0.355634 2.161000 255 0 0
-0.147792 0.354822 2.156000 255 0 0
-0.141768 0.354503 2.154000 255 0 0
-0.135943 0.354678 2.155000 255 0 0
-0.130053 0.354687 2.155000 255 0 0
-0.124161 0.354696 2.155000 255 0 0
-0.118160 0.354376 2.153000 255 0 0
-0.112221 0.354220 2.152000 255 0 0
-0.106337 0.354227 2.152000 255 0 0
-0.100453 0.354235 2.152000 255 0 0
-0.094436 0.353748 2.149000 255 0 0
-0.088435 0.353261 2.146000 255 0 0
-0.082450 0.352773 2.143000 255 0 0
-0.076553 0.352614 2.142000 255 0 0
-0.070562 0.351961 2.138000 255 0 0
-0.064684 0.351802 2.137000 255 0 0
-0.058866 0.351971 2.138000 255 0 0
-0.052993 0.351810 2.137000 255 0 0
-0.047146 0.351814 2.137000 255 0 0
-0.041300 0.351817 2.137000 255 0 0
-0.035504 0.352314 2.140000 255 0 0
-0.029649 0.352316 2.140000 255 0 0
-0.023783 0.352154 2.139000 255 0 0
-0.017922 0.351990 2.138000 255 0 0
-0.012073 0.351991 2.138000 255 0 0
-0.006232 0.352486 2.141000 255 0 0
-0.000374 0.352486 2.141000 255 0 0
0.005494 0.353145 2.145000 255 0 0
0.011384 0.353803 2.149000 255 0 0
0.017311 0.354789 2.155000 255 0 0
0.023218 0.354953 2.156000 255 0 0
0.029130 0.355115 2.157000 255 0 0
0.035048 0.355277 2.158000 255 0 0
0.040971 0.355439 2.159000 255 0 0
0.046920 0.355765 2.161000 255 0 0
0.052905 0.356256 2.164000 255 0 0
0.058825 0.356252 2.164000 255 0 0
0.064805 0.356576 2.166000 255 0 0
0.070762 0.356736 2.167000 255 0 0
0.076795 0.357224 2.170000 255 0 0
0.082845 0.357713 2.173000 255 0 0
0.089033 0.358694 2.179000 255 0 0
0.095559 0.360827 2.192000 255 0 0
0.101785 0.361643 2.197000 255 0 0
0.107646 0.361142 2.194000 255 0 0
0.113282 0.359982 2.187000 255 0 0
0.119098 0.359479 2.184000 255 0 0
0.125012 0.359306 2.183000 255 0 0
0.130740 0.358638 2.179000 255 0 0
0.136445 0.357971 2.175000 255 0 0
0.142259 0.357631 2.173000 255 0 0
0.148266 0.357786 2.174000 255 0 0
0.154420 0.358269 2.177000 255 0 0
0.160443 0.358422 2.178000 255 0 0
0.166394 0.358411 2.178000 255 0 0
0.172424 0.358563 2.179000 255 0 0
0.178622 0.359044 2.182000 255 0 0
0.184920 0.359690 2.186000 255 0 0
0.190978 0.359841 2.187000 255 0 0
0.197401 0.360651 2.192000 255 0 0
0.203944 0.361624 2.198000 255 0 0
0.210805 0.363090 2.207000 255 0 0
0.217223 0.363734 2.211000 255 0 0
