ply
format ascii 1.0
element vertex 1327
property double x
property double y
property double z
property uchar red
property uchar green
property uchar blue
end_header
0.119379 0.354340 2.189000 255 0 0
0.125078 0.353522 2.184000 255 0 0
0.131229 0.353998 2.187000 255 0 0
0.137082 0.353665 2.185000 255 0 0
0.143186 0.353979 2.187000 255 0 0
0.149027 0.353645 2.185000 255 0 0
0.155212 0.354120 2.188000 255 0 0
0.161265 0.354271 2.189000 255 0 0
0.167552 0.354907 2.193000 255 0 0
0.173939 0.355704 2.198000 255 0 0
0.180190 0.356177 2.201000 255 0 0
0.186625 0.356973 2.206000 255 0 0
0.193175 0.357931 2.212000 255 0 0
0.200117 0.359536 2.222000 255 0 0
0.207020 0.360978 2.231000 255 0 0
-0.107732 0.352982 2.355207 255 255 0
-0.090249 0.353037 2.354382 255 255 0
-0.072796 0.353106 2.353638 255 255 0
-0.065673 0.351744 2.345798 255 255 0
-0.055985 0.350749 2.339779 255 255 0
-0.052306 0.348911 2.329576 255 255 0
-0.047772 0.347195 2.319978 255 255 0
-0.038966 0.346093 2.313426 255 255 0
-0.026755 0.345487 2.309346 255 255 0
-0.016268 0.344644 2.304092 255 255 0
-0.003240 0.344181 2.300724 255 255 0
0.003809 0.342858 2.293084 255 255 0
0.015103 0.342164 2.288568 255 255 0
0.013640 0.339602 2.274749 255 255 0
0.014732 0.337411 2.262777 255 255 0
0.014983 0.335093 2.250163 255 255 0
0.032174 0.335299 2.250141 255 255 0
0.051028 0.335774 2.251465 255 255 0
0.075763 0.337157 2.257330 255 255 0
0.086950 0.336519 2.253107 255 255 0
0.097278 0.335762 2.248289 255 255 0
0.104222 0.334498 2.240938 255 255 0
0.103588 0.332076 2.227793 255 255 0
-0.262867 0.275366 2.270371 0 255 0
-0.261686 0.277825 2.281559 0 255 0
-0.247192 0.280198 2.295209 0 255 0
-0.222577 0.277775 2.289709 0 255 0
-0.193582 0.274478 2.281256 0 255 0
-0.165412 0.271393 2.273567 0 255 0
-0.151991 0.271388 2.276400 0 255 0
-0.158582 0.275509 2.293273 0 255 0
-0.166934 0.279974 2.311298 0 255 0
-0.163091 0.281938 2.320817 0 255 0
-0.150517 0.282133 2.324339 0 255 0
-0.139674 0.282694 2.329109 0 255 0
-0.130567 0.283617 2.335114 0 255 0
-0.123200 0.284899 2.342339 0 255 0
-0.115825 0.286187 2.349587 0 255 0
-0.105814 0.286958 2.355099 0 255 0
-0.093157 0.287216 2.358894 0 255 0
-0.078727 0.287140 2.361580 0 255 0
-0.062520 0.286733 2.363172 0 255 0
-0.044530 0.285999 2.363683 0 255 0
-0.035322 0.287000 2.370030 0 255 0
-0.358874 0.359555 2.263000 255 0 0
-0.346948 0.353697 2.226000 255 0 0
-0.339663 0.352447 2.218000 255 0 0
-0.333172 0.351991 2.215000 255 0 0
-0.327436 0.352328 2.217000 255 0 0
-0.321253 0.352190 2.216000 255 0 0
-0.314932 0.351891 2.214000 255 0 0
-0.308481 0.351434 2.211000 255 0 0
-0.302457 0.351453 2.211000 255 0 0
-0.296431 0.351472 2.211000 255 0 0
-0.290668 0.351809 2.213000 255 0 0
-0.284506 0.351668 2.212000 255 0 0
-0.278350 0.351527 2.211000 255 0 0
-0.272444 0.351704 2.212000 255 0 0
-0.266893 0.352357 2.216000 255 0 0
-0.261790 0.353646 2.224000 255 0 0
-0.256643 0.354936 2.232000 255 0 0
-0.252013 0.357020 2.245000 255 0 0
-0.247421 0.359262 2.259000 255 0 0
-0.242110 0.360551 2.267000 255 0 0
-0.235715 0.360249 2.265000 255 0 0
-0.228316 0.358356 2.253000 255 0 0
-0.220193 0.355189 2.233000 255 0 0
-0.211987 0.351705 2.211000 255 0 0
-0.204832 0.349810 2.199000 255 0 0
-0.198194 0.348710 2.192000 255 0 0
-0.191242 0.346973 2.181000 255 0 0
-0.184265 0.345077 2.169000 255 0 0
-0.177682 0.343816 2.161000 255 0 0
-0.171539 0.343351 2.158000 255 0 0
-0.165489 0.343045 2.156000 255 0 0
-0.159375 0.342578 2.153000 255 0 0
-0.153349 0.342271 2.151000 255 0 0
-0.147333 0.341963 2.149000 255 0 0
-0.141393 0.341814 2.148000 255 0 0
-0.135584 0.341983 2.149000 255 0 0
-0.129588 0.341674 2.147000 255 0 0
-0.123660 0.341524 2.146000 255 0 0
-0.117738 0.341373 2.145000 255 0 0
-0.111820 0.341222 2.144000 255 0 0
-0.105957 0.341230 2.144000 255 0 0
-0.100000 0.340919 2.142000 255 0 0
-0.094098 0.340766 2.141000 255 0 0
-0.088077 0.340136 2.137000 255 0 0
-0.082116 0.339665 2.134000 255 0 0
-0.076207 0.339352 2.132000 255 0 0
-0.070375 0.339357 2.132000 255 0 0
-0.064542 0.339362 2.132000 255 0 0
-0.058737 0.339526 2.133000 255 0 0
-0.052926 0.339689 2.134000 255 0 0
-0.047087 0.339692 2.134000 255 0 0
-0.041268 0.339855 2.135000 255 0 0
-0.035393 0.339539 2.133000 255 0 0
-0.029570 0.339701 2.134000 255 0 0
-0.023731 0.339702 2.134000 255 0 0
-0.017917 0.340182 2.137000 255 0 0
-0.012080 0.340501 2.139000 255 0 0
-0.006236 0.340979 2.142000 255 0 0
-0.000375 0.341457 2.145000 255 0 0
0.005507 0.342253 2.150000 255 0 0
0.011406 0.342730 2.153000 255 0 0
0.017330 0.343365 2.157000 255 0 0
0.023265 0.343842 2.160000 255 0 0
0.029243 0.344636 2.165000 255 0 0
0.035150 0.344474 2.164000 255 0 0
0.041128 0.344949 2.167000 255 0 0
0.047079 0.345105 2.168000 255 0 0
0.053255 0.346693 2.178000 255 0 0
0.059568 0.348758 2.191000 255 0 0
0.065921 0.350664 2.203000 255 0 0
0.072242 0.352092 2.212000 255 0 0
0.078612 0.353519 2.221000 255 0 0
0.084954 0.354627 2.228000 255 0 0
0.090762 0.353507 2.221000 255 0 0
0.096488 0.352227 2.213000 255 0 0
0.102263 0.351265 2.207000 255 0 0
0.108054 0.350462 2.202000 255 0 0
0.113661 0.349181 2.194000 255 0 0
0.119333 0.348217 2.188000 255 0 0
0.125144 0.347731 2.185000 255 0 0
0.131238 0.348041 2.187000 255 0 0
0.137092 0.347713 2.185000 255 0 0
0.143130 0.347862 2.186000 255 0 0
0.149106 0.347852 2.186000 255 0 0
0.155364 0.348478 2.190000 255 0 0
0.161423 0.348626 2.191000 255 0 0
0.167716 0.349251 2.195000 255 0 0
0.173872 0.349558 2.197000 255 0 0
0.180120 0.350023 2.200000 255 0 0
0.186215 0.350170 2.201000 255 0 0
0.192839 0.351270 2.208000 255 0 0
0.199950 0.353166 2.220000 255 0 0
-0.096422 0.343593 2.364204 255 255 0
-0.080677 0.343450 2.362212 255 255 0
-0.064098 0.343443 2.360887 255 255 0
-0.056126 0.342219 2.353661 255 255 0
-0.053306 0.340258 2.342862 255 255 0
-0.047916 0.338668 2.333866 255 255 0
-0.043386 0.336957 2.324275 255 255 0
-0.032022 0.336246 2.319551 255 255 0
-0.021528 0.335419 2.314260 255 255 0
-0.011901 0.334474 2.308399 255 255 0
-0.004843 0.333156 2.300727 255 255 0
0.003059 0.331970 2.293693 255 255 0
0.014352 0.331297 2.289164 255 255 0
0.016289 0.329229 2.277832 255 255 0
0.013990 0.326519 2.263365 255 255 0
0.010857 0.323675 2.248235 255 255 0
0.023815 0.323275 2.245036 255 255 0
0.049434 0.324827 2.251380 255 255 0
0.075851 0.326534 2.258490 255 255 0
0.093783 0.326962 2.259359 255 255 0
0.103259 0.326097 2.253912 255 255 0
0.111038 0.324977 2.247213 255 255 0
0.112923 0.322940 2.236024 255 255 0
-0.274466 0.267386 2.279974 0 255 0
-0.272426 0.269659 2.290506 0 255 0
-0.265194 0.270824 2.297297 0 255 0
-0.244089 0.269051 2.294193 0 255 0
-0.185291 0.262098 2.276617 0 255 0
-0.158865 0.259311 2.270202 0 255 0
-0.144573 0.259098 2.272458 0 255 0
-0.163336 0.265791 2.297851 0 255 0
-0.170812 0.270107 2.315254 0 255 0
-0.166972 0.272068 2.324768 0 255 0
-0.155277 0.272413 2.328890 0 255 0
-0.145315 0.273128 2.334255 0 255 0
-0.134466 0.273673 2.339066 0 255 0
-0.126229 0.274763 2.345696 0 255 0
-0.116232 0.275505 2.351176 0 255 0
-0.104470 0.275902 2.355524 0 255 0
-0.093571 0.276487 2.360505 0 255 0
-0.082658 0.277083 2.365531 0 255 0
-0.074367 0.278214 2.372339 0 255 0
-0.058154 0.277780 2.373988 0 255 0
-0.347436 0.348107 2.229000 255 0 0
-0.339683 0.346409 2.218000 255 0 0
-0.333343 0.346117 2.216000 255 0 0
-0.327456 0.346293 2.217000 255 0 0
-0.321128 0.346001 2.215000 255 0 0
-0.314809 0.345708 2.213000 255 0 0
-0.308361 0.345258 2.210000 255 0 0
-0.302613 0.345590 2.212000 255 0 0
-0.296718 0.345765 2.213000 255 0 0
-0.290555 0.345627 2.212000 255 0 0
-0.284524 0.345645 2.212000 255 0 0
-0.278241 0.345350 2.210000 255 0 0
-0.272584 0.345837 2.213000 255 0 0
-0.267031 0.346479 2.217000 255 0 0
-0.262043 0.347902 2.226000 255 0 0
-0.257005 0.349326 2.235000 255 0 0
-0.252254 0.351218 2.247000 255 0 0
-0.247218 0.352797 2.257000 255 0 0
-0.242020 0.354220 2.266000 255 0 0
-0.235626 0.353923 2.264000 255 0 0
-0.228534 0.352532 2.255000 255 0 0
-0.220701 0.349889 2.238000 255 0 0
-0.212577 0.346620 2.217000 255 0 0
-0.205218 0.344445 2.203000 255 0 0
-0.198388 0.343051 2.194000 255 0 0
-0.191255 0.341032 2.181000 255 0 0
-0.184193 0.339012 2.168000 255 0 0
-0.177776 0.338086 2.162000 255 0 0
-0.171551 0.337472 2.158000 255 0 0
-0.165501 0.337171 2.156000 255 0 0
-0.159386 0.336713 2.153000 255 0 0
-0.153431 0.336567 2.152000 255 0 0
-0.147343 0.336108 2.149000 255 0 0
-0.141403 0.335962 2.148000 255 0 0
-0.135530 0.335971 2.148000 255 0 0
-0.129597 0.335824 2.147000 255 0 0
-0.123554 0.335364 2.144000 255 0 0
-0.117691 0.335372 2.144000 255 0 0
-0.111828 0.335380 2.144000 255 0 0
-0.105964 0.335388 2.144000 255 0 0
-0.100100 0.335395 2.144000 255 0 0
-0.094104 0.334932 2.141000 255 0 0
-0.088124 0.334469 2.138000 255 0 0
-0.082160 0.334006 2.135000 255 0 0
-0.076248 0.333699 2.133000 255 0 0
-0.070380 0.333547 2.132000 255 0 0
-0.064547 0.333552 2.132000 255 0 0
-0.058713 0.333557 2.132000 255 0 0
-0.052930 0.333873 2.134000 255 0 0
-0.047113 0.334033 2.135000 255 0 0
-0.041309 0.334349 2.137000 255 0 0
-0.035445 0.334196 2.136000 255 0 0
-0.029614 0.334354 2.137000 255 0 0
-0.023777 0.334513 2.138000 255 0 0
-0.017943 0.334827 2.140000 255 0 0
-0.012087 0.334828 2.140000 255 0 0
-0.006242 0.335455 2.144000 255 0 0
-0.000375 0.335768 2.146000 255 0 0
0.005510 0.336550 2.151000 255 0 0
0.011423 0.337332 2.156000 255 0 0
0.017379 0.338426 2.163000 255 0 0
0.023320 0.338737 2.165000 255 0 0
0.029285 0.339205 2.168000 255 0 0
0.035202 0.339046 2.167000 255 0 0
0.041188 0.339513 2.170000 255 0 0
0.047126 0.339510 2.170000 255 0 0
0.053308 0.341071 2.180000 255 0 0
0.059626 0.343101 2.193000 255 0 0
0.066016 0.345130 2.206000 255 0 0
0.072410 0.346846 2.217000 255 0 0
0.078865 0.348562 2.228000 255 0 0
0.085227 0.349651 2.235000 255 0 0
0.090932 0.348080 2.225000 255 0 0
0.096713 0.346979 2.218000 255 0 0
0.102409 0.345720 2.210000 255 0 0
0.108208 0.344931 2.205000 255 0 0
0.113721 0.343359 2.195000 255 0 0
0.119396 0.342412 2.189000 255 0 0
0.125096 0.341621 2.184000 255 0 0
0.131007 0.341456 2.183000 255 0 0
0.136913 0.341290 2.182000 255 0 0
0.142878 0.341281 2.182000 255 0 0
0.149048 0.341740 2.185000 255 0 0
0.155375 0.342512 2.190000 255 0 0
0.161287 0.342344 2.189000 255 0 0
0.167422 0.342646 2.191000 255 0 0
0.173488 0.342791 2.192000 255 0 0
0.179887 0.343560 2.197000 255 0 0
0.186059 0.343861 2.199000 255 0 0
0.192677 0.344943 2.206000 255 0 0
-0.088564 0.333763 2.370831 255 255 0
-0.073691 0.333536 2.368256 255 255 0
-0.057124 0.333571 2.366937 255 255 0
-0.050875 0.332111 2.358530 255 255 0
-0.043775 0.330780 2.350739 255 255 0
-0.043529 0.328441 2.338153 255 255 0
-0.036437 0.327115 2.330383 255 255 0
-0.026791 0.326175 2.324454 255 255 0
-0.020570 0.324731 2.316122 255 255 0
-0.009241 0.324061 2.311478 255 255 0
-0.006441 0.322110 2.300735 255 255 0
0.004863 0.321452 2.296155 255 255 0
0.014452 0.320544 2.290383 255 255 0
0.018090 0.318730 2.280292 255 255 0
0.014098 0.315741 2.264580 255 255 0
0.010969 0.312875 2.249451 255 255 0
0.021388 0.312109 2.244352 255 255 0
0.052068 0.314519 2.254460 255 255 0
0.079316 0.316429 2.262192 255 255 0
0.098924 0.317168 2.264329 255 255 0
0.105866 0.315924 2.256970 255 255 0
0.115325 0.315086 2.251556 255 255 0
0.102922 0.310762 2.229419 255 255 0
-0.277414 0.257580 2.283293 0 255 0
-0.270188 0.258729 2.290076 0 255 0
-0.262955 0.259884 2.296882 0 255 0
-0.247919 0.259366 2.298138 0 255 0
-0.217261 0.255514 2.288364 0 255 0
-0.155802 0.247916 2.269298 0 255 0
-0.152811 0.250071 2.279494 0 255 0
-0.165477 0.255537 2.300605 0 255 0
-0.166852 0.258601 2.313772 0 255 0
-0.161265 0.260197 2.322101 0 255 0
-0.159162 0.262526 2.332839 0 255 0
-0.150951 0.263582 2.339396 0 255 0
-0.143605 0.264827 2.346576 0 255 0
-0.131881 0.265175 2.350825 0 255 0
-0.349795 0.344340 2.244000 255 0 0
-0.339397 0.340064 2.216000 255 0 0
-0.333213 0.339930 2.215000 255 0 0
-0.327328 0.340103 2.216000 255 0 0
-0.321002 0.339816 2.214000 255 0 0
-0.314686 0.339528 2.212000 255 0 0
-0.308380 0.339240 2.210000 255 0 0
-0.302494 0.339413 2.211000 255 0 0
-0.296602 0.339585 2.212000 255 0 0
-0.290704 0.339756 2.213000 255 0 0
-0.284928 0.340081 2.215000 255 0 0
-0.279140 0.340406 2.217000 255 0 0
-0.273464 0.340884 2.220000 255 0 0
-0.267770 0.341362 2.223000 255 0 0
-0.262413 0.342300 2.229000 255 0 0
-0.257252 0.343545 2.237000 255 0 0
-0.252158 0.344944 2.246000 255 0 0
-0.246905 0.346189 2.254000 255 0 0
-0.241715 0.347587 2.263000 255 0 0
-0.235434 0.347449 2.262000 255 0 0
-0.228448 0.346235 2.254000 255 0 0
-0.220913 0.344099 2.240000 255 0 0
-0.213070 0.341348 2.222000 255 0 0
-0.205511 0.338904 2.206000 255 0 0
-0.198401 0.337074 2.194000 255 0 0
-0.191268 0.335089 2.181000 255 0 0
-0.184205 0.333105 2.168000 255 0 0
-0.177624 0.331888 2.160000 255 0 0
-0.171563 0.331592 2.158000 255 0 0
-0.165512 0.331296 2.156000 255 0 0
-0.159545 0.331153 2.155000 255 0 0
-0.153584 0.331010 2.154000 255 0 0
-0.147559 0.330713 2.152000 255 0 0
-0.141544 0.330416 2.150000 255 0 0
-0.135540 0.330118 2.148000 255 0 0
-0.129546 0.329819 2.146000 255 0 0
-0.123562 0.329521 2.144000 255 0 0
-0.117644 0.329375 2.143000 255 0 0
-0.111888 0.329691 2.145000 255 0 0
-0.106021 0.329698 2.145000 255 0 0
-0.100107 0.329551 2.144000 255 0 0
-0.094067 0.328943 2.140000 255 0 0
-0.088130 0.328642 2.138000 255 0 0
-0.082204 0.328341 2.136000 255 0 0
-0.076325 0.328192 2.135000 255 0 0
-0.070451 0.328044 2.134000 255 0 0
-0.064612 0.328049 2.134000 255 0 0
-0.058718 0.327745 2.132000 255 0 0
-0.052933 0.328057 2.134000 255 0 0
-0.047138 0.328368 2.136000 255 0 0
-0.041351 0.328832 2.139000 255 0 0
-0.035497 0.328835 2.139000 255 0 0
-0.029657 0.328991 2.140000 255 0 0
-0.023812 0.329146 2.141000 255 0 0
-0.017970 0.329455 2.143000 255 0 0
-0.012099 0.329303 2.142000 255 0 0
-0.006248 0.329918 2.146000 255 0 0
-0.000376 0.330380 2.149000 255 0 0
0.005518 0.331148 2.154000 255 0 0
0.011445 0.332070 2.160000 255 0 0
0.017413 0.333145 2.167000 255 0 0
0.023386 0.333759 2.171000 255 0 0
0.029368 0.334218 2.174000 255 0 0
0.035269 0.333755 2.171000 255 0 0
0.041248 0.334059 2.173000 255 0 0
0.047238 0.334364 2.175000 255 0 0
0.053434 0.335897 2.185000 255 0 0
0.059767 0.337892 2.198000 255 0 0
0.066170 0.339886 2.211000 255 0 0
0.072644 0.341880 2.224000 255 0 0
0.079048 0.343258 2.233000 255 0 0
0.085424 0.344328 2.240000 255 0 0
0.091184 0.342939 2.231000 255 0 0
0.096938 0.341702 2.223000 255 0 0
0.102602 0.340312 2.214000 255 0 0
0.108265 0.339075 2.206000 255 0 0
0.113781 0.337530 2.196000 255 0 0
0.119350 0.336293 2.188000 255 0 0
0.125047 0.335516 2.183000 255 0 0
0.130836 0.335046 2.180000 255 0 0
0.136797 0.335037 2.180000 255 0 0
0.142757 0.335027 2.180000 255 0 0
0.148990 0.335632 2.184000 255 0 0
0.155102 0.335929 2.186000 255 0 0
0.161003 0.335765 2.185000 255 0 0
0.167051 0.335907 2.186000 255 0 0
0.173183 0.336203 2.188000 255 0 0
0.179735 0.337267 2.195000 255 0 0
0.185986 0.337716 2.198000 255 0 0
-0.085011 0.323334 2.374506 255 255 0
-0.069286 0.323269 2.372520 255 255 0
-0.059593 0.322322 2.366449 255 255 0
-0.052484 0.320996 2.358624 255 255 0
-0.043671 0.319932 2.352018 255 255 0
-0.040855 0.317969 2.341235 255 255 0
-0.038892 0.315876 2.329842 255 255 0
-0.034365 0.314172 2.320259 255 255 0
-0.027283 0.312862 2.312507 255 255 0
-0.013395 0.312604 2.309666 255 255 0
-0.006335 0.311305 2.301975 255 255 0
0.009216 0.311330 2.300467 255 255 0
0.013706 0.309647 2.290986 255 255 0
0.024978 0.309028 2.286479 255 255 0
0.019290 0.305752 2.269541 255 255 0
0.015316 0.302734 2.253801 255 255 0
-0.000479 0.297829 2.229211 255 255 0
0.055546 0.304351 2.258172 255 255 0
0.081935 0.306200 2.265257 255 255 0
0.104905 0.307531 2.269932 255 255 0
0.110999 0.306164 2.261944 255 255 0
0.114565 0.304390 2.252047 255 255 0
0.106372 0.300700 2.233134 255 255 0
-0.276045 0.246826 2.283480 0 255 0
-0.274003 0.249105 2.294017 0 255 0
-0.265044 0.249867 2.299578 0 255 0
-0.252614 0.249880 2.302698 0 255 0
-0.221109 0.245756 2.292322 0 255 0
-0.186954 0.241103 2.280271 0 255 0
-0.159687 0.237991 2.273288 0 255 0
-0.169356 0.245656 2.304571 0 255 0
-0.170731 0.248731 2.317728 0 255 0
-0.161664 0.249577 2.323651 0 255 0
-0.158688 0.251724 2.333793 0 255 0
-0.153095 0.253320 2.342148 0 255 0
-0.145751 0.254552 2.349332 0 255 0
-0.134906 0.255057 2.354177 0 255 0
-0.334286 0.334954 2.222000 255 0 0
-0.327938 0.334672 2.220000 255 0 0
-0.321601 0.334390 2.218000 255 0 0
-0.315132 0.333957 2.215000 255 0 0
-0.308817 0.333674 2.213000 255 0 0
-0.302923 0.333843 2.214000 255 0 0
-0.297157 0.334163 2.216000 255 0 0
-0.291116 0.334181 2.216000 255 0 0
-0.285075 0.334199 2.216000 255 0 0
-0.279158 0.334367 2.217000 255 0 0
-0.273728 0.335138 2.222000 255 0 0
-0.268149 0.335759 2.226000 255 0 0
-0.262783 0.336680 2.232000 255 0 0
-0.257268 0.337451 2.237000 255 0 0
-0.252174 0.338825 2.246000 255 0 0
-0.246921 0.340048 2.254000 255 0 0
-0.241837 0.341572 2.264000 255 0 0
-0.235241 0.340984 2.260000 255 0 0
-0.228057 0.339490 2.250000 255 0 0
-0.220829 0.337845 2.239000 255 0 0
-0.213372 0.335746 2.225000 255 0 0
-0.206177 0.333949 2.213000 255 0 0
-0.199228 0.332453 2.203000 255 0 0
-0.192070 0.330504 2.190000 255 0 0
-0.184812 0.328253 2.175000 255 0 0
-0.178047 0.326756 2.165000 255 0 0
-0.171733 0.326013 2.160000 255 0 0
-0.165523 0.325420 2.156000 255 0 0
-0.159556 0.325280 2.155000 255 0 0
-0.153594 0.325140 2.154000 255 0 0
-0.147637 0.324999 2.153000 255 0 0
-0.141619 0.324706 2.151000 255 0 0
-0.135549 0.324263 2.148000 255 0 0
-0.129494 0.323819 2.145000 255 0 0
-0.123513 0.323526 2.143000 255 0 0
-0.117652 0.323534 2.143000 255 0 0
-0.111739 0.323391 2.142000 255 0 0
-0.105930 0.323549 2.143000 255 0 0
-0.100068 0.323556 2.143000 255 0 0
-0.094161 0.323412 2.142000 255 0 0
-0.088301 0.323418 2.142000 255 0 0
-0.082326 0.322971 2.139000 255 0 0
-0.076402 0.322674 2.137000 255 0 0
-0.070455 0.322226 2.134000 255 0 0
-0.064677 0.322533 2.136000 255 0 0
-0.058777 0.322235 2.134000 255 0 0
-0.052987 0.322541 2.136000 255 0 0
-0.047163 0.322696 2.137000 255 0 0
-0.041373 0.323152 2.140000 255 0 0
-0.035533 0.323305 2.141000 255 0 0
-0.029701 0.323610 2.143000 255 0 0
-0.023825 0.323461 2.142000 255 0 0
-0.017979 0.323764 2.144000 255 0 0
-0.012111 0.323765 2.144000 255 0 0
-0.006258 0.324521 2.149000 255 0 0
-0.000376 0.324974 2.152000 255 0 0
0.005526 0.325729 2.157000 255 0 0
0.011457 0.326483 2.162000 255 0 0
0.017422 0.327388 2.168000 255 0 0
0.023420 0.328293 2.174000 255 0 0
0.029397 0.328593 2.176000 255 0 0
0.035353 0.328591 2.176000 255 0 0
0.041308 0.328588 2.176000 255 0 0
0.047328 0.329038 2.179000 255 0 0
0.053536 0.330545 2.189000 255 0 0
0.059879 0.332504 2.202000 255 0 0
0.066384 0.334916 2.218000 255 0 0
0.072878 0.336874 2.231000 255 0 0
0.079301 0.338227 2.240000 255 0 0
0.085697 0.339279 2.247000 255 0 0
0.091517 0.338065 2.239000 255 0 0
0.097119 0.336246 2.227000 255 0 0
0.102702 0.334579 2.216000 255 0 0
0.108322 0.333213 2.207000 255 0 0
0.113944 0.331997 2.199000 255 0 0
0.119576 0.330933 2.192000 255 0 0
0.125170 0.329867 2.185000 255 0 0
0.130845 0.329104 2.180000 255 0 0
0.136744 0.328944 2.179000 255 0 0
0.142767 0.329085 2.180000 255 0 0
0.148932 0.329529 2.183000 255 0 0
0.155041 0.329820 2.185000 255 0 0
0.161014 0.329810 2.185000 255 0 0
0.167062 0.329950 2.186000 255 0 0
0.173195 0.330240 2.188000 255 0 0
-0.086616 0.312137 2.374650 255 255 0
-0.073469 0.311716 2.370874 255 255 0
-0.061201 0.311176 2.366561 255 255 0
-0.051520 0.310252 2.360512 255 255 0
-0.035006 0.310387 2.359283 255 255 0
-0.033908 0.308162 2.347318 255 255 0
-0.036219 0.305405 2.332927 255 255 0
-0.037665 0.302775 2.319106 255 255 0
-0.028875 0.301739 2.312553 255 255 0
-0.010733 0.302179 2.312749 255 255 0
0.000576 0.301562 2.308125 255 255 0
0.013567 0.301223 2.304777 255 255 0
0.013810 0.298869 2.292211 255 255 0
0.021690 0.297732 2.285212 255 255 0
0.017706 0.294696 2.269513 255 255 0
0.012047 0.291380 2.252517 255 255 0
0.071065 0.293771 2.258189 255 255 0
0.097406 0.295709 2.265356 255 255 0
0.108556 0.295176 2.261169 255 255 0
0.117169 0.294235 2.255105 255 255 0
0.109820 0.290649 2.236846 255 255 0
-0.274362 0.238720 2.295464 0 255 0
-0.261085 0.238504 2.297932 0 255 0
-0.247790 0.238300 2.300459 0 255 0
-0.218028 0.234478 2.291355 0 255 0
-0.192554 0.231643 2.285470 0 255 0
-0.171376 0.229787 2.282767 0 255 0
-0.166660 0.231556 2.291713 0 255 0
-0.172365 0.235596 2.307929 0 255 0
-0.171999 0.238306 2.319874 0 255 0
-0.163806 0.239322 2.326403 0 255 0
-0.162571 0.241844 2.337740 0 255 0
-0.155239 0.243057 2.344902 0 255 0
-0.149643 0.244649 2.353272 0 255 0
-0.138803 0.245129 2.358117 0 255 0
-0.331208 0.331882 2.242000 255 0 0
-0.322780 0.329533 2.226000 255 0 0
-0.316431 0.329256 2.224000 255 0 0
-0.310371 0.329274 2.224000 255 0 0
-0.304584 0.329589 2.226000 255 0 0
-0.298516 0.329607 2.226000 255 0 0
-0.292448 0.329625 2.226000 255 0 0
-0.286250 0.329495 2.225000 255 0 0
-0.280434 0.329808 2.227000 255 0 0
-0.274607 0.330121 2.229000 255 0 0
-0.269129 0.330879 2.234000 255 0 0
-0.263741 0.331784 2.240000 255 0 0
-0.258319 0.332689 2.246000 255 0 0
-0.253089 0.333890 2.254000 255 0 0
-0.247923 0.335239 2.263000 255 0 0
-0.242814 0.336736 2.273000 255 0 0
-0.235568 0.335269 2.263000 255 0 0
-0.227869 0.333062 2.248000 255 0 0
-0.220646 0.331446 2.237000 255 0 0
-0.213386 0.329682 2.225000 255 0 0
-0.206190 0.327918 2.213000 255 0 0
-0.199422 0.326745 2.205000 255 0 0
-0.192521 0.325276 2.195000 255 0 0
-0.185334 0.323214 2.181000 255 0 0
-0.178470 0.321596 2.170000 255 0 0
-0.172062 0.320718 2.164000 255 0 0
-0.165841 0.320136 2.160000 255 0 0
-0.159641 0.319554 2.156000 255 0 0
-0.153533 0.319120 2.153000 255 0 0
-0.147647 0.319130 2.153000 255 0 0
-0.141629 0.318843 2.151000 255 0 0
-0.135621 0.318555 2.149000 255 0 0
-0.129563 0.318120 2.146000 255 0 0
-0.123694 0.318128 2.146000 255 0 0
-0.117770 0.317988 2.145000 255 0 0
-0.111903 0.317996 2.145000 255 0 0
-0.106036 0.318003 2.145000 255 0 0
-0.100214 0.318158 2.146000 255 0 0
-0.094344 0.318165 2.146000 255 0 0
-0.088390 0.317874 2.144000 255 0 0
-0.082408 0.317435 2.141000 255 0 0
-0.076478 0.317144 2.139000 255 0 0
-0.070526 0.316704 2.136000 255 0 0
-0.064711 0.316857 2.137000 255 0 0
-0.058863 0.316862 2.137000 255 0 0
-0.053065 0.317162 2.139000 255 0 0
-0.047189 0.317017 2.138000 255 0 0
-0.041376 0.317317 2.140000 255 0 0
-0.035535 0.317467 2.141000 255 0 0
-0.029717 0.317915 2.144000 255 0 0
-0.023838 0.317768 2.143000 255 0 0
-0.017989 0.318066 2.145000 255 0 0
-0.012123 0.318215 2.146000 255 0 0
-0.006261 0.318809 2.150000 255 0 0
-0.000377 0.319403 2.154000 255 0 0
0.005529 0.319995 2.158000 255 0 0
0.011463 0.320736 2.163000 255 0 0
0.017431 0.321625 2.169000 255 0 0
0.023433 0.322513 2.175000 255 0 0
0.029413 0.322808 2.177000 255 0 0
0.035371 0.322806 2.177000 255 0 0
0.041349 0.322952 2.178000 255 0 0
0.047418 0.323690 2.183000 255 0 0
0.053637 0.325169 2.193000 255 0 0
0.060074 0.327538 2.209000 255 0 0
0.066508 0.329461 2.222000 255 0 0
0.073046 0.331532 2.236000 255 0 0
0.079483 0.332861 2.245000 255 0 0
0.085969 0.334190 2.254000 255 0 0
0.091850 0.333146 2.247000 255 0 0
0.097300 0.330768 2.231000 255 0 0
0.102894 0.329130 2.220000 255 0 0
0.108427 0.327492 2.209000 255 0 0
0.114055 0.326299 2.201000 255 0 0
0.119693 0.325253 2.194000 255 0 0
0.125350 0.324355 2.188000 255 0 0
0.131094 0.323754 2.184000 255 0 0
0.136941 0.323448 2.182000 255 0 0
0.143104 0.323884 2.185000 255 0 0
0.149487 0.324763 2.191000 255 0 0
0.155761 0.325346 2.195000 255 0 0
0.161983 0.325780 2.198000 255 0 0
0.168144 0.326066 2.200000 255 0 0
-0.083923 0.301578 2.377738 255 255 0
-0.070782 0.301188 2.373958 255 255 0
-0.057661 0.300808 2.370234 255 255 0
-0.047986 0.299904 2.364185 255 255 0
-0.038323 0.299006 2.358173 255 255 0
-0.034655 0.297174 2.347995 255 255 0
-0.037814 0.294263 2.332997 255 255 0
-0.034991 0.292293 2.322196 255 255 0
-0.027057 0.291138 2.315035 255 255 0
-0.008922 0.291623 2.315221 255 255 0
0.003232 0.291167 2.311204 255 255 0
0.015368 0.290720 2.307238 255 255 0
0.014765 0.288218 2.294057 255 255 0
0.016713 0.286127 2.282712 255 255 0
0.011047 0.282787 2.265753 255 255 0
0.064421 0.281965 2.254303 255 255 0
0.094968 0.284673 2.264605 255 255 0
0.112845 0.285292 2.265502 255 255 0
0.122291 0.284510 2.260082 255 255 0
0.122496 0.282171 2.247627 255 255 0
-0.275586 0.228520 2.297535 0 255 0
-0.257133 0.227104 2.296295 0 255 0
-0.239517 0.225902 2.295762 0 255 0
-0.214955 0.223169 2.290396 0 255 0
-0.194685 0.221429 2.288216 0 255 0
-0.180453 0.221061 2.290402 0 255 0
-0.178346 0.223396 2.301149 0 255 0
-0.178845 0.226306 2.313703 0 255 0
-0.175875 0.228449 2.323827 0 255 0
-0.167687 0.229448 2.330354 0 255 0
-0.160360 0.230644 2.337507 0 255 0
-0.152155 0.231657 2.344090 0 255 0
-0.145685 0.233055 2.351885 0 255 0
-0.140954 0.234834 2.360877 0 255 0
-0.327875 0.328555 2.261000 255 0 0
-0.319723 0.326540 2.247000 255 0 0
-0.313460 0.326413 2.246000 255 0 0
-0.307339 0.326431 2.246000 255 0 0
-0.300814 0.326013 2.243000 255 0 0
-0.294305 0.325595 2.240000 255 0 0
-0.287811 0.325176 2.237000 255 0 0
-0.281585 0.325048 2.236000 255 0 0
-0.275856 0.325501 2.239000 255 0 0
-0.270351 0.326245 2.244000 255 0 0
-0.265053 0.327279 2.251000 255 0 0
-0.259831 0.328458 2.259000 255 0 0
-0.254676 0.329783 2.268000 255 0 0
-0.249911 0.331689 2.281000 255 0 0
-0.245607 0.334322 2.299000 255 0 0
-0.235791 0.329392 2.265000 255 0 0
-0.227681 0.326644 2.246000 255 0 0
-0.220462 0.325058 2.235000 255 0 0
-0.213303 0.323472 2.224000 255 0 0
-0.206390 0.322176 2.215000 255 0 0
-0.199706 0.321171 2.208000 255 0 0
-0.192884 0.319874 2.199000 255 0 0
-0.185856 0.318141 2.187000 255 0 0
-0.178893 0.316407 2.175000 255 0 0
-0.172153 0.314964 2.165000 255 0 0
-0.165929 0.314393 2.161000 255 0 0
-0.159651 0.313676 2.156000 255 0 0
-0.153543 0.313250 2.153000 255 0 0
-0.147520 0.312968 2.151000 255 0 0
-0.141572 0.312832 2.150000 255 0 0
-0.135567 0.312550 2.148000 255 0 0
-0.129572 0.312268 2.146000 255 0 0
-0.123645 0.312131 2.145000 255 0 0
-0.117833 0.312284 2.146000 255 0 0
-0.111963 0.312292 2.146000 255 0 0
-0.106092 0.312299 2.146000 255 0 0
-0.100221 0.312306 2.146000 255 0 0
-0.094394 0.312458 2.147000 255 0 0
-0.088355 0.311882 2.143000 255 0 0
-0.082375 0.311451 2.140000 255 0 0
-0.076448 0.311166 2.138000 255 0 0
-0.070630 0.311316 2.139000 255 0 0
-0.064807 0.311466 2.140000 255 0 0
-0.058950 0.311470 2.140000 255 0 0
-0.053118 0.311620 2.141000 255 0 0
-0.047236 0.311477 2.140000 255 0 0
-0.041398 0.311626 2.141000 255 0 0
-0.035571 0.311920 2.143000 255 0 0
-0.029719 0.312067 2.144000 255 0 0
-0.023861 0.312215 2.145000 255 0 0
-0.017998 0.312362 2.146000 255 0 0
-0.012141 0.312799 2.149000 255 0 0
-0.006270 0.313382 2.153000 255 0 0
-0.000377 0.313965 2.157000 255 0 0
0.005535 0.314401 2.160000 255 0 0
0.011479 0.315274 2.166000 255 0 0
0.017457 0.316146 2.172000 255 0 0
0.023456 0.316873 2.177000 255 0 0
0.029442 0.317162 2.179000 255 0 0
0.035406 0.317160 2.179000 255 0 0
0.041427 0.317594 2.182000 255 0 0
0.047508 0.318319 2.187000 255 0 0
0.053739 0.319771 2.197000 255 0 0
0.060132 0.321805 2.211000 255 0 0
0.066603 0.323838 2.225000 255 0 0
0.073182 0.326016 2.240000 255 0 0
0.079666 0.327467 2.250000 255 0 0
0.086433 0.329790 2.266000 255 0 0
0.092265 0.328474 2.257000 255 0 0
0.097525 0.325411 2.236000 255 0 0
0.103086 0.323658 2.224000 255 0 0
0.108582 0.321905 2.212000 255 0 0
0.114270 0.320879 2.205000 255 0 0
0.119920 0.319853 2.198000 255 0 0
0.125703 0.319262 2.194000 255 0 0
0.131643 0.319108 2.193000 255 0 0
0.137703 0.319245 2.194000 255 0 0
0.143965 0.319818 2.198000 255 0 0
0.150384 0.320681 2.204000 255 0 0
0.156978 0.321835 2.212000 255 0 0
0.163394 0.322552 2.217000 255 0 0
0.169607 0.322832 2.219000 255 0 0
-0.085522 0.290351 2.377890 255 255 0
-0.075813 0.289446 2.371736 255 255 0
-0.060977 0.289363 2.369169 255 255 0
-0.046165 0.289292 2.366668 255 255 0
-0.039071 0.288003 2.358860 255 255 0
-0.036254 0.286033 2.348076 255 255 0
-0.032581 0.284200 2.337890 255 255 0
-0.024649 0.283058 2.330726 255 255 0
-0.014173 0.282336 2.325408 255 255 0
-0.001159 0.282038 2.321960 255 255 0
0.007586 0.281054 2.315506 255 255 0
0.012927 0.279517 2.306626 255 255 0
0.014874 0.277421 2.295288 255 255 0
0.012590 0.274620 2.280842 255 255 0
0.001861 0.270402 2.260140 255 255 0
0.060313 0.270536 2.252326 255 255 0
0.087487 0.272751 2.260053 255 255 0
0.112088 0.274560 2.266008 255 255 0
0.123213 0.274084 2.261856 255 255 0
0.133483 0.273471 2.257107 255 255 0
-0.281443 0.216621 2.290939 0 255 0
-0.273362 0.217523 2.297122 0 255 0
-0.254915 0.216063 2.295906 0 255 0
-0.237304 0.214820 2.295396 0 255 0
-0.193356 0.210433 2.288517 0 255 0
-0.184324 0.211204 2.294373 0 255 0
-0.182219 0.213541 2.305114 0 255 0
-0.187056 0.217431 2.320678 0 255 0
-0.182354 0.219182 2.329581 0 255 0
-0.174173 0.220163 2.336098 0 255 0
-0.165983 0.221151 2.342645 0 255 0
-0.157785 0.222147 2.349221 0 255 0
-0.153062 0.223915 2.358190 0 255 0
-0.144850 0.224922 2.364815 0 255 0
-0.144483 0.227649 2.376741 0 255 0
-0.135385 0.228475 2.382819 0 255 0
-0.125402 0.229120 2.388349 0 255 0
-0.107532 0.228076 2.388716 0 255 0
-0.329489 0.323963 2.272000 255 0 0
-0.322018 0.322699 2.263000 255 0 0
-0.315572 0.322432 2.261000 255 0 0
-0.309409 0.322450 2.261000 255 0 0
-0.302844 0.322040 2.258000 255 0 0
-0.296556 0.321915 2.257000 255 0 0
-0.290144 0.321648 2.255000 255 0 0
-0.284120 0.321807 2.256000 255 0 0
-0.277967 0.321824 2.256000 255 0 0
-0.272415 0.322554 2.261000 255 0 0
-0.266953 0.323426 2.267000 255 0 0
-0.261917 0.324869 2.277000 255 0 0
-0.256938 0.326454 2.288000 255 0 0
-0.252556 0.328896 2.305000 255 0 0
-0.235910 0.323361 2.266000 255 0 0
-0.227898 0.320806 2.248000 255 0 0
-0.220575 0.319108 2.236000 255 0 0
-0.213317 0.317409 2.224000 255 0 0
-0.206310 0.315995 2.214000 255 0 0
-0.199538 0.314865 2.206000 255 0 0
-0.192809 0.313736 2.198000 255 0 0
-0.185953 0.312321 2.188000 255 0 0
-0.179151 0.310905 2.178000 255 0 0
-0.172403 0.309489 2.168000 255 0 0
-0.165939 0.308500 2.161000 255 0 0
-0.159736 0.307939 2.157000 255 0 0
-0.153624 0.307521 2.154000 255 0 0
-0.147598 0.307245 2.152000 255 0 0
-0.141647 0.307112 2.151000 255 0 0
-0.135639 0.306835 2.149000 255 0 0
-0.129641 0.306558 2.147000 255 0 0
-0.123826 0.306709 2.148000 255 0 0
-0.117896 0.306575 2.147000 255 0 0
-0.112074 0.306725 2.148000 255 0 0
-0.106149 0.306589 2.147000 255 0 0
-0.100275 0.306596 2.147000 255 0 0
-0.094356 0.306460 2.146000 255 0 0
-0.088319 0.305894 2.142000 255 0 0
-0.082419 0.305757 2.141000 255 0 0
-0.076524 0.305620 2.140000 255 0 0
-0.070635 0.305482 2.139000 255 0 0
-0.064811 0.305629 2.140000 255 0 0
-0.059009 0.305919 2.142000 255 0 0
-0.053171 0.306065 2.143000 255 0 0
-0.047283 0.305926 2.142000 255 0 0
-0.041420 0.305929 2.142000 255 0 0
-0.035590 0.306217 2.144000 255 0 0
-0.029749 0.306505 2.146000 255 0 0
-0.023896 0.306792 2.148000 255 0 0
-0.018025 0.306936 2.149000 255 0 0
-0.012170 0.307652 2.154000 255 0 0
-0.006282 0.308081 2.157000 255 0 0
-0.000378 0.308509 2.160000 255 0 0
0.005543 0.308938 2.163000 255 0 0
0.011496 0.309794 2.169000 255 0 0
0.017490 0.310793 2.176000 255 0 0
0.023479 0.311220 2.179000 255 0 0
0.029484 0.311647 2.182000 255 0 0
0.035457 0.311645 2.182000 255 0 0
0.041487 0.312070 2.185000 255 0 0
0.047598 0.312925 2.191000 255 0 0
0.053865 0.314492 2.202000 255 0 0
0.060191 0.316059 2.213000 255 0 0
0.066547 0.317483 2.223000 255 0 0
0.073121 0.319621 2.238000 255 0 0
0.079600 0.321044 2.248000 255 0 0
0.086515 0.323895 2.268000 255 0 0
0.092721 0.323889 2.268000 255 0 0
0.097662 0.319741 2.239000 255 0 0
0.103232 0.318021 2.227000 255 0 0
0.108883 0.316729 2.218000 255 0 0
0.114640 0.315865 2.212000 255 0 0
0.120528 0.315429 2.209000 255 0 0
0.126570 0.315421 2.209000 255 0 0
0.132732 0.315698 2.211000 255 0 0
0.138905 0.315974 2.213000 255 0 0
0.145088 0.316251 2.215000 255 0 0
0.151418 0.316812 2.219000 255 0 0
0.157840 0.317516 2.224000 255 0 0
0.164215 0.318077 2.228000 255 0 0
0.170076 0.317638 2.225000 255 0 0
-0.087118 0.279101 2.378048 255 255 0
-0.073980 0.278765 2.374235 255 255 0
-0.063432 0.278024 2.368703 255 255 0
-0.049476 0.277847 2.365589 255 255 0
-0.040670 0.276845 2.358956 255 255 0
-0.033581 0.275569 2.351157 255 255 0
-0.025647 0.274438 2.343980 255 255 0
-0.020278 0.272890 2.335017 255 255 0
-0.011509 0.271908 2.328489 255 255 0
-0.001051 0.271215 2.323211 255 255 0
0.009391 0.270530 2.317972 255 255 0
0.015578 0.269141 2.309704 255 255 0
0.020913 0.267612 2.300835 255 255 0
0.017782 0.264652 2.285788 255 255 0
0.057895 0.259360 2.251621 255 255 0
0.092627 0.262960 2.265024 255 255 0
0.117214 0.264837 2.270975 255 255 0
0.129170 0.264533 2.267467 255 255 0
0.136918 0.263502 2.260800 255 255 0
-0.281808 0.206214 2.292387 0 255 0
-0.276315 0.207703 2.300441 0 255 0
-0.263916 0.207596 2.303562 0 255 0
-0.239414 0.204710 2.298116 0 255 0
-0.192030 0.199415 2.288822 0 255 0
-0.182134 0.199973 2.294086 0 255 0
-0.185222 0.203499 2.308470 0 255 0
-0.187454 0.206821 2.322216 0 255 0
-0.186224 0.209352 2.333527 0 255 0
-0.182391 0.211295 2.343032 0 255 0
-0.173340 0.212069 2.348968 0 255 0
-0.164280 0.212851 2.354940 0 255 0
-0.160434 0.214805 2.364487 0 255 0
-0.153972 0.216180 2.372275 0 255 0
-0.151865 0.218525 2.383008 0 255 0
-0.144522 0.219714 2.390240 0 255 0
-0.134550 0.220334 2.395756 0 255 0
-0.118444 0.219623 2.397268 0 255 0
-0.329943 0.318192 2.275000 255 0 0
-0.322179 0.316672 2.264000 255 0 0
-0.315869 0.316550 2.263000 255 0 0
-0.309701 0.316568 2.263000 255 0 0
-0.303532 0.316586 2.263000 255 0 0
-0.297493 0.316743 2.264000 255 0 0
-0.291448 0.316900 2.265000 255 0 0
-0.285523 0.317197 2.267000 255 0 0
-0.279709 0.317634 2.270000 255 0 0
-0.273998 0.318210 2.274000 255 0 0
-0.268264 0.318786 2.278000 255 0 0
-0.262623 0.319501 2.283000 255 0 0
-0.257178 0.320497 2.290000 255 0 0
-0.251804 0.321632 2.298000 255 0 0
-0.246172 0.322487 2.304000 255 0 0
-0.236133 0.317462 2.268000 255 0 0
-0.228115 0.314957 2.250000 255 0 0
-0.220687 0.313151 2.237000 255 0 0
-0.213618 0.311764 2.227000 255 0 0
-0.206509 0.310237 2.216000 255 0 0
-0.199641 0.308990 2.207000 255 0 0
-0.192821 0.307742 2.198000 255 0 0
-0.186134 0.306634 2.190000 255 0 0
-0.179491 0.305525 2.182000 255 0 0
-0.172652 0.303996 2.171000 255 0 0
-0.166180 0.303026 2.164000 255 0 0
-0.159894 0.302337 2.159000 255 0 0
-0.153991 0.302347 2.159000 255 0 0
-0.147813 0.301796 2.155000 255 0 0
-0.141722 0.301385 2.152000 255 0 0
-0.135648 0.300974 2.149000 255 0 0
-0.129589 0.300562 2.146000 255 0 0
-0.123834 0.300850 2.148000 255 0 0
-0.117958 0.300858 2.148000 255 0 0
-0.112082 0.300865 2.148000 255 0 0
-0.106156 0.300732 2.147000 255 0 0
-0.100141 0.300319 2.144000 255 0 0
-0.094230 0.300185 2.143000 255 0 0
-0.088284 0.299911 2.141000 255 0 0
-0.082463 0.300057 2.142000 255 0 0
-0.076565 0.299922 2.141000 255 0 0
-0.070706 0.299926 2.141000 255 0 0
-0.064906 0.300211 2.143000 255 0 0
-0.059068 0.300355 2.144000 255 0 0
-0.053224 0.300499 2.145000 255 0 0
-0.047331 0.300362 2.144000 255 0 0
-0.041461 0.300365 2.144000 255 0 0
-0.035642 0.300788 2.147000 255 0 0
-0.029751 0.300650 2.146000 255 0 0
-0.023898 0.300932 2.148000 255 0 0
-0.018026 0.301073 2.149000 255 0 0
-0.012177 0.301915 2.155000 255 0 0
-0.006294 0.302756 2.161000 255 0 0
-0.000379 0.303177 2.164000 255 0 0
0.005556 0.303737 2.168000 255 0 0
0.011518 0.304437 2.173000 255 0 0
0.017523 0.305417 2.180000 255 0 0
0.023513 0.305695 2.182000 255 0 0
0.029527 0.306114 2.185000 255 0 0
0.035525 0.306252 2.186000 255 0 0
0.041528 0.306390 2.187000 255 0 0
0.047645 0.307227 2.193000 255 0 0
0.053917 0.308765 2.204000 255 0 0
0.060249 0.310302 2.215000 255 0 0
0.066581 0.311559 2.224000 255 0 0
0.073093 0.313375 2.237000 255 0 0
0.079676 0.315192 2.250000 255 0 0
0.086559 0.317848 2.269000 255 0 0
0.093381 0.319943 2.284000 255 0 0
0.097974 0.314614 2.246000 255 0 0
0.103656 0.313207 2.236000 255 0 0
0.109480 0.312359 2.230000 255 0 0
0.115477 0.312072 2.228000 255 0 0
0.121463 0.311784 2.226000 255 0 0
0.127610 0.311916 2.227000 255 0 0
0.133882 0.312328 2.230000 255 0 0
0.139918 0.312179 2.229000 255 0 0
0.145883 0.311890 2.227000 255 0 0
0.151837 0.311600 2.225000 255 0 0
0.157921 0.311590 2.225000 255 0 0
0.164152 0.311860 2.227000 255 0 0
0.170164 0.311710 2.226000 255 0 0
0.175774 0.310859 2.220000 255 0 0
-0.095858 0.269126 2.386179 255 255 0
-0.087853 0.267969 2.378797 255 255 0
-0.076431 0.267380 2.373793 255 255 0
-0.064170 0.266941 2.369427 255 255 0
-0.047653 0.267218 2.368076 255 255 0
-0.035433 0.266799 2.363823 255 255 0
-0.025791 0.265963 2.357827 255 255 0
-0.017014 0.264991 2.351265 255 255 0
-0.017612 0.262450 2.338098 255 255 0
-0.012248 0.260910 2.329147 255 255 0
-0.001792 0.260237 2.323856 255 255 0
0.012892 0.260295 2.321660 255 255 0
0.019076 0.258915 2.313395 255 255 0
0.025255 0.257538 2.305146 255 255 0
0.022970 0.254705 2.290730 255 255 0
0.058005 0.248603 2.252814 255 255 0
0.094403 0.252596 2.267457 255 255 0
0.124015 0.255432 2.277207 255 255 0
0.130929 0.254260 2.269879 255 255 0
0.134486 0.252493 2.260006 255 255 0
0.144737 0.251929 2.255280 255 255 0
-0.289060 0.197425 2.298818 0 255 0
-0.281850 0.198497 2.305618 0 255 0
-0.270323 0.198563 2.309354 0 255 0
-0.204046 0.188653 2.286345 0 255 0
-0.185523 0.187171 2.285475 0 255 0
-0.186870 0.190319 2.298664 0 255 0
-0.190823 0.194061 2.313641 0 255 0
-0.192188 0.197197 2.326768 0 255 0
-0.194429 0.200527 2.340468 0 255 0
-0.190602 0.202463 2.349956 0 255 0
-0.188511 0.204796 2.360636 0 255 0
-0.175987 0.204763 2.364205 0 255 0
-0.172150 0.206708 2.373724 0 255 0
-0.161343 0.207086 2.378551 0 255 0
-0.154882 0.208452 2.386345 0 255 0
-0.148415 0.209823 2.394159 0 255 0
-0.141069 0.211005 2.401412 0 255 0
-0.125849 0.210446 2.403499 0 255 0
-0.322624 0.310913 2.267000 255 0 0
-0.316166 0.310656 2.265000 255 0 0
-0.309719 0.310400 2.263000 255 0 0
-0.303684 0.310555 2.264000 255 0 0
-0.298036 0.311120 2.268000 255 0 0
-0.292109 0.311412 2.270000 255 0 0
-0.286169 0.311703 2.272000 255 0 0
-0.280218 0.311994 2.274000 255 0 0
-0.274376 0.312422 2.277000 255 0 0
-0.268751 0.313124 2.282000 255 0 0
-0.263329 0.314100 2.289000 255 0 0
-0.257755 0.314939 2.295000 255 0 0
-0.252148 0.315777 2.301000 255 0 0
-0.245973 0.315929 2.302000 255 0 0
-0.236355 0.311552 2.270000 255 0 0
-0.228331 0.309096 2.252000 255 0 0
-0.220997 0.307462 2.240000 255 0 0
-0.213727 0.305828 2.228000 255 0 0
-0.206615 0.304331 2.217000 255 0 0
-0.199653 0.302971 2.207000 255 0 0
-0.192745 0.301610 2.197000 255 0 0
-0.186146 0.300661 2.190000 255 0 0
-0.179585 0.299711 2.183000 255 0 0
-0.172822 0.298349 2.173000 255 0 0
-0.166344 0.297398 2.166000 255 0 0
-0.160052 0.296722 2.161000 255 0 0
-0.154143 0.296732 2.161000 255 0 0
-0.148028 0.296329 2.158000 255 0 0
-0.141863 0.295789 2.154000 255 0 0
-0.135846 0.295523 2.152000 255 0 0
-0.129839 0.295257 2.150000 255 0 0
-0.124015 0.295402 2.151000 255 0 0
-0.118075 0.295272 2.150000 255 0 0
-0.112141 0.295143 2.149000 255 0 0
-0.106162 0.294875 2.147000 255 0 0
-0.100147 0.294469 2.144000 255 0 0
-0.094236 0.294338 2.143000 255 0 0
-0.088372 0.294344 2.143000 255 0 0
-0.082545 0.294487 2.144000 255 0 0
-0.076642 0.294355 2.143000 255 0 0
-0.070776 0.294359 2.143000 255 0 0
-0.064910 0.294364 2.143000 255 0 0
-0.059044 0.294368 2.143000 255 0 0
-0.053203 0.294509 2.144000 255 0 0
-0.047356 0.294649 2.145000 255 0 0
-0.041484 0.294652 2.145000 255 0 0
-0.035644 0.294929 2.147000 255 0 0
-0.029767 0.294931 2.147000 255 0 0
-0.023933 0.295483 2.151000 255 0 0
-0.018061 0.295759 2.153000 255 0 0
-0.012194 0.296447 2.158000 255 0 0
-0.006298 0.296997 2.162000 255 0 0
-0.000379 0.297546 2.166000 255 0 0
0.005562 0.298096 2.170000 255 0 0
0.011535 0.298919 2.176000 255 0 0
0.017557 0.300017 2.184000 255 0 0
0.023557 0.300291 2.186000 255 0 0
0.029583 0.300701 2.189000 255 0 0
0.035592 0.300836 2.190000 255 0 0
0.041626 0.301109 2.192000 255 0 0
0.047713 0.301655 2.196000 255 0 0
0.053945 0.302888 2.205000 255 0 0
0.060280 0.304396 2.216000 255 0 0
0.066586 0.305490 2.224000 255 0 0
0.073065 0.307134 2.236000 255 0 0
0.079646 0.308915 2.249000 255 0 0
0.086641 0.311931 2.271000 255 0 0
0.093428 0.313849 2.285000 255 0 0
0.098504 0.310134 2.258000 255 0 0
0.104173 0.308617 2.247000 255 0 0
0.110174 0.308198 2.244000 255 0 0
0.116314 0.308191 2.244000 255 0 0
0.122344 0.307908 2.242000 255 0 0
0.128420 0.307763 2.241000 255 0 0
0.134370 0.307343 2.238000 255 0 0
0.140241 0.306785 2.234000 255 0 0
0.146089 0.306227 2.230000 255 0 0
0.152051 0.305943 2.228000 255 0 0
0.158144 0.305933 2.228000 255 0 0
0.164383 0.306197 2.230000 255 0 0
0.170251 0.305775 2.227000 255 0 0
0.176022 0.305215 2.223000 255 0 0
-0.104604 0.259114 2.394362 255 255 0
-0.093158 0.258534 2.389274 255 255 0
-0.082585 0.257820 2.383646 255 255 0
-0.070315 0.257400 2.379235 255 255 0
-0.056353 0.257276 2.376054 255 255 0
-0.044121 0.256876 2.371749 255 255 0
-0.031054 0.256629 2.368091 255 255 0
-0.020566 0.255958 2.362695 255 255 0
-0.010943 0.255150 2.356740 255 255 0
-0.011543 0.252598 2.343589 255 255 0
-0.011285 0.250189 2.331019 255 255 0
-0.000831 0.249537 2.325721 255 255 0
0.013848 0.249628 2.323514 255 255 0
0.024268 0.248994 2.318309 255 255 0
0.031287 0.247775 2.310684 255 255 0
0.026464 0.244481 2.294432 255 255 0
0.099539 0.242836 2.272421 255 255 0
0.126616 0.245300 2.280257 255 255 0
0.131851 0.243835 2.271654 255 255 0
0.133734 0.241762 2.260499 255 255 0
0.133948 0.239382 2.248048 255 255 0
-0.292865 0.187843 2.302754 0 255 0
-0.284799 0.188695 2.308932 0 255 0
-0.271555 0.188324 2.311436 0 255 0
-0.243634 0.184488 2.303556 0 255 0
-0.197547 0.176398 2.282974 0 255 0
-0.183345 0.175893 2.285187 0 255 0
-0.185552 0.179259 2.298991 0 255 0
-0.191227 0.183428 2.315180 0 255 0
-0.188259 0.185569 2.325300 0 255 0
-0.189624 0.188716 2.338414 0 255 0
-0.191864 0.192060 2.352098 0 255 0
-0.194983 0.195598 2.366343 0 255 0
-0.186813 0.196532 2.372863 0 255 0
-0.182985 0.198469 2.382357 0 255 0
-0.170449 0.198421 2.385992 0 255 0
-0.163125 0.199574 2.393183 0 255 0
-0.153178 0.200140 2.398657 0 255 0
-0.145837 0.201307 2.405906 0 255 0
-0.134121 0.201497 2.410299 0 255 0
-0.328094 0.304043 2.262000 255 0 0
-0.322927 0.305002 2.269000 255 0 0
-0.316463 0.304751 2.267000 255 0 0
-0.309873 0.304365 2.264000 255 0 0
-0.304103 0.304786 2.267000 255 0 0
-0.298447 0.305340 2.271000 255 0 0
-0.292769 0.305895 2.275000 255 0 0
-0.286690 0.306046 2.276000 255 0 0
-0.280481 0.306062 2.276000 255 0 0
-0.274512 0.306347 2.278000 255 0 0
-0.269003 0.307170 2.284000 255 0 0
-0.263575 0.308127 2.291000 255 0 0
-0.258107 0.309083 2.298000 255 0 0
-0.252492 0.309905 2.304000 255 0 0
-0.244812 0.308171 2.291000 255 0 0
-0.236994 0.306168 2.276000 255 0 0
-0.228953 0.303760 2.258000 255 0 0
-0.221405 0.301890 2.244000 255 0 0
-0.213740 0.299751 2.228000 255 0 0
-0.206628 0.298283 2.217000 255 0 0
-0.199575 0.296816 2.206000 255 0 0
-0.192669 0.295482 2.196000 255 0 0
-0.186157 0.294686 2.190000 255 0 0
-0.179596 0.293755 2.183000 255 0 0
-0.173071 0.292824 2.176000 255 0 0
-0.166662 0.292027 2.170000 255 0 0
-0.160432 0.291499 2.166000 255 0 0
-0.154367 0.291239 2.164000 255 0 0
-0.148175 0.290710 2.160000 255 0 0
-0.141938 0.290046 2.155000 255 0 0
-0.135917 0.289786 2.153000 255 0 0
-0.129907 0.289525 2.151000 255 0 0
-0.124023 0.289533 2.151000 255 0 0
-0.118138 0.289540 2.151000 255 0 0
-0.112200 0.289413 2.150000 255 0 0
-0.106219 0.289151 2.148000 255 0 0
-0.100154 0.288619 2.144000 255 0 0
-0.094286 0.288625 2.144000 255 0 0
-0.088377 0.288496 2.143000 255 0 0
-0.082589 0.288770 2.145000 255 0 0
-0.076682 0.288641 2.144000 255 0 0
-0.070847 0.288780 2.145000 255 0 0
-0.064945 0.288650 2.144000 255 0 0
-0.059048 0.288519 2.143000 255 0 0
-0.053206 0.288657 2.144000 255 0 0
-0.047403 0.289064 2.147000 255 0 0
-0.041506 0.288933 2.146000 255 0 0
-0.035647 0.289070 2.147000 255 0 0
-0.029796 0.289341 2.149000 255 0 0
-0.023968 0.290016 2.154000 255 0 0
-0.018087 0.290287 2.156000 255 0 0
-0.012206 0.290826 2.160000 255 0 0
-0.006304 0.291365 2.164000 255 0 0
-0.000379 0.291904 2.168000 255 0 0
0.005567 0.292443 2.172000 255 0 0
0.011551 0.293384 2.179000 255 0 0
0.017566 0.294191 2.185000 255 0 0
0.023602 0.294863 2.190000 255 0 0
0.029639 0.295266 2.193000 255 0 0
0.035676 0.295533 2.195000 255 0 0
0.041704 0.295665 2.196000 255 0 0
0.047782 0.296066 2.199000 255 0 0
0.053949 0.296871 2.205000 255 0 0
0.060339 0.298617 2.218000 255 0 0
0.066650 0.299690 2.226000 255 0 0
0.073233 0.301705 2.241000 255 0 0
0.079828 0.303451 2.254000 255 0 0
0.086570 0.305465 2.269000 255 0 0
0.093843 0.308959 2.295000 255 0 0
0.105014 0.304908 2.265000 255 0 0
0.110868 0.303959 2.258000 255 0 0
0.116788 0.303279 2.253000 255 0 0
0.122570 0.302329 2.246000 255 0 0
0.128486 0.301783 2.242000 255 0 0
0.134319 0.301102 2.237000 255 0 0
0.140375 0.300958 2.236000 255 0 0
0.146360 0.300680 2.234000 255 0 0
0.152334 0.300402 2.232000 255 0 0
0.158437 0.300392 2.232000 255 0 0
0.164541 0.300382 2.232000 255 0 0
0.170414 0.299968 2.229000 255 0 0
0.176112 0.299285 2.224000 255 0 0
-0.107343 0.250074 2.406635 255 255 0
-0.099326 0.248936 2.399197 255 255 0
-0.091317 0.247802 2.391785 255 255 0
-0.079891 0.247255 2.386737 255 255 0
-0.066771 0.247008 2.382909 255 255 0
-0.051106 0.247209 2.380906 255 255 0
-0.036321 0.247277 2.378381 255 255 0
-0.026678 0.246474 2.372355 255 255 0
-0.015343 0.245974 2.367560 255 255 0
-0.011686 0.244150 2.357414 255 255 0
-0.008030 0.242326 2.347270 255 255 0
-0.006073 0.240205 2.335916 255 255 0
0.009464 0.240473 2.334266 255 255 0
0.017347 0.239405 2.327199 255 255 0
0.029455 0.239093 2.323219 255 255 0
0.029702 0.236682 2.310685 255 255 0
0.024888 0.233360 2.294429 255 255 0
0.097115 0.231712 2.271692 255 255 0
0.130260 0.232940 2.271519 255 255 0
0.129637 0.230395 2.258437 255 255 0
0.114813 0.225200 2.234414 255 255 0
-0.287213 0.175974 2.299852 0 255 0
-0.276563 0.176191 2.304200 0 255 0
-0.269344 0.177249 2.311056 0 255 0
-0.203134 0.166985 2.288172 0 255 0
-0.187693 0.169001 2.301748 0 255 0
-0.193364 0.173196 2.317929 0 255 0
-0.189530 0.175131 2.327448 0 255 0
-0.186561 0.177272 2.337568 0 255 0
-0.190528 0.181041 2.352454 0 255 0
-0.198846 0.185816 2.370264 0 255 0
-0.193287 0.187340 2.378555 0 255 0
-0.191201 0.189675 2.389212 0 255 0
-0.176067 0.188991 2.391079 0 255 0
-0.164395 0.189125 2.395348 0 255 0
-0.150094 0.188671 2.397925 0 255 0
-0.144496 0.190226 2.406349 0 255 0
-0.137148 0.191388 2.413635 0 255 0
-0.092402 0.195515 2.445377 0 255 0
-0.335458 0.298912 2.270000 255 0 0
-0.327967 0.297745 2.261000 255 0 0
-0.322375 0.298289 2.265000 255 0 0
-0.316341 0.298438 2.266000 255 0 0
-0.310027 0.298324 2.265000 255 0 0
-0.304523 0.298999 2.270000 255 0 0
-0.298858 0.299543 2.274000 255 0 0
-0.293300 0.300218 2.279000 255 0 0
-0.287336 0.300498 2.281000 255 0 0
-0.280990 0.300382 2.280000 255 0 0
-0.275010 0.300662 2.282000 255 0 0
-0.269254 0.301204 2.286000 255 0 0
-0.263935 0.302273 2.294000 255 0 0
-0.258572 0.303343 2.302000 255 0 0
-0.253274 0.304543 2.311000 255 0 0
-0.245254 0.302449 2.295000 255 0 0
-0.236696 0.299564 2.273000 255 0 0
-0.229271 0.297996 2.261000 255 0 0
-0.221418 0.295769 2.244000 255 0 0
-0.213656 0.293541 2.227000 255 0 0
-0.206733 0.292367 2.218000 255 0 0
-0.199949 0.291324 2.210000 255 0 0
-0.193207 0.290282 2.202000 255 0 0
-0.186424 0.289106 2.193000 255 0 0
-0.179606 0.287799 2.183000 255 0 0
-0.173082 0.286887 2.176000 255 0 0
-0.166749 0.286238 2.171000 255 0 0
-0.160664 0.285984 2.169000 255 0 0
-0.154448 0.285466 2.165000 255 0 0
-0.148321 0.285080 2.162000 255 0 0
-0.142078 0.284429 2.157000 255 0 0
-0.136115 0.284306 2.156000 255 0 0
-0.130096 0.284050 2.154000 255 0 0
-0.124088 0.283794 2.152000 255 0 0
-0.118090 0.283538 2.150000 255 0 0
-0.112155 0.283413 2.149000 255 0 0
-0.106275 0.283420 2.149000 255 0 0
-0.100300 0.283163 2.147000 255 0 0
-0.094380 0.283037 2.146000 255 0 0
-0.088507 0.283042 2.146000 255 0 0
