ply
format ascii 1.0
element vertex 1330
property double x
property double y
property double z
property uchar red
property uchar green
property uchar blue
end_header
-0.222992 0.384437 2.262000 255 0 0
-0.217105 0.384962 2.265000 255 0 0
-0.209431 0.382257 2.249000 255 0 0
-0.201121 0.378193 2.225000 255 0 0
-0.193380 0.374977 2.206000 255 0 0
-0.186592 0.373461 2.197000 255 0 0
-0.180180 0.372624 2.192000 255 0 0
-0.173875 0.371957 2.188000 255 0 0
-0.167284 0.370609 2.180000 255 0 0
-0.161107 0.370111 2.177000 255 0 0
-0.154731 0.369102 2.171000 255 0 0
-0.148525 0.368433 2.167000 255 0 0
-0.142208 0.367423 2.161000 255 0 0
-0.136302 0.367433 2.161000 255 0 0
-0.130275 0.367103 2.159000 255 0 0
-0.124489 0.367452 2.161000 255 0 0
-0.118527 0.367291 2.160000 255 0 0
-0.112570 0.367130 2.159000 255 0 0
-0.106618 0.366968 2.158000 255 0 0
-0.100765 0.367145 2.159000 255 0 0
-0.094861 0.367153 2.159000 255 0 0
-0.088834 0.366649 2.156000 255 0 0
-0.082784 0.365975 2.152000 255 0 0
-0.076792 0.365471 2.149000 255 0 0
-0.070882 0.365306 2.148000 255 0 0
-0.064947 0.364971 2.146000 255 0 0
-0.059077 0.364976 2.146000 255 0 0
-0.053158 0.364640 2.144000 255 0 0
-0.047272 0.364474 2.143000 255 0 0
-0.041352 0.363967 2.140000 255 0 0
-0.035482 0.363800 2.139000 255 0 0
-0.029645 0.363972 2.140000 255 0 0
-0.023824 0.364484 2.143000 255 0 0
-0.017970 0.364656 2.144000 255 0 0
-0.012088 0.364147 2.141000 255 0 0
-0.006234 0.364318 2.142000 255 0 0
-0.000374 0.364148 2.141000 255 0 0
0.005490 0.364658 2.144000 255 0 0
0.011355 0.364657 2.144000 255 0 0
0.017261 0.365507 2.149000 255 0 0
0.023150 0.365675 2.150000 255 0 0
0.029085 0.366354 2.154000 255 0 0
0.035026 0.366861 2.157000 255 0 0
0.041021 0.367709 2.162000 255 0 0
0.047000 0.368216 2.165000 255 0 0
0.053020 0.368892 2.169000 255 0 0
0.059116 0.369909 2.175000 255 0 0
0.065274 0.371095 2.182000 255 0 0
0.071503 0.372450 2.190000 255 0 0
0.077775 0.373805 2.198000 255 0 0
0.084167 0.375500 2.208000 255 0 0
0.090573 0.377024 2.217000 255 0 0
0.097419 0.380078 2.235000 255 0 0
0.104364 0.383131 2.253000 255 0 0
0.111407 0.386184 2.271000 255 0 0
0.118186 0.388047 2.282000 255 0 0
0.172481 0.383871 2.258000 255 0 0
0.178096 0.382668 2.251000 255 0 0
0.183262 0.380615 2.239000 255 0 0
0.188954 0.379752 2.234000 255 0 0
0.194619 0.378888 2.229000 255 0 0
0.200615 0.378704 2.228000 255 0 0
0.206513 0.378350 2.226000 255 0 0
0.212399 0.377995 2.224000 255 0 0
0.218764 0.378490 2.227000 255 0 0
0.225146 0.378985 2.230000 255 0 0
0.231646 0.379648 2.234000 255 0 0
0.237955 0.379972 2.236000 255 0 0
0.244383 0.380465 2.239000 255 0 0
0.250939 0.381128 2.243000 255 0 0
0.258433 0.383149 2.255000 255 0 0
0.265991 0.385170 2.267000 255 0 0
0.273254 0.386681 2.276000 255 0 0
0.275776 0.381566 2.246000 255 0 0
-0.107218 0.385942 2.351834 255 255 0
-0.085413 0.386432 2.354029 255 255 0
-0.070530 0.386045 2.351552 255 255 0
-0.055671 0.385669 2.349139 255 255 0
-0.045990 0.384626 2.343178 255 255 0
-0.032031 0.384159 2.340278 255 255 0
-0.020665 0.383360 2.335615 255 255 0
-0.012741 0.382113 2.328558 255 255 0
-0.009958 0.380180 2.317852 255 255 0
-0.005463 0.378478 2.308371 255 255 0
-0.000972 0.376778 2.298894 255 255 0
0.016306 0.376823 2.298723 255 255 0
0.028445 0.376183 2.294897 255 255 0
0.024402 0.373326 2.279246 255 255 0
-0.005119 0.366931 2.244724 255 255 0
0.121528 0.370929 2.263513 255 255 0
0.179057 0.376898 2.294959 255 255 0
0.218775 0.380379 2.313126 255 255 0
0.229799 0.379761 2.309405 255 255 0
-0.250735 0.317633 2.318121 0 255 0
-0.237378 0.317658 2.320643 0 255 0
-0.220517 0.317011 2.320776 0 255 0
-0.192290 0.314159 2.313059 0 255 0
-0.165767 0.311680 2.306703 0 255 0
-0.147943 0.310929 2.306531 0 255 0
-0.132718 0.310706 2.308249 0 255 0
-0.127979 0.312526 2.317236 0 255 0
-0.126741 0.315021 2.328619 0 255 0
-0.126383 0.317683 2.340585 0 255 0
-0.122519 0.319673 2.350167 0 255 0
-0.115141 0.320998 2.357394 0 255 0
-0.098962 0.320667 2.358776 0 255 0
-0.069180 0.320551 2.363510 0 255 0
-0.063514 0.322244 2.372063 0 255 0
-0.043728 0.321316 2.371400 0 255 0
-0.313165 0.375169 2.245000 255 0 0
-0.306092 0.374019 2.238000 255 0 0
-0.299457 0.373370 2.234000 255 0 0
-0.293369 0.373389 2.234000 255 0 0
-0.287280 0.373409 2.234000 255 0 0
-0.281442 0.373762 2.236000 255 0 0
-0.275222 0.373613 2.235000 255 0 0
-0.269128 0.373631 2.235000 255 0 0
-0.262680 0.373147 2.232000 255 0 0
-0.256247 0.372663 2.229000 255 0 0
-0.249830 0.372179 2.226000 255 0 0
-0.244086 0.372697 2.229000 255 0 0
-0.238858 0.374051 2.237000 255 0 0
-0.233690 0.375573 2.246000 255 0 0
-0.228574 0.377261 2.256000 255 0 0
-0.223599 0.379283 2.268000 255 0 0
-0.218366 0.380971 2.278000 255 0 0
-0.211122 0.379146 2.267000 255 0 0
-0.202672 0.374979 2.242000 255 0 0
-0.194797 0.371648 2.222000 255 0 0
-0.187794 0.369822 2.211000 255 0 0
-0.181180 0.368664 2.204000 255 0 0
-0.174603 0.367506 2.197000 255 0 0
-0.167757 0.365678 2.186000 255 0 0
-0.161488 0.365020 2.182000 255 0 0
-0.155098 0.364028 2.176000 255 0 0
-0.148947 0.363537 2.173000 255 0 0
-0.142613 0.362544 2.167000 255 0 0
-0.136627 0.362386 2.166000 255 0 0
-0.130586 0.362061 2.164000 255 0 0
-0.124786 0.362405 2.166000 255 0 0
-0.118810 0.362247 2.165000 255 0 0
-0.112735 0.361753 2.162000 255 0 0
-0.106675 0.361259 2.159000 255 0 0
-0.100772 0.361267 2.159000 255 0 0
-0.094868 0.361274 2.159000 255 0 0
-0.088882 0.360946 2.157000 255 0 0
-0.082791 0.360116 2.152000 255 0 0
-0.076834 0.359787 2.150000 255 0 0
-0.070821 0.359123 2.146000 255 0 0
-0.064952 0.359128 2.146000 255 0 0
-0.059109 0.359300 2.147000 255 0 0
-0.053237 0.359304 2.147000 255 0 0
-0.047342 0.359140 2.146000 255 0 0
-0.041394 0.358474 2.142000 255 0 0
-0.035518 0.358310 2.141000 255 0 0
-0.029688 0.358647 2.143000 255 0 0
-0.023848 0.358984 2.145000 255 0 0
-0.017980 0.358985 2.145000 255 0 0
-0.012095 0.358484 2.142000 255 0 0
-0.006235 0.358485 2.142000 255 0 0
-0.000374 0.358485 2.142000 255 0 0
0.005496 0.359154 2.146000 255 0 0
0.011362 0.358986 2.145000 255 0 0
0.017270 0.359822 2.150000 255 0 0
0.023173 0.360155 2.152000 255 0 0
0.029115 0.360823 2.156000 255 0 0
0.035061 0.361322 2.159000 255 0 0
0.041062 0.362156 2.164000 255 0 0
0.047069 0.362823 2.168000 255 0 0
0.053097 0.363488 2.172000 255 0 0
0.059201 0.364488 2.178000 255 0 0
0.065368 0.365655 2.185000 255 0 0
0.071769 0.367826 2.198000 255 0 0
0.078170 0.369661 2.209000 255 0 0
0.084554 0.371161 2.218000 255 0 0
0.090906 0.372326 2.225000 255 0 0
0.097688 0.374996 2.241000 255 0 0
0.104604 0.377834 2.258000 255 0 0
0.111563 0.380503 2.274000 255 0 0
0.118298 0.382168 2.284000 255 0 0
0.178108 0.376540 2.251000 255 0 0
0.183357 0.374687 2.240000 255 0 0
0.189137 0.374005 2.236000 255 0 0
0.195069 0.373657 2.234000 255 0 0
0.200809 0.372974 2.230000 255 0 0
0.206527 0.372291 2.226000 255 0 0
0.212414 0.371942 2.224000 255 0 0
0.218583 0.372094 2.225000 255 0 0
0.224858 0.372413 2.227000 255 0 0
0.231455 0.373234 2.232000 255 0 0
0.238184 0.374221 2.238000 255 0 0
0.244946 0.375207 2.244000 255 0 0
0.252075 0.376695 2.253000 255 0 0
0.259252 0.378183 2.262000 255 0 0
0.266478 0.379670 2.271000 255 0 0
0.272792 0.379819 2.272000 255 0 0
-0.101932 0.375690 2.356703 255 255 0
-0.078417 0.376467 2.360085 255 255 0
-0.068707 0.375426 2.354033 255 255 0
-0.059011 0.374393 2.348018 255 255 0
-0.050185 0.373250 2.341436 255 255 0
-0.039656 0.372346 2.336093 255 255 0
-0.029998 0.371333 2.330185 255 255 0
-0.019497 0.370444 2.324921 255 255 0
-0.012430 0.369093 2.317250 255 255 0
0.000607 0.368571 2.313899 255 255 0
0.005093 0.366876 2.304435 255 255 0
0.025768 0.367442 2.306745 255 255 0
0.034490 0.366355 2.300448 255 255 0
0.035547 0.364195 2.288562 255 255 0
0.148599 0.364392 2.285172 255 255 0
0.200170 0.369678 2.312143 255 255 0
0.226374 0.371299 2.319991 255 255 0
0.231499 0.369837 2.311736 255 255 0
-0.260366 0.303808 2.302242 0 255 0
-0.260069 0.306425 2.314002 0 255 0
-0.258038 0.308688 2.324510 0 255 0
-0.247305 0.309204 2.328869 0 255 0
-0.228717 0.308163 2.327764 0 255 0
-0.196152 0.304364 2.317003 0 255 0
-0.164409 0.300775 2.307019 0 255 0
-0.143971 0.299466 2.305055 0 255 0
-0.127874 0.299039 2.306199 0 255 0
-0.124879 0.301200 2.316404 0 255 0
-0.122761 0.303533 2.327204 0 255 0
-0.120643 0.305865 2.337997 0 255 0
-0.122037 0.308877 2.351150 0 255 0
-0.112025 0.309682 2.356620 0 255 0
-0.101122 0.310329 2.361545 0 255 0
-0.075756 0.310982 2.369203 0 255 0
-0.061286 0.310992 2.371956 0 255 0
-0.045916 0.310851 2.374200 0 255 0
-0.321577 0.371670 2.261000 255 0 0
-0.313604 0.369553 2.248000 255 0 0
-0.306248 0.368093 2.239000 255 0 0
-0.299477 0.367291 2.234000 255 0 0
-0.293257 0.367145 2.233000 255 0 0
-0.287299 0.367329 2.234000 255 0 0
-0.281209 0.367347 2.234000 255 0 0
-0.274994 0.367201 2.233000 255 0 0
-0.269026 0.367383 2.234000 255 0 0
-0.262933 0.367401 2.234000 255 0 0
-0.256609 0.367090 2.232000 255 0 0
-0.250408 0.366942 2.231000 255 0 0
-0.244540 0.367288 2.233000 255 0 0
-0.239408 0.368784 2.242000 255 0 0
-0.234018 0.369952 2.249000 255 0 0
-0.228994 0.371777 2.260000 255 0 0
-0.224009 0.373767 2.272000 255 0 0
-0.218956 0.375756 2.284000 255 0 0
-0.212255 0.374948 2.279000 255 0 0
-0.204133 0.371508 2.258000 255 0 0
-0.196213 0.368231 2.238000 255 0 0
-0.188742 0.365612 2.222000 255 0 0
-0.181768 0.363815 2.211000 255 0 0
-0.174933 0.362182 2.201000 255 0 0
-0.167999 0.360219 2.189000 255 0 0
-0.161648 0.359408 2.184000 255 0 0
-0.155252 0.358432 2.178000 255 0 0
-0.149094 0.357949 2.175000 255 0 0
-0.142755 0.356972 2.169000 255 0 0
-0.136763 0.356817 2.168000 255 0 0
-0.130777 0.356662 2.167000 255 0 0
-0.124910 0.356836 2.168000 255 0 0
-0.118983 0.356845 2.168000 255 0 0
-0.112899 0.356359 2.165000 255 0 0
-0.106782 0.355709 2.161000 255 0 0
-0.100873 0.355716 2.161000 255 0 0
-0.094919 0.355559 2.160000 255 0 0
-0.088888 0.355072 2.157000 255 0 0
-0.082797 0.354255 2.152000 255 0 0
-0.076804 0.353767 2.149000 255 0 0
-0.070860 0.353443 2.147000 255 0 0
-0.064987 0.353448 2.147000 255 0 0
-0.059169 0.353782 2.149000 255 0 0
-0.053315 0.353950 2.150000 255 0 0
-0.047433 0.353954 2.150000 255 0 0
-0.041474 0.353299 2.146000 255 0 0
-0.035603 0.353302 2.146000 255 0 0
-0.029746 0.353469 2.147000 255 0 0
-0.023894 0.353800 2.149000 255 0 0
-0.017998 0.353472 2.147000 255 0 0
-0.012101 0.352815 2.143000 255 0 0
-0.006235 0.352651 2.142000 255 0 0
-0.000375 0.352980 2.144000 255 0 0
0.005499 0.353474 2.147000 255 0 0
0.011384 0.353803 2.149000 255 0 0
0.017295 0.354460 2.153000 255 0 0
0.023218 0.354953 2.156000 255 0 0
0.029157 0.355445 2.159000 255 0 0
0.035129 0.356101 2.163000 255 0 0
0.041179 0.357250 2.170000 255 0 0
0.047181 0.357741 2.173000 255 0 0
0.053199 0.358231 2.176000 255 0 0
0.059233 0.358721 2.179000 255 0 0
0.065523 0.360527 2.190000 255 0 0
0.072003 0.362992 2.205000 255 0 0
0.078459 0.364962 2.217000 255 0 0
0.084751 0.365943 2.223000 255 0 0
0.091199 0.367419 2.232000 255 0 0
0.097957 0.369881 2.247000 255 0 0
0.104750 0.372178 2.261000 255 0 0
0.111522 0.374145 2.273000 255 0 0
0.118151 0.375454 2.281000 255 0 0
0.179229 0.372715 2.265000 255 0 0
0.183534 0.368917 2.242000 255 0 0
0.189488 0.368575 2.240000 255 0 0
0.195345 0.368068 2.237000 255 0 0
0.201094 0.367396 2.233000 255 0 0
0.206727 0.366560 2.228000 255 0 0
0.212428 0.365887 2.224000 255 0 0
0.218402 0.365708 2.223000 255 0 0
0.224571 0.365857 2.224000 255 0 0
0.231367 0.366993 2.231000 255 0 0
0.238626 0.368786 2.242000 255 0 0
0.246163 0.370908 2.255000 255 0 0
0.253211 0.372207 2.263000 255 0 0
0.259728 0.372684 2.266000 255 0 0
0.266261 0.373159 2.269000 255 0 0
0.272330 0.372977 2.268000 255 0 0
-0.095788 0.365575 2.362158 255 255 0
-0.076591 0.365829 2.362570 255 255 0
-0.061726 0.365512 2.360092 255 255 0
-0.052897 0.364382 2.353489 255 255 0
-0.044078 0.363257 2.346917 255 255 0
-0.038700 0.361664 2.337960 255 255 0
-0.034182 0.359953 2.328408 255 255 0
-0.025389 0.358843 2.321904 255 255 0
-0.016607 0.357738 2.315431 255 255 0
-0.005276 0.357001 2.310829 255 255 0
0.004333 0.356031 2.305040 255 255 0
0.023298 0.356405 2.306092 255 255 0
0.035424 0.355819 2.302265 255 255 0
0.035635 0.353529 2.289755 255 255 0
0.163833 0.356253 2.297815 255 255 0
0.232357 0.359786 2.313418 255 255 0
-0.256377 0.292565 2.300583 0 255 0
-0.257811 0.295550 2.313595 0 255 0
-0.261860 0.299063 2.328427 0 255 0
-0.249393 0.299200 2.331558 0 255 0
-0.222979 0.296522 2.324965 0 255 0
-0.136514 0.287266 2.301175 0 255 0
-0.132649 0.289250 2.310770 0 255 0
-0.129657 0.291410 2.320966 0 255 0
-0.119663 0.292182 2.326394 0 255 0
-0.115790 0.294174 2.336014 0 255 0
-0.116298 0.297030 2.348592 0 255 0
-0.113303 0.299195 2.358796 0 255 0
-0.107673 0.300846 2.367242 0 255 0
-0.095008 0.301135 2.371037 0 255 0
-0.081447 0.301267 2.374308 0 255 0
-0.061706 0.300224 2.373592 0 255 0
-0.041054 0.299032 2.372396 0 255 0
-0.027428 0.299213 2.375885 0 255 0
-0.329496 0.367436 2.273000 255 0 0
-0.319890 0.363576 2.249000 255 0 0
-0.312926 0.362626 2.243000 255 0 0
-0.306131 0.361837 2.238000 255 0 0
-0.299496 0.361210 2.234000 255 0 0
-0.293276 0.361067 2.233000 255 0 0
-0.287317 0.361248 2.234000 255 0 0
-0.281227 0.361266 2.234000 255 0 0
-0.275012 0.361122 2.233000 255 0 0
-0.269164 0.361464 2.235000 255 0 0
-0.263303 0.361805 2.237000 255 0 0
-0.257201 0.361822 2.237000 255 0 0
-0.250874 0.361515 2.235000 255 0 0
-0.244885 0.361693 2.236000 255 0 0
-0.239531 0.362842 2.243000 255 0 0
-0.234450 0.364476 2.253000 255 0 0
-0.229618 0.366594 2.266000 255 0 0
-0.224714 0.368713 2.279000 255 0 0
-0.219355 0.370184 2.288000 255 0 0
-0.212362 0.368905 2.280000 255 0 0
-0.204599 0.366168 2.263000 255 0 0
-0.196840 0.363269 2.245000 255 0 0
-0.189179 0.360370 2.227000 255 0 0
-0.182109 0.358441 2.215000 255 0 0
-0.175263 0.356835 2.205000 255 0 0
-0.168394 0.355067 2.194000 255 0 0
-0.161807 0.353784 2.186000 255 0 0
-0.155263 0.352500 2.178000 255 0 0
-0.149105 0.352025 2.175000 255 0 0
-0.143028 0.351712 2.173000 255 0 0
-0.136962 0.351398 2.171000 255 0 0
-0.130907 0.351084 2.169000 255 0 0
-0.124919 0.350931 2.168000 255 0 0
-0.119047 0.351102 2.169000 255 0 0
-0.112959 0.350624 2.166000 255 0 0
-0.106888 0.350146 2.163000 255 0 0
-0.100880 0.349830 2.161000 255 0 0
-0.094882 0.349513 2.159000 255 0 0
-0.088854 0.349034 2.156000 255 0 0
-0.082764 0.348231 2.151000 255 0 0
-0.076809 0.347913 2.149000 255 0 0
-0.070931 0.347918 2.149000 255 0 0
-0.065052 0.347923 2.149000 255 0 0
-0.059228 0.348251 2.151000 255 0 0
-0.053319 0.348094 2.150000 255 0 0
-0.047459 0.348259 2.151000 255 0 0
-0.041535 0.347939 2.149000 255 0 0
-0.035639 0.347779 2.148000 255 0 0
-0.029776 0.347944 2.149000 255 0 0
-0.023907 0.348108 2.150000 255 0 0
-0.018008 0.347785 2.148000 255 0 0
-0.012113 0.347301 2.145000 255 0 0
-0.006244 0.347301 2.145000 255 0 0
-0.000375 0.347625 2.147000 255 0 0
0.005509 0.348273 2.151000 255 0 0
0.011406 0.348596 2.153000 255 0 0
0.017329 0.349243 2.157000 255 0 0
0.023263 0.349727 2.160000 255 0 0
0.029200 0.350049 2.162000 255 0 0
0.035164 0.350532 2.165000 255 0 0
0.041182 0.351339 2.170000 255 0 0
0.047250 0.352307 2.176000 255 0 0
0.053301 0.352951 2.180000 255 0 0
0.059455 0.354080 2.187000 255 0 0
0.065767 0.355857 2.198000 255 0 0
0.072204 0.357957 2.211000 255 0 0
0.078464 0.358922 2.217000 255 0 0
0.084834 0.360212 2.225000 255 0 0
0.091491 0.362472 2.239000 255 0 0
0.098226 0.364731 2.253000 255 0 0
0.104943 0.366667 2.265000 255 0 0
0.111628 0.368278 2.275000 255 0 0
0.181774 0.371725 2.297000 255 0 0
0.184201 0.364106 2.250000 255 0 0
0.189840 0.363123 2.244000 255 0 0
0.195620 0.362462 2.240000 255 0 0
0.201288 0.361639 2.235000 255 0 0
0.206834 0.360655 2.229000 255 0 0
0.212538 0.359993 2.225000 255 0 0
0.218515 0.359817 2.224000 255 0 0
0.224990 0.360449 2.228000 255 0 0
0.232316 0.362375 2.240000 255 0 0
0.240133 0.364947 2.256000 255 0 0
0.247272 0.366387 2.265000 255 0 0
0.254123 0.367340 2.271000 255 0 0
0.260433 0.367485 2.272000 255 0 0
0.266866 0.367791 2.274000 255 0 0
0.272468 0.366965 2.269000 255 0 0
-0.077346 0.354831 2.363277 255 255 0
-0.062484 0.354547 2.360785 255 255 0
-0.056230 0.353070 2.352377 255 255 0
-0.043980 0.352443 2.348188 255 255 0
-0.039456 0.350733 2.338623 255 255 0
-0.034081 0.349145 2.329667 255 255 0
-0.026999 0.347805 2.321939 255 255 0
-0.019070 0.346592 2.314842 255 255 0
-0.007738 0.345877 2.310223 255 255 0
0.001872 0.344923 2.304418 255 255 0
0.020833 0.345341 2.305447 255 255 0
0.030408 0.344406 2.299739 255 255 0
0.022982 0.340977 2.281604 255 255 0
0.162193 0.345633 2.297624 255 255 0
-0.255864 0.282012 2.301415 0 255 0
-0.261632 0.285915 2.317520 0 255 0
-0.259598 0.288185 2.328032 0 255 0
-0.246264 0.288117 2.330570 0 255 0
-0.215511 0.284477 2.320959 0 255 0
-0.180354 0.279977 2.308469 0 255 0
-0.151245 0.276766 2.300403 0 255 0
-0.143027 0.277852 2.306954 0 255 0
-0.140913 0.280185 2.317736 0 255 0
-0.137052 0.282164 2.327316 0 255 0
-0.127068 0.282912 2.332734 0 255 0
-0.118823 0.284021 2.339376 0 255 0
-0.120206 0.287062 2.352538 0 255 0
-0.116335 0.289051 2.362148 0 255 0
-0.111586 0.290868 2.371178 0 255 0
-0.098051 0.290954 2.374393 0 255 0
-0.085376 0.291226 2.378247 0 255 0
-0.064766 0.289961 2.376962 0 255 0
-0.045888 0.289061 2.376926 0 255 0
-0.034915 0.289722 2.382133 0 255 0
-0.326182 0.357593 2.250000 255 0 0
-0.319057 0.356501 2.243000 255 0 0
-0.312667 0.356202 2.241000 255 0 0
-0.306150 0.355745 2.238000 255 0 0
-0.299649 0.355287 2.235000 255 0 0
-0.293163 0.354829 2.232000 255 0 0
-0.287207 0.355007 2.233000 255 0 0
-0.280993 0.354866 2.232000 255 0 0
-0.275030 0.355043 2.233000 255 0 0
-0.269181 0.355378 2.235000 255 0 0
-0.263556 0.356032 2.239000 255 0 0
-0.257333 0.355890 2.238000 255 0 0
-0.251115 0.355747 2.237000 255 0 0
-0.245230 0.356082 2.239000 255 0 0
-0.240081 0.357529 2.248000 255 0 0
-0.234778 0.358817 2.256000 255 0 0
-0.229938 0.360901 2.269000 255 0 0
-0.224828 0.362665 2.280000 255 0 0
-0.219274 0.363794 2.287000 255 0 0
-0.212470 0.362854 2.281000 255 0 0
-0.204884 0.360482 2.266000 255 0 0
-0.197205 0.357791 2.249000 255 0 0
-0.189617 0.355100 2.232000 255 0 0
-0.182369 0.352885 2.218000 255 0 0
-0.175593 0.351466 2.209000 255 0 0
-0.168713 0.349727 2.198000 255 0 0
-0.162040 0.348307 2.189000 255 0 0
-0.155488 0.347045 2.181000 255 0 0
-0.149184 0.346260 2.176000 255 0 0
-0.143104 0.345952 2.174000 255 0 0
-0.136972 0.345484 2.171000 255 0 0
-0.131037 0.345493 2.171000 255 0 0
-0.124986 0.345184 2.169000 255 0 0
-0.119110 0.345352 2.170000 255 0 0
-0.113072 0.345042 2.168000 255 0 0
-0.106995 0.344572 2.165000 255 0 0
-0.100887 0.343943 2.161000 255 0 0
-0.094801 0.343313 2.157000 255 0 0
-0.088819 0.343001 2.155000 255 0 0
-0.082809 0.342530 2.152000 255 0 0
-0.076886 0.342376 2.151000 255 0 0
-0.071101 0.342859 2.154000 255 0 0
-0.065178 0.342705 2.153000 255 0 0
-0.059260 0.342550 2.152000 255 0 0
-0.053347 0.342395 2.151000 255 0 0
-0.047506 0.342717 2.153000 255 0 0
-0.041616 0.342720 2.153000 255 0 0
-0.035725 0.342723 2.153000 255 0 0
-0.029806 0.342407 2.151000 255 0 0
-0.023920 0.342409 2.151000 255 0 0
-0.018026 0.342251 2.150000 255 0 0
-0.012131 0.341934 2.148000 255 0 0
-0.006256 0.342094 2.149000 255 0 0
-0.000376 0.342253 2.150000 255 0 0
0.005512 0.342571 2.152000 255 0 0
0.011417 0.343048 2.155000 255 0 0
0.017346 0.343684 2.159000 255 0 0
0.023297 0.344319 2.163000 255 0 0
0.029243 0.344636 2.165000 255 0 0
0.035215 0.345111 2.168000 255 0 0
0.041261 0.346063 2.174000 255 0 0
0.047340 0.347015 2.180000 255 0 0
0.053451 0.347967 2.186000 255 0 0
0.059704 0.349554 2.196000 255 0 0
0.066071 0.351460 2.208000 255 0 0
0.072340 0.352569 2.215000 255 0 0
0.078470 0.352882 2.217000 255 0 0
0.084954 0.354627 2.228000 255 0 0
0.091702 0.357168 2.244000 255 0 0
0.098320 0.358912 2.255000 255 0 0
0.104951 0.360496 2.265000 255 0 0
0.111636 0.362080 2.275000 255 0 0
0.185033 0.359569 2.260000 255 0 0
0.190276 0.357806 2.249000 255 0 0
0.195808 0.356679 2.242000 255 0 0
0.201301 0.355552 2.235000 255 0 0
0.206848 0.354584 2.229000 255 0 0
0.212744 0.354251 2.227000 255 0 0
0.219218 0.354873 2.231000 255 0 0
0.226318 0.356449 2.241000 255 0 0
0.234095 0.358978 2.257000 255 0 0
0.241320 0.360553 2.267000 255 0 0
0.247943 0.361173 2.271000 255 0 0
0.254364 0.361474 2.273000 255 0 0
0.260680 0.361617 2.274000 255 0 0
0.267118 0.361917 2.276000 255 0 0
0.272485 0.360787 2.269000 255 0 0
-0.086094 0.345055 2.371284 255 255 0
-0.068639 0.345162 2.370507 255 255 0
-0.058086 0.344302 2.365050 255 255 0
-0.050120 0.343081 2.357844 255 255 0
-0.043021 0.341741 2.350062 255 255 0
-0.034218 0.340653 2.343505 255 255 0
-0.031412 0.338700 2.332746 255 255 0
-0.023478 0.337496 2.325625 255 255 0
-0.018967 0.335795 2.316091 255 255 0
-0.011901 0.334474 2.308399 255 255 0
0.001970 0.334166 2.305646 255 255 0
0.019224 0.334378 2.305426 255 255 0
0.025400 0.332950 2.297224 255 255 0
0.017138 0.329356 2.278454 255 255 0
0.166455 0.335907 2.301919 255 255 0
0.196892 0.338365 2.312760 255 255 0
0.236681 0.337825 2.306582 255 255 0
-0.258821 0.272179 2.304731 0 255 0
-0.256779 0.274456 2.315269 0 255 0
-0.255607 0.276916 2.326415 0 255 0
-0.244012 0.277185 2.330201 0 255 0
-0.218489 0.274557 2.324282 0 255 0
-0.133842 0.265219 2.301890 0 255 0
-0.146552 0.270616 2.322895 0 255 0
-0.143568 0.272770 2.333061 0 255 0
-0.132718 0.273316 2.337876 0 255 0
-0.127979 0.275120 2.346880 0 255 0
-0.129365 0.278168 2.360016 0 255 0
-0.121997 0.279443 2.367260 0 255 0
-0.117251 0.281252 2.376280 0 255 0
-0.102847 0.281129 2.378910 0 255 0
-0.084910 0.280319 2.379289 0 255 0
-0.066068 0.279353 2.379178 0 255 0
-0.045438 0.278059 2.378008 0 255 0
-0.043276 0.280436 2.388943 0 255 0
-0.326202 0.351468 2.250000 255 0 0
-0.318365 0.349613 2.238000 255 0 0
-0.312128 0.349476 2.237000 255 0 0
-0.306169 0.349652 2.238000 255 0 0
-0.299936 0.349514 2.237000 255 0 0
-0.293576 0.349220 2.235000 255 0 0
-0.287483 0.349239 2.235000 255 0 0
-0.281263 0.349101 2.234000 255 0 0
-0.275294 0.349275 2.235000 255 0 0
-0.269319 0.349448 2.236000 255 0 0
-0.263456 0.349778 2.238000 255 0 0
-0.257235 0.349638 2.237000 255 0 0
-0.251468 0.350124 2.240000 255 0 0
-0.245465 0.350296 2.241000 255 0 0
-0.240097 0.351407 2.248000 255 0 0
-0.234586 0.352360 2.254000 255 0 0
-0.229851 0.354564 2.268000 255 0 0
-0.224843 0.356455 2.280000 255 0 0
-0.219480 0.357877 2.289000 255 0 0
-0.212764 0.357110 2.284000 255 0 0
-0.205260 0.354935 2.270000 255 0 0
-0.197569 0.352290 2.253000 255 0 0
-0.190055 0.349801 2.237000 255 0 0
-0.182957 0.347937 2.225000 255 0 0
-0.176082 0.346386 2.215000 255 0 0
-0.169032 0.344365 2.202000 255 0 0
-0.162200 0.342656 2.191000 255 0 0
-0.155570 0.341259 2.182000 255 0 0
-0.149263 0.340487 2.177000 255 0 0
-0.143180 0.340185 2.175000 255 0 0
-0.136982 0.339569 2.171000 255 0 0
-0.131046 0.339578 2.171000 255 0 0
-0.124937 0.339118 2.168000 255 0 0
-0.118954 0.338970 2.167000 255 0 0
-0.112975 0.338821 2.166000 255 0 0
-0.106903 0.338360 2.163000 255 0 0
-0.100847 0.337898 2.160000 255 0 0
-0.094808 0.337435 2.157000 255 0 0
-0.088866 0.337285 2.156000 255 0 0
-0.083007 0.337448 2.157000 255 0 0
-0.077070 0.337297 2.156000 255 0 0
-0.071238 0.337615 2.158000 255 0 0
-0.065273 0.337307 2.156000 255 0 0
-0.059319 0.336998 2.154000 255 0 0
-0.053401 0.336846 2.153000 255 0 0
-0.047532 0.337006 2.154000 255 0 0
-0.041618 0.336853 2.153000 255 0 0
-0.035694 0.336542 2.151000 255 0 0
-0.029780 0.336232 2.149000 255 0 0
-0.023899 0.336234 2.149000 255 0 0
-0.018035 0.336548 2.151000 255 0 0
-0.012155 0.336706 2.152000 255 0 0
-0.006268 0.336863 2.153000 255 0 0
-0.000377 0.336863 2.153000 255 0 0
0.005515 0.336863 2.153000 255 0 0
0.011418 0.337175 2.155000 255 0 0
0.017355 0.337957 2.160000 255 0 0
0.023320 0.338737 2.165000 255 0 0
0.029285 0.339205 2.168000 255 0 0
0.035283 0.339828 2.172000 255 0 0
0.041283 0.340295 2.175000 255 0 0
0.047365 0.341231 2.181000 255 0 0
0.053528 0.342479 2.189000 255 0 0
0.059926 0.344822 2.204000 255 0 0
0.066195 0.346069 2.212000 255 0 0
0.072345 0.346533 2.215000 255 0 0
0.078511 0.346997 2.218000 255 0 0
0.085113 0.349182 2.232000 255 0 0
0.091872 0.351679 2.248000 255 0 0
0.098545 0.353549 2.260000 255 0 0
0.105051 0.354637 2.267000 255 0 0
0.111742 0.356194 2.277000 255 0 0
0.190797 0.352618 2.255000 255 0 0
0.196171 0.351197 2.246000 255 0 0
0.201675 0.350089 2.239000 255 0 0
0.207419 0.349450 2.235000 255 0 0
0.213809 0.349905 2.238000 255 0 0
0.220804 0.351298 2.247000 255 0 0
0.228353 0.353472 2.261000 255 0 0
0.235563 0.355020 2.271000 255 0 0
0.241974 0.355317 2.273000 255 0 0
0.247959 0.354988 2.271000 255 0 0
0.254157 0.354971 2.271000 255 0 0
0.260582 0.355267 2.273000 255 0 0
0.266901 0.355407 2.274000 255 0 0
0.272503 0.354608 2.269000 255 0 0
-0.110351 0.333012 2.368776 255 255 0
-0.082542 0.334634 2.374956 255 255 0
-0.065956 0.334659 2.373583 255 255 0
-0.054549 0.333947 2.368720 255 255 0
-0.047445 0.332614 2.360918 255 255 0
-0.038636 0.331537 2.354335 255 255 0
-0.035827 0.329580 2.343570 255 255 0
-0.031308 0.327877 2.334009 255 255 0
-0.019960 0.327196 2.329309 255 255 0
-0.015451 0.325499 2.319779 255 255 0
-0.006685 0.324446 2.313313 255 255 0
0.008880 0.324430 2.311794 255 255 0
0.025270 0.324557 2.310962 255 255 0
0.027193 0.322491 2.299674 255 255 0
0.008756 0.317297 2.273450 255 255 0
0.173240 0.326597 2.308130 255 255 0
-0.260910 0.262164 2.307426 0 255 0
-0.258868 0.264444 2.317962 0 255 0
-0.253357 0.265982 2.326035 0 255 0
-0.249579 0.267893 2.335345 0 255 0
-0.222335 0.264826 2.328215 0 255 0
-0.190701 0.260870 2.318192 0 255 0
-0.150442 0.260703 2.326851 0 255 0
-0.150079 0.263401 2.338799 0 255 0
-0.145352 0.265190 2.347764 0 255 0
-0.138000 0.266439 2.354963 0 255 0
-0.319096 0.344287 2.243000 255 0 0
-0.312148 0.343385 2.237000 255 0 0
-0.305915 0.343250 2.236000 255 0 0
-0.299552 0.342962 2.234000 255 0 0
-0.293331 0.342827 2.233000 255 0 0
-0.287501 0.343152 2.235000 255 0 0
-0.281281 0.343016 2.234000 255 0 0
-0.275435 0.343341 2.236000 255 0 0
-0.269457 0.343512 2.237000 255 0 0
-0.263472 0.343682 2.238000 255 0 0
-0.257367 0.343699 2.238000 255 0 0
-0.251485 0.344022 2.240000 255 0 0
-0.245810 0.344653 2.244000 255 0 0
-0.240540 0.345897 2.252000 255 0 0
-0.235121 0.346988 2.259000 255 0 0
-0.229867 0.348385 2.268000 255 0 0
-0.224463 0.349629 2.276000 255 0 0
-0.219207 0.351180 2.286000 255 0 0
-0.212685 0.350733 2.283000 255 0 0
-0.205454 0.349057 2.272000 255 0 0
-0.197845 0.346612 2.256000 255 0 0
-0.190492 0.344474 2.242000 255 0 0
-0.183298 0.342489 2.229000 255 0 0
-0.176174 0.340504 2.216000 255 0 0
-0.168966 0.338211 2.201000 255 0 0
-0.162211 0.336685 2.191000 255 0 0
-0.155723 0.335620 2.184000 255 0 0
-0.149547 0.335170 2.181000 255 0 0
-0.143256 0.334411 2.176000 255 0 0
-0.137117 0.333960 2.173000 255 0 0
-0.130995 0.333508 2.170000 255 0 0
-0.124888 0.333056 2.167000 255 0 0
-0.118852 0.332757 2.165000 255 0 0
-0.112879 0.332611 2.164000 255 0 0
-0.106861 0.332311 2.162000 255 0 0
-0.100854 0.332011 2.160000 255 0 0
-0.094902 0.331864 2.159000 255 0 0
-0.088955 0.331717 2.158000 255 0 0
-0.083051 0.331722 2.158000 255 0 0
-0.077076 0.331421 2.156000 255 0 0
-0.071210 0.331580 2.157000 255 0 0
-0.065308 0.331584 2.157000 255 0 0
-0.059406 0.331589 2.157000 255 0 0
-0.053454 0.331285 2.155000 255 0 0
-0.047557 0.331289 2.155000 255 0 0
-0.041621 0.330984 2.153000 255 0 0
-0.035696 0.330680 2.151000 255 0 0
-0.029768 0.330221 2.148000 255 0 0
-0.023901 0.330376 2.149000 255 0 0
-0.018045 0.330839 2.152000 255 0 0
-0.012161 0.330994 2.153000 255 0 0
-0.006275 0.331302 2.155000 255 0 0
-0.000377 0.331302 2.155000 255 0 0
0.005521 0.331302 2.155000 255 0 0
0.011435 0.331762 2.158000 255 0 0
0.017373 0.332376 2.162000 255 0 0
0.023343 0.333144 2.167000 255 0 0
0.029341 0.333911 2.172000 255 0 0
0.035334 0.334369 2.175000 255 0 0
0.041343 0.334828 2.178000 255 0 0
0.047412 0.335594 2.183000 255 0 0
0.053679 0.337435 2.195000 255 0 0
0.060093 0.339737 2.210000 255 0 0
0.066379 0.340962 2.218000 255 0 0
0.072448 0.340957 2.218000 255 0 0
0.078729 0.341874 2.224000 255 0 0
0.085271 0.343713 2.236000 255 0 0
0.091960 0.345859 2.250000 255 0 0
0.098595 0.347543 2.261000 255 0 0
0.105058 0.348459 2.267000 255 0 0
0.111602 0.349527 2.274000 255 0 0
0.191571 0.347856 2.264000 255 0 0
0.196621 0.345846 2.251000 255 0 0
0.202139 0.344757 2.244000 255 0 0
0.208268 0.344744 2.244000 255 0 0
0.215352 0.346266 2.254000 255 0 0
0.222784 0.348249 2.267000 255 0 0
0.229681 0.349309 2.274000 255 0 0
0.235993 0.349447 2.275000 255 0 0
0.241990 0.349125 2.273000 255 0 0
0.247975 0.348802 2.271000 255 0 0
0.254285 0.348939 2.272000 255 0 0
0.260599 0.349076 2.273000 255 0 0
0.266800 0.349059 2.273000 255 0 0
0.271800 0.347506 2.263000 255 0 0
-0.104204 0.322906 2.374218 255 255 0
-0.080712 0.323969 2.377450 255 255 0
-0.062415 0.324289 2.377250 255 255 0
-0.050155 0.323729 2.372980 255 255 0
-0.042199 0.322536 2.365779 255 255 0
-0.041958 0.320190 2.353217 255 255 0
-0.036579 0.318615 2.344241 255 255 0
-0.028639 0.317433 2.337087 255 255 0
-0.015589 0.317036 2.333597 255 255 0
-0.011084 0.315344 2.324074 255 255 0
-0.002323 0.314308 2.317613 255 255 0
0.010680 0.313936 2.314251 255 255 0
0.022814 0.313442 2.310329 255 255 0
0.021346 0.310839 2.296555 255 255 0
0.167394 0.315277 2.304749 255 255 0
0.187716 0.316263 2.307848 255 255 0
0.196243 0.315351 2.302032 255 255 0
0.203081 0.314170 2.294951 255 255 0
0.204045 0.312028 2.283348 255 255 0
-0.263866 0.252339 2.310739 0 255 0
-0.262690 0.254809 2.321887 0 255 0
-0.259784 0.256902 2.331796 0 255 0
-0.249935 0.257495 2.336817 0 255 0
-0.227917 0.255479 2.333359 0 255 0
-0.189349 0.249945 2.318503 0 255 0
-0.158551 0.246128 2.309283 0 255 0
-0.144249 0.245869 2.311637 0 255 0
-0.156584 0.254057 2.344531 0 255 0
-0.152735 0.256022 2.354076 0 255 0
-0.141022 0.256339 2.358310 0 255 0
-0.313422 0.338650 2.246000 255 0 0
-0.306481 0.337764 2.240000 255 0 0
-0.300107 0.337481 2.238000 255 0 0
-0.293875 0.337348 2.237000 255 0 0
-0.287905 0.337517 2.238000 255 0 0
-0.281550 0.337233 2.236000 255 0 0
-0.275452 0.337250 2.236000 255 0 0
-0.269474 0.337418 2.237000 255 0 0
-0.263725 0.337887 2.240000 255 0 0
-0.257843 0.338205 2.242000 255 0 0
-0.251950 0.338523 2.244000 255 0 0
-0.246264 0.339142 2.248000 255 0 0
-0.240876 0.340214 2.255000 255 0 0
-0.235345 0.341135 2.261000 255 0 0
-0.229780 0.342055 2.267000 255 0 0
-0.224379 0.343277 2.275000 255 0 0
-0.219126 0.344800 2.285000 255 0 0
-0.212792 0.344663 2.284000 255 0 0
-0.205378 0.342715 2.271000 255 0 0
-0.198034 0.340766 2.258000 255 0 0
-0.190590 0.338516 2.243000 255 0 0
-0.183639 0.337019 2.233000 255 0 0
-0.176185 0.334465 2.216000 255 0 0
-0.168901 0.332061 2.200000 255 0 0
-0.162147 0.330563 2.190000 255 0 0
-0.155733 0.329668 2.184000 255 0 0
-0.149489 0.329074 2.180000 255 0 0
-0.143200 0.328329 2.175000 255 0 0
-0.137126 0.328037 2.173000 255 0 0
-0.130943 0.327442 2.169000 255 0 0
-0.124896 0.327149 2.167000 255 0 0
-0.118805 0.326704 2.164000 255 0 0
-0.112782 0.326410 2.162000 255 0 0
-0.106869 0.326418 2.162000 255 0 0
-0.100955 0.326425 2.162000 255 0 0
-0.095040 0.326431 2.162000 255 0 0
-0.089043 0.326136 2.160000 255 0 0
-0.083095 0.325991 2.159000 255 0 0
-0.077117 0.325694 2.157000 255 0 0
-0.071215 0.325699 2.157000 255 0 0
-0.065313 0.325704 2.157000 255 0 0
-0.059410 0.325708 2.157000 255 0 0
-0.053458 0.325410 2.155000 255 0 0
-0.047583 0.325565 2.156000 255 0 0
-0.041605 0.324964 2.152000 255 0 0
-0.035682 0.324664 2.150000 255 0 0
-0.029757 0.324214 2.147000 255 0 0
-0.023925 0.324820 2.151000 255 0 0
-0.018071 0.325425 2.155000 255 0 0
-0.012179 0.325577 2.156000 255 0 0
-0.006284 0.325880 2.158000 255 0 0
-0.000378 0.326031 2.159000 255 0 0
0.005537 0.326333 2.161000 255 0 0
0.011462 0.326634 2.163000 255 0 0
0.017406 0.327086 2.166000 255 0 0
0.023366 0.327538 2.169000 255 0 0
0.029343 0.327989 2.172000 255 0 0
0.035369 0.328742 2.177000 255 0 0
0.041384 0.329192 2.180000 255 0 0
0.047524 0.330397 2.188000 255 0 0
0.053805 0.332206 2.200000 255 0 0
0.060179 0.334165 2.213000 255 0 0
0.066384 0.334916 2.218000 255 0 0
0.072584 0.335515 2.222000 255 0 0
0.078876 0.336416 2.228000 255 0 0
0.085430 0.338222 2.240000 255 0 0
0.092089 0.340179 2.253000 255 0 0
0.098689 0.341682 2.263000 255 0 0
0.105251 0.342883 2.271000 255 0 0
0.111659 0.343479 2.275000 255 0 0
0.197420 0.341070 2.260000 255 0 0
0.203414 0.340755 2.258000 255 0 0
0.210045 0.341496 2.263000 255 0 0
0.217564 0.343595 2.277000 255 0 0
0.224175 0.344184 2.281000 255 0 0
0.230201 0.343867 2.279000 255 0 0
0.236112 0.343400 2.276000 255 0 0
0.242112 0.343083 2.274000 255 0 0
0.248101 0.342765 2.272000 255 0 0
0.254301 0.342749 2.272000 255 0 0
0.260616 0.342884 2.273000 255 0 0
0.266700 0.342716 2.272000 255 0 0
0.271336 0.340738 2.259000 255 0 0
-0.082319 0.312785 2.377591 255 255 0
-0.064885 0.313017 2.376781 255 255 0
-0.051767 0.312612 2.373085 255 255 0
-0.044667 0.311300 2.365277 255 255 0
-0.045275 0.308810 2.352105 255 255 0
-0.040746 0.307107 2.342513 255 255 0
-0.027679 0.306728 2.338959 255 255 0
-0.014634 0.306360 2.335459 255 255 0
-0.005016 0.305469 2.329583 255 255 0
0.003738 0.304452 2.323131 255 255 0
0.016732 0.304111 2.319775 255 255 0
0.022910 0.302704 2.311549 255 255 0
0.015508 0.299139 2.293447 255 255 0
0.164922 0.304465 2.303934 255 255 0
0.200608 0.303429 2.294082 255 255 0
0.175610 0.296924 2.262370 255 255 0
-0.273740 0.244052 2.318993 0 255 0
-0.272570 0.246523 2.330116 0 255 0
-0.261872 0.246895 2.334486 0 255 0
-0.247693 0.246516 2.336461 0 255 0
-0.171129 0.238117 2.319271 0 255 0
-0.160325 0.238570 2.324003 0 255 0
-0.158216 0.240907 2.334753 0 255 0
-0.160469 0.244178 2.348471 0 255 0
-0.156623 0.246139 2.358011 0 255 0
-0.146663 0.246801 2.363426 0 255 0
-0.308825 0.334179 2.257000 255 0 0
-0.301198 0.332569 2.246000 255 0 0
-0.295207 0.332735 2.247000 255 0 0
-0.289338 0.333049 2.249000 255 0 0
-0.282827 0.332622 2.246000 255 0 0
-0.276701 0.332639 2.246000 255 0 0
-0.270454 0.332508 2.245000 255 0 0
-0.264565 0.332821 2.247000 255 0 0
-0.258434 0.332837 2.247000 255 0 0
-0.252639 0.333297 2.250000 255 0 0
-0.247047 0.334054 2.255000 255 0 0
-0.241853 0.335402 2.264000 255 0 0
-0.236401 0.336455 2.271000 255 0 0
-0.230606 0.337062 2.275000 255 0 0
-0.224788 0.337669 2.279000 255 0 0
-0.219427 0.339017 2.288000 255 0 0
-0.212433 0.337846 2.280000 255 0 0
-0.204939 0.335785 2.266000 255 0 0
-0.198047 0.334612 2.258000 255 0 0
-0.190942 0.332995 2.247000 255 0 0
-0.183733 0.331080 2.234000 255 0 0
-0.176118 0.328276 2.215000 255 0 0
-0.169066 0.326361 2.202000 255 0 0
-0.162454 0.325186 2.194000 255 0 0
-0.156029 0.324307 2.188000 255 0 0
-0.149636 0.323428 2.182000 255 0 0
-0.143275 0.322548 2.176000 255 0 0
-0.137136 0.322113 2.173000 255 0 0
-0.131012 0.321677 2.170000 255 0 0
-0.124962 0.321389 2.168000 255 0 0
-0.118923 0.321101 2.166000 255 0 0
-0.112946 0.320961 2.165000 255 0 0
-0.107024 0.320968 2.165000 255 0 0
-0.101055 0.320827 2.164000 255 0 0
-0.095135 0.320833 2.164000 255 0 0
-0.089091 0.320395 2.161000 255 0 0
-0.083063 0.319956 2.158000 255 0 0
-0.077086 0.319665 2.156000 255 0 0
-0.071187 0.319670 2.156000 255 0 0
-0.065317 0.319823 2.157000 255 0 0
-0.059387 0.319679 2.156000 255 0 0
-0.053462 0.319534 2.155000 255 0 0
-0.047564 0.319538 2.155000 255 0 0
-0.041608 0.319096 2.152000 255 0 0
-0.035701 0.318950 2.151000 255 0 0
-0.029786 0.318656 2.149000 255 0 0
-0.023938 0.319103 2.152000 255 0 0
-0.018056 0.319252 2.153000 255 0 0
-0.012174 0.319550 2.155000 255 0 0
-0.006284 0.319995 2.158000 255 0 0
-0.000378 0.320589 2.162000 255 0 0
0.005547 0.321033 2.165000 255 0 0
0.011479 0.321181 2.166000 255 0 0
0.017431 0.321625 2.169000 255 0 0
0.023390 0.321920 2.171000 255 0 0
0.029386 0.322512 2.175000 255 0 0
0.035371 0.322806 2.177000 255 0 0
0.041425 0.323545 2.182000 255 0 0
0.047570 0.324728 2.190000 255 0 0
0.053857 0.326504 2.202000 255 0 0
0.060183 0.328131 2.213000 255 0 0
0.066418 0.329016 2.219000 255 0 0
0.072752 0.330198 2.227000 255 0 0
0.079094 0.331230 2.234000 255 0 0
0.085550 0.332559 2.243000 255 0 0
0.092137 0.334184 2.254000 255 0 0
0.098783 0.335808 2.265000 255 0 0
0.105489 0.337432 2.276000 255 0 0
0.204328 0.336083 2.268000 255 0 0
0.211266 0.337255 2.276000 255 0 0
0.218247 0.338426 2.284000 255 0 0
0.224386 0.338264 2.283000 255 0 0
0.230317 0.337805 2.280000 255 0 0
0.236231 0.337346 2.277000 255 0 0
0.242447 0.337330 2.277000 255 0 0
0.248553 0.337167 2.276000 255 0 0
0.254877 0.337299 2.277000 255 0 0
0.260976 0.337135 2.276000 255 0 0
0.266951 0.336822 2.274000 255 0 0
0.271714 0.335028 2.262000 255 0 0
-0.108543 0.302654 2.386631 255 255 0
-0.091924 0.302770 2.385084 255 255 0
-0.075334 0.302901 2.383613 255 255 0
-0.057054 0.303311 2.383398 255 255 0
-0.048233 0.302272 2.376751 255 255 0
-0.043705 0.300571 2.367160 255 255 0
-0.043455 0.298202 2.354587 255 255 0
-0.039781 0.296367 2.344395 255 255 0
-0.025865 0.296152 2.341434 255 255 0
-0.015382 0.295407 2.336112 255 255 0
0.000197 0.295484 2.334477 255 255 0
0.011496 0.294894 2.329863 255 255 0
0.021929 0.294175 2.324681 255 255 0
0.025556 0.292366 2.314619 255 255 0
0.012221 0.287805 2.292204 255 255 0
0.090759 0.283969 2.261429 255 255 0
0.158249 0.292919 2.299935 255 255 0
-0.276689 0.234257 2.322298 0 255 0
-0.270328 0.235570 2.329729 0 255 0
-0.263095 0.236694 2.336565 0 255 0
-0.190132 0.228797 2.321560 0 255 0
-0.175875 0.228449 2.323827 0 255 0
-0.163338 0.228495 2.327358 0 255 0
-0.161230 0.230834 2.338104 0 255 0
-0.161738 0.233741 2.350626 0 255 0
-0.160508 0.236267 2.361943 0 255 0
-0.152299 0.237283 2.368536 0 255 0
-0.304971 0.330519 2.274000 255 0 0
-0.298509 0.330246 2.272000 255 0 0
-0.292186 0.330119 2.271000 255 0 0
-0.285363 0.329409 2.266000 255 0 0
-0.278813 0.328990 2.263000 255 0 0
-0.272278 0.328571 2.260000 255 0 0
-0.266112 0.328587 2.260000 255 0 0
-0.260061 0.328749 2.261000 255 0 0
-0.254340 0.329347 2.265000 255 0 0
-0.248596 0.329944 2.269000 255 0 0
-0.243150 0.330977 2.276000 255 0 0
-0.237457 0.331719 2.281000 255 0 0
-0.231938 0.332752 2.288000 255 0 0
-0.227860 0.335966 2.310000 255 0 0
-0.222415 0.337289 2.319000 255 0 0
-0.212167 0.331194 2.277000 255 0 0
-0.204500 0.328880 2.261000 255 0 0
-0.197884 0.328166 2.256000 255 0 0
-0.190870 0.326724 2.246000 255 0 0
-0.183663 0.324845 2.233000 255 0 0
-0.176209 0.322383 2.216000 255 0 0
-0.169307 0.320794 2.205000 255 0 0
-0.162613 0.319495 2.196000 255 0 0
-0.156111 0.318487 2.189000 255 0 0
-0.149577 0.317333 2.181000 255 0 0
-0.143284 0.316615 2.176000 255 0 0
-0.137208 0.316334 2.174000 255 0 0
-0.131142 0.316051 2.172000 255 0 0
-0.125086 0.315769 2.170000 255 0 0
-0.119041 0.315486 2.168000 255 0 0
-0.113058 0.315348 2.167000 255 0 0
-0.107130 0.315355 2.167000 255 0 0
-0.101109 0.315071 2.165000 255 0 0
-0.095141 0.314932 2.164000 255 0 0
-0.089097 0.314502 2.161000 255 0 0
-0.083107 0.314216 2.159000 255 0 0
-0.077199 0.314222 2.159000 255 0 0
-0.071291 0.314227 2.159000 255 0 0
-0.065412 0.314377 2.160000 255 0 0
-0.059418 0.313945 2.157000 255 0 0
-0.053440 0.313512 2.154000 255 0 0
-0.047523 0.313370 2.153000 255 0 0
-0.041649 0.313518 2.154000 255 0 0
-0.035720 0.313230 2.152000 255 0 0
-0.029816 0.313086 2.151000 255 0 0
-0.023950 0.313379 2.153000 255 0 0
-0.018074 0.313672 2.155000 255 0 0
-0.012186 0.313964 2.157000 255 0 0
-0.006291 0.314401 2.160000 255 0 0
-0.000379 0.315129 2.165000 255 0 0
0.005553 0.315420 2.167000 255 0 0
0.011479 0.315274 2.166000 255 0 0
0.017424 0.315564 2.168000 255 0 0
0.023391 0.315999 2.171000 255 0 0
0.029388 0.316580 2.175000 255 0 0
0.035422 0.317305 2.180000 255 0 0
0.041484 0.318031 2.185000 255 0 0
0.047660 0.319337 2.194000 255 0 0
0.053861 0.320498 2.202000 255 0 0
0.060105 0.321659 2.210000 255 0 0
0.066393 0.322819 2.218000 255 0 0
0.072855 0.324561 2.230000 255 0 0
0.079312 0.326011 2.240000 255 0 0
0.085670 0.326879 2.246000 255 0 0
0.092143 0.328037 2.254000 255 0 0
0.098833 0.329777 2.266000 255 0 0
0.105636 0.331663 2.279000 255 0 0
0.112214 0.332674 2.286000 255 0 0
0.199717 0.332531 2.286000 255 0 0
0.203890 0.329173 2.263000 255 0 0
0.211558 0.331487 2.279000 255 0 0
0.218356 0.332346 2.285000 255 0 0
0.224597 0.332332 2.285000 255 0 0
0.230635 0.332027 2.283000 255 0 0
0.236453 0.331430 2.279000 255 0 0
0.242462 0.331124 2.277000 255 0 0
0.248460 0.330818 2.275000 255 0 0
0.254669 0.330803 2.275000 255 0 0
0.260878 0.330787 2.275000 255 0 0
0.266850 0.330480 2.273000 255 0 0
0.272211 0.329445 2.266000 255 0 0
-0.104979 0.292180 2.390307 255 255 0
-0.090088 0.292068 2.387587 255 255 0
-0.073504 0.292238 2.386107 255 255 0
-0.057804 0.292287 2.384114 255 255 0
-0.050697 0.290992 2.376272 255 255 0
-0.042742 0.289837 2.369046 255 255 0
-0.043345 0.287320 2.355876 255 255 0
-0.040523 0.285348 2.345079 255 255 0
-0.030876 0.284475 2.339094 255 255 0
-0.016128 0.284438 2.336770 255 255 0
0.006257 0.285658 2.339976 255 255 0
0.018398 0.285233 2.335978 255 255 0
0.029671 0.284677 2.331418 255 255 0
0.029049 0.282173 2.318301 255 255 0
0.026740 0.279384 2.303925 255 255 0
0.096741 0.274328 2.267033 255 255 0
0.147384 0.280602 2.292764 255 255 0
0.188693 0.285339 2.311742 255 255 0
-0.268091 0.224591 2.329348 0 255 0
-0.259127 0.225313 2.334978 0 255 0
-0.234562 0.222529 2.329683 0 255 0
-0.209092 0.219577 2.323907 0 255 0
-0.184453 0.216849 2.318867 0 255 0
-0.176275 0.217827 2.325372 0 255 0
-0.167220 0.218618 2.331310 0 255 0
-0.164243 0.220766 2.341453 0 255 0
-0.165620 0.223875 2.354562 0 255 0
-0.158291 0.225064 2.361736 0 255 0
-0.157931 0.227786 2.373641 0 255 0
-0.145356 0.227840 2.377327 0 255 0
-0.146742 0.230944 2.390402 0 255 0
-0.135895 0.231392 2.395319 0 255 0
-0.127659 0.232418 2.402016 0 255 0
-0.312831 0.326016 2.286000 255 0 0
-0.305794 0.325178 2.280000 255 0 0
-0.300235 0.325909 2.285000 255 0 0
-0.294390 0.326355 2.288000 255 0 0
-0.287773 0.325944 2.285000 255 0 0
-0.281294 0.325676 2.283000 255 0 0
-0.274463 0.324979 2.278000 255 0 0
-0.268248 0.324996 2.278000 255 0 0
-0.261917 0.324869 2.277000 255 0 0
-0.256152 0.325456 2.281000 255 0 0
-0.250474 0.326184 2.286000 255 0 0
-0.245088 0.327341 2.294000 255 0 0
-0.239762 0.328641 2.303000 255 0 0
-0.234893 0.330653 2.317000 255 0 0
-0.232117 0.335805 2.353000 255 0 0
-0.226074 0.336390 2.357000 255 0 0
-0.212087 0.324844 2.276000 255 0 0
-0.204603 0.322858 2.262000 255 0 0
-0.197809 0.321872 2.255000 255 0 0
-0.190797 0.320457 2.245000 255 0 0
-0.183593 0.318613 2.232000 255 0 0
-0.176458 0.316769 2.219000 255 0 0
-0.169625 0.315352 2.209000 255 0 0
-0.162994 0.314221 2.201000 255 0 0
-0.156406 0.313089 2.193000 255 0 0
-0.149861 0.311957 2.185000 255 0 0
-0.143623 0.311395 2.181000 255 0 0
-0.137343 0.310690 2.176000 255 0 0
-0.131331 0.310556 2.175000 255 0 0
-0.125267 0.310279 2.173000 255 0 0
-0.119213 0.310002 2.171000 255 0 0
-0.113222 0.309866 2.170000 255 0 0
-0.107236 0.309731 2.169000 255 0 0
-0.101255 0.309595 2.168000 255 0 0
-0.095236 0.309316 2.166000 255 0 0
-0.089185 0.308893 2.163000 255 0 0
-0.083151 0.308471 2.160000 255 0 0
-0.077240 0.308476 2.160000 255 0 0
-0.071295 0.308338 2.159000 255 0 0
-0.065386 0.308342 2.159000 255 0 0
-0.059422 0.308061 2.157000 255 0 0
-0.053494 0.307922 2.156000 255 0 0
-0.047570 0.307782 2.155000 255 0 0
-0.041691 0.307928 2.156000 255 0 0
-0.035756 0.307645 2.154000 255 0 0
-0.029860 0.307647 2.154000 255 0 0
-0.023963 0.307649 2.154000 255 0 0
-0.018083 0.307936 2.156000 255 0 0
-0.012198 0.308366 2.159000 255 0 0
-0.006297 0.308795 2.162000 255 0 0
-0.000379 0.309509 2.167000 255 0 0
0.005558 0.309795 2.169000 255 0 0
0.011485 0.309508 2.167000 255 0 0
0.017426 0.309650 2.168000 255 0 0
0.023393 0.310077 2.171000 255 0 0
0.029417 0.310933 2.177000 255 0 0
0.035506 0.312073 2.185000 255 0 0
0.041601 0.312927 2.191000 255 0 0
0.047729 0.313781 2.197000 255 0 0
0.053889 0.314635 2.203000 255 0 0
0.060136 0.315774 2.211000 255 0 0
0.066457 0.317055 2.220000 255 0 0
0.072925 0.318764 2.232000 255 0 0
0.079352 0.320044 2.241000 255 0 0
0.085676 0.320753 2.246000 255 0 0
0.092149 0.321890 2.254000 255 0 0
0.098840 0.323597 2.266000 255 0 0
0.105689 0.325590 2.280000 255 0 0
0.112320 0.326725 2.288000 255 0 0
0.203723 0.322717 2.261000 255 0 0
0.211478 0.325131 2.278000 255 0 0
0.218274 0.325974 2.284000 255 0 0
0.224611 0.326102 2.285000 255 0 0
0.230750 0.325946 2.284000 255 0 0
0.236676 0.325503 2.281000 255 0 0
0.242584 0.325060 2.278000 255 0 0
0.248366 0.324474 2.274000 255 0 0
0.254573 0.324459 2.274000 255 0 0
0.260779 0.324443 2.274000 255 0 0
0.266984 0.324427 2.274000 255 0 0
0.271747 0.322699 2.262000 255 0 0
-0.087392 0.281502 2.390674 255 255 0
-0.072532 0.281437 2.388015 255 255 0
-0.059410 0.281109 2.384244 255 255 0
-0.050589 0.280100 2.377573 255 255 0
-0.040924 0.279234 2.371526 255 255 0
-0.039815 0.276984 2.359553 255 255 0
-0.038702 0.274731 2.347564 255 255 0
-0.030763 0.273597 2.340372 255 255 0
-0.012612 0.274155 2.340452 255 255 0
0.008909 0.275293 2.343042 255 255 0
0.021045 0.274894 2.339041 255 255 0
0.028917 0.273795 2.332033 255 255 0
0.029148 0.271420 2.319526 255 255 0
0.022608 0.267898 2.302068 255 255 0
0.136533 0.268206 2.285613 255 255 0
0.179512 0.273347 2.305803 255 255 0
0.198238 0.271935 2.295372 255 255 0
-0.260136 0.209496 2.312894 0 255 0
-0.255490 0.211199 2.321616 0 255 0
-0.252571 0.213301 2.331567 0 255 0
-0.230609 0.211051 2.328138 0 255 0
-0.203417 0.207642 2.321187 0 255 0
-0.183986 0.206034 2.319804 0 255 0
-0.179281 0.207783 2.328723 0 255 0
-0.171099 0.208751 2.335259 0 255 0
-0.168124 0.210898 2.345396 0 255 0
-0.161669 0.212267 2.353161 0 255 0
-0.156950 0.214028 2.362126 0 255 0
-0.155715 0.216567 2.373450 0 255 0
-0.150121 0.218139 2.381838 0 255 0
-0.151507 0.221254 2.394901 0 255 0
-0.138045 0.221102 2.398076 0 255 0
-0.131562 0.222494 2.405931 0 255 0
-0.307422 0.320643 2.292000 255 0 0
-0.301304 0.320801 2.293000 255 0 0
-0.295180 0.320958 2.294000 255 0 0
-0.288671 0.320695 2.292000 255 0 0
-0.282296 0.320572 2.291000 255 0 0
-0.276046 0.320589 2.291000 255 0 0
-0.269913 0.320745 2.292000 255 0 0
-0.264003 0.321181 2.295000 255 0 0
-0.258077 0.321616 2.298000 255 0 0
-0.252242 0.322192 2.302000 255 0 0
-0.246599 0.323046 2.308000 255 0 0
-0.241026 0.324041 2.315000 255 0 0
-0.235921 0.325735 2.327000 255 0 0
-0.235090 0.333589 2.383000 255 0 0
-0.225608 0.329263 2.352000 255 0 0
-0.213126 0.320177 2.287000 255 0 0
-0.205068 0.317390 2.267000 255 0 0
-0.197646 0.315443 2.253000 255 0 0
-0.190469 0.313775 2.241000 255 0 0
-0.183522 0.312386 2.231000 255 0 0
-0.176629 0.310997 2.221000 255 0 0
-0.169866 0.309748 2.212000 255 0 0
-0.163078 0.308358 2.202000 255 0 0
-0.156416 0.307108 2.193000 255 0 0
-0.149871 0.305997 2.185000 255 0 0
-0.143698 0.305587 2.182000 255 0 0
-0.137604 0.305315 2.180000 255 0 0
-0.131581 0.305184 2.179000 255 0 0
-0.125448 0.304772 2.176000 255 0 0
-0.119331 0.304360 2.173000 255 0 0
-0.113334 0.304227 2.172000 255 0 0
-0.107342 0.304094 2.171000 255 0 0
-0.101402 0.304101 2.171000 255 0 0
-0.095330 0.303687 2.168000 255 0 0
-0.089273 0.303273 2.165000 255 0 0
-0.083233 0.302858 2.162000 255 0 0
-0.077316 0.302863 2.162000 255 0 0
-0.071366 0.302728 2.161000 255 0 0
-0.065391 0.302453 2.159000 255 0 0
-0.059454 0.302316 2.158000 255 0 0
-0.053497 0.302040 2.156000 255 0 0
-0.047595 0.302043 2.156000 255 0 0
-0.041694 0.302046 2.156000 255 0 0
-0.035808 0.302189 2.157000 255 0 0
-0.029889 0.302051 2.156000 255 0 0
-0.024009 0.302333 2.158000 255 0 0
-0.018118 0.302614 2.160000 255 0 0
-0.012222 0.303036 2.163000 255 0 0
-0.006309 0.303457 2.166000 255 0 0
-0.000379 0.303877 2.169000 255 0 0
0.005561 0.304017 2.170000 255 0 0
0.011497 0.303876 2.169000 255 0 0
0.017435 0.303876 2.169000 255 0 0
0.023405 0.304294 2.172000 255 0 0
0.029432 0.305133 2.178000 255 0 0
0.035573 0.306672 2.189000 255 0 0
0.041699 0.307650 2.196000 255 0 0
0.047841 0.308488 2.202000 255 0 0
0.053917 0.308765 2.204000 255 0 0
0.060140 0.309742 2.211000 255 0 0
0.066522 0.311279 2.222000 255 0 0
