ply
format ascii 1.0
element vertex 1291
property double x
property double y
property double z
property uchar red
property uchar green
property uchar blue
end_header
0.042241 -0.096382 2.221000 255 0 0
0.048353 -0.096424 2.222000 255 0 0
0.054445 -0.096423 2.222000 255 0 0
0.060618 -0.096552 2.225000 255 0 0
0.066958 -0.096897 2.233000 255 0 0
0.073898 -0.097981 2.258000 255 0 0
-0.137066 -0.463826 2.646209 255 255 0
-0.147535 -0.470938 2.626930 255 255 0
-0.145370 -0.473428 2.615205 255 255 0
-0.139004 -0.474371 2.606030 255 255 0
-0.045898 -0.488804 2.469306 255 255 0
-0.047051 -0.492551 2.455425 255 255 0
-0.035008 -0.491231 2.450386 255 255 0
-0.021668 -0.492698 2.433187 255 255 0
-0.043344 -0.504410 2.405231 255 255 0
-0.043633 -0.507861 2.391794 255 255 0
-0.024245 -0.503654 2.391938 255 255 0
-0.017170 -0.504225 2.383638 255 255 0
-0.000291 -0.500951 2.382221 255 255 0
0.003192 -0.506239 2.358285 255 255 0
-0.066897 -0.581778 2.422870 0 255 0
-0.046320 -0.583498 2.435492 0 255 0
-0.056545 -0.575367 2.454861 0 255 0
-0.179716 -0.493545 2.631380 0 255 0
-0.168228 -0.494997 2.636703 0 255 0
-0.144042 -0.501856 2.634503 0 255 0
-0.137589 -0.501115 2.642982 0 255 0
-0.128590 -0.501450 2.649981 0 255 0
-0.122971 -0.500340 2.659007 0 255 0
-0.334367 -0.102173 2.219000 255 0 0
-0.315888 -0.098312 2.135000 255 0 0
-0.309340 -0.098088 2.130000 255 0 0
-0.302818 -0.097865 2.125000 255 0 0
-0.296602 -0.097733 2.122000 255 0 0
-0.290401 -0.097601 2.119000 255 0 0
-0.285558 -0.097930 2.126000 255 0 0
-0.281203 -0.098442 2.137000 255 0 0
-0.277431 -0.099185 2.153000 255 0 0
-0.273318 -0.099836 2.167000 255 0 0
-0.270239 -0.100902 2.190000 255 0 0
-0.258454 -0.105902 2.298000 255 0 0
-0.251845 -0.105769 2.295000 255 0 0
-0.245036 -0.105545 2.290000 255 0 0
-0.238359 -0.105366 2.286000 255 0 0
-0.232007 -0.105325 2.285000 255 0 0
-0.225759 -0.105330 2.285000 255 0 0
-0.219413 -0.105289 2.284000 255 0 0
-0.212699 -0.105063 2.279000 255 0 0
-0.206736 -0.105207 2.282000 255 0 0
-0.199877 -0.104889 2.275000 255 0 0
-0.193822 -0.104985 2.277000 255 0 0
-0.186932 -0.104621 2.269000 255 0 0
-0.181199 -0.104902 2.275000 255 0 0
-0.175279 -0.105090 2.279000 255 0 0
-0.169485 -0.105371 2.285000 255 0 0
-0.163157 -0.105329 2.284000 255 0 0
-0.156559 -0.105102 2.279000 255 0 0
-0.150648 -0.105336 2.284000 255 0 0
-0.144772 -0.105616 2.290000 255 0 0
-0.138922 -0.105943 2.297000 255 0 0
-0.132630 -0.105946 2.297000 255 0 0
-0.126227 -0.105857 2.295000 255 0 0
-0.119782 -0.105721 2.292000 255 0 0
-0.113007 -0.105263 2.282000 255 0 0
-0.106800 -0.105311 2.283000 255 0 0
-0.100632 -0.105406 2.285000 255 0 0
-0.094122 -0.105132 2.279000 255 0 0
-0.087374 -0.104534 2.266000 255 0 0
-0.080769 -0.104029 2.255000 255 0 0
-0.074555 -0.103984 2.254000 255 0 0
-0.068164 -0.103663 2.247000 255 0 0
-0.061838 -0.103388 2.241000 255 0 0
-0.055446 -0.102928 2.231000 255 0 0
-0.049108 -0.102468 2.221000 255 0 0
-0.042941 -0.102285 2.217000 255 0 0
-0.036730 -0.101916 2.209000 255 0 0
-0.030562 -0.101548 2.201000 255 0 0
-0.024437 -0.101180 2.193000 255 0 0
-0.018416 -0.101134 2.192000 255 0 0
-0.012394 -0.101042 2.190000 255 0 0
-0.006395 -0.101135 2.192000 255 0 0
-0.000384 -0.101181 2.193000 255 0 0
0.005642 -0.101412 2.198000 255 0 0
0.011685 -0.101550 2.201000 255 0 0
0.017760 -0.101780 2.206000 255 0 0
0.023831 -0.101872 2.208000 255 0 0
0.029912 -0.101963 2.210000 255 0 0
0.036053 -0.102193 2.215000 255 0 0
0.042183 -0.102331 2.218000 255 0 0
0.048330 -0.102468 2.221000 255 0 0
0.054566 -0.102744 2.227000 255 0 0
0.060726 -0.102835 2.229000 255 0 0
0.067016 -0.103110 2.235000 255 0 0
0.073601 -0.103754 2.249000 255 0 0
-0.151170 -0.480833 2.639295 255 255 0
-0.151525 -0.484262 2.626051 255 255 0
-0.135916 -0.481771 2.622445 255 255 0
-0.047327 -0.501093 2.469743 255 255 0
-0.050122 -0.505496 2.454753 255 255 0
-0.042197 -0.505750 2.446922 255 255 0
-0.031813 -0.505039 2.440787 255 255 0
-0.020623 -0.504001 2.435250 255 255 0
-0.038179 -0.514189 2.410118 255 255 0
0.010884 -0.504925 2.404468 255 255 0
0.002392 -0.511599 2.385412 255 255 0
0.020051 -0.507946 2.384642 255 255 0
-0.054146 -0.599433 2.416182 0 255 0
-0.055142 -0.595314 2.429743 0 255 0
-0.047777 -0.594897 2.437956 0 255 0
-0.173151 -0.511365 2.616681 0 255 0
-0.162828 -0.508842 2.635015 0 255 0
-0.157237 -0.507759 2.643949 0 255 0
-0.156717 -0.504494 2.655910 0 255 0
-0.148583 -0.504495 2.663364 0 255 0
-0.140439 -0.504491 2.670848 0 255 0
-0.124655 -0.507735 2.673917 0 255 0
-0.124125 -0.504463 2.685912 0 255 0
-0.322391 -0.106299 2.179000 255 0 0
-0.311221 -0.104550 2.143000 255 0 0
-0.304521 -0.104264 2.137000 255 0 0
-0.298132 -0.104076 2.133000 255 0 0
-0.291353 -0.103741 2.126000 255 0 0
-0.285418 -0.103699 2.125000 255 0 0
-0.280276 -0.103949 2.130000 255 0 0
-0.276007 -0.104541 2.142000 255 0 0
-0.271799 -0.105182 2.155000 255 0 0
-0.267888 -0.105969 2.171000 255 0 0
-0.259348 -0.112584 2.306000 255 0 0
-0.252168 -0.112199 2.298000 255 0 0
-0.245031 -0.111815 2.290000 255 0 0
-0.238249 -0.111576 2.285000 255 0 0
-0.231900 -0.111533 2.284000 255 0 0
-0.225951 -0.111685 2.287000 255 0 0
-0.219696 -0.111690 2.287000 255 0 0
-0.212974 -0.111452 2.282000 255 0 0
-0.207003 -0.111603 2.285000 255 0 0
-0.200488 -0.111462 2.282000 255 0 0
-0.194328 -0.111515 2.283000 255 0 0
-0.187421 -0.111129 2.275000 255 0 0
-0.181513 -0.111329 2.279000 255 0 0
-0.175582 -0.111529 2.283000 255 0 0
-0.169555 -0.111680 2.286000 255 0 0
-0.163367 -0.111733 2.287000 255 0 0
-0.156693 -0.111443 2.281000 255 0 0
-0.150908 -0.111789 2.288000 255 0 0
-0.145021 -0.112086 2.294000 255 0 0
-0.138979 -0.112285 2.298000 255 0 0
-0.132627 -0.112240 2.297000 255 0 0
-0.126224 -0.112145 2.295000 255 0 0
-0.119779 -0.112002 2.292000 255 0 0
-0.113301 -0.111809 2.288000 255 0 0
-0.106985 -0.111763 2.287000 255 0 0
-0.100894 -0.111961 2.291000 255 0 0
-0.094243 -0.111524 2.282000 255 0 0
-0.087333 -0.110695 2.265000 255 0 0
-0.080731 -0.110160 2.254000 255 0 0
-0.074553 -0.110162 2.254000 255 0 0
-0.068253 -0.109968 2.250000 255 0 0
-0.061837 -0.109530 2.241000 255 0 0
-0.055420 -0.108994 2.230000 255 0 0
-0.049085 -0.108506 2.220000 255 0 0
-0.043037 -0.108605 2.222000 255 0 0
-0.036812 -0.108215 2.214000 255 0 0
-0.030630 -0.107825 2.206000 255 0 0
-0.024459 -0.107288 2.195000 255 0 0
-0.018432 -0.107240 2.194000 255 0 0
-0.012399 -0.107094 2.191000 255 0 0
-0.006392 -0.107094 2.191000 255 0 0
-0.000384 -0.107192 2.193000 255 0 0
0.005639 -0.107387 2.197000 255 0 0
0.011679 -0.107533 2.200000 255 0 0
0.017736 -0.107680 2.203000 255 0 0
0.023841 -0.107972 2.209000 255 0 0
0.029925 -0.108070 2.211000 255 0 0
0.036068 -0.108313 2.216000 255 0 0
0.042163 -0.108361 2.217000 255 0 0
0.048394 -0.108702 2.224000 255 0 0
0.054712 -0.109141 2.233000 255 0 0
0.060888 -0.109237 2.235000 255 0 0
0.067135 -0.109431 2.239000 255 0 0
0.073567 -0.109869 2.248000 255 0 0
-0.139545 -0.491657 2.634783 255 255 0
-0.064725 -0.522977 2.446380 255 255 0
-0.047730 -0.519681 2.444580 255 255 0
-0.040630 -0.520243 2.436194 255 255 0
-0.040402 -0.526858 2.409955 255 255 0
-0.038228 -0.529362 2.398211 255 255 0
-0.015878 -0.527225 2.387194 255 255 0
0.001806 -0.523543 2.386320 255 255 0
-0.040037 -0.610393 2.434575 0 255 0
-0.036007 -0.608491 2.444963 0 255 0
-0.178402 -0.524111 2.609124 0 255 0
-0.173667 -0.522675 2.618535 0 255 0
-0.163028 -0.523810 2.624396 0 255 0
-0.142017 -0.522400 2.648770 0 255 0
-0.138946 -0.520216 2.659270 0 255 0
-0.136722 -0.517667 2.670266 0 255 0
-0.301620 -0.111200 2.158000 255 0 0
-0.295321 -0.111052 2.155000 255 0 0
-0.288097 -0.110544 2.145000 255 0 0
-0.281453 -0.110242 2.139000 255 0 0
-0.276645 -0.110661 2.147000 255 0 0
-0.271918 -0.111131 2.156000 255 0 0
-0.268129 -0.112014 2.173000 255 0 0
-0.251833 -0.118336 2.295000 255 0 0
-0.245453 -0.118291 2.294000 255 0 0
-0.238973 -0.118194 2.292000 255 0 0
-0.232707 -0.118200 2.292000 255 0 0
-0.226340 -0.118154 2.291000 255 0 0
-0.219883 -0.118056 2.289000 255 0 0
-0.213155 -0.117804 2.284000 255 0 0
-0.207088 -0.117912 2.286000 255 0 0
-0.200658 -0.117815 2.284000 255 0 0
-0.194323 -0.117768 2.283000 255 0 0
-0.187664 -0.117515 2.278000 255 0 0
-0.181509 -0.117571 2.279000 255 0 0
-0.175732 -0.117886 2.285000 255 0 0
-0.169699 -0.118045 2.288000 255 0 0
-0.163578 -0.118152 2.290000 255 0 0
-0.157238 -0.118105 2.289000 255 0 0
-0.151366 -0.118419 2.295000 255 0 0
-0.145396 -0.118680 2.300000 255 0 0
-0.139218 -0.118787 2.302000 255 0 0
-0.132681 -0.118585 2.298000 255 0 0
-0.126386 -0.118588 2.298000 255 0 0
-0.120038 -0.118540 2.297000 255 0 0
-0.113694 -0.118491 2.296000 255 0 0
-0.107356 -0.118442 2.295000 255 0 0
-0.101287 -0.118703 2.300000 255 0 0
-0.094943 -0.118654 2.299000 255 0 0
-0.087601 -0.117263 2.272000 255 0 0
-0.080693 -0.116285 2.253000 255 0 0
-0.074518 -0.116287 2.253000 255 0 0
-0.068281 -0.116186 2.251000 255 0 0
-0.061835 -0.115671 2.241000 255 0 0
-0.055443 -0.115157 2.231000 255 0 0
-0.049106 -0.114642 2.221000 255 0 0
-0.043016 -0.114643 2.221000 255 0 0
-0.036827 -0.114334 2.215000 255 0 0
-0.030671 -0.114026 2.209000 255 0 0
-0.024503 -0.113510 2.199000 255 0 0
-0.018440 -0.113304 2.195000 255 0 0
-0.012410 -0.113201 2.193000 255 0 0
-0.006397 -0.113202 2.193000 255 0 0
-0.000385 -0.113357 2.196000 255 0 0
0.005654 -0.113718 2.203000 255 0 0
0.011695 -0.113718 2.203000 255 0 0
0.017743 -0.113769 2.204000 255 0 0
0.023840 -0.114026 2.209000 255 0 0
0.029951 -0.114232 2.213000 255 0 0
0.036100 -0.114489 2.218000 255 0 0
0.042181 -0.114488 2.218000 255 0 0
0.048436 -0.114900 2.226000 255 0 0
0.054710 -0.115260 2.233000 255 0 0
0.060914 -0.115413 2.236000 255 0 0
0.067133 -0.115566 2.239000 255 0 0
0.073565 -0.116029 2.248000 255 0 0
-0.163145 -0.499095 2.674307 255 255 0
-0.133453 -0.501204 2.639967 255 255 0
-0.058721 -0.532451 2.451782 255 255 0
-0.059837 -0.536258 2.437829 255 255 0
-0.053546 -0.537141 2.428843 255 255 0
-0.058753 -0.542583 2.412068 255 255 0
-0.048361 -0.541837 2.405879 255 255 0
-0.018326 -0.533244 2.413230 255 255 0
-0.026804 -0.539996 2.394188 255 255 0
-0.018091 -0.539883 2.386989 255 255 0
-0.013472 -0.541405 2.376971 255 255 0
-0.031687 -0.552120 2.350928 255 255 0
-0.137722 -0.542951 2.623085 0 255 0
-0.125943 -0.537480 2.653205 0 255 0
-0.114398 -0.538960 2.658799 0 255 0
-0.113000 -0.536028 2.670358 0 255 0
-0.107367 -0.534930 2.679456 0 255 0
-0.251716 -0.124564 2.294000 255 0 0
-0.245553 -0.124625 2.295000 255 0 0
-0.239593 -0.124794 2.298000 255 0 0
-0.232904 -0.124583 2.294000 255 0 0
-0.226137 -0.124318 2.289000 255 0 0
-0.219781 -0.124270 2.288000 255 0 0
-0.213523 -0.124275 2.288000 255 0 0
-0.207445 -0.124390 2.290000 255 0 0
-0.201004 -0.124287 2.288000 255 0 0
-0.194659 -0.124238 2.287000 255 0 0
-0.188071 -0.124026 2.283000 255 0 0
-0.181822 -0.124031 2.283000 255 0 0
-0.175573 -0.124035 2.283000 255 0 0
-0.169324 -0.124040 2.283000 255 0 0
-0.163359 -0.124262 2.287000 255 0 0
-0.157440 -0.124538 2.292000 255 0 0
-0.151692 -0.124977 2.300000 255 0 0
-0.145456 -0.125036 2.301000 255 0 0
-0.139214 -0.125094 2.302000 255 0 0
-0.132908 -0.125098 2.302000 255 0 0
-0.126822 -0.125319 2.306000 255 0 0
-0.120452 -0.125268 2.305000 255 0 0
-0.114286 -0.125434 2.308000 255 0 0
-0.107821 -0.125274 2.305000 255 0 0
-0.101857 -0.125712 2.313000 255 0 0
-0.095684 -0.125932 2.317000 255 0 0
-0.088100 -0.124195 2.285000 255 0 0
-0.080942 -0.122839 2.260000 255 0 0
-0.074483 -0.122406 2.252000 255 0 0
-0.068189 -0.122191 2.248000 255 0 0
-0.061833 -0.121812 2.241000 255 0 0
-0.055441 -0.121270 2.231000 255 0 0
-0.049082 -0.120674 2.220000 255 0 0
-0.042977 -0.120621 2.219000 255 0 0
-0.036876 -0.120567 2.218000 255 0 0
-0.030767 -0.120460 2.216000 255 0 0
-0.024580 -0.119917 2.206000 255 0 0
-0.018473 -0.119537 2.199000 255 0 0
-0.012421 -0.119320 2.195000 255 0 0
-0.006403 -0.119320 2.195000 255 0 0
-0.000385 -0.119538 2.199000 255 0 0
0.005652 -0.119701 2.202000 255 0 0
0.011689 -0.119701 2.202000 255 0 0
0.017719 -0.119646 2.201000 255 0 0
0.023829 -0.120026 2.208000 255 0 0
0.029964 -0.120351 2.214000 255 0 0
0.036132 -0.120676 2.220000 255 0 0
0.042237 -0.120730 2.221000 255 0 0
0.048457 -0.121054 2.227000 255 0 0
0.054684 -0.121325 2.232000 255 0 0
0.060912 -0.121540 2.236000 255 0 0
0.067101 -0.121647 2.238000 255 0 0
0.073530 -0.122135 2.247000 255 0 0
-0.154025 -0.510860 2.668231 255 255 0
-0.146810 -0.511457 2.659505 255 255 0
-0.124478 -0.506313 2.659831 255 255 0
-0.125689 -0.510086 2.646154 255 255 0
-0.043354 -0.534818 2.476553 255 255 0
-0.053017 -0.545390 2.443794 255 255 0
-0.054125 -0.549214 2.429831 255 255 0
-0.058504 -0.554357 2.413612 255 255 0
-0.060407 -0.558522 2.399022 255 255 0
-0.056567 -0.560388 2.388330 255 255 0
-0.036373 -0.555660 2.388928 255 255 0
-0.008333 -0.551111 2.381885 255 255 0
-0.027356 -0.562226 2.355296 255 255 0
-0.121682 -0.558125 2.627489 0 255 0
-0.142222 -0.545538 2.652063 0 255 0
-0.118872 -0.552243 2.650646 0 255 0
-0.120008 -0.548195 2.663694 0 255 0
-0.123690 -0.543045 2.678193 0 255 0
-0.118067 -0.541960 2.687269 0 255 0
-0.259665 -0.131692 2.309000 255 0 0
-0.251490 -0.130730 2.292000 255 0 0
-0.245868 -0.131079 2.298000 255 0 0
-0.240316 -0.131485 2.305000 255 0 0
-0.233405 -0.131149 2.299000 255 0 0
-0.226625 -0.130870 2.294000 255 0 0
-0.219871 -0.130591 2.289000 255 0 0
-0.213704 -0.130654 2.290000 255 0 0
-0.207349 -0.130603 2.289000 255 0 0
-0.201175 -0.130666 2.290000 255 0 0
-0.194824 -0.130615 2.289000 255 0 0
-0.188313 -0.130449 2.286000 255 0 0
-0.181738 -0.130226 2.282000 255 0 0
-0.175568 -0.130288 2.283000 255 0 0
-0.169467 -0.130407 2.285000 255 0 0
-0.163497 -0.130640 2.289000 255 0 0
-0.157642 -0.130987 2.295000 255 0 0
-0.151687 -0.131277 2.300000 255 0 0
-0.145641 -0.131510 2.304000 255 0 0
-0.139512 -0.131685 2.307000 255 0 0
-0.133424 -0.131917 2.311000 255 0 0
-0.127479 -0.132321 2.318000 255 0 0
-0.121024 -0.132210 2.316000 255 0 0
-0.114728 -0.132271 2.317000 255 0 0
-0.108239 -0.132103 2.314000 255 0 0
-0.102207 -0.132505 2.321000 255 0 0
-0.095846 -0.132508 2.321000 255 0 0
-0.088560 -0.131141 2.297000 255 0 0
-0.081154 -0.129373 2.266000 255 0 0
-0.074646 -0.128862 2.257000 255 0 0
-0.068338 -0.128636 2.253000 255 0 0
-0.061997 -0.128295 2.247000 255 0 0
-0.055639 -0.127840 2.239000 255 0 0
-0.049258 -0.127213 2.228000 255 0 0
-0.043053 -0.126929 2.223000 255 0 0
-0.036908 -0.126759 2.220000 255 0 0
-0.030780 -0.126589 2.217000 255 0 0
-0.024591 -0.126019 2.207000 255 0 0
-0.018456 -0.125448 2.197000 255 0 0
-0.012410 -0.125220 2.193000 255 0 0
-0.006406 -0.125392 2.196000 255 0 0
-0.000386 -0.125678 2.201000 255 0 0
0.005654 -0.125792 2.203000 255 0 0
0.011689 -0.125734 2.202000 255 0 0
0.017734 -0.125791 2.203000 255 0 0
0.023828 -0.126076 2.208000 255 0 0
0.029949 -0.126361 2.213000 255 0 0
0.036131 -0.126759 2.220000 255 0 0
0.042274 -0.126929 2.223000 255 0 0
0.048455 -0.127157 2.227000 255 0 0
0.054609 -0.127269 2.229000 255 0 0
0.060801 -0.127439 2.232000 255 0 0
0.067069 -0.127722 2.237000 255 0 0
0.073463 -0.128177 2.245000 255 0 0
-0.142030 -0.518167 2.676849 255 255 0
-0.139392 -0.523822 2.652463 255 255 0
-0.156847 -0.537221 2.615880 255 255 0
-0.074423 -0.559015 2.457343 255 255 0
-0.068117 -0.559890 2.448302 255 255 0
-0.070857 -0.564394 2.433215 255 255 0
-0.056344 -0.561962 2.429716 255 255 0
-0.055794 -0.565147 2.416827 255 255 0
-0.066948 -0.576504 2.382574 255 255 0
-0.039393 -0.568739 2.388195 255 255 0
-0.017606 -0.563278 2.389998 255 255 0
-0.012985 -0.564795 2.379968 255 255 0
-0.014881 -0.568980 2.365374 255 255 0
-0.168268 -0.552695 2.644522 0 255 0
-0.168581 -0.549025 2.656986 0 255 0
-0.157934 -0.550215 2.662946 0 255 0
-0.140519 -0.554380 2.664980 0 255 0
-0.128994 -0.555920 2.670558 0 255 0
-0.125066 -0.554101 2.680610 0 255 0
-0.123676 -0.551167 2.692135 0 255 0
-0.121441 -0.548606 2.703164 0 255 0
-0.252471 -0.137541 2.301000 255 0 0
-0.246182 -0.137548 2.301000 255 0 0
-0.240309 -0.137794 2.305000 255 0 0
-0.232789 -0.137084 2.293000 255 0 0
-0.226421 -0.137031 2.292000 255 0 0
-0.219769 -0.136798 2.288000 255 0 0
-0.213978 -0.137103 2.293000 255 0 0
-0.207615 -0.137050 2.292000 255 0 0
-0.201520 -0.137175 2.294000 255 0 0
-0.195158 -0.137121 2.293000 255 0 0
-0.188719 -0.137008 2.291000 255 0 0
-0.182210 -0.136834 2.288000 255 0 0
-0.176102 -0.136959 2.290000 255 0 0
-0.169907 -0.137024 2.291000 255 0 0
-0.163778 -0.137148 2.293000 255 0 0
-0.157569 -0.137213 2.294000 255 0 0
-0.151551 -0.137457 2.298000 255 0 0
-0.145637 -0.137820 2.304000 255 0 0
-0.139750 -0.138243 2.311000 255 0 0
-0.133998 -0.138846 2.321000 255 0 0
-0.127750 -0.138969 2.323000 255 0 0
-0.121334 -0.138913 2.322000 255 0 0
-0.114873 -0.138797 2.320000 255 0 0
-0.108704 -0.139040 2.324000 255 0 0
-0.102468 -0.139223 2.327000 255 0 0
-0.096256 -0.139465 2.331000 255 0 0
-0.088904 -0.137972 2.306000 255 0 0
-0.081761 -0.136599 2.283000 255 0 0
-0.074941 -0.135584 2.266000 255 0 0
-0.068457 -0.135048 2.257000 255 0 0
-0.062078 -0.134631 2.250000 255 0 0
-0.055687 -0.134094 2.241000 255 0 0
-0.049344 -0.133557 2.232000 255 0 0
-0.043071 -0.133080 2.224000 255 0 0
-0.036907 -0.132842 2.220000 255 0 0
-0.030752 -0.132544 2.215000 255 0 0
-0.024601 -0.132126 2.208000 255 0 0
-0.018472 -0.131588 2.199000 255 0 0
-0.012421 -0.131349 2.195000 255 0 0
-0.006408 -0.131469 2.197000 255 0 0
-0.000385 -0.131648 2.200000 255 0 0
0.005644 -0.131589 2.199000 255 0 0
0.011683 -0.131708 2.201000 255 0 0
0.017726 -0.131767 2.202000 255 0 0
0.023849 -0.132245 2.210000 255 0 0
0.029894 -0.132185 2.209000 255 0 0
0.036064 -0.132603 2.216000 255 0 0
0.042216 -0.132841 2.220000 255 0 0
0.048388 -0.133079 2.224000 255 0 0
0.054558 -0.133257 2.227000 255 0 0
0.060663 -0.133255 2.227000 255 0 0
0.066887 -0.133492 2.231000 255 0 0
0.073264 -0.133969 2.239000 255 0 0
-0.123317 -0.522825 2.689415 255 255 0
-0.148750 -0.542661 2.635374 255 255 0
-0.059065 -0.561323 2.482099 255 255 0
-0.077471 -0.572138 2.456732 255 255 0
-0.069517 -0.572342 2.448771 255 255 0
-0.057465 -0.570879 2.443588 255 255 0
-0.056918 -0.574070 2.430714 255 255 0
-0.051447 -0.575264 2.421153 255 255 0
-0.050891 -0.578460 2.408255 255 255 0
-0.056871 -0.584336 2.390854 255 255 0
-0.056294 -0.587543 2.377898 255 255 0
-0.002958 -0.572475 2.388289 255 255 0
-0.017073 -0.581717 2.365164 255 255 0
-0.161214 -0.567441 2.641870 0 255 0
-0.169940 -0.559989 2.659369 0 255 0
-0.178687 -0.552553 2.676796 0 255 0
-0.166360 -0.554520 2.681762 0 255 0
-0.126992 -0.568478 2.671001 0 255 0
-0.125597 -0.565536 2.682539 0 255 0
-0.126742 -0.561475 2.695531 0 255 0
-0.130435 -0.556298 2.709956 0 255 0
-0.252024 -0.143588 2.297000 255 0 0
-0.246602 -0.144096 2.305000 255 0 0
-0.240510 -0.144228 2.307000 255 0 0
-0.233493 -0.143798 2.300000 255 0 0
-0.227007 -0.143680 2.298000 255 0 0
-0.219954 -0.143186 2.290000 255 0 0
-0.214064 -0.143443 2.294000 255 0 0
-0.207608 -0.143325 2.292000 255 0 0
-0.201778 -0.143644 2.297000 255 0 0
-0.195493 -0.143650 2.297000 255 0 0
-0.189125 -0.143593 2.296000 255 0 0
-0.182444 -0.143286 2.291000 255 0 0
-0.176173 -0.143292 2.291000 255 0 0
-0.170050 -0.143422 2.293000 255 0 0
-0.163844 -0.143490 2.294000 255 0 0
-0.157632 -0.143558 2.295000 255 0 0
-0.151678 -0.143875 2.300000 255 0 0
-0.146012 -0.144506 2.310000 255 0 0
-0.140351 -0.145198 2.321000 255 0 0
-0.134455 -0.145703 2.329000 255 0 0
-0.128021 -0.145645 2.328000 255 0 0
-0.121487 -0.145461 2.325000 255 0 0
-0.115018 -0.145340 2.323000 255 0 0
-0.109028 -0.145844 2.331000 255 0 0
-0.102729 -0.145972 2.333000 255 0 0
-0.096377 -0.146038 2.334000 255 0 0
-0.089056 -0.144539 2.310000 255 0 0
-0.081758 -0.142853 2.283000 255 0 0
-0.074972 -0.141854 2.267000 255 0 0
-0.068546 -0.141418 2.260000 255 0 0
-0.062159 -0.140982 2.253000 255 0 0
-0.055859 -0.140671 2.248000 255 0 0
-0.049453 -0.139985 2.237000 255 0 0
-0.043147 -0.139423 2.228000 255 0 0
-0.036873 -0.138799 2.218000 255 0 0
-0.030681 -0.138299 2.210000 255 0 0
-0.024556 -0.137924 2.204000 255 0 0
-0.018472 -0.137612 2.199000 255 0 0
-0.012420 -0.137362 2.195000 255 0 0
-0.006411 -0.137551 2.198000 255 0 0
-0.000386 -0.137738 2.201000 255 0 0
0.005654 -0.137863 2.203000 255 0 0
0.011694 -0.137863 2.203000 255 0 0
0.017757 -0.138050 2.206000 255 0 0
0.023859 -0.138363 2.211000 255 0 0
0.029948 -0.138487 2.213000 255 0 0
0.036080 -0.138736 2.217000 255 0 0
0.042214 -0.138923 2.220000 255 0 0
0.048409 -0.139234 2.225000 255 0 0
0.054606 -0.139483 2.229000 255 0 0
0.060716 -0.139481 2.229000 255 0 0
0.066885 -0.139604 2.231000 255 0 0
0.073393 -0.140353 2.243000 255 0 0
-0.102890 -0.533352 2.677280 255 255 0
-0.155232 -0.557110 2.633028 255 255 0
-0.086452 -0.536925 2.648515 255 255 0
-0.084322 -0.539425 2.636911 255 255 0
-0.059654 -0.573402 2.483122 255 255 0
-0.050896 -0.573250 2.475749 255 255 0
-0.047902 -0.575437 2.464573 255 255 0
-0.056399 -0.582320 2.445696 255 255 0
-0.049289 -0.582835 2.437240 255 255 0
-0.053654 -0.588055 2.421036 255 255 0
-0.058821 -0.593619 2.404226 255 255 0
-0.059063 -0.597171 2.390721 255 255 0
-0.044027 -0.597866 2.374375 255 255 0
-0.155013 -0.581864 2.639738 0 255 0
-0.176350 -0.568683 2.664753 0 255 0
-0.201943 -0.553640 2.692109 0 255 0
-0.166874 -0.565860 2.683654 0 255 0
-0.246274 -0.150208 2.302000 255 0 0
-0.240086 -0.150281 2.303000 255 0 0
-0.233384 -0.150028 2.299000 255 0 0
-0.227098 -0.150035 2.299000 255 0 0
-0.220524 -0.149846 2.296000 255 0 0
-0.214711 -0.150180 2.301000 255 0 0
-0.208236 -0.150056 2.299000 255 0 0
-0.202035 -0.150128 2.300000 255 0 0
-0.195487 -0.149938 2.297000 255 0 0
-0.189284 -0.150010 2.298000 255 0 0
-0.182756 -0.149820 2.295000 255 0 0
-0.176244 -0.149630 2.292000 255 0 0
-0.170119 -0.149766 2.294000 255 0 0
-0.164196 -0.150098 2.299000 255 0 0
-0.158245 -0.150430 2.304000 255 0 0
-0.152267 -0.150761 2.309000 255 0 0
-0.146449 -0.151289 2.317000 255 0 0
-0.140769 -0.152012 2.328000 255 0 0
-0.134624 -0.152277 2.332000 255 0 0
-0.128237 -0.152282 2.332000 255 0 0
-0.121692 -0.152090 2.329000 255 0 0
-0.115410 -0.152224 2.331000 255 0 0
-0.109351 -0.152685 2.338000 255 0 0
-0.102945 -0.152689 2.338000 255 0 0
-0.096415 -0.152496 2.335000 255 0 0
-0.088976 -0.150736 2.308000 255 0 0
-0.081684 -0.148975 2.281000 255 0 0
-0.074870 -0.147868 2.264000 255 0 0
-0.068332 -0.147152 2.253000 255 0 0
-0.062019 -0.146827 2.248000 255 0 0
-0.055733 -0.146503 2.243000 255 0 0
-0.049385 -0.145917 2.234000 255 0 0
-0.043068 -0.145265 2.224000 255 0 0
-0.036838 -0.144744 2.216000 255 0 0
-0.030666 -0.144288 2.209000 255 0 0
-0.024555 -0.143962 2.204000 255 0 0
-0.018488 -0.143767 2.201000 255 0 0
-0.012437 -0.143572 2.198000 255 0 0
-0.006420 -0.143768 2.201000 255 0 0
-0.000386 -0.143768 2.201000 255 0 0
0.005654 -0.143898 2.203000 255 0 0
0.011704 -0.144029 2.205000 255 0 0
0.017773 -0.144224 2.208000 255 0 0
0.023880 -0.144550 2.213000 255 0 0
0.029974 -0.144680 2.215000 255 0 0
0.036127 -0.145005 2.220000 255 0 0
0.042213 -0.145004 2.220000 255 0 0
0.048429 -0.145394 2.226000 255 0 0
0.054677 -0.145785 2.232000 255 0 0
0.060768 -0.145717 2.231000 255 0 0
0.066853 -0.145650 2.230000 255 0 0
0.073325 -0.146366 2.241000 255 0 0
-0.132254 -0.543215 2.713069 255 255 0
-0.138885 -0.552509 2.683352 255 255 0
-0.101855 -0.544712 2.679422 255 255 0
-0.126526 -0.557766 2.651761 255 255 0
-0.109300 -0.554346 2.649136 255 255 0
-0.107148 -0.556861 2.637473 255 255 0
-0.062710 -0.586506 2.482525 255 255 0
-0.051483 -0.585329 2.476765 255 255 0
-0.058342 -0.591569 2.459022 255 255 0
-0.047948 -0.590724 2.452750 255 255 0
-0.040028 -0.590886 2.444863 255 255 0
-0.057496 -0.601548 2.419818 255 255 0
-0.046295 -0.600359 2.414134 255 255 0
-0.029394 -0.596783 2.412411 255 255 0
-0.169834 -0.586779 2.650167 0 255 0
-0.172660 -0.581932 2.664138 0 255 0
-0.172129 -0.578617 2.676086 0 255 0
-0.196884 -0.563884 2.702850 0 255 0
-0.245624 -0.156100 2.296000 255 0 0
-0.240078 -0.156584 2.303000 255 0 0
-0.234290 -0.156931 2.308000 255 0 0
-0.227980 -0.156939 2.308000 255 0 0
-0.221285 -0.156674 2.304000 255 0 0
-0.214891 -0.156614 2.303000 255 0 0
-0.208229 -0.156349 2.299000 255 0 0
-0.201765 -0.156220 2.297000 255 0 0
-0.195651 -0.156362 2.299000 255 0 0
-0.189442 -0.156437 2.300000 255 0 0
-0.183308 -0.156579 2.302000 255 0 0
-0.176546 -0.156177 2.296000 255 0 0
-0.170484 -0.156387 2.299000 255 0 0
-0.164476 -0.156665 2.303000 255 0 0
-0.158584 -0.157078 2.309000 255 0 0
-0.152723 -0.157560 2.316000 255 0 0
-0.146697 -0.157905 2.321000 255 0 0
-0.140946 -0.158590 2.331000 255 0 0
-0.134735 -0.158799 2.334000 255 0 0
-0.128672 -0.159212 2.340000 255 0 0
-0.122106 -0.159012 2.337000 255 0 0
-0.115902 -0.159288 2.341000 255 0 0
-0.109488 -0.159292 2.341000 255 0 0
-0.103118 -0.159364 2.342000 255 0 0
-0.096412 -0.158891 2.335000 255 0 0
-0.088510 -0.156241 2.296000 255 0 0
-0.081216 -0.154338 2.268000 255 0 0
-0.074669 -0.153660 2.258000 255 0 0
-0.068269 -0.153187 2.251000 255 0 0
-0.062017 -0.152985 2.248000 255 0 0
-0.055706 -0.152578 2.242000 255 0 0
-0.049428 -0.152172 2.236000 255 0 0
-0.043144 -0.151629 2.228000 255 0 0
-0.036870 -0.150950 2.218000 255 0 0
-0.030693 -0.150475 2.211000 255 0 0
-0.024543 -0.149931 2.203000 255 0 0
-0.018504 -0.149932 2.203000 255 0 0
-0.012465 -0.149932 2.203000 255 0 0
-0.006431 -0.150069 2.205000 255 0 0
-0.000386 -0.149933 2.203000 255 0 0
0.005653 -0.149933 2.203000 255 0 0
0.011709 -0.150137 2.206000 255 0 0
0.017788 -0.150408 2.210000 255 0 0
0.023879 -0.150612 2.213000 255 0 0
0.030013 -0.150951 2.218000 255 0 0
0.036158 -0.151222 2.222000 255 0 0
0.042325 -0.151493 2.226000 255 0 0
0.048514 -0.151764 2.230000 255 0 0
0.054798 -0.152238 2.237000 255 0 0
0.060902 -0.152168 2.236000 255 0 0
0.067031 -0.152166 2.236000 255 0 0
0.073584 -0.153048 2.249000 255 0 0
-0.137947 -0.557268 2.711328 255 255 0
-0.138316 -0.560780 2.698191 255 255 0
-0.131117 -0.561317 2.689471 255 255 0
-0.114697 -0.558205 2.686228 255 255 0
-0.102497 -0.556739 2.680570 255 255 0
-0.106220 -0.561577 2.665446 255 255 0
-0.089361 -0.605914 2.479683 255 255 0
-0.078925 -0.605069 2.473277 255 255 0
-0.068770 -0.607779 2.453487 255 255 0
-0.063286 -0.608962 2.443881 255 255 0
-0.034871 -0.600595 2.449718 255 255 0
-0.018253 -0.600534 2.434594 255 255 0
-0.003837 -0.597929 2.431265 255 255 0
-0.245509 -0.162311 2.295000 255 0 0
-0.240070 -0.162885 2.303000 255 0 0
-0.234181 -0.163176 2.307000 255 0 0
-0.228269 -0.163467 2.311000 255 0 0
-0.221854 -0.163404 2.310000 255 0 0
-0.215536 -0.163412 2.310000 255 0 0
-0.208584 -0.162924 2.303000 255 0 0
-0.201933 -0.162648 2.299000 255 0 0
-0.195729 -0.162726 2.300000 255 0 0
-0.189683 -0.162945 2.303000 255 0 0
-0.183620 -0.163163 2.306000 255 0 0
-0.177309 -0.163170 2.306000 255 0 0
-0.171146 -0.163317 2.308000 255 0 0
-0.164971 -0.163465 2.310000 255 0 0
-0.158784 -0.163612 2.312000 255 0 0
-0.152718 -0.163901 2.316000 255 0 0
-0.146692 -0.164260 2.321000 255 0 0
-0.141122 -0.165185 2.334000 255 0 0
-0.134903 -0.165402 2.337000 255 0 0
-0.128998 -0.166044 2.346000 255 0 0
-0.122676 -0.166190 2.348000 255 0 0
-0.116244 -0.166194 2.348000 255 0 0
-0.109391 -0.165561 2.339000 255 0 0
-0.102982 -0.165565 2.339000 255 0 0
-0.096285 -0.165073 2.332000 255 0 0
-0.088276 -0.162104 2.290000 255 0 0
-0.081069 -0.160266 2.264000 255 0 0
-0.074568 -0.159632 2.255000 255 0 0
-0.068266 -0.159351 2.251000 255 0 0
-0.061904 -0.158858 2.244000 255 0 0
-0.055629 -0.158506 2.239000 255 0 0
-0.049338 -0.158013 2.232000 255 0 0
-0.043084 -0.157519 2.225000 255 0 0
-0.036869 -0.157025 2.218000 255 0 0
-0.030734 -0.156743 2.214000 255 0 0
-0.024609 -0.156390 2.209000 255 0 0
-0.018545 -0.156320 2.208000 255 0 0
-0.012487 -0.156249 2.207000 255 0 0
-0.006431 -0.156108 2.205000 255 0 0
-0.000386 -0.156037 2.204000 255 0 0
0.005661 -0.156179 2.206000 255 0 0
0.011724 -0.156391 2.209000 255 0 0
0.017812 -0.156674 2.213000 255 0 0
0.023878 -0.156673 2.213000 255 0 0
0.030026 -0.157097 2.219000 255 0 0
0.036157 -0.157308 2.222000 255 0 0
0.042400 -0.157873 2.230000 255 0 0
0.048621 -0.158225 2.235000 255 0 0
0.054821 -0.158436 2.238000 255 0 0
0.060873 -0.158221 2.235000 255 0 0
0.067088 -0.158431 2.238000 255 0 0
0.073810 -0.159703 2.256000 255 0 0
-0.130071 -0.572757 2.691638 255 255 0
-0.122881 -0.573279 2.682936 255 255 0
-0.109836 -0.571457 2.677739 255 255 0
-0.109362 -0.574647 2.665094 255 255 0
-0.150975 -0.598162 2.613977 255 255 0
-0.108866 -0.625969 2.468372 255 255 0
-0.091009 -0.622037 2.466760 255 255 0
-0.078934 -0.620485 2.461433 255 255 0
-0.073440 -0.621668 2.451793 255 255 0
-0.064672 -0.621475 2.444356 255 255 0
-0.038175 -0.617290 2.435660 255 255 0
-0.024549 -0.615010 2.431679 255 255 0
-0.010945 -0.612719 2.427758 255 255 0
-0.244645 -0.168003 2.287000 255 0 0
-0.240479 -0.169480 2.307000 255 0 0
-0.234680 -0.169856 2.312000 255 0 0
-0.228952 -0.170305 2.318000 255 0 0
-0.222230 -0.170019 2.314000 255 0 0
-0.215529 -0.169733 2.310000 255 0 0
-0.208396 -0.169080 2.301000 255 0 0
-0.202102 -0.169087 2.301000 255 0 0
-0.195977 -0.169241 2.303000 255 0 0
-0.190006 -0.169542 2.307000 255 0 0
-0.183852 -0.169696 2.309000 255 0 0
-0.177841 -0.169996 2.313000 255 0 0
-0.171659 -0.170150 2.315000 255 0 0
-0.165393 -0.170229 2.316000 255 0 0
-0.158710 -0.169868 2.311000 255 0 0
-0.152646 -0.170167 2.315000 255 0 0
-0.146750 -0.170687 2.322000 255 0 0
-0.141117 -0.171575 2.334000 255 0 0
-0.134956 -0.171874 2.338000 255 0 0
-0.128883 -0.172320 2.344000 255 0 0
-0.122724 -0.172692 2.349000 255 0 0
-0.116388 -0.172844 2.351000 255 0 0
-0.109620 -0.172333 2.344000 255 0 0
-0.103023 -0.172043 2.340000 255 0 0
-0.096570 -0.171973 2.339000 255 0 0
-0.081067 -0.166466 2.264000 255 0 0
-0.074598 -0.165880 2.256000 255 0 0
-0.068294 -0.165589 2.252000 255 0 0
-0.061929 -0.165077 2.245000 255 0 0
-0.055578 -0.164491 2.237000 255 0 0
-0.049292 -0.163978 2.230000 255 0 0
-0.043063 -0.163538 2.224000 255 0 0
-0.036884 -0.163172 2.219000 255 0 0
-0.030788 -0.163100 2.218000 255 0 0
-0.024653 -0.162733 2.213000 255 0 0
-0.018570 -0.162587 2.211000 255 0 0
-0.012509 -0.162588 2.211000 255 0 0
-0.006442 -0.162441 2.209000 255 0 0
-0.000387 -0.162588 2.211000 255 0 0
0.005668 -0.162441 2.209000 255 0 0
0.011750 -0.162808 2.214000 255 0 0
0.017827 -0.162881 2.215000 255 0 0
0.023931 -0.163101 2.218000 255 0 0
0.030106 -0.163615 2.225000 255 0 0
0.036270 -0.163908 2.229000 255 0 0
0.042531 -0.164494 2.237000 255 0 0
0.048706 -0.164640 2.239000 255 0 0
0.054868 -0.164711 2.240000 255 0 0
0.060979 -0.164636 2.239000 255 0 0
0.067206 -0.164854 2.242000 255 0 0
-0.108794 -0.582860 2.679894 255 255 0
-0.087464 -0.632547 2.470523 255 255 0
-0.072932 -0.629933 2.466822 255 255 0
-0.064984 -0.630071 2.458827 255 255 0
-0.050492 -0.627438 2.455239 255 255 0
-0.046099 -0.632538 2.431688 255 255 0
-0.030019 -0.629190 2.429333 255 255 0
-0.030276 -0.632780 2.415904 255 255 0
-0.245385 -0.174793 2.294000 255 0 0
-0.240470 -0.175792 2.307000 255 0 0
-0.234875 -0.176334 2.314000 255 0 0
-0.229043 -0.176724 2.319000 255 0 0
-0.222318 -0.176427 2.315000 255 0 0
-0.215614 -0.176130 2.311000 255 0 0
-0.208932 -0.175833 2.307000 255 0 0
-0.202709 -0.175917 2.308000 255 0 0
-0.196396 -0.175925 2.308000 255 0 0
-0.190410 -0.176237 2.312000 255 0 0
-0.184244 -0.176396 2.314000 255 0 0
-0.178296 -0.176784 2.319000 255 0 0
-0.171949 -0.176791 2.319000 255 0 0
-0.165601 -0.176797 2.319000 255 0 0
-0.158841 -0.176346 2.313000 255 0 0
-0.152641 -0.176504 2.315000 255 0 0
-0.146808 -0.177120 2.323000 255 0 0
-0.140991 -0.177812 2.332000 255 0 0
-0.134836 -0.178122 2.336000 255 0 0
-0.128548 -0.178279 2.338000 255 0 0
-0.122406 -0.178665 2.343000 255 0 0
-0.116136 -0.178899 2.346000 255 0 0
-0.109710 -0.178903 2.346000 255 0 0
-0.103239 -0.178831 2.345000 255 0 0
-0.096112 -0.177538 2.328000 255 0 0
-0.088231 -0.174568 2.289000 255 0 0
-0.081242 -0.173046 2.269000 255 0 0
-0.074727 -0.172362 2.260000 255 0 0
-0.068322 -0.171831 2.253000 255 0 0
-0.061927 -0.171224 2.245000 255 0 0
-0.055576 -0.170616 2.237000 255 0 0
-0.049268 -0.170008 2.229000 255 0 0
-0.043023 -0.169476 2.222000 255 0 0
-0.036866 -0.169172 2.218000 255 0 0
-0.030759 -0.169021 2.216000 255 0 0
-0.024674 -0.168946 2.215000 255 0 0
-0.018577 -0.168718 2.212000 255 0 0
-0.012486 -0.168337 2.207000 255 0 0
-0.006427 -0.168108 2.204000 255 0 0
-0.000387 -0.168566 2.210000 255 0 0
0.005676 -0.168719 2.212000 255 0 0
0.011760 -0.169023 2.216000 255 0 0
0.017827 -0.168947 2.215000 255 0 0
0.023974 -0.169480 2.222000 255 0 0
0.030186 -0.170165 2.231000 255 0 0
0.036415 -0.170698 2.238000 255 0 0
0.042606 -0.170925 2.241000 255 0 0
0.048726 -0.170847 2.240000 255 0 0
0.054865 -0.170845 2.240000 255 0 0
0.060977 -0.170766 2.239000 255 0 0
0.067233 -0.171069 2.243000 255 0 0
-0.050499 -0.642846 2.443384 255 255 0
-0.008831 -0.635468 2.431926 255 255 0
-0.245269 -0.180989 2.293000 255 0 0
-0.240670 -0.182261 2.309000 255 0 0
-0.234765 -0.182585 2.313000 255 0 0
-0.228935 -0.182989 2.318000 255 0 0
-0.221926 -0.182445 2.311000 255 0 0
-0.215420 -0.182295 2.309000 255 0 0
-0.208924 -0.182145 2.307000 255 0 0
-0.202877 -0.182390 2.310000 255 0 0
-0.196473 -0.182319 2.309000 255 0 0
-0.190733 -0.182879 2.316000 255 0 0
-0.184794 -0.183281 2.321000 255 0 0
-0.178827 -0.183683 2.326000 255 0 0
-0.172239 -0.183453 2.323000 255 0 0
-0.165666 -0.183223 2.320000 255 0 0
-0.159110 -0.182992 2.317000 255 0 0
-0.152899 -0.183156 2.319000 255 0 0
-0.147245 -0.184031 2.330000 255 0 0
-0.141046 -0.184274 2.333000 255 0 0
-0.134715 -0.184358 2.334000 255 0 0
-0.128213 -0.184205 2.332000 255 0 0
-0.122087 -0.184605 2.337000 255 0 0
-0.116181 -0.185400 2.347000 255 0 0
-0.110173 -0.186115 2.356000 255 0 0
-0.103939 -0.186514 2.361000 255 0 0
-0.097099 -0.185807 2.352000 255 0 0
-0.088266 -0.180913 2.290000 255 0 0
-0.081454 -0.179732 2.275000 255 0 0
-0.074857 -0.178866 2.264000 255 0 0
-0.068228 -0.177762 2.250000 255 0 0
-0.061787 -0.176975 2.240000 255 0 0
-0.055449 -0.176345 2.232000 255 0 0
-0.049266 -0.176110 2.229000 255 0 0
-0.043021 -0.175559 2.222000 255 0 0
-0.036865 -0.175245 2.218000 255 0 0
-0.030716 -0.174851 2.213000 255 0 0
-0.024651 -0.174852 2.213000 255 0 0
-0.018560 -0.174616 2.210000 255 0 0
-0.012502 -0.174617 2.210000 255 0 0
-0.006439 -0.174459 2.208000 255 0 0
-0.000388 -0.174854 2.213000 255 0 0
0.005673 -0.174696 2.211000 255 0 0
0.011765 -0.175170 2.217000 255 0 0
0.017834 -0.175090 2.216000 255 0 0
0.024027 -0.175958 2.227000 255 0 0
0.030239 -0.176589 2.235000 255 0 0
0.036430 -0.176904 2.239000 255 0 0
0.042566 -0.176903 2.239000 255 0 0
0.048703 -0.176901 2.239000 255 0 0
0.054839 -0.176899 2.239000 255 0 0
0.061056 -0.177133 2.242000 255 0 0
0.067440 -0.177763 2.250000 255 0 0
-0.017015 -0.643867 2.454104 255 255 0
-0.034413 -0.654871 2.429105 255 255 0
-0.246329 -0.188077 2.303000 255 0 0
-0.240869 -0.188740 2.311000 255 0 0
-0.234959 -0.189075 2.315000 255 0 0
-0.229025 -0.189411 2.319000 255 0 0
-0.222301 -0.189093 2.315000 255 0 0
-0.215691 -0.188857 2.312000 255 0 0
-0.209459 -0.188947 2.313000 255 0 0
-0.202957 -0.188792 2.311000 255 0 0
-0.196891 -0.189045 2.314000 255 0 0
-0.190890 -0.189379 2.318000 255 0 0
-0.185185 -0.190040 2.326000 255 0 0
-0.178743 -0.189966 2.325000 255 0 0
-0.172158 -0.189728 2.322000 255 0 0
-0.165517 -0.189408 2.318000 255 0 0
-0.159241 -0.189496 2.319000 255 0 0
-0.153222 -0.189911 2.324000 255 0 0
-0.147302 -0.190489 2.331000 255 0 0
-0.141222 -0.190904 2.336000 255 0 0
-0.134767 -0.190828 2.335000 255 0 0
-0.128428 -0.190915 2.336000 255 0 0
-0.122292 -0.191328 2.341000 255 0 0
-0.116474 -0.192314 2.353000 255 0 0
-0.110543 -0.193218 2.364000 255 0 0
-0.104683 -0.194366 2.378000 255 0 0
-0.098210 -0.194452 2.379000 255 0 0
-0.089303 -0.189389 2.317000 255 0 0
-0.081737 -0.186613 2.283000 255 0 0
-0.075019 -0.185472 2.269000 255 0 0
-0.068286 -0.184085 2.252000 255 0 0
-0.061812 -0.183189 2.241000 255 0 0
-0.055546 -0.182782 2.236000 255 0 0
-0.049374 -0.182621 2.234000 255 0 0
-0.043058 -0.181806 2.224000 255 0 0
-0.036847 -0.181235 2.217000 255 0 0
-0.030673 -0.180664 2.210000 255 0 0
-0.024616 -0.180665 2.210000 255 0 0
-0.018534 -0.180421 2.207000 255 0 0
-0.012485 -0.180422 2.207000 255 0 0
-0.006430 -0.180258 2.205000 255 0 0
-0.000387 -0.180586 2.209000 255 0 0
0.005675 -0.180831 2.212000 255 0 0
0.011770 -0.181321 2.218000 255 0 0
0.017882 -0.181647 2.222000 255 0 0
0.024047 -0.182219 2.229000 255 0 0
0.030224 -0.182626 2.234000 255 0 0
0.036379 -0.182788 2.236000 255 0 0
0.042545 -0.182950 2.238000 255 0 0
0.048722 -0.183112 2.240000 255 0 0
0.054861 -0.183110 2.240000 255 0 0
0.061081 -0.183352 2.243000 255 0 0
-0.241277 -0.195397 2.315000 255 0 0
-0.235254 -0.195660 2.318000 255 0 0
-0.229510 -0.196176 2.324000 255 0 0
-0.222580 -0.195679 2.318000 255 0 0
-0.215962 -0.195434 2.315000 255 0 0
-0.209451 -0.195274 2.313000 255 0 0
-0.203300 -0.195451 2.315000 255 0 0
-0.197223 -0.195713 2.318000 255 0 0
-0.191129 -0.195974 2.321000 255 0 0
-0.185177 -0.196404 2.326000 255 0 0
-0.178582 -0.196158 2.323000 255 0 0
-0.172151 -0.196081 2.322000 255 0 0
-0.165582 -0.195835 2.319000 255 0 0
-0.159646 -0.196348 2.325000 255 0 0
-0.153677 -0.196861 2.331000 255 0 0
-0.147738 -0.197459 2.338000 255 0 0
-0.141397 -0.197549 2.339000 255 0 0
-0.135050 -0.197640 2.340000 255 0 0
-0.128807 -0.197899 2.343000 255 0 0
-0.122757 -0.198495 2.350000 255 0 0
-0.116815 -0.199345 2.360000 255 0 0
-0.110959 -0.200448 2.373000 255 0 0
-0.104811 -0.201128 2.381000 255 0 0
-0.081984 -0.193453 2.290000 255 0 0
-0.075148 -0.192020 2.273000 255 0 0
-0.068314 -0.190334 2.253000 255 0 0
-0.061754 -0.189154 2.239000 255 0 0
-0.055494 -0.188734 2.234000 255 0 0
-0.049328 -0.188567 2.232000 255 0 0
-0.043095 -0.188062 2.226000 255 0 0
-0.036895 -0.187557 2.220000 255 0 0
-0.030714 -0.186967 2.213000 255 0 0
-0.024626 -0.186799 2.211000 255 0 0
-0.018567 -0.186800 2.211000 255 0 0
-0.012530 -0.187139 2.215000 255 0 0
-0.006456 -0.187055 2.214000 255 0 0
-0.000388 -0.187055 2.214000 255 0 0
0.005696 -0.187562 2.220000 255 0 0
0.011817 -0.188153 2.227000 255 0 0
0.017961 -0.188574 2.232000 255 0 0
0.024078 -0.188573 2.232000 255 0 0
0.030223 -0.188741 2.234000 255 0 0
0.036329 -0.188655 2.233000 255 0 0
0.042506 -0.188907 2.236000 255 0 0
0.048677 -0.189074 2.238000 255 0 0
0.054883 -0.189325 2.241000 255 0 0
0.061296 -0.190168 2.251000 255 0 0
-0.248555 -0.202502 2.324000 255 0 0
-0.241371 -0.201815 2.316000 255 0 0
-0.235955 -0.202609 2.325000 255 0 0
-0.229797 -0.202793 2.327000 255 0 0
-0.223243 -0.202628 2.325000 255 0 0
-0.216327 -0.202115 2.319000 255 0 0
-0.209895 -0.202036 2.318000 255 0 0
-0.203380 -0.201871 2.316000 255 0 0
-0.197300 -0.202141 2.319000 255 0 0
-0.190874 -0.202062 2.318000 255 0 0
-0.185010 -0.202593 2.324000 255 0 0
-0.178574 -0.202513 2.323000 255 0 0
-0.172588 -0.202957 2.328000 255 0 0
-0.166360 -0.203138 2.330000 255 0 0
-0.160463 -0.203755 2.337000 255 0 0
-0.154330 -0.204111 2.341000 255 0 0
-0.147985 -0.204205 2.342000 255 0 0
-0.141573 -0.204211 2.342000 255 0 0
-0.135218 -0.204304 2.343000 255 0 0
-0.129187 -0.204920 2.350000 255 0 0
-0.123065 -0.205449 2.356000 255 0 0
-0.117107 -0.206326 2.366000 255 0 0
-0.110954 -0.206942 2.373000 255 0 0
-0.082052 -0.199894 2.292000 255 0 0
-0.075277 -0.198590 2.277000 255 0 0
-0.068402 -0.196761 2.256000 255 0 0
-0.061889 -0.195717 2.244000 255 0 0
-0.055591 -0.195197 2.238000 255 0 0
-0.049370 -0.194850 2.234000 255 0 0
-0.043171 -0.194503 2.230000 255 0 0
-0.036960 -0.193982 2.224000 255 0 0
-0.030823 -0.193722 2.221000 255 0 0
-0.024726 -0.193636 2.220000 255 0 0
-0.018633 -0.193549 2.219000 255 0 0
-0.012540 -0.193376 2.217000 255 0 0
-0.006464 -0.193376 2.217000 255 0 0
-0.000389 -0.193551 2.219000 255 0 0
0.005713 -0.194248 2.227000 255 0 0
0.011849 -0.194771 2.233000 255 0 0
0.017993 -0.195032 2.236000 255 0 0
0.024110 -0.194944 2.235000 255 0 0
0.030221 -0.194856 2.234000 255 0 0
0.036344 -0.194854 2.234000 255 0 0
0.042523 -0.195114 2.237000 255 0 0
0.048740 -0.195461 2.241000 255 0 0
0.054954 -0.195720 2.244000 255 0 0
0.061348 -0.196503 2.253000 255 0 0
-0.248010 -0.208407 2.319000 255 0 0
-0.241986 -0.208687 2.322000 255 0 0
-0.236046 -0.209057 2.326000 255 0 0
-0.229688 -0.209066 2.326000 255 0 0
-0.223234 -0.208986 2.325000 255 0 0
-0.216597 -0.208726 2.322000 255 0 0
-0.210248 -0.208735 2.322000 255 0 0
-0.203898 -0.208744 2.322000 255 0 0
-0.197802 -0.209023 2.325000 255 0 0
-0.191360 -0.208941 2.324000 255 0 0
-0.185082 -0.209039 2.325000 255 0 0
-0.178644 -0.208957 2.324000 255 0 0
-0.172803 -0.209594 2.331000 255 0 0
-0.166638 -0.209872 2.334000 255 0 0
-0.160868 -0.210688 2.343000 255 0 0
-0.154719 -0.211055 2.347000 255 0 0
-0.148547 -0.211421 2.351000 255 0 0
-0.141748 -0.210888 2.345000 255 0 0
-0.135385 -0.210984 2.346000 255 0 0
-0.129236 -0.211440 2.351000 255 0 0
-0.123320 -0.212345 2.361000 255 0 0
-0.117102 -0.212800 2.366000 255 0 0
-0.111043 -0.213614 2.375000 255 0 0
-0.081906 -0.205806 2.288000 255 0 0
-0.075141 -0.204460 2.273000 255 0 0
-0.068429 -0.203025 2.257000 255 0 0
-0.061859 -0.201768 2.243000 255 0 0
-0.055564 -0.201231 2.237000 255 0 0
-0.049324 -0.200784 2.232000 255 0 0
-0.043149 -0.200516 2.229000 255 0 0
-0.036975 -0.200158 2.225000 255 0 0
-0.030864 -0.200069 2.224000 255 0 0
-0.024758 -0.199981 2.223000 255 0 0
-0.018683 -0.200162 2.225000 255 0 0
-0.012574 -0.199982 2.223000 255 0 0
-0.006493 -0.200343 2.227000 255 0 0
-0.000391 -0.200703 2.231000 255 0 0
0.005736 -0.201152 2.236000 255 0 0
0.011869 -0.201242 2.237000 255 0 0
0.018016 -0.201421 2.239000 255 0 0
0.024141 -0.201330 2.238000 255 0 0
0.030261 -0.201239 2.237000 255 0 0
0.036342 -0.200968 2.234000 255 0 0
0.042445 -0.200876 2.233000 255 0 0
0.048629 -0.201144 2.236000 255 0 0
0.054878 -0.201591 2.241000 255 0 0
0.061454 -0.203028 2.257000 255 0 0
-0.242705 -0.215683 2.329000 255 0 0
-0.236645 -0.215972 2.332000 255 0 0
-0.229975 -0.215704 2.329000 255 0 0
-0.223704 -0.215807 2.330000 255 0 0
-0.216868 -0.215353 2.325000 255 0 0
-0.210510 -0.215363 2.325000 255 0 0
-0.203889 -0.215094 2.322000 255 0 0
-0.197794 -0.215381 2.325000 255 0 0
-0.191516 -0.215482 2.326000 255 0 0
-0.185312 -0.215676 2.328000 255 0 0
-0.179020 -0.215777 2.329000 255 0 0
-0.173166 -0.216433 2.336000 255 0 0
-0.167131 -0.216904 2.341000 255 0 0
-0.161136 -0.217467 2.347000 255 0 0
-0.154844 -0.217660 2.349000 255 0 0
-0.148603 -0.217945 2.352000 255 0 0
-0.142044 -0.217766 2.350000 255 0 0
-0.135610 -0.217772 2.350000 255 0 0
-0.129450 -0.218242 2.355000 255 0 0
-0.123263 -0.218711 2.360000 255 0 0
-0.117196 -0.219458 2.368000 255 0 0
-0.111131 -0.220297 2.377000 255 0 0
-0.081651 -0.211417 2.281000 255 0 0
-0.075072 -0.210494 2.271000 255 0 0
-0.068426 -0.209200 2.257000 255 0 0
-0.061939 -0.208183 2.246000 255 0 0
-0.055561 -0.207352 2.237000 255 0 0
-0.049321 -0.206891 2.232000 255 0 0
-0.043147 -0.206615 2.229000 255 0 0
-0.036957 -0.206153 2.224000 255 0 0
-0.030876 -0.206247 2.225000 255 0 0
-0.024779 -0.206249 2.225000 255 0 0
-0.018707 -0.206528 2.228000 255 0 0
-0.012590 -0.206343 2.226000 255 0 0
-0.006502 -0.206714 2.230000 255 0 0
-0.000391 -0.206993 2.233000 255 0 0
0.005733 -0.207178 2.235000 255 0 0
0.011858 -0.207178 2.235000 255 0 0
0.017991 -0.207270 2.236000 255 0 0
0.024108 -0.207176 2.235000 255 0 0
0.030232 -0.207175 2.235000 255 0 0
0.036357 -0.207173 2.235000 255 0 0
0.042481 -0.207171 2.235000 255 0 0
0.048627 -0.207262 2.236000 255 0 0
0.054949 -0.208001 2.244000 255 0 0
0.061561 -0.209574 2.261000 255 0 0
0.067995 -0.210312 2.269000 255 0 0
-0.243945 -0.223194 2.341000 255 0 0
-0.237040 -0.222728 2.336000 255 0 0
-0.230261 -0.222357 2.332000 255 0 0
-0.223886 -0.222367 2.332000 255 0 0
-0.217324 -0.222186 2.330000 255 0 0
-0.210773 -0.222005 2.328000 255 0 0
-0.204407 -0.222015 2.328000 255 0 0
-0.198295 -0.222310 2.331000 255 0 0
-0.192249 -0.222701 2.335000 255 0 0
-0.186020 -0.222900 2.337000 255 0 0
-0.179396 -0.222622 2.334000 255 0 0
-0.173158 -0.222821 2.336000 255 0 0
-0.166980 -0.223115 2.339000 255 0 0
-0.160991 -0.223695 2.345000 255 0 0
-0.154771 -0.223989 2.348000 255 0 0
-0.148596 -0.224377 2.352000 255 0 0
-0.142097 -0.224289 2.351000 255 0 0
-0.135661 -0.224295 2.351000 255 0 0
-0.129334 -0.224492 2.353000 255 0 0
-0.123100 -0.224880 2.357000 255 0 0
-0.116794 -0.225172 2.360000 255 0 0
-0.111781 -0.228135 2.391000 255 0 0
-0.081647 -0.217657 2.281000 255 0 0
-0.075068 -0.216707 2.271000 255 0 0
-0.068392 -0.215279 2.256000 255 0 0
-0.061991 -0.214519 2.248000 255 0 0
-0.055658 -0.213853 2.241000 255 0 0
-0.049430 -0.213474 2.237000 255 0 0
-0.043184 -0.212904 2.231000 255 0 0
-0.036955 -0.212238 2.224000 255 0 0
-0.030847 -0.212144 2.223000 255 0 0
-0.024767 -0.212241 2.224000 255 0 0
-0.018689 -0.212433 2.226000 255 0 0
-0.012578 -0.212242 2.224000 255 0 0
-0.006495 -0.212625 2.228000 255 0 0
-0.000391 -0.212816 2.230000 255 0 0
0.005728 -0.213102 2.233000 255 0 0
0.011847 -0.213101 2.233000 255 0 0
0.017974 -0.213196 2.234000 255 0 0
0.024074 -0.213004 2.232000 255 0 0
0.030258 -0.213480 2.237000 255 0 0
0.036387 -0.213478 2.237000 255 0 0
0.042498 -0.213381 2.236000 255 0 0
0.048559 -0.213093 2.233000 255 0 0
0.054873 -0.213854 2.241000 255 0 0
0.061639 -0.216046 2.264000 255 0 0
-0.245393 -0.230965 2.355000 255 0 0
-0.237943 -0.229996 2.345000 255 0 0
-0.230941 -0.229418 2.339000 255 0 0
-0.224260 -0.229134 2.336000 255 0 0
-0.217501 -0.228752 2.332000 255 0 0
-0.211035 -0.228664 2.331000 255 0 0
-0.204397 -0.228379 2.328000 255 0 0
-0.198286 -0.228683 2.331000 255 0 0
-0.192157 -0.228987 2.334000 255 0 0
-0.186251 -0.229584 2.340000 255 0 0
-0.179926 -0.229691 2.341000 255 0 0
-0.173743 -0.229994 2.344000 255 0 0
-0.167758 -0.230590 2.350000 255 0 0
-0.161258 -0.230500 2.349000 255 0 0
-0.154895 -0.230606 2.350000 255 0 0
-0.148337 -0.230417 2.348000 255 0 0
-0.142212 -0.230914 2.353000 255 0 0
-0.135943 -0.231216 2.356000 255 0 0
-0.129548 -0.231320 2.357000 255 0 0
-0.123094 -0.231326 2.357000 255 0 0
-0.116937 -0.231921 2.363000 255 0 0
-0.081644 -0.223896 2.281000 255 0 0
-0.075098 -0.223017 2.272000 255 0 0
-0.068419 -0.221548 2.257000 255 0 0
-0.062071 -0.220962 2.251000 255 0 0
-0.055705 -0.220180 2.243000 255 0 0
-0.049449 -0.219691 2.238000 255 0 0
-0.043182 -0.219007 2.231000 255 0 0
-0.036970 -0.218420 2.225000 255 0 0
-0.030859 -0.218323 2.224000 255 0 0
-0.024766 -0.218324 2.224000 255 0 0
-0.018672 -0.218325 2.224000 255 0 0
-0.012561 -0.218032 2.221000 255 0 0
-0.006481 -0.218229 2.223000 255 0 0
-0.000390 -0.218425 2.225000 255 0 0
0.005717 -0.218818 2.229000 255 0 0
0.011831 -0.218915 2.230000 255 0 0
0.017933 -0.218816 2.229000 255 0 0
0.024051 -0.218913 2.230000 255 0 0
0.030216 -0.219305 2.234000 255 0 0
0.036386 -0.219598 2.237000 255 0 0
0.042534 -0.219694 2.238000 255 0 0
0.048622 -0.219495 2.236000 255 0 0
0.055091 -0.220867 2.250000 255 0 0
0.061745 -0.222631 2.268000 255 0 0
0.068498 -0.224395 2.286000 255 0 0
-0.245694 -0.237704 2.358000 255 0 0
-0.237830 -0.236304 2.344000 255 0 0
-0.230733 -0.235609 2.337000 255 0 0
-0.223962 -0.235216 2.333000 255 0 0
-0.217584 -0.235227 2.333000 255 0 0
-0.211115 -0.235136 2.332000 255 0 0
-0.204651 -0.235045 2.331000 255 0 0
-0.198447 -0.235257 2.333000 255 0 0
-0.192478 -0.235770 2.338000 255 0 0
-0.186401 -0.236183 2.342000 255 0 0
-0.180071 -0.236293 2.343000 255 0 0
-0.173587 -0.236200 2.342000 255 0 0
-0.167678 -0.236915 2.349000 255 0 0
-0.161525 -0.237326 2.353000 255 0 0
-0.155283 -0.237636 2.356000 255 0 0
-0.148772 -0.237543 2.355000 255 0 0
-0.142205 -0.237348 2.353000 255 0 0
-0.135994 -0.237759 2.357000 255 0 0
-0.129652 -0.237967 2.359000 255 0 0
-0.123663 -0.238881 2.368000 255 0 0
-0.117525 -0.239593 2.375000 255 0 0
-0.081854 -0.230740 2.287000 255 0 0
-0.075160 -0.229432 2.274000 255 0 0
-0.068507 -0.228023 2.260000 255 0 0
-0.062150 -0.227421 2.254000 255 0 0
-0.055777 -0.226617 2.246000 255 0 0
-0.049491 -0.226014 2.240000 255 0 0
-0.043199 -0.225209 2.232000 255 0 0
-0.037034 -0.224909 2.229000 255 0 0
-0.030913 -0.224809 2.228000 255 0 0
-0.024798 -0.224710 2.227000 255 0 0
-0.018671 -0.224408 2.224000 255 0 0
