ply
format ascii 1.0
element vertex 1295
property double x
property double y
property double z
property uchar red
property uchar green
property uchar blue
end_header
-0.186912 -0.129479 2.269000 255 0 0
-0.180623 -0.129427 2.268000 255 0 0
-0.174415 -0.129432 2.268000 255 0 0
-0.168132 -0.129380 2.267000 255 0 0
-0.162283 -0.129670 2.272000 255 0 0
-0.156474 -0.130017 2.278000 255 0 0
-0.150896 -0.130592 2.288000 255 0 0
-0.144693 -0.130653 2.289000 255 0 0
-0.138666 -0.130886 2.293000 255 0 0
-0.132558 -0.131061 2.296000 255 0 0
-0.126324 -0.131122 2.297000 255 0 0
-0.119874 -0.130954 2.294000 255 0 0
-0.113243 -0.130558 2.287000 255 0 0
-0.106883 -0.130447 2.285000 255 0 0
-0.100533 -0.130336 2.283000 255 0 0
-0.094360 -0.130453 2.285000 255 0 0
-0.088213 -0.130627 2.288000 255 0 0
-0.081513 -0.129944 2.276000 255 0 0
-0.074712 -0.128976 2.259000 255 0 0
-0.068217 -0.128407 2.249000 255 0 0
-0.061831 -0.127952 2.241000 255 0 0
-0.055465 -0.127440 2.232000 255 0 0
-0.049213 -0.127099 2.226000 255 0 0
-0.042956 -0.126644 2.218000 255 0 0
-0.036859 -0.126588 2.217000 255 0 0
-0.030683 -0.126189 2.210000 255 0 0
-0.024546 -0.125790 2.203000 255 0 0
-0.018464 -0.125505 2.198000 255 0 0
-0.012415 -0.125278 2.194000 255 0 0
-0.006391 -0.125107 2.191000 255 0 0
-0.000383 -0.124821 2.186000 255 0 0
0.005611 -0.124821 2.186000 255 0 0
0.011615 -0.124935 2.188000 255 0 0
0.017654 -0.125220 2.193000 255 0 0
0.023710 -0.125448 2.197000 255 0 0
0.029787 -0.125675 2.201000 255 0 0
0.035886 -0.125903 2.205000 255 0 0
0.042027 -0.126187 2.210000 255 0 0
0.048216 -0.126528 2.216000 255 0 0
0.054364 -0.126698 2.219000 255 0 0
0.060474 -0.126754 2.220000 255 0 0
0.066590 -0.126809 2.221000 255 0 0
0.072677 -0.126807 2.221000 255 0 0
0.079226 -0.127547 2.234000 255 0 0
-0.128624 -0.506447 2.710508 255 255 0
-0.106243 -0.507836 2.685098 255 255 0
-0.025148 -0.532629 2.516061 255 255 0
-0.044457 -0.543670 2.490322 255 255 0
-0.049715 -0.549138 2.473729 255 255 0
-0.015465 -0.538790 2.483419 255 255 0
0.003104 -0.534683 2.482822 255 255 0
-0.016120 -0.545765 2.456847 255 255 0
-0.028735 -0.554224 2.435182 255 255 0
-0.032303 -0.559054 2.419565 255 255 0
-0.013525 -0.561615 2.392829 255 255 0
-0.185108 -0.545203 2.654602 0 255 0
-0.178695 -0.544536 2.663004 0 255 0
-0.160782 -0.545428 2.676893 0 255 0
-0.161106 -0.541766 2.689325 0 255 0
-0.164817 -0.536620 2.703701 0 255 0
-0.155844 -0.537053 2.710708 0 255 0
-0.146859 -0.537480 2.717750 0 255 0
-0.134472 -0.539380 2.722894 0 255 0
-0.250935 -0.136704 2.287000 255 0 0
-0.244791 -0.136771 2.288000 255 0 0
-0.238954 -0.137017 2.292000 255 0 0
-0.232180 -0.136725 2.287000 255 0 0
-0.226026 -0.136791 2.288000 255 0 0
-0.219769 -0.136798 2.288000 255 0 0
-0.213604 -0.136864 2.289000 255 0 0
-0.206618 -0.136392 2.281000 255 0 0
-0.200027 -0.136159 2.277000 255 0 0
-0.193456 -0.135925 2.273000 255 0 0
-0.187401 -0.136051 2.275000 255 0 0
-0.181095 -0.135996 2.274000 255 0 0
-0.174794 -0.135942 2.273000 255 0 0
-0.168350 -0.135768 2.270000 255 0 0
-0.162421 -0.136012 2.274000 255 0 0
-0.156332 -0.136136 2.276000 255 0 0
-0.150825 -0.136799 2.287000 255 0 0
-0.144626 -0.136863 2.288000 255 0 0
-0.138722 -0.137226 2.294000 255 0 0
-0.132554 -0.137350 2.296000 255 0 0
-0.126540 -0.137653 2.301000 255 0 0
-0.120184 -0.137597 2.300000 255 0 0
-0.113635 -0.137302 2.295000 255 0 0
-0.107347 -0.137305 2.295000 255 0 0
-0.101103 -0.137368 2.296000 255 0 0
-0.094894 -0.137491 2.298000 255 0 0
-0.088712 -0.137673 2.301000 255 0 0
-0.081689 -0.136479 2.281000 255 0 0
-0.074842 -0.135404 2.263000 255 0 0
-0.068215 -0.134569 2.249000 255 0 0
-0.061774 -0.133973 2.239000 255 0 0
-0.055364 -0.133316 2.228000 255 0 0
-0.049101 -0.132899 2.221000 255 0 0
-0.042916 -0.132601 2.216000 255 0 0
-0.036841 -0.132602 2.216000 255 0 0
-0.030696 -0.132304 2.211000 255 0 0
-0.024512 -0.131647 2.200000 255 0 0
-0.018438 -0.131348 2.195000 255 0 0
-0.012409 -0.131229 2.193000 255 0 0
-0.006403 -0.131349 2.195000 255 0 0
-0.000384 -0.131110 2.191000 255 0 0
0.005618 -0.130990 2.189000 255 0 0
0.011630 -0.131110 2.191000 255 0 0
0.017685 -0.131468 2.197000 255 0 0
0.023730 -0.131587 2.199000 255 0 0
0.029800 -0.131766 2.202000 255 0 0
0.035902 -0.132004 2.206000 255 0 0
0.042082 -0.132422 2.213000 255 0 0
0.048280 -0.132779 2.219000 255 0 0
0.054387 -0.132838 2.220000 255 0 0
0.060500 -0.132896 2.221000 255 0 0
0.066618 -0.132954 2.222000 255 0 0
0.072839 -0.133191 2.226000 255 0 0
0.079365 -0.133906 2.238000 255 0 0
-0.157193 -0.522473 2.721324 255 255 0
-0.155038 -0.524982 2.709644 255 255 0
-0.135176 -0.520726 2.708252 255 255 0
-0.118718 -0.517743 2.704986 255 255 0
-0.139663 -0.532444 2.666827 255 255 0
-0.099662 -0.526991 2.651917 255 255 0
-0.052160 -0.555166 2.499763 255 255 0
-0.024455 -0.547404 2.504907 255 255 0
-0.033020 -0.554217 2.486193 255 255 0
-0.037449 -0.559383 2.470145 255 255 0
-0.013112 -0.552911 2.473320 255 255 0
-0.035056 -0.568592 2.432265 255 255 0
-0.026332 -0.568439 2.424999 255 255 0
-0.032339 -0.574301 2.407672 255 255 0
-0.017086 -0.571466 2.404927 255 255 0
-0.026337 -0.578680 2.385285 255 255 0
-0.011923 -0.576169 2.382040 255 255 0
-0.176362 -0.560652 2.650930 0 255 0
-0.173309 -0.558483 2.661372 0 255 0
-0.175315 -0.554057 2.674803 0 255 0
-0.166684 -0.550850 2.694180 0 255 0
-0.172085 -0.544937 2.709522 0 255 0
-0.153297 -0.546215 2.723065 0 255 0
-0.252902 -0.144088 2.305000 255 0 0
-0.244998 -0.143158 2.290000 255 0 0
-0.239051 -0.143353 2.293000 255 0 0
-0.232579 -0.143235 2.291000 255 0 0
-0.226513 -0.143367 2.293000 255 0 0
-0.220050 -0.143249 2.291000 255 0 0
-0.213411 -0.143005 2.287000 255 0 0
-0.206793 -0.142762 2.283000 255 0 0
-0.200372 -0.142643 2.281000 255 0 0
-0.194046 -0.142587 2.280000 255 0 0
-0.187725 -0.142530 2.279000 255 0 0
-0.181329 -0.142411 2.277000 255 0 0
-0.175020 -0.142354 2.276000 255 0 0
-0.168864 -0.142422 2.277000 255 0 0
-0.162987 -0.142740 2.282000 255 0 0
-0.156877 -0.142870 2.284000 255 0 0
-0.150623 -0.142875 2.284000 255 0 0
-0.144558 -0.143067 2.287000 255 0 0
-0.138778 -0.143572 2.295000 255 0 0
-0.132954 -0.144077 2.303000 255 0 0
-0.126811 -0.144268 2.306000 255 0 0
-0.120494 -0.144272 2.306000 255 0 0
-0.113978 -0.144026 2.302000 255 0 0
-0.107812 -0.144217 2.305000 255 0 0
-0.101540 -0.144283 2.306000 255 0 0
-0.095427 -0.144599 2.311000 255 0 0
-0.089171 -0.144727 2.313000 255 0 0
-0.082009 -0.143291 2.290000 255 0 0
-0.074972 -0.141854 2.267000 255 0 0
-0.068304 -0.140918 2.252000 255 0 0
-0.061772 -0.140106 2.239000 255 0 0
-0.055362 -0.139420 2.228000 255 0 0
-0.049100 -0.138984 2.221000 255 0 0
-0.042973 -0.138860 2.219000 255 0 0
-0.036840 -0.138673 2.216000 255 0 0
-0.030667 -0.138236 2.209000 255 0 0
-0.024500 -0.137612 2.199000 255 0 0
-0.018446 -0.137425 2.196000 255 0 0
-0.012420 -0.137362 2.195000 255 0 0
-0.006397 -0.137238 2.193000 255 0 0
-0.000384 -0.137050 2.190000 255 0 0
0.005626 -0.137175 2.192000 255 0 0
0.011646 -0.137300 2.194000 255 0 0
0.017685 -0.137487 2.197000 255 0 0
0.023708 -0.137487 2.197000 255 0 0
0.029745 -0.137548 2.198000 255 0 0
0.035868 -0.137923 2.204000 255 0 0
0.042081 -0.138485 2.213000 255 0 0
0.048278 -0.138859 2.219000 255 0 0
0.054434 -0.139045 2.222000 255 0 0
0.060607 -0.139231 2.225000 255 0 0
0.066855 -0.139541 2.230000 255 0 0
0.073065 -0.139727 2.233000 255 0 0
0.079788 -0.140788 2.250000 255 0 0
-0.161214 -0.535868 2.720595 255 255 0
-0.148086 -0.534168 2.715231 255 255 0
-0.131609 -0.531158 2.711884 255 255 0
-0.115159 -0.528134 2.708613 255 255 0
-0.095340 -0.530413 2.681778 255 255 0
-0.104949 -0.537489 2.663160 255 255 0
-0.035769 -0.563715 2.498852 255 255 0
-0.048469 -0.582500 2.437792 255 255 0
-0.034815 -0.580322 2.433800 255 255 0
-0.033456 -0.583183 2.421508 255 255 0
-0.027188 -0.584024 2.412561 255 255 0
-0.029090 -0.588238 2.398005 255 255 0
-0.024455 -0.589755 2.387934 255 255 0
-0.156695 -0.581104 2.640743 0 255 0
-0.183926 -0.565270 2.669253 0 255 0
-0.189306 -0.559320 2.684646 0 255 0
-0.177836 -0.560944 2.690088 0 255 0
-0.176478 -0.558025 2.701491 0 255 0
-0.245525 -0.149752 2.295000 255 0 0
-0.238835 -0.149498 2.291000 255 0 0
-0.232674 -0.149571 2.292000 255 0 0
-0.226308 -0.149513 2.291000 255 0 0
-0.220139 -0.149585 2.292000 255 0 0
-0.213498 -0.149331 2.288000 255 0 0
-0.206968 -0.149142 2.285000 255 0 0
-0.200541 -0.149018 2.283000 255 0 0
-0.194210 -0.148959 2.282000 255 0 0
-0.188295 -0.149226 2.286000 255 0 0
-0.181801 -0.149037 2.283000 255 0 0
-0.175552 -0.149042 2.283000 255 0 0
-0.169377 -0.149113 2.284000 255 0 0
-0.163339 -0.149315 2.287000 255 0 0
-0.157147 -0.149385 2.288000 255 0 0
-0.150684 -0.149194 2.285000 255 0 0
-0.144743 -0.149526 2.290000 255 0 0
-0.138895 -0.149987 2.297000 255 0 0
-0.133239 -0.150710 2.308000 255 0 0
-0.126917 -0.150714 2.308000 255 0 0
-0.120647 -0.150784 2.309000 255 0 0
-0.114173 -0.150592 2.306000 255 0 0
-0.108135 -0.150987 2.312000 255 0 0
-0.101933 -0.151187 2.315000 255 0 0
-0.095755 -0.151451 2.319000 255 0 0
-0.089207 -0.151128 2.314000 255 0 0
-0.081899 -0.149367 2.287000 255 0 0
-0.075036 -0.148194 2.269000 255 0 0
-0.068362 -0.147217 2.254000 255 0 0
-0.061853 -0.146435 2.242000 255 0 0
-0.055459 -0.145784 2.232000 255 0 0
-0.049209 -0.145394 2.226000 255 0 0
-0.043029 -0.145134 2.222000 255 0 0
-0.036855 -0.144809 2.217000 255 0 0
-0.030694 -0.144418 2.211000 255 0 0
-0.024533 -0.143832 2.202000 255 0 0
-0.018446 -0.143440 2.196000 255 0 0
-0.012403 -0.143180 2.192000 255 0 0
-0.006391 -0.143115 2.191000 255 0 0
-0.000384 -0.143049 2.190000 255 0 0
0.005631 -0.143311 2.194000 255 0 0
0.011656 -0.143441 2.196000 255 0 0
0.017684 -0.143506 2.197000 255 0 0
0.023718 -0.143570 2.198000 255 0 0
0.029771 -0.143700 2.200000 255 0 0
0.035899 -0.144091 2.206000 255 0 0
0.042099 -0.144612 2.214000 255 0 0
0.048255 -0.144872 2.218000 255 0 0
0.054432 -0.145131 2.222000 255 0 0
0.060686 -0.145521 2.228000 255 0 0
0.066913 -0.145780 2.232000 255 0 0
0.073129 -0.145974 2.235000 255 0 0
0.079750 -0.146886 2.249000 255 0 0
-0.150882 -0.543748 2.728104 255 255 0
-0.145356 -0.544956 2.718379 255 255 0
-0.126359 -0.540923 2.716491 255 255 0
-0.129168 -0.552070 2.676128 255 255 0
-0.101855 -0.544712 2.679422 255 255 0
-0.091346 -0.543921 2.672828 255 255 0
-0.082526 -0.543784 2.665267 255 255 0
-0.041915 -0.584819 2.469958 255 255 0
-0.060256 -0.595793 2.444509 255 255 0
-0.057239 -0.597993 2.433274 255 255 0
-0.041942 -0.595111 2.430350 255 255 0
-0.020945 -0.589841 2.431396 255 255 0
-0.030472 -0.600677 2.398408 255 255 0
-0.055176 -0.614453 2.368009 255 255 0
-0.196623 -0.585243 2.629445 0 255 0
-0.183596 -0.576969 2.670630 0 255 0
-0.185418 -0.565534 2.708300 0 255 0
-0.244340 -0.155284 2.284000 255 0 0
-0.238515 -0.155564 2.288000 255 0 0
-0.232565 -0.155776 2.291000 255 0 0
-0.226498 -0.155919 2.293000 255 0 0
-0.219940 -0.155722 2.290000 255 0 0
-0.213398 -0.155526 2.287000 255 0 0
-0.207142 -0.155533 2.287000 255 0 0
-0.201062 -0.155675 2.289000 255 0 0
-0.194714 -0.155614 2.288000 255 0 0
-0.188372 -0.155552 2.287000 255 0 0
-0.181954 -0.155423 2.285000 255 0 0
-0.175854 -0.155565 2.287000 255 0 0
-0.169668 -0.155639 2.288000 255 0 0
-0.163477 -0.155712 2.289000 255 0 0
-0.157347 -0.155854 2.291000 255 0 0
-0.151075 -0.155859 2.291000 255 0 0
-0.145117 -0.156204 2.296000 255 0 0
-0.139011 -0.156413 2.299000 255 0 0
-0.133292 -0.157098 2.309000 255 0 0
-0.126803 -0.156899 2.306000 255 0 0
-0.120695 -0.157175 2.310000 255 0 0
-0.114416 -0.157247 2.311000 255 0 0
-0.108646 -0.158068 2.323000 255 0 0
-0.102282 -0.158071 2.323000 255 0 0
-0.095958 -0.158143 2.324000 255 0 0
-0.089088 -0.157261 2.311000 255 0 0
-0.081789 -0.155427 2.284000 255 0 0
-0.074967 -0.154273 2.267000 255 0 0
-0.068329 -0.153323 2.253000 255 0 0
-0.061879 -0.152644 2.243000 255 0 0
-0.055582 -0.152238 2.237000 255 0 0
-0.049428 -0.152172 2.236000 255 0 0
-0.043183 -0.151765 2.230000 255 0 0
-0.036954 -0.151290 2.223000 255 0 0
-0.030735 -0.150679 2.214000 255 0 0
-0.024565 -0.150067 2.205000 255 0 0
-0.018462 -0.149592 2.198000 255 0 0
-0.012408 -0.149252 2.193000 255 0 0
-0.006390 -0.149116 2.191000 255 0 0
-0.000384 -0.149184 2.192000 255 0 0
0.005641 -0.149593 2.198000 255 0 0
0.011677 -0.149728 2.200000 255 0 0
0.017716 -0.149796 2.201000 255 0 0
0.023739 -0.149727 2.200000 255 0 0
0.029797 -0.149862 2.202000 255 0 0
0.035898 -0.150133 2.206000 255 0 0
0.042116 -0.150744 2.215000 255 0 0
0.048253 -0.150947 2.218000 255 0 0
0.054455 -0.151286 2.223000 255 0 0
0.060684 -0.151624 2.228000 255 0 0
0.066911 -0.151894 2.232000 255 0 0
0.072995 -0.151823 2.231000 255 0 0
0.079428 -0.152433 2.240000 255 0 0
-0.138872 -0.550916 2.736566 255 255 0
-0.107986 -0.555554 2.690195 255 255 0
-0.103335 -0.557071 2.680071 255 255 0
-0.091988 -0.555928 2.673963 255 255 0
-0.084971 -0.600661 2.495782 255 255 0
-0.067124 -0.596766 2.494227 255 255 0
-0.068230 -0.600659 2.480312 255 255 0
-0.066860 -0.603537 2.467999 255 255 0
-0.037574 -0.594854 2.474243 255 255 0
-0.045520 -0.605028 2.442553 255 255 0
-0.042512 -0.607225 2.431345 255 255 0
-0.038686 -0.609081 2.420688 255 255 0
-0.035677 -0.611279 2.409474 255 255 0
-0.238715 -0.161966 2.290000 255 0 0
-0.232760 -0.162186 2.293000 255 0 0
-0.226787 -0.162406 2.296000 255 0 0
-0.220125 -0.162131 2.292000 255 0 0
-0.213764 -0.162068 2.291000 255 0 0
-0.207135 -0.161792 2.287000 255 0 0
-0.201231 -0.162082 2.291000 255 0 0
-0.194878 -0.162018 2.290000 255 0 0
-0.188777 -0.162166 2.292000 255 0 0
-0.182187 -0.161890 2.288000 255 0 0
-0.176079 -0.162038 2.290000 255 0 0
-0.169811 -0.162044 2.290000 255 0 0
-0.163542 -0.162050 2.290000 255 0 0
-0.157411 -0.162197 2.292000 255 0 0
-0.151465 -0.162556 2.297000 255 0 0
-0.145618 -0.163057 2.304000 255 0 0
-0.139308 -0.163062 2.304000 255 0 0
-0.133287 -0.163421 2.309000 255 0 0
-0.126798 -0.163213 2.306000 255 0 0
-0.120900 -0.163784 2.314000 255 0 0
-0.114808 -0.164142 2.319000 255 0 0
-0.109016 -0.164995 2.331000 255 0 0
-0.102542 -0.164857 2.329000 255 0 0
-0.095954 -0.164507 2.324000 255 0 0
-0.088970 -0.163378 2.308000 255 0 0
-0.081821 -0.161753 2.285000 255 0 0
-0.075031 -0.160623 2.269000 255 0 0
-0.068418 -0.159705 2.256000 255 0 0
-0.061932 -0.158929 2.245000 255 0 0
-0.055605 -0.158435 2.238000 255 0 0
-0.049448 -0.158367 2.237000 255 0 0
-0.043239 -0.158085 2.233000 255 0 0
-0.037035 -0.157733 2.228000 255 0 0
-0.030803 -0.157097 2.219000 255 0 0
-0.024609 -0.156390 2.209000 255 0 0
-0.018470 -0.155682 2.199000 255 0 0
-0.012408 -0.155258 2.193000 255 0 0
-0.006393 -0.155188 2.192000 255 0 0
-0.000385 -0.155400 2.195000 255 0 0
0.005651 -0.155896 2.202000 255 0 0
0.011703 -0.156108 2.205000 255 0 0
0.017756 -0.156178 2.206000 255 0 0
0.023803 -0.156177 2.206000 255 0 0
0.029890 -0.156389 2.209000 255 0 0
0.035994 -0.156600 2.212000 255 0 0
0.042115 -0.156811 2.215000 255 0 0
0.048230 -0.156951 2.217000 255 0 0
0.054404 -0.157232 2.221000 255 0 0
0.060709 -0.157796 2.229000 255 0 0
0.066818 -0.157794 2.229000 255 0 0
0.072894 -0.157721 2.228000 255 0 0
0.079426 -0.158568 2.240000 255 0 0
-0.107788 -0.567267 2.691851 255 255 0
-0.099298 -0.615058 2.501172 255 255 0
-0.069892 -0.606357 2.507022 255 255 0
-0.054536 -0.603434 2.503882 255 255 0
-0.076208 -0.615883 2.476490 255 255 0
-0.037086 -0.613374 2.449615 255 255 0
-0.239541 -0.168819 2.298000 255 0 0
-0.233259 -0.168828 2.298000 255 0 0
-0.227273 -0.169056 2.301000 255 0 0
-0.220213 -0.168476 2.293000 255 0 0
-0.213943 -0.168484 2.293000 255 0 0
-0.207490 -0.168345 2.291000 255 0 0
-0.201575 -0.168646 2.295000 255 0 0
-0.195126 -0.168506 2.293000 255 0 0
-0.188853 -0.168513 2.293000 255 0 0
-0.182419 -0.168373 2.291000 255 0 0
-0.176149 -0.168379 2.291000 255 0 0
-0.169731 -0.168239 2.289000 255 0 0
-0.163679 -0.168465 2.292000 255 0 0
-0.157611 -0.168692 2.295000 255 0 0
-0.151855 -0.169285 2.303000 255 0 0
-0.145865 -0.169658 2.308000 255 0 0
-0.139545 -0.169664 2.308000 255 0 0
-0.133282 -0.169742 2.309000 255 0 0
-0.126903 -0.169673 2.308000 255 0 0
-0.121000 -0.170266 2.316000 255 0 0
-0.114953 -0.170712 2.322000 255 0 0
-0.109012 -0.171378 2.331000 255 0 0
-0.102494 -0.171161 2.328000 255 0 0
-0.096116 -0.171165 2.328000 255 0 0
-0.089429 -0.170580 2.320000 255 0 0
-0.082248 -0.168892 2.297000 255 0 0
-0.075127 -0.167057 2.272000 255 0 0
-0.068446 -0.165956 2.257000 255 0 0
-0.061957 -0.165150 2.246000 255 0 0
-0.055677 -0.164785 2.241000 255 0 0
-0.049557 -0.164860 2.242000 255 0 0
-0.043296 -0.164421 2.236000 255 0 0
-0.037067 -0.163981 2.230000 255 0 0
-0.030816 -0.163247 2.220000 255 0 0
-0.024608 -0.162439 2.209000 255 0 0
-0.018469 -0.161705 2.199000 255 0 0
-0.012413 -0.161337 2.194000 255 0 0
-0.006399 -0.161338 2.194000 255 0 0
-0.000385 -0.161779 2.200000 255 0 0
0.005666 -0.162367 2.208000 255 0 0
0.011745 -0.162735 2.213000 255 0 0
0.017803 -0.162661 2.212000 255 0 0
0.023845 -0.162513 2.210000 255 0 0
0.029916 -0.162585 2.211000 255 0 0
0.036026 -0.162805 2.214000 255 0 0
0.042151 -0.163024 2.217000 255 0 0
0.048271 -0.163169 2.219000 255 0 0
0.054451 -0.163461 2.223000 255 0 0
0.060680 -0.163827 2.228000 255 0 0
0.066786 -0.163824 2.228000 255 0 0
0.072990 -0.164042 2.231000 255 0 0
0.079529 -0.164922 2.243000 255 0 0
-0.047483 -0.619241 2.483637 255 255 0
-0.061704 -0.628690 2.461008 255 255 0
-0.044758 -0.625018 2.459072 255 255 0
-0.087169 -0.653488 2.390484 255 255 0
-0.239532 -0.175106 2.298000 255 0 0
-0.233657 -0.175420 2.302000 255 0 0
-0.227561 -0.175580 2.304000 255 0 0
-0.221070 -0.175436 2.302000 255 0 0
-0.214495 -0.175216 2.299000 255 0 0
-0.208026 -0.175071 2.297000 255 0 0
-0.201655 -0.175002 2.296000 255 0 0
-0.195289 -0.174934 2.295000 255 0 0
-0.189093 -0.175017 2.296000 255 0 0
-0.182970 -0.175176 2.298000 255 0 0
-0.176604 -0.175107 2.297000 255 0 0
-0.170243 -0.175037 2.296000 255 0 0
-0.164173 -0.175272 2.299000 255 0 0
-0.158154 -0.175583 2.303000 255 0 0
-0.152113 -0.175894 2.307000 255 0 0
-0.145986 -0.176129 2.310000 255 0 0
-0.139782 -0.176287 2.312000 255 0 0
-0.133797 -0.176749 2.318000 255 0 0
-0.127613 -0.176983 2.321000 255 0 0
-0.121518 -0.177369 2.326000 255 0 0
-0.115196 -0.177450 2.327000 255 0 0
-0.109008 -0.177759 2.331000 255 0 0
-0.102622 -0.177763 2.331000 255 0 0
-0.096360 -0.177996 2.334000 255 0 0
-0.089927 -0.177923 2.333000 255 0 0
-0.082138 -0.174952 2.294000 255 0 0
-0.075091 -0.173201 2.271000 255 0 0
-0.068473 -0.172213 2.258000 255 0 0
-0.062010 -0.171452 2.248000 255 0 0
-0.055700 -0.170997 2.242000 255 0 0
-0.049489 -0.170770 2.239000 255 0 0
-0.043178 -0.170086 2.230000 255 0 0
-0.036949 -0.169553 2.223000 255 0 0
-0.030759 -0.169021 2.216000 255 0 0
-0.024618 -0.168564 2.210000 255 0 0
-0.018502 -0.168031 2.203000 255 0 0
-0.012452 -0.167879 2.201000 255 0 0
-0.006419 -0.167880 2.201000 255 0 0
-0.000386 -0.168185 2.205000 255 0 0
0.005663 -0.168337 2.207000 255 0 0
0.011723 -0.168489 2.209000 255 0 0
0.017754 -0.168260 2.206000 255 0 0
0.023812 -0.168336 2.207000 255 0 0
0.029888 -0.168487 2.209000 255 0 0
0.036024 -0.168867 2.214000 255 0 0
0.042188 -0.169247 2.219000 255 0 0
0.048378 -0.169627 2.224000 255 0 0
0.054596 -0.170006 2.229000 255 0 0
0.060787 -0.170232 2.232000 255 0 0
0.066903 -0.170230 2.232000 255 0 0
0.073052 -0.170303 2.233000 255 0 0
0.079703 -0.171445 2.248000 255 0 0
-0.071334 -0.634244 2.495770 255 255 0
-0.033295 -0.625105 2.494419 255 255 0
-0.047520 -0.634605 2.471840 255 255 0
-0.050243 -0.639245 2.456808 255 255 0
-0.050499 -0.642846 2.443384 255 255 0
-0.240774 -0.182340 2.310000 255 0 0
-0.234663 -0.182506 2.312000 255 0 0
-0.228244 -0.182436 2.311000 255 0 0
-0.221541 -0.182129 2.307000 255 0 0
-0.214673 -0.181664 2.301000 255 0 0
-0.208290 -0.181593 2.300000 255 0 0
-0.201999 -0.181601 2.300000 255 0 0
-0.195707 -0.181608 2.300000 255 0 0
-0.189415 -0.181616 2.300000 255 0 0
-0.183281 -0.181781 2.302000 255 0 0
-0.176982 -0.181788 2.302000 255 0 0
-0.170608 -0.181716 2.301000 255 0 0
-0.164452 -0.181880 2.303000 255 0 0
-0.158492 -0.182281 2.308000 255 0 0
-0.152437 -0.182603 2.312000 255 0 0
-0.146170 -0.182688 2.313000 255 0 0
-0.140018 -0.182931 2.316000 255 0 0
-0.133907 -0.183252 2.320000 255 0 0
-0.127718 -0.183494 2.323000 255 0 0
-0.121513 -0.183736 2.326000 255 0 0
-0.115241 -0.183899 2.328000 255 0 0
-0.109004 -0.184140 2.331000 255 0 0
-0.102795 -0.184461 2.335000 255 0 0
-0.096769 -0.185175 2.344000 255 0 0
-0.090077 -0.184626 2.337000 255 0 0
-0.082528 -0.182102 2.305000 255 0 0
-0.075121 -0.179498 2.272000 255 0 0
-0.068622 -0.178789 2.263000 255 0 0
-0.062228 -0.178239 2.256000 255 0 0
-0.055896 -0.177767 2.250000 255 0 0
-0.049553 -0.177137 2.242000 255 0 0
-0.043137 -0.176033 2.228000 255 0 0
-0.036848 -0.175166 2.217000 255 0 0
-0.030730 -0.174930 2.214000 255 0 0
-0.024617 -0.174615 2.210000 255 0 0
-0.018501 -0.174063 2.203000 255 0 0
-0.012451 -0.173905 2.201000 255 0 0
-0.006418 -0.173906 2.201000 255 0 0
-0.000386 -0.174222 2.205000 255 0 0
0.005660 -0.174301 2.206000 255 0 0
0.011712 -0.174380 2.207000 255 0 0
0.017762 -0.174379 2.207000 255 0 0
0.023822 -0.174457 2.208000 255 0 0
0.029901 -0.174614 2.210000 255 0 0
0.036072 -0.175166 2.217000 255 0 0
0.042300 -0.175796 2.225000 255 0 0
0.048572 -0.176427 2.233000 255 0 0
0.054643 -0.176267 2.231000 255 0 0
0.060784 -0.176343 2.232000 255 0 0
0.066811 -0.176104 2.229000 255 0 0
0.073115 -0.176575 2.235000 255 0 0
-0.017015 -0.643867 2.454104 255 255 0
-0.005053 -0.642187 2.449039 255 255 0
-0.240348 -0.188331 2.306000 255 0 0
-0.234756 -0.188912 2.313000 255 0 0
-0.228729 -0.189166 2.316000 255 0 0
-0.222013 -0.188848 2.312000 255 0 0
-0.214945 -0.188203 2.304000 255 0 0
-0.208282 -0.187885 2.300000 255 0 0
-0.202079 -0.187975 2.301000 255 0 0
-0.196040 -0.188228 2.304000 255 0 0
-0.189572 -0.188072 2.302000 255 0 0
-0.183035 -0.187834 2.299000 255 0 0
-0.176821 -0.187923 2.300000 255 0 0
-0.170823 -0.188257 2.304000 255 0 0
-0.164946 -0.188754 2.310000 255 0 0
-0.158829 -0.189006 2.313000 255 0 0
-0.152365 -0.188849 2.311000 255 0 0
-0.146291 -0.189182 2.315000 255 0 0
-0.140073 -0.189351 2.317000 255 0 0
-0.134133 -0.189929 2.324000 255 0 0
-0.127823 -0.190016 2.325000 255 0 0
-0.121456 -0.190021 2.325000 255 0 0
-0.115187 -0.190189 2.327000 255 0 0
-0.109000 -0.190521 2.331000 255 0 0
-0.103187 -0.191587 2.344000 255 0 0
-0.097137 -0.192327 2.353000 255 0 0
-0.082310 -0.187921 2.299000 255 0 0
-0.075184 -0.185880 2.274000 255 0 0
-0.068741 -0.185311 2.267000 255 0 0
-0.062363 -0.184824 2.261000 255 0 0
-0.055969 -0.184172 2.253000 255 0 0
-0.049573 -0.183357 2.243000 255 0 0
-0.043194 -0.182378 2.231000 255 0 0
-0.036830 -0.181153 2.216000 255 0 0
-0.030729 -0.180991 2.214000 255 0 0
-0.024639 -0.180829 2.212000 255 0 0
-0.018542 -0.180503 2.208000 255 0 0
-0.012462 -0.180095 2.203000 255 0 0
-0.006421 -0.180013 2.202000 255 0 0
-0.000386 -0.180095 2.203000 255 0 0
0.005652 -0.180095 2.203000 255 0 0
0.011696 -0.180176 2.204000 255 0 0
0.017769 -0.180503 2.208000 255 0 0
0.023864 -0.180829 2.212000 255 0 0
0.030021 -0.181400 2.219000 255 0 0
0.036200 -0.181889 2.225000 255 0 0
0.042412 -0.182378 2.231000 255 0 0
0.048548 -0.182458 2.232000 255 0 0
0.054592 -0.182210 2.229000 255 0 0
0.060673 -0.182126 2.228000 255 0 0
0.066838 -0.182287 2.230000 255 0 0
0.073210 -0.182938 2.238000 255 0 0
-0.240755 -0.194975 2.310000 255 0 0
-0.234949 -0.195407 2.315000 255 0 0
-0.228917 -0.195670 2.318000 255 0 0
-0.221812 -0.195003 2.310000 255 0 0
-0.214750 -0.194337 2.302000 255 0 0
-0.208002 -0.193923 2.297000 255 0 0
-0.201895 -0.194101 2.299000 255 0 0
-0.195947 -0.194446 2.303000 255 0 0
-0.189647 -0.194454 2.303000 255 0 0
-0.182868 -0.193955 2.297000 255 0 0
-0.176737 -0.194132 2.299000 255 0 0
-0.170816 -0.194561 2.304000 255 0 0
-0.165082 -0.195244 2.312000 255 0 0
-0.158822 -0.195335 2.313000 255 0 0
-0.152556 -0.195426 2.314000 255 0 0
-0.146537 -0.195854 2.319000 255 0 0
-0.140309 -0.196029 2.321000 255 0 0
-0.134127 -0.196288 2.324000 255 0 0
-0.127763 -0.196294 2.324000 255 0 0
-0.121346 -0.196215 2.323000 255 0 0
-0.115182 -0.196557 2.327000 255 0 0
-0.109089 -0.197069 2.333000 255 0 0
-0.103270 -0.198172 2.346000 255 0 0
-0.097834 -0.200203 2.370000 255 0 0
-0.075512 -0.192949 2.284000 255 0 0
-0.069011 -0.192277 2.276000 255 0 0
-0.062554 -0.191604 2.268000 255 0 0
-0.056041 -0.190592 2.256000 255 0 0
-0.049637 -0.189750 2.246000 255 0 0
-0.043269 -0.188822 2.235000 255 0 0
-0.036945 -0.187810 2.223000 255 0 0
-0.030797 -0.187474 2.219000 255 0 0
-0.024660 -0.187053 2.214000 255 0 0
-0.018558 -0.186716 2.210000 255 0 0
-0.012462 -0.186125 2.203000 255 0 0
-0.006418 -0.185956 2.201000 255 0 0
-0.000385 -0.185956 2.201000 255 0 0
0.005655 -0.186210 2.204000 255 0 0
0.011722 -0.186632 2.209000 255 0 0
0.017832 -0.187223 2.216000 255 0 0
0.023992 -0.187898 2.224000 255 0 0
0.030169 -0.188403 2.230000 255 0 0
0.036361 -0.188824 2.235000 255 0 0
0.042487 -0.188823 2.235000 255 0 0
0.048590 -0.188736 2.234000 255 0 0
0.054638 -0.188481 2.231000 255 0 0
0.060670 -0.188225 2.228000 255 0 0
0.066835 -0.188391 2.230000 255 0 0
0.073338 -0.189402 2.242000 255 0 0
-0.241579 -0.201989 2.318000 255 0 0
-0.235041 -0.201825 2.316000 255 0 0
-0.229106 -0.202183 2.320000 255 0 0
-0.222091 -0.201583 2.313000 255 0 0
-0.215021 -0.200894 2.305000 255 0 0
-0.208084 -0.200293 2.298000 255 0 0
-0.201799 -0.200302 2.298000 255 0 0
-0.195939 -0.200746 2.303000 255 0 0
-0.189721 -0.200841 2.304000 255 0 0
-0.183259 -0.200675 2.302000 255 0 0
-0.177114 -0.200857 2.304000 255 0 0
-0.171032 -0.201126 2.307000 255 0 0
-0.165003 -0.201482 2.311000 255 0 0
-0.158609 -0.201401 2.310000 255 0 0
-0.152418 -0.201582 2.312000 255 0 0
-0.146658 -0.202374 2.321000 255 0 0
-0.140605 -0.202816 2.326000 255 0 0
-0.134468 -0.203171 2.330000 255 0 0
-0.128087 -0.203176 2.330000 255 0 0
-0.121707 -0.203182 2.330000 255 0 0
-0.115375 -0.203274 2.331000 255 0 0
-0.109224 -0.203715 2.336000 255 0 0
-0.103310 -0.204679 2.347000 255 0 0
-0.075442 -0.199026 2.282000 255 0 0
-0.068947 -0.198331 2.274000 255 0 0
-0.062496 -0.197636 2.266000 255 0 0
-0.056013 -0.196679 2.255000 255 0 0
-0.049635 -0.195897 2.246000 255 0 0
-0.043306 -0.195114 2.237000 255 0 0
-0.037010 -0.194243 2.227000 255 0 0
-0.030823 -0.193722 2.221000 255 0 0
-0.024670 -0.193199 2.215000 255 0 0
-0.018591 -0.193113 2.214000 255 0 0
-0.012495 -0.192678 2.209000 255 0 0
-0.006435 -0.192504 2.207000 255 0 0
-0.000386 -0.192417 2.206000 255 0 0
0.005670 -0.192765 2.210000 255 0 0
0.011753 -0.193201 2.215000 255 0 0
0.017896 -0.193986 2.224000 255 0 0
0.024088 -0.194770 2.233000 255 0 0
0.030303 -0.195379 2.240000 255 0 0
0.036458 -0.195465 2.241000 255 0 0
0.042580 -0.195376 2.240000 255 0 0
0.048653 -0.195112 2.237000 255 0 0
0.054783 -0.195110 2.237000 255 0 0
0.060776 -0.194671 2.232000 255 0 0
0.066952 -0.194843 2.234000 255 0 0
0.073237 -0.195276 2.239000 255 0 0
-0.243341 -0.209855 2.335000 255 0 0
-0.235945 -0.208967 2.325000 255 0 0
-0.229491 -0.208887 2.324000 255 0 0
-0.222658 -0.208447 2.319000 255 0 0
-0.215758 -0.207917 2.313000 255 0 0
-0.208709 -0.207207 2.305000 255 0 0
-0.202142 -0.206946 2.302000 255 0 0
-0.196101 -0.207224 2.305000 255 0 0
-0.190043 -0.207503 2.308000 255 0 0
-0.183729 -0.207511 2.308000 255 0 0
-0.177567 -0.207698 2.310000 255 0 0
-0.171321 -0.207796 2.311000 255 0 0
-0.165210 -0.208073 2.314000 255 0 0
-0.158809 -0.207990 2.313000 255 0 0
-0.152807 -0.208447 2.318000 255 0 0
-0.146904 -0.209083 2.325000 255 0 0
-0.141083 -0.209899 2.334000 255 0 0
-0.134866 -0.210175 2.337000 255 0 0
-0.128686 -0.210540 2.341000 255 0 0
-0.122328 -0.210636 2.342000 255 0 0
-0.116112 -0.211001 2.346000 255 0 0
-0.109780 -0.211186 2.348000 255 0 0
-0.103657 -0.211820 2.355000 255 0 0
-0.075472 -0.205360 2.283000 255 0 0
-0.068914 -0.204464 2.273000 255 0 0
-0.062493 -0.203837 2.266000 255 0 0
-0.056036 -0.202940 2.256000 255 0 0
-0.049744 -0.202493 2.251000 255 0 0
-0.043362 -0.201505 2.240000 255 0 0
-0.037091 -0.200788 2.232000 255 0 0
-0.030850 -0.199979 2.223000 255 0 0
-0.024691 -0.199441 2.217000 255 0 0
-0.018607 -0.199352 2.216000 255 0 0
-0.012523 -0.199173 2.214000 255 0 0
-0.006449 -0.198993 2.212000 255 0 0
-0.000387 -0.198813 2.210000 255 0 0
0.005677 -0.199083 2.213000 255 0 0
0.011769 -0.199533 2.218000 255 0 0
0.017927 -0.200432 2.228000 255 0 0
0.024120 -0.201150 2.236000 255 0 0
0.030301 -0.201509 2.240000 255 0 0
0.036440 -0.201507 2.240000 255 0 0
0.042597 -0.201596 2.241000 255 0 0
0.048738 -0.201593 2.241000 255 0 0
0.054903 -0.201681 2.242000 255 0 0
0.060910 -0.201229 2.237000 255 0 0
0.067069 -0.201316 2.238000 255 0 0
0.073462 -0.202032 2.246000 255 0 0
-0.243747 -0.216609 2.339000 255 0 0
-0.236848 -0.216157 2.334000 255 0 0
-0.230073 -0.215797 2.330000 255 0 0
-0.223416 -0.215529 2.327000 255 0 0
-0.216681 -0.215168 2.323000 255 0 0
-0.209514 -0.214344 2.314000 255 0 0
-0.202835 -0.213982 2.310000 255 0 0
-0.196603 -0.214084 2.311000 255 0 0
-0.190364 -0.214185 2.312000 255 0 0
-0.184039 -0.214193 2.312000 255 0 0
-0.177867 -0.214387 2.314000 255 0 0
-0.171758 -0.214673 2.317000 255 0 0
-0.165489 -0.214773 2.318000 255 0 0
-0.158939 -0.214502 2.315000 255 0 0
-0.152734 -0.214695 2.317000 255 0 0
-0.146897 -0.215443 2.325000 255 0 0
-0.141197 -0.216469 2.336000 255 0 0
-0.135033 -0.216846 2.340000 255 0 0
-0.128845 -0.217222 2.344000 255 0 0
-0.122584 -0.217506 2.347000 255 0 0
-0.116453 -0.218068 2.353000 255 0 0
-0.110150 -0.218351 2.356000 255 0 0
-0.103741 -0.218448 2.357000 255 0 0
-0.082152 -0.212715 2.295000 255 0 0
-0.075237 -0.210958 2.276000 255 0 0
-0.068759 -0.210219 2.268000 255 0 0
-0.062407 -0.209759 2.263000 255 0 0
-0.055959 -0.208835 2.253000 255 0 0
-0.049697 -0.208466 2.249000 255 0 0
-0.043360 -0.207634 2.240000 255 0 0
-0.037139 -0.207173 2.235000 255 0 0
-0.030848 -0.206062 2.223000 255 0 0
-0.024679 -0.205414 2.216000 255 0 0
-0.018615 -0.205508 2.217000 255 0 0
-0.012539 -0.205509 2.217000 255 0 0
-0.006470 -0.205695 2.219000 255 0 0
-0.000388 -0.205417 2.216000 255 0 0
0.005695 -0.205787 2.220000 255 0 0
0.011800 -0.206158 2.224000 255 0 0
0.017959 -0.206899 2.232000 255 0 0
0.024118 -0.207269 2.236000 255 0 0
0.030273 -0.207453 2.238000 255 0 0
0.036454 -0.207729 2.241000 255 0 0
0.042633 -0.207913 2.243000 255 0 0
0.048801 -0.208003 2.244000 255 0 0
0.054925 -0.207908 2.243000 255 0 0
0.060989 -0.207627 2.240000 255 0 0
0.067186 -0.207810 2.242000 255 0 0
-0.246492 -0.219751 2.305000 255 0 0
-0.244362 -0.223575 2.345000 255 0 0
-0.237751 -0.223395 2.343000 255 0 0
-0.231051 -0.223120 2.340000 255 0 0
-0.223790 -0.222272 2.331000 255 0 0
-0.217045 -0.221900 2.327000 255 0 0
-0.210139 -0.221338 2.321000 255 0 0
-0.203529 -0.221061 2.318000 255 0 0
-0.197104 -0.220975 2.317000 255 0 0
-0.190684 -0.220889 2.316000 255 0 0
-0.184269 -0.220802 2.315000 255 0 0
-0.177936 -0.220810 2.315000 255 0 0
-0.171898 -0.221200 2.319000 255 0 0
-0.165767 -0.221494 2.322000 255 0 0
-0.159343 -0.221406 2.321000 255 0 0
-0.153255 -0.221795 2.325000 255 0 0
-0.147080 -0.222088 2.328000 255 0 0
-0.141010 -0.222572 2.333000 255 0 0
-0.134969 -0.223150 2.339000 255 0 0
-0.128839 -0.223634 2.344000 255 0 0
-0.122944 -0.224594 2.354000 255 0 0
-0.116547 -0.224695 2.355000 255 0 0
-0.110331 -0.225177 2.360000 255 0 0
-0.102944 -0.223178 2.339000 255 0 0
-0.082363 -0.219566 2.301000 255 0 0
-0.075432 -0.217756 2.282000 255 0 0
-0.068907 -0.216901 2.273000 255 0 0
-0.062542 -0.216427 2.268000 255 0 0
-0.056006 -0.215189 2.255000 255 0 0
-0.049651 -0.214428 2.247000 255 0 0
-0.043320 -0.213572 2.238000 255 0 0
-0.037121 -0.213192 2.234000 255 0 0
-0.030861 -0.212239 2.224000 255 0 0
-0.024700 -0.211668 2.218000 255 0 0
-0.018622 -0.211669 2.218000 255 0 0
-0.012556 -0.211861 2.220000 255 0 0
-0.006478 -0.212052 2.222000 255 0 0
-0.000389 -0.212052 2.222000 255 0 0
0.005707 -0.212338 2.225000 255 0 0
0.011821 -0.212624 2.228000 255 0 0
0.017982 -0.213292 2.235000 255 0 0
0.024150 -0.213672 2.239000 255 0 0
0.030325 -0.213957 2.242000 255 0 0
0.036453 -0.213860 2.241000 255 0 0
0.042631 -0.214049 2.243000 255 0 0
0.048733 -0.213856 2.241000 255 0 0
0.054947 -0.214140 2.244000 255 0 0
0.061040 -0.213946 2.242000 255 0 0
0.067243 -0.214134 2.244000 255 0 0
-0.242996 -0.228710 2.332000 255 0 0
-0.237740 -0.229800 2.343000 255 0 0
-0.230941 -0.229418 2.339000 255 0 0
-0.223684 -0.228546 2.330000 255 0 0
-0.216848 -0.228065 2.325000 255 0 0
-0.210129 -0.227683 2.321000 255 0 0
-0.203870 -0.227791 2.322000 255 0 0
-0.197435 -0.227702 2.321000 255 0 0
-0.191005 -0.227613 2.320000 255 0 0
-0.184738 -0.227720 2.321000 255 0 0
-0.178619 -0.228023 2.324000 255 0 0
-0.172335 -0.228129 2.325000 255 0 0
-0.165759 -0.227843 2.322000 255 0 0
-0.159199 -0.227556 2.319000 255 0 0
-0.153247 -0.228153 2.325000 255 0 0
-0.147326 -0.228847 2.332000 255 0 0
-0.141305 -0.229442 2.338000 255 0 0
-0.135193 -0.229940 2.343000 255 0 0
-0.129218 -0.230731 2.351000 255 0 0
-0.123147 -0.231424 2.358000 255 0 0
-0.116838 -0.231724 2.361000 255 0 0
-0.110560 -0.232123 2.365000 255 0 0
-0.082431 -0.226056 2.303000 255 0 0
-0.075494 -0.224195 2.284000 255 0 0
-0.069025 -0.223511 2.277000 255 0 0
-0.062539 -0.222631 2.268000 255 0 0
-0.055978 -0.221259 2.254000 255 0 0
-0.049538 -0.220084 2.242000 255 0 0
-0.043279 -0.219497 2.236000 255 0 0
-0.037086 -0.219107 2.232000 255 0 0
-0.030873 -0.218421 2.225000 255 0 0
-0.024743 -0.218128 2.222000 255 0 0
-0.018621 -0.217736 2.218000 255 0 0
-0.012561 -0.218032 2.221000 255 0 0
-0.006484 -0.218327 2.224000 255 0 0
-0.000390 -0.218719 2.228000 255 0 0
0.005723 -0.219014 2.231000 255 0 0
0.011836 -0.219013 2.231000 255 0 0
0.017981 -0.219405 2.235000 255 0 0
0.024116 -0.219503 2.236000 255 0 0
0.030283 -0.219796 2.239000 255 0 0
0.036451 -0.219990 2.241000 255 0 0
0.042591 -0.219988 2.241000 255 0 0
0.048731 -0.219986 2.241000 255 0 0
0.054846 -0.219885 2.240000 255 0 0
0.061065 -0.220177 2.243000 255 0 0
0.067209 -0.220174 2.243000 255 0 0
-0.242672 -0.234780 2.329000 255 0 0
-0.236511 -0.234993 2.331000 255 0 0
-0.230536 -0.235407 2.335000 255 0 0
-0.223290 -0.234511 2.326000 255 0 0
-0.216651 -0.234219 2.323000 255 0 0
-0.210210 -0.234128 2.322000 255 0 0
-0.204036 -0.234340 2.324000 255 0 0
-0.197596 -0.234248 2.323000 255 0 0
-0.191243 -0.234258 2.323000 255 0 0
-0.185446 -0.234973 2.330000 255 0 0
-0.179610 -0.235687 2.337000 255 0 0
-0.173068 -0.235494 2.335000 255 0 0
-0.165965 -0.234494 2.325000 255 0 0
-0.159260 -0.233998 2.320000 255 0 0
-0.153570 -0.235014 2.330000 255 0 0
-0.147824 -0.236030 2.340000 255 0 0
-0.141903 -0.236844 2.348000 255 0 0
-0.135879 -0.237557 2.355000 255 0 0
-0.129761 -0.238169 2.361000 255 0 0
-0.123611 -0.238780 2.367000 255 0 0
-0.117031 -0.238584 2.365000 255 0 0
-0.110601 -0.238691 2.366000 255 0 0
-0.075557 -0.230643 2.286000 255 0 0
-0.069113 -0.230041 2.280000 255 0 0
-0.062591 -0.229036 2.270000 255 0 0
-0.056025 -0.227626 2.256000 255 0 0
-0.049557 -0.226317 2.243000 255 0 0
-0.043296 -0.225714 2.237000 255 0 0
-0.037084 -0.225211 2.232000 255 0 0
-0.030899 -0.224709 2.227000 255 0 0
-0.024764 -0.224407 2.224000 255 0 0
-0.018637 -0.224005 2.220000 255 0 0
-0.012566 -0.224207 2.222000 255 0 0
-0.006489 -0.224611 2.226000 255 0 0
-0.000390 -0.224813 2.228000 255 0 0
0.005725 -0.225217 2.232000 255 0 0
0.011835 -0.225116 2.231000 255 0 0
0.017988 -0.225619 2.236000 255 0 0
0.024147 -0.225921 2.239000 255 0 0
0.030295 -0.226020 2.240000 255 0 0
0.036416 -0.225918 2.239000 255 0 0
0.042532 -0.225815 2.238000 255 0 0
0.048641 -0.225712 2.237000 255 0 0
0.054843 -0.226012 2.240000 255 0 0
0.061089 -0.226413 2.244000 255 0 0
0.067386 -0.226914 2.249000 255 0 0
0.073645 -0.227213 2.252000 255 0 0
-0.241306 -0.239798 2.316000 255 0 0
-0.236601 -0.241466 2.332000 255 0 0
-0.230327 -0.241581 2.333000 255 0 0
-0.223375 -0.240971 2.327000 255 0 0
-0.216734 -0.240671 2.324000 255 0 0
-0.210019 -0.240267 2.320000 255 0 0
-0.203851 -0.240484 2.322000 255 0 0
-0.197586 -0.240598 2.323000 255 0 0
-0.191645 -0.241125 2.328000 255 0 0
-0.185835 -0.241859 2.335000 255 0 0
-0.179985 -0.242594 2.342000 255 0 0
-0.173430 -0.242395 2.340000 255 0 0
-0.166528 -0.241679 2.333000 255 0 0
-0.159870 -0.241272 2.329000 255 0 0
-0.154023 -0.242109 2.337000 255 0 0
-0.148133 -0.242945 2.345000 255 0 0
-0.142318 -0.243989 2.355000 255 0 0
-0.136103 -0.244410 2.359000 255 0 0
-0.130195 -0.245453 2.369000 255 0 0
-0.123865 -0.245770 2.372000 255 0 0
-0.117470 -0.245983 2.374000 255 0 0
-0.110081 -0.244020 2.355000 255 0 0
-0.082351 -0.238444 2.301000 255 0 0
-0.075520 -0.236790 2.285000 255 0 0
-0.069140 -0.236380 2.281000 255 0 0
-0.062533 -0.235036 2.268000 255 0 0
-0.055973 -0.233588 2.254000 255 0 0
-0.049511 -0.232243 2.241000 255 0 0
-0.043313 -0.231935 2.238000 255 0 0
-0.037132 -0.231626 2.235000 255 0 0
-0.030967 -0.231317 2.232000 255 0 0
-0.024819 -0.231007 2.229000 255 0 0
-0.018695 -0.230801 2.227000 255 0 0
-0.012582 -0.230595 2.225000 255 0 0
-0.006495 -0.230906 2.228000 255 0 0
-0.000390 -0.230699 2.226000 255 0 0
0.005719 -0.231114 2.230000 255 0 0
0.011829 -0.231113 2.230000 255 0 0
0.017979 -0.231630 2.235000 255 0 0
0.024114 -0.231733 2.236000 255 0 0
0.030240 -0.231732 2.236000 255 0 0
0.036398 -0.231937 2.238000 255 0 0
0.042530 -0.231935 2.238000 255 0 0
0.048748 -0.232347 2.242000 255 0 0
0.054914 -0.232448 2.243000 255 0 0
0.061222 -0.233067 2.249000 255 0 0
0.067412 -0.233167 2.250000 255 0 0
-0.242753 -0.247614 2.330000 255 0 0
-0.237503 -0.248794 2.341000 255 0 0
-0.230810 -0.248487 2.338000 255 0 0
-0.223940 -0.247967 2.333000 255 0 0
-0.217190 -0.247553 2.329000 255 0 0
-0.210370 -0.247032 2.324000 255 0 0
-0.204016 -0.247042 2.324000 255 0 0
-0.197662 -0.247052 2.324000 255 0 0
-0.191800 -0.247700 2.330000 255 0 0
-0.185666 -0.248028 2.333000 255 0 0
-0.179592 -0.248463 2.337000 255 0 0
-0.173347 -0.248685 2.339000 255 0 0
-0.166948 -0.248693 2.339000 255 0 0
-0.160411 -0.248489 2.337000 255 0 0
-0.154213 -0.248816 2.340000 255 0 0
-0.148251 -0.249568 2.347000 255 0 0
-0.142311 -0.250426 2.355000 255 0 0
-0.136096 -0.250859 2.359000 255 0 0
-0.130188 -0.251929 2.369000 255 0 0
-0.124120 -0.252786 2.377000 255 0 0
-0.117612 -0.252793 2.377000 255 0 0
-0.110590 -0.251629 2.366000 255 0 0
-0.075813 -0.243995 2.294000 255 0 0
-0.069318 -0.243254 2.287000 255 0 0
-0.062695 -0.241875 2.274000 255 0 0
-0.056094 -0.240283 2.259000 255 0 0
-0.049619 -0.238903 2.246000 255 0 0
-0.043330 -0.238161 2.239000 255 0 0
-0.037130 -0.237737 2.235000 255 0 0
-0.031007 -0.237739 2.235000 255 0 0
-0.024840 -0.237315 2.231000 255 0 0
-0.018736 -0.237422 2.232000 255 0 0
-0.012598 -0.236998 2.228000 255 0 0
-0.006500 -0.237211 2.230000 255 0 0
-0.000390 -0.236998 2.228000 255 0 0
0.005719 -0.237211 2.230000 255 0 0
0.011818 -0.236998 2.228000 255 0 0
0.017962 -0.237529 2.233000 255 0 0
0.024080 -0.237528 2.233000 255 0 0
0.030238 -0.237846 2.236000 255 0 0
0.036396 -0.238057 2.238000 255 0 0
0.042565 -0.238267 2.240000 255 0 0
0.048723 -0.238371 2.241000 255 0 0
0.054838 -0.238262 2.240000 255 0 0
0.061028 -0.238472 2.242000 255 0 0
0.067409 -0.239319 2.250000 255 0 0
-0.237897 -0.255626 2.345000 255 0 0
-0.230897 -0.254983 2.339000 255 0 0
-0.224313 -0.254777 2.337000 255 0 0
-0.217459 -0.254243 2.332000 255 0 0
-0.210812 -0.253927 2.329000 255 0 0
-0.204445 -0.253937 2.329000 255 0 0
-0.198162 -0.254057 2.330000 255 0 0
-0.192120 -0.254503 2.334000 255 0 0
-0.185736 -0.254513 2.334000 255 0 0
-0.179429 -0.254631 2.335000 255 0 0
-0.173338 -0.255077 2.339000 255 0 0
-0.167225 -0.255522 2.343000 255 0 0
-0.160883 -0.255639 2.344000 255 0 0
-0.154535 -0.255756 2.345000 255 0 0
-0.148244 -0.255983 2.347000 255 0 0
-0.142062 -0.256426 2.351000 255 0 0
-0.135916 -0.256979 2.356000 255 0 0
-0.130126 -0.258295 2.368000 255 0 0
-0.124270 -0.259611 2.380000 255 0 0
-0.118348 -0.260926 2.392000 255 0 0
-0.111986 -0.261369 2.396000 255 0 0
-0.083738 -0.255280 2.340000 255 0 0
-0.075975 -0.250812 2.299000 255 0 0
-0.069405 -0.249834 2.290000 255 0 0
-0.062747 -0.248310 2.276000 255 0 0
-0.056141 -0.246677 2.261000 255 0 0
-0.049594 -0.244934 2.245000 255 0 0
-0.043289 -0.244063 2.237000 255 0 0
-0.037095 -0.243629 2.233000 255 0 0
-0.031033 -0.244067 2.237000 255 0 0
-0.024883 -0.243851 2.235000 255 0 0
-0.018777 -0.244070 2.237000 255 0 0
-0.012620 -0.243525 2.232000 255 0 0
-0.006500 -0.243308 2.230000 255 0 0
-0.000390 -0.243090 2.228000 255 0 0
0.005719 -0.243308 2.230000 255 0 0
0.011823 -0.243198 2.229000 255 0 0
0.017953 -0.243525 2.232000 255 0 0
0.024046 -0.243305 2.230000 255 0 0
0.030182 -0.243522 2.232000 255 0 0
0.036329 -0.243739 2.234000 255 0 0
0.042487 -0.243955 2.236000 255 0 0
0.048634 -0.244061 2.237000 255 0 0
0.054688 -0.243731 2.234000 255 0 0
0.061025 -0.244601 2.242000 255 0 0
0.067615 -0.246234 2.257000 255 0 0
-0.244187 -0.261907 2.344000 255 0 0
-0.237175 -0.261249 2.338000 255 0 0
-0.230392 -0.260814 2.334000 255 0 0
-0.224301 -0.261161 2.337000 255 0 0
-0.217727 -0.260949 2.335000 255 0 0
-0.211254 -0.260848 2.334000 255 0 0
-0.204786 -0.260747 2.333000 255 0 0
-0.198322 -0.260646 2.332000 255 0 0
-0.192027 -0.260768 2.333000 255 0 0
-0.185567 -0.260666 2.332000 255 0 0
-0.179497 -0.261123 2.336000 255 0 0
-0.173477 -0.261691 2.341000 255 0 0
-0.167430 -0.262259 2.346000 255 0 0
-0.161080 -0.262380 2.347000 255 0 0
-0.154592 -0.262276 2.346000 255 0 0
-0.148425 -0.262732 2.350000 255 0 0
-0.142296 -0.263298 2.355000 255 0 0
-0.136082 -0.263753 2.359000 255 0 0
-0.129954 -0.264431 2.365000 255 0 0
-0.124264 -0.266115 2.380000 255 0 0
-0.118589 -0.268023 2.397000 255 0 0
-0.083054 -0.259551 2.321000 255 0 0
-0.075938 -0.256984 2.298000 255 0 0
-0.069462 -0.256317 2.292000 255 0 0
-0.062771 -0.254643 2.277000 255 0 0
-0.056212 -0.253192 2.264000 255 0 0
-0.049635 -0.251294 2.247000 255 0 0
-0.043345 -0.250514 2.240000 255 0 0
-0.037110 -0.249845 2.234000 255 0 0
-0.031032 -0.250182 2.237000 255 0 0
-0.024904 -0.250184 2.237000 255 0 0
-0.018784 -0.250297 2.238000 255 0 0
-0.012631 -0.249850 2.234000 255 0 0
-0.006505 -0.249627 2.232000 255 0 0
-0.000391 -0.249627 2.232000 255 0 0
0.005726 -0.249739 2.233000 255 0 0
0.011843 -0.249738 2.233000 255 0 0
0.017952 -0.249626 2.232000 255 0 0
0.024034 -0.249289 2.229000 255 0 0
0.030140 -0.249288 2.229000 255 0 0
0.036262 -0.249398 2.230000 255 0 0
0.042390 -0.249507 2.231000 255 0 0
0.048479 -0.249393 2.230000 255 0 0
0.054636 -0.249614 2.232000 255 0 0
0.061130 -0.251176 2.246000 255 0 0
-0.237162 -0.267634 2.338000 255 0 0
-0.230676 -0.267532 2.337000 255 0 0
-0.224481 -0.267773 2.339000 255 0 0
-0.217902 -0.267555 2.337000 255 0 0
-0.211333 -0.267338 2.335000 255 0 0
-0.205301 -0.267807 2.339000 255 0 0
-0.198736 -0.267589 2.337000 255 0 0
-0.192346 -0.267599 2.337000 255 0 0
-0.185796 -0.267380 2.335000 255 0 0
-0.179641 -0.267734 2.338000 255 0 0
-0.173690 -0.268430 2.344000 255 0 0
-0.167706 -0.269127 2.350000 255 0 0
-0.161415 -0.269365 2.352000 255 0 0
-0.155111 -0.269602 2.354000 255 0 0
-0.148859 -0.269954 2.357000 255 0 0
-0.142409 -0.269962 2.357000 255 0 0
-0.136074 -0.270199 2.359000 255 0 0
-0.129892 -0.270779 2.364000 255 0 0
-0.124414 -0.272962 2.383000 255 0 0
-0.118830 -0.275145 2.402000 255 0 0
-0.075933 -0.263264 2.298000 255 0 0
-0.069398 -0.262351 2.290000 255 0 0
-0.062795 -0.260980 2.278000 255 0 0
-0.056159 -0.259150 2.262000 255 0 0
-0.049633 -0.257435 2.247000 255 0 0
-0.043304 -0.256406 2.238000 255 0 0
-0.037141 -0.256179 2.236000 255 0 0
-0.031085 -0.256754 2.241000 255 0 0
-0.024936 -0.256641 2.240000 255 0 0
-0.018783 -0.256413 2.238000 255 0 0
-0.012636 -0.256070 2.235000 255 0 0
-0.006516 -0.256186 2.236000 255 0 0
-0.000391 -0.256186 2.236000 255 0 0
0.005728 -0.255957 2.234000 255 0 0
0.011853 -0.256071 2.235000 255 0 0
0.017976 -0.256070 2.235000 255 0 0
0.024087 -0.255954 2.234000 255 0 0
0.030152 -0.255494 2.230000 255 0 0
0.036277 -0.255607 2.231000 255 0 0
0.042387 -0.255605 2.231000 255 0 0
0.048542 -0.255831 2.233000 255 0 0
0.054853 -0.256745 2.241000 255 0 0
0.061372 -0.258346 2.255000 255 0 0
-0.230861 -0.274148 2.339000 255 0 0
-0.224661 -0.274395 2.341000 255 0 0
-0.218170 -0.274289 2.340000 255 0 0
-0.211413 -0.273832 2.336000 255 0 0
-0.205290 -0.274195 2.339000 255 0 0
-0.198726 -0.273972 2.337000 255 0 0
-0.192665 -0.274451 2.341000 255 0 0
-0.185786 -0.273758 2.335000 255 0 0
-0.179631 -0.274120 2.338000 255 0 0
-0.173459 -0.274481 2.341000 255 0 0
-0.167626 -0.275429 2.349000 255 0 0
-0.161680 -0.276259 2.356000 255 0 0
-0.155300 -0.276385 2.357000 255 0 0
-0.149167 -0.276979 2.362000 255 0 0
-0.142583 -0.276753 2.360000 255 0 0
-0.136240 -0.276995 2.362000 255 0 0
-0.130325 -0.278176 2.372000 255 0 0
-0.124355 -0.279355 2.382000 255 0 0
-0.081399 -0.266841 2.275000 255 0 0
-0.076193 -0.270481 2.306000 255 0 0
-0.069454 -0.268843 2.292000 255 0 0
-0.062930 -0.267791 2.283000 255 0 0
-0.056355 -0.266270 2.270000 255 0 0
-0.049740 -0.264161 2.252000 255 0 0
-0.043360 -0.262874 2.241000 255 0 0
-0.037188 -0.262641 2.239000 255 0 0
-0.031098 -0.262995 2.242000 255 0 0
-0.024923 -0.262645 2.239000 255 0 0
-0.018749 -0.262060 2.234000 255 0 0
-0.012612 -0.261709 2.231000 255 0 0
-0.006507 -0.261944 2.233000 255 0 0
-0.000391 -0.262179 2.235000 255 0 0
0.005726 -0.261944 2.233000 255 0 0
0.011847 -0.262061 2.234000 255 0 0
0.017975 -0.262177 2.235000 255 0 0
0.024107 -0.262293 2.236000 255 0 0
0.030245 -0.262409 2.237000 255 0 0
0.036356 -0.262290 2.236000 255 0 0
0.042499 -0.262405 2.237000 255 0 0
0.048691 -0.262754 2.240000 255 0 0
0.055095 -0.264042 2.251000 255 0 0
0.061450 -0.264859 2.258000 255 0 0
-0.230750 -0.280414 2.338000 255 0 0
-0.224649 -0.280787 2.341000 255 0 0
-0.218345 -0.280919 2.342000 255 0 0
-0.211763 -0.280691 2.340000 255 0 0
-0.205806 -0.281302 2.345000 255 0 0
-0.199140 -0.280953 2.342000 255 0 0
-0.192984 -0.281324 2.345000 255 0 0
-0.186253 -0.280855 2.341000 255 0 0
-0.180082 -0.281225 2.344000 255 0 0
-0.173819 -0.281475 2.346000 255 0 0
-0.167831 -0.282204 2.352000 255 0 0
-0.162014 -0.283293 2.361000 255 0 0
-0.155687 -0.283542 2.363000 255 0 0
-0.149601 -0.284271 2.369000 255 0 0
-0.142877 -0.283799 2.365000 255 0 0
-0.136809 -0.284647 2.372000 255 0 0
-0.130537 -0.285135 2.376000 255 0 0
-0.124817 -0.286942 2.391000 255 0 0
-0.117284 -0.284549 2.371000 255 0 0
-0.069541 -0.275465 2.295000 255 0 0
-0.063064 -0.274629 2.288000 255 0 0
-0.056351 -0.272472 2.270000 255 0 0
-0.049804 -0.270674 2.255000 255 0 0
-0.043357 -0.268996 2.241000 255 0 0
-0.037253 -0.269239 2.243000 255 0 0
-0.031110 -0.269241 2.243000 255 0 0
-0.024911 -0.268642 2.238000 255 0 0
-0.018747 -0.268163 2.234000 255 0 0
-0.012612 -0.267804 2.231000 255 0 0
-0.006504 -0.267925 2.232000 255 0 0
-0.000391 -0.268045 2.233000 255 0 0
0.005720 -0.267805 2.231000 255 0 0
0.011825 -0.267684 2.230000 255 0 0
0.017957 -0.268044 2.233000 255 0 0
0.024127 -0.268643 2.238000 255 0 0
0.030297 -0.269001 2.241000 255 0 0
0.036386 -0.268639 2.238000 255 0 0
0.042554 -0.268877 2.240000 255 0 0
0.048753 -0.269234 2.243000 255 0 0
0.055214 -0.270792 2.256000 255 0 0
0.061528 -0.271388 2.261000 255 0 0
-0.230046 -0.285938 2.331000 255 0 0
-0.223773 -0.286073 2.332000 255 0 0
-0.218333 -0.287313 2.342000 255 0 0
-0.212294 -0.287815 2.346000 255 0 0
-0.206496 -0.288686 2.353000 255 0 0
-0.199554 -0.287961 2.347000 255 0 0
-0.193137 -0.287972 2.347000 255 0 0
-0.186641 -0.287860 2.346000 255 0 0
-0.180763 -0.288730 2.353000 255 0 0
-0.174550 -0.289108 2.356000 255 0 0
-0.168249 -0.289363 2.358000 255 0 0
-0.162211 -0.290109 2.364000 255 0 0
-0.156073 -0.290732 2.369000 255 0 0
-0.149908 -0.291354 2.374000 255 0 0
-0.143533 -0.291608 2.376000 255 0 0
-0.137089 -0.291739 2.377000 255 0 0
-0.130969 -0.292606 2.384000 255 0 0
-0.123818 -0.291141 2.372000 255 0 0
-0.116634 -0.289429 2.358000 255 0 0
-0.069749 -0.282593 2.302000 255 0 0
-0.063253 -0.281738 2.295000 255 0 0
-0.056596 -0.279900 2.280000 255 0 0
-0.049999 -0.277939 2.264000 255 0 0
-0.043548 -0.276346 2.251000 255 0 0
-0.037317 -0.275857 2.247000 255 0 0
-0.031149 -0.275736 2.246000 255 0 0
-0.024920 -0.274879 2.239000 255 0 0
