ply
format ascii 1.0
element vertex 1316
property double x
property double y
property double z
property uchar red
property uchar green
property uchar blue
end_header
-0.119150 0.048542 2.166000 255 0 0
-0.113110 0.048498 2.164000 255 0 0
-0.107031 0.048432 2.161000 255 0 0
-0.101109 0.048433 2.161000 255 0 0
-0.095010 0.048345 2.157000 255 0 0
-0.089097 0.048346 2.157000 255 0 0
-0.083184 0.048347 2.157000 255 0 0
-0.077378 0.048415 2.160000 255 0 0
-0.071490 0.048438 2.161000 255 0 0
-0.065595 0.048462 2.162000 255 0 0
-0.059667 0.048462 2.162000 255 0 0
-0.053739 0.048463 2.162000 255 0 0
-0.047811 0.048464 2.162000 255 0 0
-0.041902 0.048487 2.163000 255 0 0
-0.036020 0.048554 2.166000 255 0 0
-0.030094 0.048577 2.167000 255 0 0
-0.024163 0.048600 2.168000 255 0 0
-0.018217 0.048600 2.168000 255 0 0
-0.012277 0.048623 2.169000 255 0 0
-0.006329 0.048623 2.169000 255 0 0
-0.000380 0.048645 2.170000 255 0 0
0.005571 0.048645 2.170000 255 0 0
0.011533 0.048690 2.172000 255 0 0
0.017514 0.048757 2.175000 255 0 0
0.023511 0.048824 2.178000 255 0 0
0.029497 0.048846 2.179000 255 0 0
0.035505 0.048891 2.181000 255 0 0
0.041524 0.048935 2.183000 255 0 0
0.047554 0.048979 2.185000 255 0 0
0.053643 0.049068 2.189000 255 0 0
0.059673 0.049090 2.190000 255 0 0
0.065857 0.049224 2.196000 255 0 0
0.071878 0.049223 2.196000 255 0 0
0.078005 0.049289 2.199000 255 0 0
0.084072 0.049311 2.200000 255 0 0
0.090266 0.049400 2.204000 255 0 0
0.096308 0.049398 2.204000 255 0 0
0.102534 0.049487 2.208000 255 0 0
0.108979 0.049665 2.216000 255 0 0
0.154135 0.048577 2.168000 255 0 0
0.158965 0.048239 2.153000 255 0 0
0.164400 0.048103 2.147000 255 0 0
0.169803 0.047967 2.141000 255 0 0
0.175417 0.047897 2.138000 255 0 0
0.181185 0.047873 2.137000 255 0 0
0.186683 0.047781 2.133000 255 0 0
0.191437 0.047510 2.121000 255 0 0
0.193986 0.046724 2.086000 255 0 0
0.202756 0.047439 2.118000 255 0 0
-0.172628 -0.246003 2.364737 255 255 0
-0.166234 -0.247153 2.355630 255 255 0
-0.138120 -0.241702 2.361276 255 255 0
-0.090860 -0.230376 2.380160 255 255 0
-0.057869 -0.223334 2.389588 255 255 0
-0.035769 -0.219578 2.391726 255 255 0
-0.017870 -0.217080 2.391092 255 255 0
0.007478 -0.212262 2.395756 255 255 0
0.017836 -0.212038 2.390081 255 255 0
0.027349 -0.212063 2.383862 255 255 0
0.040163 -0.211053 2.380025 255 255 0
0.043855 -0.212868 2.369762 255 255 0
0.067385 -0.208485 2.373705 255 255 0
-0.183575 -0.305712 2.276574 0 255 0
-0.167932 -0.308220 2.278193 0 255 0
-0.237849 -0.278767 2.339839 0 255 0
-0.248271 -0.271605 2.359489 0 255 0
-0.217534 -0.279754 2.350507 0 255 0
-0.215349 -0.277275 2.361414 0 255 0
-0.203905 -0.278218 2.365963 0 255 0
-0.178119 -0.284430 2.360784 0 255 0
-0.152294 -0.290613 2.355742 0 255 0
-0.130650 -0.295220 2.353685 0 255 0
0.007528 -0.311412 2.390427 0 255 0
0.010708 -0.309132 2.401281 0 255 0
-0.317374 0.042907 2.185000 255 0 0
-0.313266 0.043166 2.198000 255 0 0
-0.307969 0.043267 2.203000 255 0 0
-0.302368 0.043328 2.206000 255 0 0
-0.296482 0.043351 2.207000 255 0 0
-0.290721 0.043393 2.209000 255 0 0
-0.285205 0.043474 2.213000 255 0 0
-0.281181 0.043791 2.229000 255 0 0
-0.259820 0.044312 2.255000 255 0 0
-0.251070 0.043863 2.232000 255 0 0
-0.243762 0.043649 2.221000 255 0 0
-0.237262 0.043573 2.217000 255 0 0
-0.230262 0.043398 2.208000 255 0 0
-0.224427 0.043440 2.210000 255 0 0
-0.218086 0.043383 2.207000 255 0 0
-0.212242 0.043424 2.209000 255 0 0
-0.205452 0.043269 2.201000 255 0 0
-0.199520 0.043291 2.202000 255 0 0
-0.193055 0.043194 2.197000 255 0 0
-0.186872 0.043157 2.195000 255 0 0
-0.180370 0.043041 2.189000 255 0 0
-0.174138 0.042983 2.186000 255 0 0
-0.167769 0.042887 2.181000 255 0 0
-0.161723 0.042869 2.180000 255 0 0
-0.155682 0.042851 2.179000 255 0 0
-0.149783 0.042872 2.180000 255 0 0
-0.143548 0.042795 2.176000 255 0 0
-0.137334 0.042718 2.172000 255 0 0
-0.131384 0.042719 2.172000 255 0 0
-0.125375 0.042701 2.171000 255 0 0
-0.119317 0.042663 2.169000 255 0 0
-0.113216 0.042605 2.166000 255 0 0
-0.107082 0.042527 2.162000 255 0 0
-0.101110 0.042509 2.161000 255 0 0
-0.095055 0.042451 2.158000 255 0 0
-0.089057 0.042412 2.156000 255 0 0
-0.083147 0.042413 2.156000 255 0 0
-0.077343 0.042473 2.159000 255 0 0
-0.071491 0.042513 2.161000 255 0 0
-0.065566 0.042514 2.161000 255 0 0
-0.059640 0.042514 2.161000 255 0 0
-0.053740 0.042535 2.162000 255 0 0
-0.047856 0.042574 2.164000 255 0 0
-0.041941 0.042595 2.165000 255 0 0
-0.036037 0.042634 2.167000 255 0 0
-0.030108 0.042654 2.168000 255 0 0
-0.024163 0.042655 2.168000 255 0 0
-0.018209 0.042635 2.167000 255 0 0
-0.012277 0.042675 2.169000 255 0 0
-0.006332 0.042695 2.170000 255 0 0
-0.000381 0.042734 2.172000 255 0 0
0.005579 0.042754 2.173000 255 0 0
0.011554 0.042812 2.176000 255 0 0
0.017546 0.042871 2.179000 255 0 0
0.023543 0.042910 2.181000 255 0 0
0.029552 0.042950 2.183000 255 0 0
0.035554 0.042969 2.184000 255 0 0
0.041544 0.042968 2.184000 255 0 0
0.047576 0.043007 2.186000 255 0 0
0.053668 0.043086 2.190000 255 0 0
0.059810 0.043183 2.195000 255 0 0
0.065858 0.043202 2.196000 255 0 0
0.071944 0.043241 2.198000 255 0 0
0.078041 0.043280 2.200000 255 0 0
0.084149 0.043318 2.202000 255 0 0
0.090308 0.043376 2.205000 255 0 0
0.096483 0.043434 2.208000 255 0 0
0.102582 0.043453 2.209000 255 0 0
0.108882 0.043550 2.214000 255 0 0
0.150318 0.043246 2.199000 255 0 0
0.153710 0.042517 2.162000 255 0 0
0.158745 0.042279 2.150000 255 0 0
0.164172 0.042160 2.144000 255 0 0
0.169408 0.042001 2.136000 255 0 0
0.175091 0.041959 2.134000 255 0 0
0.180763 0.041918 2.132000 255 0 0
0.186510 0.041897 2.131000 255 0 0
0.191259 0.041659 2.119000 255 0 0
0.193988 0.041008 2.086000 255 0 0
-0.156788 -0.256106 2.363369 255 255 0
-0.093147 -0.242703 2.379933 255 255 0
-0.059334 -0.235313 2.389897 255 255 0
-0.023089 -0.227118 2.401763 255 255 0
-0.000220 -0.223020 2.404608 255 255 0
0.024269 -0.218383 2.408726 255 255 0
0.028798 -0.219943 2.399022 255 255 0
0.034154 -0.221242 2.389907 255 255 0
0.027087 -0.226439 2.372011 255 255 0
0.034931 -0.226960 2.364647 255 255 0
0.045243 -0.226693 2.359082 255 255 0
-0.125519 -0.339123 2.236803 0 255 0
-0.132451 -0.333092 2.254535 0 255 0
-0.240363 -0.285762 2.355279 0 255 0
-0.233993 -0.284864 2.363227 0 255 0
-0.213663 -0.285880 2.373987 0 255 0
-0.147219 -0.300597 2.366249 0 255 0
-0.153433 -0.294967 2.382978 0 255 0
0.030766 -0.331626 2.377084 0 255 0
-0.317376 0.036927 2.185000 255 0 0
-0.313127 0.037132 2.197000 255 0 0
-0.307971 0.037236 2.203000 255 0 0
-0.302371 0.037289 2.206000 255 0 0
-0.296619 0.037325 2.208000 255 0 0
-0.290592 0.037328 2.208000 255 0 0
-0.284950 0.037381 2.211000 255 0 0
-0.280174 0.037552 2.221000 255 0 0
-0.258670 0.037967 2.245000 255 0 0
-0.250847 0.037715 2.230000 255 0 0
-0.243435 0.037514 2.218000 255 0 0
-0.236515 0.037381 2.210000 255 0 0
-0.229951 0.037298 2.205000 255 0 0
-0.223921 0.037300 2.205000 255 0 0
-0.217496 0.037234 2.201000 255 0 0
-0.211283 0.037202 2.199000 255 0 0
-0.204800 0.037120 2.194000 255 0 0
-0.199250 0.037206 2.199000 255 0 0
-0.193057 0.037174 2.197000 255 0 0
-0.186874 0.037141 2.195000 255 0 0
-0.180454 0.037058 2.190000 255 0 0
-0.174538 0.037077 2.191000 255 0 0
-0.168155 0.036994 2.186000 255 0 0
-0.162095 0.036978 2.185000 255 0 0
-0.155755 0.036895 2.180000 255 0 0
-0.149853 0.036913 2.181000 255 0 0
-0.143615 0.036847 2.177000 255 0 0
-0.137399 0.036780 2.173000 255 0 0
-0.131385 0.036765 2.172000 255 0 0
-0.125319 0.036732 2.170000 255 0 0
-0.119373 0.036733 2.170000 255 0 0
-0.113322 0.036700 2.168000 255 0 0
-0.107232 0.036650 2.165000 255 0 0
-0.101158 0.036600 2.162000 255 0 0
-0.095056 0.036534 2.158000 255 0 0
-0.089140 0.036534 2.158000 255 0 0
-0.083186 0.036518 2.157000 255 0 0
-0.077380 0.036570 2.160000 255 0 0
-0.071491 0.036587 2.161000 255 0 0
-0.065566 0.036588 2.161000 255 0 0
-0.059696 0.036622 2.163000 255 0 0
-0.053790 0.036640 2.164000 255 0 0
-0.047923 0.036691 2.167000 255 0 0
-0.041999 0.036708 2.168000 255 0 0
-0.036087 0.036743 2.170000 255 0 0
-0.030136 0.036743 2.170000 255 0 0
-0.024185 0.036743 2.170000 255 0 0
-0.018234 0.036743 2.170000 255 0 0
-0.012283 0.036743 2.170000 255 0 0
-0.006329 0.036727 2.169000 255 0 0
-0.000380 0.036761 2.171000 255 0 0
0.005579 0.036794 2.173000 255 0 0
0.011565 0.036879 2.178000 255 0 0
0.017562 0.036930 2.181000 255 0 0
0.023598 0.037014 2.186000 255 0 0
0.029579 0.036997 2.185000 255 0 0
0.035555 0.036980 2.184000 255 0 0
0.041487 0.036929 2.181000 255 0 0
0.047533 0.036979 2.184000 255 0 0
0.053620 0.037046 2.188000 255 0 0
0.059701 0.037097 2.191000 255 0 0
0.065799 0.037147 2.194000 255 0 0
0.071912 0.037197 2.197000 255 0 0
0.078078 0.037264 2.201000 255 0 0
0.084188 0.037297 2.203000 255 0 0
0.090473 0.037398 2.209000 255 0 0
0.096747 0.037482 2.214000 255 0 0
0.102954 0.037532 2.217000 255 0 0
0.109080 0.037548 2.218000 255 0 0
0.141934 0.036610 2.163000 255 0 0
0.146970 0.036389 2.150000 255 0 0
0.153783 0.036607 2.163000 255 0 0
0.158820 0.036403 2.151000 255 0 0
0.164021 0.036249 2.142000 255 0 0
0.169251 0.036112 2.134000 255 0 0
0.174765 0.036043 2.130000 255 0 0
0.180680 0.036059 2.131000 255 0 0
0.186162 0.035989 2.127000 255 0 0
0.191351 0.035869 2.120000 255 0 0
0.194919 0.035462 2.096000 255 0 0
-0.215117 -0.276549 2.366126 255 255 0
-0.054965 -0.245494 2.394206 255 255 0
-0.023733 -0.238757 2.402617 255 255 0
0.007005 -0.235123 2.397973 255 255 0
0.019848 -0.234072 2.394017 255 255 0
0.021901 -0.236420 2.382536 255 255 0
0.021475 -0.239557 2.369290 255 255 0
0.029324 -0.240067 2.361900 255 255 0
0.045420 -0.237938 2.360441 255 255 0
-0.200907 -0.308606 2.341627 0 255 0
-0.213320 -0.297289 2.375085 0 255 0
-0.196827 -0.300172 2.376240 0 255 0
-0.168303 -0.300866 2.394336 0 255 0
-0.017118 -0.319326 2.434767 0 255 0
-0.317669 0.030974 2.187000 255 0 0
-0.313414 0.031146 2.199000 255 0 0
-0.307694 0.031177 2.201000 255 0 0
-0.301962 0.031207 2.203000 255 0 0
-0.296084 0.031223 2.204000 255 0 0
-0.290462 0.031268 2.207000 255 0 0
-0.284694 0.031298 2.209000 255 0 0
-0.279798 0.031427 2.218000 255 0 0
-0.259133 0.031874 2.249000 255 0 0
-0.251187 0.031649 2.233000 255 0 0
-0.243546 0.031452 2.219000 255 0 0
-0.236303 0.031298 2.208000 255 0 0
-0.229640 0.031215 2.202000 255 0 0
-0.223822 0.031245 2.204000 255 0 0
-0.217596 0.031218 2.202000 255 0 0
-0.211092 0.031149 2.197000 255 0 0
-0.204708 0.031093 2.193000 255 0 0
-0.198708 0.031095 2.193000 255 0 0
-0.192531 0.031068 2.191000 255 0 0
-0.186194 0.031012 2.187000 255 0 0
-0.179878 0.030957 2.183000 255 0 0
-0.174141 0.031001 2.186000 255 0 0
-0.168156 0.031002 2.186000 255 0 0
-0.162171 0.031003 2.186000 255 0 0
-0.155899 0.030948 2.182000 255 0 0
-0.150060 0.030977 2.184000 255 0 0
-0.143880 0.030936 2.181000 255 0 0
-0.137716 0.030894 2.178000 255 0 0
-0.131628 0.030867 2.176000 255 0 0
-0.125666 0.030868 2.176000 255 0 0
-0.119759 0.030883 2.177000 255 0 0
-0.113689 0.030855 2.175000 255 0 0
-0.107480 0.030785 2.170000 255 0 0
-0.101299 0.030715 2.165000 255 0 0
-0.095232 0.030673 2.162000 255 0 0
-0.089347 0.030688 2.163000 255 0 0
-0.083341 0.030660 2.161000 255 0 0
-0.077452 0.030675 2.162000 255 0 0
-0.071525 0.030676 2.162000 255 0 0
-0.065627 0.030690 2.163000 255 0 0
-0.059724 0.030705 2.164000 255 0 0
-0.053815 0.030720 2.165000 255 0 0
-0.047967 0.030777 2.169000 255 0 0
-0.042019 0.030777 2.169000 255 0 0
-0.036054 0.030763 2.168000 255 0 0
-0.030123 0.030778 2.169000 255 0 0
-0.024186 0.030792 2.170000 255 0 0
-0.018260 0.030835 2.173000 255 0 0
-0.012294 0.030821 2.172000 255 0 0
-0.006346 0.030863 2.175000 255 0 0
-0.000381 0.030835 2.173000 255 0 0
0.005581 0.030849 2.174000 255 0 0
0.011554 0.030878 2.176000 255 0 0
0.017570 0.030963 2.182000 255 0 0
0.023609 0.031033 2.187000 255 0 0
0.029606 0.031033 2.187000 255 0 0
0.035539 0.030976 2.183000 255 0 0
0.041487 0.030948 2.181000 255 0 0
0.047555 0.031004 2.185000 255 0 0
0.053620 0.031046 2.188000 255 0 0
0.059674 0.031074 2.190000 255 0 0
0.065709 0.031088 2.191000 255 0 0
0.071847 0.031144 2.195000 255 0 0
0.078043 0.031214 2.200000 255 0 0
0.084227 0.031271 2.204000 255 0 0
0.090515 0.031355 2.210000 255 0 0
0.096747 0.031411 2.214000 255 0 0
0.102862 0.031425 2.215000 255 0 0
0.108982 0.031438 2.216000 255 0 0
0.115419 0.031536 2.223000 255 0 0
0.148817 0.030878 2.177000 255 0 0
0.153855 0.030693 2.164000 255 0 0
0.158821 0.030507 2.151000 255 0 0
0.163869 0.030350 2.140000 255 0 0
0.169094 0.030235 2.132000 255 0 0
0.174684 0.030191 2.129000 255 0 0
0.180512 0.030190 2.129000 255 0 0
0.185988 0.030132 2.125000 255 0 0
0.191172 0.030032 2.118000 255 0 0
0.195665 0.029832 2.104000 255 0 0
-0.146274 -0.276481 2.373193 255 255 0
-0.092352 -0.262680 2.396338 255 255 0
-0.063540 -0.256689 2.402763 255 255 0
-0.041442 -0.252771 2.404781 255 255 0
-0.007742 -0.245151 2.414924 255 255 0
0.000972 -0.245403 2.408001 255 255 0
0.003867 -0.247497 2.397067 255 255 0
0.003448 -0.250649 2.383809 255 255 0
0.014630 -0.250098 2.378681 255 255 0
0.021659 -0.250865 2.370675 255 255 0
0.033638 -0.250034 2.366214 255 255 0
0.042298 -0.250259 2.359444 255 255 0
-0.195550 -0.322008 2.339247 0 255 0
-0.218023 -0.306801 2.379642 0 255 0
-0.220046 -0.302726 2.393405 0 255 0
-0.214500 -0.301516 2.402003 0 255 0
-0.214007 -0.298400 2.414023 0 255 0
-0.183156 -0.306687 2.405674 0 255 0
-0.160172 -0.308639 2.415248 0 255 0
-0.152041 -0.308339 2.422342 0 255 0
-0.145593 -0.307404 2.430576 0 255 0
-0.021100 -0.329639 2.438797 0 255 0
-0.009422 -0.330481 2.444219 0 255 0
-0.318252 0.025034 2.191000 255 0 0
-0.313558 0.025138 2.200000 255 0 0
-0.307836 0.025163 2.202000 255 0 0
-0.301690 0.025153 2.201000 255 0 0
-0.295414 0.025132 2.199000 255 0 0
-0.289806 0.025168 2.202000 255 0 0
-0.284181 0.025203 2.205000 255 0 0
-0.279043 0.025285 2.212000 255 0 0
-0.274112 0.025389 2.221000 255 0 0
-0.259365 0.025737 2.251000 255 0 0
-0.250963 0.025509 2.231000 255 0 0
-0.243328 0.025351 2.217000 255 0 0
-0.236197 0.025238 2.207000 255 0 0
-0.229642 0.025182 2.202000 255 0 0
-0.223620 0.025183 2.202000 255 0 0
-0.217597 0.025184 2.202000 255 0 0
-0.210901 0.025106 2.195000 255 0 0
-0.204710 0.025084 2.193000 255 0 0
-0.198619 0.025074 2.192000 255 0 0
-0.192532 0.025063 2.191000 255 0 0
-0.185940 0.024984 2.184000 255 0 0
-0.179550 0.024928 2.179000 255 0 0
-0.173903 0.024975 2.183000 255 0 0
-0.168081 0.024999 2.185000 255 0 0
-0.162098 0.025000 2.185000 255 0 0
-0.155757 0.024944 2.180000 255 0 0
-0.149855 0.024956 2.181000 255 0 0
-0.143749 0.024934 2.179000 255 0 0
-0.137654 0.024912 2.177000 255 0 0
-0.131447 0.024867 2.173000 255 0 0
-0.125494 0.024868 2.173000 255 0 0
-0.119484 0.024857 2.172000 255 0 0
-0.113532 0.024858 2.172000 255 0 0
-0.107431 0.024824 2.169000 255 0 0
-0.101393 0.024802 2.167000 255 0 0
-0.095277 0.024757 2.163000 255 0 0
-0.089513 0.024803 2.167000 255 0 0
-0.083496 0.024780 2.165000 255 0 0
-0.077524 0.024770 2.164000 255 0 0
-0.071525 0.024747 2.162000 255 0 0
-0.065658 0.024770 2.164000 255 0 0
-0.059780 0.024794 2.166000 255 0 0
-0.053841 0.024794 2.166000 255 0 0
-0.047967 0.024829 2.169000 255 0 0
-0.042078 0.024863 2.172000 255 0 0
-0.036155 0.024886 2.174000 255 0 0
-0.030206 0.024898 2.175000 255 0 0
-0.024219 0.024875 2.173000 255 0 0
-0.018251 0.024864 2.172000 255 0 0
-0.012277 0.024830 2.169000 255 0 0
-0.006335 0.024853 2.171000 255 0 0
-0.000380 0.024841 2.170000 255 0 0
0.005571 0.024841 2.170000 255 0 0
0.011533 0.024864 2.172000 255 0 0
0.017538 0.024933 2.178000 255 0 0
0.023587 0.025013 2.185000 255 0 0
0.029606 0.025035 2.187000 255 0 0
0.035588 0.025024 2.186000 255 0 0
0.041602 0.025035 2.187000 255 0 0
0.047664 0.025069 2.190000 255 0 0
0.053670 0.025069 2.190000 255 0 0
0.059648 0.025057 2.189000 255 0 0
0.065710 0.025080 2.191000 255 0 0
0.071782 0.025102 2.193000 255 0 0
0.077937 0.025147 2.197000 255 0 0
0.084113 0.025193 2.201000 255 0 0
0.090474 0.025284 2.209000 255 0 0
0.096704 0.025329 2.213000 255 0 0
0.102817 0.025340 2.214000 255 0 0
0.108885 0.025339 2.214000 255 0 0
0.115420 0.025441 2.223000 255 0 0
0.147383 0.025701 2.246000 255 0 0
0.148818 0.024910 2.177000 255 0 0
0.153501 0.024703 2.159000 255 0 0
0.158527 0.024565 2.147000 255 0 0
0.163640 0.024450 2.137000 255 0 0
0.169015 0.024380 2.131000 255 0 0
0.174767 0.024368 2.130000 255 0 0
0.180597 0.024367 2.130000 255 0 0
0.185902 0.024297 2.124000 255 0 0
0.190812 0.024182 2.114000 255 0 0
0.194829 0.023963 2.095000 255 0 0
-0.168569 -0.295345 2.359560 255 255 0
-0.056671 -0.266075 2.408766 255 255 0
-0.027100 -0.259709 2.415909 255 255 0
-0.010883 -0.257566 2.414059 255 255 0
-0.002996 -0.258070 2.406543 255 255 0
-0.007558 -0.262567 2.390401 255 255 0
0.008607 -0.260399 2.388692 255 255 0
0.018953 -0.260090 2.382987 255 255 0
0.033418 -0.258433 2.380244 255 255 0
0.047033 -0.257034 2.376981 255 255 0
0.050728 -0.258848 2.366705 255 255 0
-0.227761 -0.314370 2.387643 0 255 0
-0.224744 -0.312209 2.397945 0 255 0
-0.228457 -0.307486 2.412806 0 255 0
-0.219552 -0.307569 2.419116 0 255 0
-0.204736 -0.309878 2.421507 0 255 0
-0.180620 -0.315678 2.417787 0 255 0
-0.171665 -0.315725 2.424264 0 255 0
-0.167771 -0.313859 2.434120 0 255 0
-0.160491 -0.313260 2.441762 0 255 0
-0.054324 -0.335969 2.435920 0 255 0
-0.035035 -0.339689 2.436371 0 255 0
0.014699 -0.351134 2.430620 0 255 0
-0.318544 0.019054 2.193000 255 0 0
-0.313702 0.019124 2.201000 255 0 0
-0.307837 0.019134 2.202000 255 0 0
-0.301417 0.019110 2.199000 255 0 0
-0.295147 0.019093 2.197000 255 0 0
-0.289413 0.019112 2.199000 255 0 0
-0.283924 0.019148 2.203000 255 0 0
-0.278413 0.019184 2.207000 255 0 0
-0.273003 0.019228 2.212000 255 0 0
-0.268650 0.019351 2.226000 255 0 0
-0.259020 0.019545 2.248000 255 0 0
-0.250964 0.019398 2.231000 255 0 0
-0.243220 0.019269 2.216000 255 0 0
-0.236413 0.019209 2.209000 255 0 0
-0.230060 0.019184 2.206000 255 0 0
-0.223824 0.019167 2.204000 255 0 0
-0.217697 0.019160 2.203000 255 0 0
-0.211095 0.019108 2.197000 255 0 0
-0.204804 0.019083 2.194000 255 0 0
-0.198257 0.019032 2.188000 255 0 0
-0.192182 0.019024 2.187000 255 0 0
-0.185941 0.018999 2.184000 255 0 0
-0.179633 0.018965 2.180000 255 0 0
-0.173984 0.019000 2.184000 255 0 0
-0.168081 0.019010 2.185000 255 0 0
-0.162098 0.019011 2.185000 255 0 0
-0.155829 0.018976 2.181000 255 0 0
-0.149924 0.018986 2.182000 255 0 0
-0.144014 0.018995 2.183000 255 0 0
-0.137907 0.018978 2.181000 255 0 0
-0.131569 0.018927 2.175000 255 0 0
-0.125552 0.018919 2.174000 255 0 0
-0.119485 0.018902 2.172000 255 0 0
-0.113429 0.018885 2.170000 255 0 0
-0.107333 0.018859 2.167000 255 0 0
-0.101347 0.018851 2.166000 255 0 0
-0.095234 0.018817 2.162000 255 0 0
-0.089307 0.018817 2.162000 255 0 0
-0.083380 0.018818 2.162000 255 0 0
-0.077597 0.018853 2.166000 255 0 0
-0.071658 0.018853 2.166000 255 0 0
-0.065780 0.018871 2.168000 255 0 0
-0.059725 0.018836 2.164000 255 0 0
-0.053766 0.018828 2.163000 255 0 0
-0.047879 0.018846 2.165000 255 0 0
-0.042000 0.018872 2.168000 255 0 0
-0.036105 0.018898 2.171000 255 0 0
-0.030151 0.018898 2.171000 255 0 0
-0.024186 0.018890 2.170000 255 0 0
-0.018226 0.018881 2.169000 255 0 0
-0.012272 0.018872 2.168000 255 0 0
-0.006335 0.018899 2.171000 255 0 0
-0.000380 0.018890 2.170000 255 0 0
0.005574 0.018899 2.171000 255 0 0
0.011533 0.018907 2.172000 255 0 0
0.017522 0.018942 2.176000 255 0 0
0.023533 0.018977 2.180000 255 0 0
0.029539 0.018994 2.182000 255 0 0
0.035539 0.019003 2.183000 255 0 0
0.041583 0.019029 2.186000 255 0 0
0.047599 0.019037 2.187000 255 0 0
0.053645 0.019054 2.189000 255 0 0
0.059675 0.019063 2.190000 255 0 0
0.065680 0.019062 2.190000 255 0 0
0.071717 0.019071 2.191000 255 0 0
0.077866 0.019105 2.195000 255 0 0
0.084075 0.019148 2.200000 255 0 0
0.090393 0.019209 2.207000 255 0 0
0.096574 0.019235 2.210000 255 0 0
0.102724 0.019252 2.212000 255 0 0
0.109033 0.019295 2.217000 255 0 0
0.115784 0.019407 2.230000 255 0 0
0.146530 0.019430 2.233000 255 0 0
0.148272 0.018873 2.169000 255 0 0
0.153288 0.018759 2.156000 255 0 0
0.158306 0.018654 2.144000 255 0 0
0.163488 0.018575 2.135000 255 0 0
0.168778 0.018513 2.128000 255 0 0
0.174522 0.018504 2.127000 255 0 0
0.180429 0.018512 2.128000 255 0 0
0.185815 0.018467 2.123000 255 0 0
0.190542 0.018362 2.111000 255 0 0
-0.203162 -0.305607 2.391758 255 255 0
-0.162723 -0.299093 2.391670 255 255 0
-0.049807 -0.275429 2.414763 255 255 0
-0.028571 -0.271657 2.416214 255 255 0
-0.009866 -0.268671 2.416059 255 255 0
-0.000321 -0.268624 2.409684 255 255 0
0.019158 -0.265342 2.410260 255 255 0
0.009622 -0.271477 2.390677 255 255 0
0.007560 -0.275196 2.376246 255 255 0
0.069043 -0.264140 2.381022 255 255 0
-0.224760 -0.336823 2.349660 0 255 0
-0.228761 -0.328590 2.377278 0 255 0
-0.227418 -0.325779 2.388743 0 255 0
-0.215158 -0.327175 2.392766 0 255 0
-0.212971 -0.324684 2.403672 0 255 0
-0.217518 -0.319617 2.419105 0 255 0
-0.222080 -0.314559 2.434491 0 255 0
-0.201363 -0.319149 2.432987 0 255 0
-0.189053 -0.320509 2.437179 0 255 0
-0.175038 -0.322498 2.440313 0 255 0
-0.152552 -0.327669 2.437975 0 255 0
-0.044699 -0.351259 2.431278 0 255 0
-0.000140 -0.360975 2.428624 0 255 0
-0.005475 -0.355546 2.444807 0 255 0
-0.318255 0.013039 2.191000 255 0 0
-0.312706 0.013057 2.194000 255 0 0
-0.307279 0.013082 2.198000 255 0 0
-0.301007 0.013071 2.196000 255 0 0
-0.295013 0.013072 2.196000 255 0 0
-0.288887 0.013067 2.195000 255 0 0
-0.283410 0.013091 2.199000 255 0 0
-0.277783 0.013110 2.202000 255 0 0
-0.272263 0.013135 2.206000 255 0 0
-0.267444 0.013195 2.216000 255 0 0
-0.262939 0.013590 2.282000 255 0 0
-0.251190 0.013298 2.233000 255 0 0
-0.242343 0.013150 2.208000 255 0 0
-0.236092 0.013139 2.206000 255 0 0
-0.230269 0.013152 2.208000 255 0 0
-0.224028 0.013140 2.206000 255 0 0
-0.217599 0.013117 2.202000 255 0 0
-0.210807 0.013070 2.194000 255 0 0
-0.204338 0.013041 2.189000 255 0 0
-0.198258 0.013036 2.188000 255 0 0
-0.192271 0.013036 2.188000 255 0 0
-0.186282 0.013037 2.188000 255 0 0
-0.179881 0.013008 2.183000 255 0 0
-0.173985 0.013014 2.184000 255 0 0
-0.168082 0.013021 2.185000 255 0 0
-0.162025 0.013015 2.184000 255 0 0
-0.155901 0.013004 2.182000 255 0 0
-0.150062 0.013016 2.184000 255 0 0
-0.144146 0.013023 2.185000 255 0 0
-0.137908 0.012999 2.181000 255 0 0
-0.131691 0.012976 2.177000 255 0 0
-0.125553 0.012958 2.174000 255 0 0
-0.119431 0.012941 2.171000 255 0 0
-0.113324 0.012923 2.168000 255 0 0
-0.107284 0.012912 2.166000 255 0 0
-0.101441 0.012924 2.168000 255 0 0
-0.095366 0.012906 2.165000 255 0 0
-0.089308 0.012889 2.162000 255 0 0
-0.083342 0.012883 2.161000 255 0 0
-0.077633 0.012919 2.167000 255 0 0
-0.071725 0.012925 2.168000 255 0 0
-0.065780 0.012925 2.168000 255 0 0
-0.059725 0.012902 2.164000 255 0 0
-0.053767 0.012896 2.163000 255 0 0
-0.047879 0.012908 2.165000 255 0 0
-0.041981 0.012920 2.167000 255 0 0
-0.036105 0.012944 2.171000 255 0 0
-0.030151 0.012944 2.171000 255 0 0
-0.024186 0.012938 2.170000 255 0 0
-0.018235 0.012938 2.170000 255 0 0
-0.012278 0.012933 2.169000 255 0 0
-0.006338 0.012950 2.172000 255 0 0
-0.000380 0.012939 2.170000 255 0 0
0.005569 0.012933 2.169000 255 0 0
0.011523 0.012938 2.170000 255 0 0
0.017498 0.012956 2.173000 255 0 0
0.023501 0.012980 2.177000 255 0 0
0.029512 0.012998 2.180000 255 0 0
0.035539 0.013016 2.183000 255 0 0
0.041583 0.013033 2.186000 255 0 0
0.047534 0.013021 2.184000 255 0 0
0.053646 0.013051 2.189000 255 0 0
0.059675 0.013057 2.190000 255 0 0
0.065770 0.013075 2.193000 255 0 0
0.071783 0.013074 2.193000 255 0 0
0.077902 0.013092 2.196000 255 0 0
0.084114 0.013122 2.201000 255 0 0
0.090393 0.013157 2.207000 255 0 0
0.096705 0.013192 2.213000 255 0 0
0.103096 0.013234 2.220000 255 0 0
0.109623 0.013287 2.229000 255 0 0
0.116615 0.013388 2.246000 255 0 0
0.144103 0.013088 2.196000 255 0 0
0.147726 0.012879 2.161000 255 0 0
0.152720 0.012801 2.148000 255 0 0
0.157938 0.012747 2.139000 255 0 0
0.163259 0.012705 2.132000 255 0 0
0.168700 0.012675 2.127000 255 0 0
0.174358 0.012662 2.125000 255 0 0
0.180260 0.012668 2.126000 255 0 0
0.185816 0.012649 2.123000 255 0 0
0.190904 0.012601 2.115000 255 0 0
-0.170832 -0.313564 2.387674 255 255 0
-0.047109 -0.286102 2.417925 255 255 0
-0.040844 -0.287141 2.409142 255 255 0
-0.027113 -0.285740 2.405508 255 255 0
0.008158 -0.277274 2.416836 255 255 0
0.025136 -0.274752 2.415693 255 255 0
0.020979 -0.282207 2.386944 255 255 0
0.049470 -0.275840 2.394092 255 255 0
0.060586 -0.275190 2.389093 255 255 0
-0.227078 -0.337204 2.389847 0 255 0
-0.213982 -0.338953 2.393315 0 255 0
-0.207590 -0.338085 2.401389 0 255 0
-0.204557 -0.335914 2.411747 0 255 0
-0.207417 -0.331473 2.426045 0 255 0
-0.205232 -0.328982 2.436944 0 255 0
-0.193773 -0.330049 2.441696 0 255 0
-0.175547 -0.333688 2.442053 0 255 0
-0.046968 -0.362148 2.434223 0 255 0
0.001594 -0.370025 2.441916 0 255 0
-0.317529 0.007025 2.186000 255 0 0
-0.312136 0.007038 2.190000 255 0 0
-0.306860 0.007055 2.195000 255 0 0
-0.300459 0.007046 2.192000 255 0 0
-0.294880 0.007056 2.195000 255 0 0
-0.289019 0.007060 2.196000 255 0 0
-0.283539 0.007073 2.200000 255 0 0
-0.277784 0.007080 2.202000 255 0 0
-0.272387 0.007096 2.207000 255 0 0
-0.267686 0.007132 2.218000 255 0 0
-0.252091 0.007207 2.241000 255 0 0
-0.242124 0.007095 2.206000 255 0 0
-0.236200 0.007099 2.207000 255 0 0
-0.230374 0.007105 2.209000 255 0 0
-0.224333 0.007106 2.209000 255 0 0
-0.217699 0.007087 2.203000 255 0 0
-0.210904 0.007061 2.195000 255 0 0
-0.204339 0.007042 2.189000 255 0 0
-0.198168 0.007036 2.187000 255 0 0
-0.192183 0.007037 2.187000 255 0 0
-0.186283 0.007040 2.188000 255 0 0
-0.180129 0.007034 2.186000 255 0 0
-0.174065 0.007031 2.185000 255 0 0
-0.168159 0.007035 2.186000 255 0 0
-0.162248 0.007038 2.187000 255 0 0
-0.156545 0.007051 2.191000 255 0 0
-0.150475 0.007048 2.190000 255 0 0
-0.144344 0.007042 2.188000 255 0 0
-0.138098 0.007029 2.184000 255 0 0
-0.131751 0.007010 2.178000 255 0 0
-0.125611 0.007001 2.175000 255 0 0
-0.119431 0.006988 2.171000 255 0 0
-0.113325 0.006979 2.168000 255 0 0
-0.107383 0.006979 2.168000 255 0 0
-0.101394 0.006976 2.167000 255 0 0
-0.095366 0.006970 2.165000 255 0 0
-0.089225 0.006954 2.160000 255 0 0
-0.083342 0.006957 2.161000 255 0 0
-0.077633 0.006977 2.167000 255 0 0
-0.071758 0.006983 2.169000 255 0 0
-0.065811 0.006983 2.169000 255 0 0
-0.059725 0.006967 2.164000 255 0 0
-0.053816 0.006971 2.165000 255 0 0
-0.047857 0.006967 2.164000 255 0 0
-0.041904 0.006964 2.163000 255 0 0
-0.035972 0.006964 2.163000 255 0 0
-0.030054 0.006968 2.164000 255 0 0
-0.024130 0.006971 2.165000 255 0 0
-0.018210 0.006977 2.167000 255 0 0
-0.012261 0.006974 2.166000 255 0 0
-0.006332 0.006987 2.170000 255 0 0
-0.000380 0.006984 2.169000 255 0 0
0.005571 0.006987 2.170000 255 0 0
0.011523 0.006987 2.170000 255 0 0
0.017506 0.007000 2.174000 255 0 0
0.023512 0.007013 2.178000 255 0 0
0.029553 0.007029 2.183000 255 0 0
0.035556 0.007032 2.184000 255 0 0
0.041545 0.007032 2.184000 255 0 0
0.047491 0.007025 2.182000 255 0 0
0.053621 0.007045 2.188000 255 0 0
0.059675 0.007051 2.190000 255 0 0
0.065770 0.007060 2.193000 255 0 0
0.071881 0.007070 2.196000 255 0 0
0.078044 0.007083 2.200000 255 0 0
0.084305 0.007102 2.206000 255 0 0
0.090557 0.007118 2.211000 255 0 0
0.096837 0.007134 2.216000 255 0 0
0.103329 0.007163 2.225000 255 0 0
0.109968 0.007198 2.236000 255 0 0
0.117134 0.007262 2.256000 255 0 0
0.142397 0.006984 2.170000 255 0 0
0.147179 0.006929 2.153000 255 0 0
0.152294 0.006894 2.142000 255 0 0
0.157643 0.006871 2.135000 255 0 0
0.163030 0.006851 2.129000 255 0 0
0.168621 0.006841 2.126000 255 0 0
0.174195 0.006831 2.123000 255 0 0
0.180006 0.006831 2.123000 255 0 0
0.185729 0.006828 2.122000 255 0 0
0.191085 0.006811 2.117000 255 0 0
-0.168852 -0.315351 2.430482 255 255 0
-0.212931 -0.335918 2.374660 255 255 0
-0.054010 -0.296826 2.427637 255 255 0
-0.050233 -0.298678 2.417132 255 255 0
-0.037319 -0.297527 2.412871 255 255 0
-0.016127 -0.293631 2.414365 255 255 0
-0.004091 -0.292729 2.409668 255 255 0
0.004615 -0.292916 2.402723 255 255 0
0.014963 -0.292548 2.396964 255 255 0
0.020340 -0.293824 2.387766 255 255 0
0.038917 -0.290687 2.387898 255 255 0
0.052516 -0.289191 2.384611 255 255 0
-0.225065 -0.349302 2.389812 0 255 0
-0.227073 -0.345166 2.403563 0 255 0
-0.203059 -0.351204 2.399688 0 255 0
-0.197499 -0.350012 2.408369 0 255 0
-0.199505 -0.345875 2.422129 0 255 0
-0.206573 -0.339785 2.439218 0 255 0
-0.201017 -0.338597 2.447882 0 255 0
-0.175215 -0.345213 2.443243 0 255 0
-0.317094 0.001040 2.183000 255 0 0
-0.311994 0.001043 2.189000 255 0 0
-0.306721 0.001045 2.194000 255 0 0
-0.300048 0.001043 2.189000 255 0 0
-0.294208 0.001043 2.190000 255 0 0
-0.288362 0.001044 2.191000 255 0 0
-0.283024 0.001046 2.196000 255 0 0
-0.277406 0.001048 2.199000 255 0 0
-0.271894 0.001050 2.203000 255 0 0
-0.267324 0.001056 2.215000 255 0 0
-0.241904 0.001051 2.204000 255 0 0
-0.235879 0.001051 2.204000 255 0 0
-0.229749 0.001050 2.203000 255 0 0
-0.223826 0.001051 2.204000 255 0 0
-0.217106 0.001047 2.197000 255 0 0
-0.210520 0.001045 2.191000 255 0 0
-0.204059 0.001042 2.186000 255 0 0
-0.198259 0.001043 2.188000 255 0 0
-0.192359 0.001044 2.189000 255 0 0
-0.186198 0.001043 2.187000 255 0 0
-0.180129 0.001043 2.186000 255 0 0
-0.173985 0.001042 2.184000 255 0 0
-0.168236 0.001043 2.187000 255 0 0
-0.162471 0.001045 2.190000 255 0 0
-0.156759 0.001046 2.194000 255 0 0
-0.150681 0.001046 2.193000 255 0 0
-0.144477 0.001045 2.190000 255 0 0
-0.138351 0.001044 2.188000 255 0 0
-0.132175 0.001042 2.185000 255 0 0
-0.125900 0.001040 2.180000 255 0 0
-0.119486 0.001036 2.172000 255 0 0
-0.113273 0.001034 2.167000 255 0 0
-0.107284 0.001033 2.166000 255 0 0
-0.101348 0.001033 2.166000 255 0 0
-0.095366 0.001033 2.165000 255 0 0
-0.089267 0.001031 2.161000 255 0 0
-0.083420 0.001032 2.163000 255 0 0
-0.077597 0.001034 2.166000 255 0 0
-0.071659 0.001034 2.166000 255 0 0
-0.065750 0.001034 2.167000 255 0 0
-0.059725 0.001033 2.164000 255 0 0
-0.053816 0.001033 2.165000 255 0 0
-0.047924 0.001034 2.167000 255 0 0
-0.041962 0.001034 2.166000 255 0 0
-0.035989 0.001033 2.164000 255 0 0
-0.030068 0.001033 2.165000 255 0 0
-0.024130 0.001033 2.165000 255 0 0
-0.018201 0.001034 2.166000 255 0 0
-0.012261 0.001034 2.166000 255 0 0
-0.006329 0.001035 2.169000 255 0 0
-0.000381 0.001036 2.172000 255 0 0
0.005571 0.001036 2.170000 255 0 0
0.011528 0.001036 2.171000 255 0 0
0.017514 0.001038 2.175000 255 0 0
0.023555 0.001041 2.182000 255 0 0
0.029580 0.001043 2.185000 255 0 0
0.035588 0.001043 2.186000 255 0 0
0.041583 0.001043 2.186000 255 0 0
0.047621 0.001044 2.188000 255 0 0
0.053744 0.001046 2.193000 255 0 0
0.059812 0.001047 2.195000 255 0 0
0.065800 0.001047 2.194000 255 0 0
0.071947 0.001049 2.198000 255 0 0
0.078115 0.001051 2.202000 255 0 0
0.084305 0.001053 2.206000 255 0 0
0.090598 0.001055 2.212000 255 0 0
0.096880 0.001058 2.217000 255 0 0
0.103468 0.001063 2.228000 255 0 0
0.110116 0.001068 2.239000 255 0 0
0.117031 0.001075 2.254000 255 0 0
0.136704 0.001037 2.174000 255 0 0
0.141479 0.001028 2.156000 255 0 0
0.146632 0.001023 2.145000 255 0 0
0.151796 0.001018 2.135000 255 0 0
0.157052 0.001014 2.127000 255 0 0
0.162723 0.001013 2.125000 255 0 0
0.168383 0.001013 2.123000 255 0 0
0.174195 0.001012 2.123000 255 0 0
0.179921 0.001012 2.122000 255 0 0
0.185729 0.001012 2.122000 255 0 0
0.190995 0.001009 2.116000 255 0 0
0.194367 0.000997 2.090000 255 0 0
0.203914 0.001016 2.130000 255 0 0
-0.157400 -0.320353 2.452651 255 255 0
-0.046318 -0.305859 2.434171 255 255 0
-0.014289 -0.298351 2.442870 255 255 0
-0.003908 -0.297979 2.437003 255 255 0
-0.001005 -0.300084 2.426055 255 255 0
-0.005556 -0.304679 2.409956 255 255 0
0.008115 -0.303189 2.406443 255 255 0
0.017632 -0.303075 2.400107 255 255 0
0.029612 -0.302122 2.395544 255 255 0
0.029202 -0.305334 2.382305 255 255 0
0.043632 -0.303533 2.379560 255 255 0
-0.224731 -0.360762 2.390927 0 255 0
-0.226735 -0.356609 2.404683 0 255 0
-0.211124 -0.359406 2.406501 0 255 0
-0.195810 -0.358690 2.421040 0 255 0
-0.198991 -0.350726 2.447935 0 255 0
-0.190901 -0.350524 2.454967 0 255 0
-0.171834 -0.354571 2.454856 0 255 0
-0.157806 -0.356638 2.458137 0 255 0
-0.151364 -0.355754 2.466402 0 255 0
-0.140688 -0.356494 2.471967 0 255 0
-0.019374 -0.382350 2.470888 0 255 0
-0.317093 -0.004936 2.183000 255 0 0
-0.312279 -0.004954 2.191000 255 0 0
-0.306720 -0.004961 2.194000 255 0 0
-0.300048 -0.004950 2.189000 255 0 0
-0.294074 -0.004951 2.189000 255 0 0
-0.288361 -0.004956 2.191000 255 0 0
-0.282637 -0.004960 2.193000 255 0 0
-0.277027 -0.004968 2.196000 255 0 0
-0.271647 -0.004979 2.201000 255 0 0
-0.267203 -0.005009 2.214000 255 0 0
-0.252766 -0.005084 2.247000 255 0 0
-0.242014 -0.004990 2.205000 255 0 0
-0.235772 -0.004985 2.203000 255 0 0
-0.229331 -0.004977 2.199000 255 0 0
-0.223419 -0.004979 2.200000 255 0 0
-0.217007 -0.004970 2.196000 255 0 0
-0.210616 -0.004961 2.192000 255 0 0
-0.204339 -0.004955 2.189000 255 0 0
-0.198259 -0.004953 2.188000 255 0 0
-0.192447 -0.004958 2.190000 255 0 0
-0.186283 -0.004953 2.188000 255 0 0
-0.180211 -0.004951 2.187000 255 0 0
-0.174145 -0.004949 2.186000 255 0 0
-0.168159 -0.004949 2.186000 255 0 0
-0.162322 -0.004954 2.188000 255 0 0
-0.156402 -0.004957 2.189000 255 0 0
-0.150406 -0.004957 2.189000 255 0 0
-0.144279 -0.004952 2.187000 255 0 0
-0.138288 -0.004953 2.187000 255 0 0
-0.132114 -0.004946 2.184000 255 0 0
-0.126015 -0.004942 2.182000 255 0 0
-0.119541 -0.004921 2.173000 255 0 0
-0.113429 -0.004915 2.170000 255 0 0
-0.107433 -0.004913 2.169000 255 0 0
-0.101441 -0.004910 2.168000 255 0 0
-0.095587 -0.004915 2.170000 255 0 0
-0.089556 -0.004911 2.168000 255 0 0
-0.083689 -0.004915 2.170000 255 0 0
-0.077776 -0.004918 2.171000 255 0 0
-0.071758 -0.004913 2.169000 255 0 0
-0.065811 -0.004913 2.169000 255 0 0
-0.059753 -0.004904 2.165000 255 0 0
-0.053866 -0.004909 2.167000 255 0 0
-0.047880 -0.004904 2.165000 255 0 0
-0.042001 -0.004911 2.168000 255 0 0
-0.036039 -0.004909 2.167000 255 0 0
-0.030123 -0.004914 2.169000 255 0 0
-0.024153 -0.004909 2.167000 255 0 0
-0.018201 -0.004907 2.166000 255 0 0
-0.012244 -0.004900 2.163000 255 0 0
-0.006317 -0.004905 2.165000 255 0 0
-0.000380 -0.004914 2.169000 255 0 0
0.005576 -0.004920 2.172000 255 0 0
0.011549 -0.004927 2.175000 255 0 0
0.017539 -0.004934 2.178000 255 0 0
0.023566 -0.004945 2.183000 255 0 0
0.029607 -0.004954 2.187000 255 0 0
0.035637 -0.004959 2.189000 255 0 0
0.041640 -0.004959 2.189000 255 0 0
0.047687 -0.004963 2.191000 255 0 0
0.053719 -0.004966 2.192000 255 0 0
0.059785 -0.004970 2.194000 255 0 0
0.065800 -0.004970 2.194000 255 0 0
0.071947 -0.004979 2.198000 255 0 0
0.078151 -0.004990 2.203000 255 0 0
0.084343 -0.004999 2.207000 255 0 0
0.090598 -0.005010 2.212000 255 0 0
0.096662 -0.005010 2.212000 255 0 0
0.103329 -0.005040 2.225000 255 0 0
0.110066 -0.005069 2.238000 255 0 0
0.135761 -0.004889 2.159000 255 0 0
0.140888 -0.004862 2.147000 255 0 0
0.145949 -0.004835 2.135000 255 0 0
0.151156 -0.004814 2.126000 255 0 0
0.156609 -0.004802 2.121000 255 0 0
0.162417 -0.004802 2.121000 255 0 0
0.168304 -0.004804 2.122000 255 0 0
0.174195 -0.004806 2.123000 255 0 0
0.180006 -0.004806 2.123000 255 0 0
0.185642 -0.004801 2.121000 255 0 0
0.190633 -0.004781 2.112000 255 0 0
0.195296 -0.004754 2.100000 255 0 0
0.200084 -0.004731 2.090000 255 0 0
-0.193474 -0.347191 2.417259 255 255 0
-0.046948 -0.317629 2.435086 255 255 0
-0.012440 -0.309199 2.445447 255 255 0
0.016194 -0.302684 2.452032 255 255 0
0.025707 -0.302551 2.445687 255 255 0
0.008713 -0.311345 2.421102 255 255 0
0.033945 -0.305903 2.425650 255 255 0
0.053346 -0.302397 2.426297 255 255 0
0.029392 -0.316684 2.383705 255 255 0
0.038053 -0.316818 2.376861 255 255 0
-0.209332 -0.378254 2.381763 0 255 0
-0.185635 -0.380897 2.390655 0 255 0
-0.194642 -0.370545 2.421643 0 255 0
-0.202862 -0.360563 2.451889 0 255 0
-0.196461 -0.359717 2.460027 0 255 0
-0.195113 -0.356888 2.471491 0 255 0
-0.181111 -0.359001 2.474717 0 255 0
-0.162866 -0.362746 2.475280 0 255 0
-0.149666 -0.364501 2.479193 0 255 0
-0.140679 -0.364605 2.485872 0 255 0
-0.127448 -0.366337 2.489895 0 255 0
-0.119284 -0.366096 2.497194 0 255 0
-0.312836 -0.010566 2.114000 255 0 0
-0.316802 -0.010902 2.181000 255 0 0
-0.311993 -0.010942 2.189000 255 0 0
-0.306580 -0.010963 2.193000 255 0 0
-0.300048 -0.010944 2.189000 255 0 0
-0.293670 -0.010929 2.186000 255 0 0
-0.287703 -0.010930 2.186000 255 0 0
-0.282121 -0.010946 2.189000 255 0 0
-0.276648 -0.010967 2.193000 255 0 0
-0.271399 -0.010997 2.199000 255 0 0
-0.266841 -0.011058 2.211000 255 0 0
-0.242233 -0.011040 2.207000 255 0 0
-0.236200 -0.011041 2.207000 255 0 0
-0.229539 -0.011011 2.201000 255 0 0
-0.223419 -0.011007 2.200000 255 0 0
-0.217105 -0.010993 2.197000 255 0 0
-0.210904 -0.010983 2.195000 255 0 0
-0.204525 -0.010964 2.191000 255 0 0
-0.198168 -0.010944 2.187000 255 0 0
-0.192446 -0.010960 2.190000 255 0 0
-0.186453 -0.010960 2.190000 255 0 0
-0.180293 -0.010951 2.188000 255 0 0
-0.174065 -0.010936 2.185000 255 0 0
-0.168082 -0.010936 2.185000 255 0 0
-0.162248 -0.010947 2.187000 255 0 0
-0.156258 -0.010947 2.187000 255 0 0
-0.150200 -0.010943 2.186000 255 0 0
-0.144212 -0.010943 2.186000 255 0 0
-0.138287 -0.010948 2.187000 255 0 0
-0.132235 -0.010944 2.186000 255 0 0
-0.126304 -0.010949 2.187000 255 0 0
-0.119981 -0.010919 2.181000 255 0 0
-0.113795 -0.010900 2.177000 255 0 0
-0.107432 -0.010860 2.169000 255 0 0
-0.101488 -0.010860 2.169000 255 0 0
-0.095586 -0.010865 2.170000 255 0 0
-0.089638 -0.010866 2.170000 255 0 0
-0.083689 -0.010866 2.170000 255 0 0
-0.077704 -0.010861 2.169000 255 0 0
-0.071725 -0.010856 2.168000 255 0 0
-0.065811 -0.010861 2.169000 255 0 0
-0.059863 -0.010862 2.169000 255 0 0
-0.053965 -0.010872 2.171000 255 0 0
-0.047946 -0.010857 2.168000 255 0 0
-0.042039 -0.010867 2.170000 255 0 0
-0.036105 -0.010872 2.171000 255 0 0
-0.030193 -0.010887 2.174000 255 0 0
-0.024208 -0.010877 2.172000 255 0 0
-0.018235 -0.010867 2.170000 255 0 0
-0.012272 -0.010857 2.168000 255 0 0
-0.006323 -0.010852 2.167000 255 0 0
-0.000380 -0.010862 2.169000 255 0 0
0.005569 -0.010862 2.169000 255 0 0
0.011533 -0.010877 2.172000 255 0 0
0.017530 -0.010902 2.177000 255 0 0
0.023555 -0.010927 2.182000 255 0 0
0.029580 -0.010942 2.185000 255 0 0
0.035605 -0.010952 2.187000 255 0 0
0.041621 -0.010957 2.188000 255 0 0
0.047708 -0.010977 2.192000 255 0 0
0.053744 -0.010982 2.193000 255 0 0
0.059784 -0.010987 2.194000 255 0 0
0.065770 -0.010982 2.193000 255 0 0
0.071914 -0.011002 2.197000 255 0 0
0.078151 -0.011031 2.203000 255 0 0
0.084343 -0.011051 2.207000 255 0 0
0.090516 -0.011066 2.210000 255 0 0
0.096705 -0.011081 2.213000 255 0 0
0.103561 -0.011166 2.230000 255 0 0
0.135635 -0.010798 2.157000 255 0 0
0.140428 -0.010713 2.140000 255 0 0
0.145470 -0.010652 2.128000 255 0 0
0.150943 -0.010627 2.123000 255 0 0
0.156387 -0.010602 2.118000 255 0 0
0.162264 -0.010606 2.119000 255 0 0
0.167986 -0.010601 2.118000 255 0 0
0.173948 -0.010610 2.120000 255 0 0
0.179667 -0.010605 2.119000 255 0 0
0.185466 -0.010604 2.119000 255 0 0
0.190814 -0.010579 2.114000 255 0 0
0.195482 -0.010518 2.102000 255 0 0
-0.185111 -0.350000 2.450894 255 255 0
-0.194615 -0.356338 2.431372 255 255 0
-0.046746 -0.329136 2.436566 255 255 0
-0.014743 -0.321450 2.445210 255 255 0
0.012223 -0.315419 2.450632 255 255 0
0.023397 -0.314708 2.445401 255 255 0
0.015521 -0.320469 2.427095 255 255 0
0.035776 -0.316648 2.428204 255 255 0
0.046912 -0.315918 2.423082 255 255 0
0.042358 -0.320559 2.407023 255 255 0
-0.204832 -0.391475 2.380047 0 255 0
-0.215308 -0.373719 2.436826 0 255 0
-0.209759 -0.372557 2.445493 0 255 0
-0.200842 -0.372726 2.451953 0 255 0
-0.197807 -0.370556 2.462317 0 255 0
-0.166967 -0.379360 2.454522 0 255 0
-0.169290 -0.371671 2.480870 0 255 0
-0.156945 -0.373129 2.485322 0 255 0
-0.147967 -0.373255 2.491992 0 255 0
-0.137286 -0.374032 2.497621 0 255 0
-0.320974 -0.016778 2.169000 255 0 0
-0.316801 -0.016872 2.181000 255 0 0
-0.311707 -0.016919 2.187000 255 0 0
-0.306300 -0.016951 2.191000 255 0 0
-0.300184 -0.016945 2.190000 255 0 0
-0.293804 -0.016923 2.187000 255 0 0
-0.287702 -0.016916 2.186000 255 0 0
-0.282120 -0.016940 2.189000 255 0 0
-0.276647 -0.016972 2.193000 255 0 0
-0.271522 -0.017027 2.200000 255 0 0
-0.266840 -0.017114 2.211000 255 0 0
-0.242013 -0.017071 2.205000 255 0 0
-0.236092 -0.017080 2.206000 255 0 0
-0.229539 -0.017042 2.201000 255 0 0
-0.223520 -0.017043 2.201000 255 0 0
-0.217401 -0.017036 2.200000 255 0 0
-0.211095 -0.017013 2.197000 255 0 0
-0.204711 -0.016983 2.193000 255 0 0
-0.198167 -0.016938 2.187000 255 0 0
-0.192358 -0.016954 2.189000 255 0 0
-0.186197 -0.016939 2.187000 255 0 0
-0.179798 -0.016901 2.182000 255 0 0
-0.173586 -0.016878 2.179000 255 0 0
-0.167466 -0.016864 2.177000 255 0 0
-0.161950 -0.016911 2.183000 255 0 0
-0.155829 -0.016896 2.181000 255 0 0
-0.150062 -0.016920 2.184000 255 0 0
-0.144014 -0.016913 2.183000 255 0 0
-0.138160 -0.016929 2.185000 255 0 0
-0.132053 -0.016914 2.183000 255 0 0
-0.126188 -0.016930 2.185000 255 0 0
-0.120145 -0.016923 2.184000 255 0 0
-0.114213 -0.016931 2.185000 255 0 0
-0.107828 -0.016869 2.177000 255 0 0
-0.101768 -0.016854 2.175000 255 0 0
-0.095762 -0.016847 2.174000 255 0 0
-0.089886 -0.016863 2.176000 255 0 0
-0.083959 -0.016871 2.177000 255 0 0
-0.077847 -0.016840 2.173000 255 0 0
-0.071857 -0.016833 2.172000 255 0 0
-0.065932 -0.016841 2.173000 255 0 0
-0.060029 -0.016856 2.175000 255 0 0
-0.054090 -0.016864 2.176000 255 0 0
-0.048012 -0.016826 2.171000 255 0 0
-0.042039 -0.016818 2.170000 255 0 0
-0.036121 -0.016834 2.172000 255 0 0
-0.030165 -0.016834 2.172000 255 0 0
-0.024186 -0.016819 2.170000 255 0 0
-0.018209 -0.016796 2.167000 255 0 0
-0.012266 -0.016796 2.167000 255 0 0
-0.006320 -0.016788 2.166000 255 0 0
-0.000380 -0.016796 2.167000 255 0 0
0.005569 -0.016811 2.169000 255 0 0
0.011544 -0.016850 2.174000 255 0 0
0.017571 -0.016912 2.182000 255 0 0
0.023598 -0.016943 2.186000 255 0 0
0.029634 -0.016966 2.189000 255 0 0
0.035637 -0.016966 2.189000 255 0 0
0.041640 -0.016966 2.189000 255 0 0
0.047621 -0.016958 2.188000 255 0 0
0.053646 -0.016965 2.189000 255 0 0
0.059648 -0.016965 2.189000 255 0 0
0.065770 -0.016996 2.193000 255 0 0
0.071881 -0.017019 2.196000 255 0 0
0.078115 -0.017065 2.202000 255 0 0
0.084305 -0.017096 2.206000 255 0 0
0.090639 -0.017149 2.213000 255 0 0
0.097011 -0.017203 2.220000 255 0 0
0.104675 -0.017466 2.254000 255 0 0
0.135132 -0.016650 2.149000 255 0 0
0.140165 -0.016549 2.136000 255 0 0
0.145264 -0.016463 2.125000 255 0 0
0.150658 -0.016416 2.119000 255 0 0
0.156387 -0.016407 2.118000 255 0 0
0.162110 -0.016399 2.117000 255 0 0
0.167668 -0.016375 2.114000 255 0 0
0.173373 -0.016367 2.113000 255 0 0
0.179242 -0.016374 2.114000 255 0 0
0.185203 -0.016388 2.116000 255 0 0
0.190723 -0.016365 2.113000 255 0 0
0.195574 -0.016286 2.103000 255 0 0
-0.182049 -0.357718 2.467640 255 255 0
-0.184024 -0.361575 2.453039 255 255 0
-0.038234 -0.337826 2.443648 255 255 0
-0.021190 -0.335141 2.442167 255 255 0
0.004943 -0.329324 2.446981 255 255 0
0.026887 -0.324903 2.449095 255 255 0
0.019842 -0.330415 2.431371 255 255 0
0.013648 -0.335653 2.414157 255 255 0
0.027280 -0.334056 2.410682 255 255 0
0.037595 -0.333590 2.404958 255 255 0
0.033070 -0.338269 2.388834 255 255 0
0.019516 -0.346108 2.366256 255 255 0
-0.184470 -0.400889 2.405141 0 255 0
-0.215303 -0.381699 2.450562 0 255 0
-0.202855 -0.376549 2.479375 0 255 0
-0.186342 -0.379737 2.480969 0 255 0
-0.154087 -0.385728 2.484940 0 255 0
-0.146798 -0.385203 2.492708 0 255 0
-0.321269 -0.022736 2.171000 255 0 0
-0.317236 -0.022873 2.184000 255 0 0
-0.311848 -0.022917 2.188000 255 0 0
-0.306159 -0.022939 2.190000 255 0 0
-0.300182 -0.022941 2.190000 255 0 0
-0.294205 -0.022942 2.190000 255 0 0
-0.288227 -0.022944 2.190000 255 0 0
-0.282635 -0.022976 2.193000 255 0 0
-0.276772 -0.022988 2.194000 255 0 0
-0.271521 -0.023053 2.200000 255 0 0
-0.267201 -0.023201 2.214000 255 0 0
-0.242451 -0.023153 2.209000 255 0 0
-0.236412 -0.023155 2.209000 255 0 0
-0.229851 -0.023103 2.204000 255 0 0
-0.223417 -0.023063 2.200000 255 0 0
-0.217203 -0.023043 2.198000 255 0 0
-0.210710 -0.022992 2.193000 255 0 0
-0.204430 -0.022961 2.190000 255 0 0
-0.197894 -0.022899 2.184000 255 0 0
-0.192006 -0.022911 2.185000 255 0 0
-0.185855 -0.022891 2.183000 255 0 0
-0.179138 -0.022798 2.174000 255 0 0
-0.173187 -0.022799 2.174000 255 0 0
-0.167235 -0.022799 2.174000 255 0 0
-0.162172 -0.022926 2.186000 255 0 0
-0.156043 -0.022906 2.184000 255 0 0
-0.150267 -0.022938 2.187000 255 0 0
-0.144145 -0.022918 2.185000 255 0 0
-0.138349 -0.022950 2.188000 255 0 0
-0.132113 -0.022909 2.184000 255 0 0
-0.126129 -0.022910 2.184000 255 0 0
-0.120145 -0.022911 2.184000 255 0 0
-0.114421 -0.022964 2.189000 255 0 0
-0.108125 -0.022901 2.183000 255 0 0
-0.101955 -0.022860 2.179000 255 0 0
-0.095762 -0.022808 2.174000 255 0 0
-0.089927 -0.022840 2.177000 255 0 0
-0.084036 -0.022861 2.179000 255 0 0
-0.078026 -0.022851 2.178000 255 0 0
-0.072055 -0.022852 2.178000 255 0 0
-0.066144 -0.022873 2.180000 255 0 0
-0.060222 -0.022895 2.182000 255 0 0
-0.054164 -0.022863 2.179000 255 0 0
-0.048100 -0.022822 2.175000 255 0 0
-0.042058 -0.022780 2.171000 255 0 0
-0.036105 -0.022780 2.171000 255 0 0
-0.030123 -0.022759 2.169000 255 0 0
-0.024164 -0.022749 2.168000 255 0 0
-0.018218 -0.022749 2.168000 255 0 0
-0.012278 -0.022760 2.169000 255 0 0
-0.006329 -0.022760 2.169000 255 0 0
-0.000380 -0.022749 2.168000 255 0 0
0.005561 -0.022728 2.166000 255 0 0
0.011528 -0.022781 2.171000 255 0 0
0.017571 -0.022896 2.182000 255 0 0
0.023620 -0.022959 2.188000 255 0 0
0.029634 -0.022969 2.189000 255 0 0
0.035604 -0.022948 2.187000 255 0 0
0.041602 -0.022948 2.187000 255 0 0
0.047599 -0.022948 2.187000 255 0 0
0.053670 -0.022979 2.190000 255 0 0
0.059784 -0.023020 2.194000 255 0 0
0.065890 -0.023052 2.197000 255 0 0
0.071979 -0.023072 2.199000 255 0 0
0.078185 -0.023124 2.204000 255 0 0
0.084419 -0.023176 2.209000 255 0 0
0.090761 -0.023249 2.216000 255 0 0
0.097535 -0.023417 2.232000 255 0 0
0.104953 -0.023710 2.260000 255 0 0
0.131228 -0.022888 2.182000 255 0 0
0.134817 -0.022489 2.144000 255 0 0
0.139837 -0.022352 2.131000 255 0 0
0.145195 -0.022278 2.124000 255 0 0
0.150728 -0.022235 2.120000 255 0 0
0.156312 -0.022203 2.117000 255 0 0
0.162033 -0.022191 2.116000 255 0 0
0.167509 -0.022148 2.112000 255 0 0
0.173044 -0.022116 2.109000 255 0 0
0.178817 -0.022115 2.109000 255 0 0
0.184765 -0.022135 2.111000 255 0 0
0.190541 -0.022134 2.111000 255 0 0
0.195481 -0.022039 2.102000 255 0 0
-0.162197 -0.359794 2.495035 255 255 0
-0.161683 -0.362811 2.482130 255 255 0
-0.165350 -0.367240 2.466510 255 255 0
-0.078023 -0.356726 2.444486 255 255 0
-0.051776 -0.350899 2.448934 255 255 0
-0.035542 -0.348470 2.446806 255 255 0
-0.016847 -0.345171 2.446441 255 255 0
0.010928 -0.338709 2.452374 255 255 0
0.018789 -0.339098 2.444851 255 255 0
0.010934 -0.344936 2.426536 255 255 0
0.015491 -0.346474 2.416730 255 255 0
0.021695 -0.347435 2.408078 255 255 0
0.045196 -0.342339 2.411555 255 255 0
0.029148 -0.351082 2.387345 255 255 0
0.022186 -0.356665 2.369417 255 255 0
-0.217674 -0.398886 2.428790 0 255 0
-0.205418 -0.400457 2.432997 0 255 0
-0.195978 -0.397466 2.451549 0 255 0
-0.192095 -0.395630 2.461391 0 255 0
-0.200833 -0.388727 2.479472 0 255 0
-0.189377 -0.389931 2.484367 0 255 0
-0.166948 -0.395501 2.482244 0 255 0
-0.158829 -0.395333 2.489439 0 255 0
-0.118051 -0.404694 2.488369 0 255 0
-0.326735 -0.028636 2.168000 255 0 0
-0.322155 -0.028757 2.177000 255 0 0
-0.317670 -0.028891 2.187000 255 0 0
-0.311704 -0.028893 2.187000 255 0 0
-0.306157 -0.028935 2.190000 255 0 0
-0.300181 -0.028936 2.190000 255 0 0
-0.295144 -0.029031 2.197000 255 0 0
-0.289278 -0.029046 2.198000 255 0 0
-0.283148 -0.029034 2.197000 255 0 0
-0.276771 -0.028997 2.194000 255 0 0
-0.271396 -0.029064 2.199000 255 0 0
-0.268768 -0.029436 2.227000 255 0 0
-0.251187 -0.029521 2.233000 255 0 0
-0.242559 -0.029218 2.210000 255 0 0
-0.236196 -0.029180 2.207000 255 0 0
-0.229745 -0.029129 2.203000 255 0 0
-0.223111 -0.029051 2.197000 255 0 0
-0.216905 -0.029026 2.195000 255 0 0
