ply
format ascii 1.0
element vertex 1334
property double x
property double y
property double z
property uchar red
property uchar green
property uchar blue
end_header
-0.044149 0.663409 2.011000 255 0 0
-0.038635 0.662752 2.009000 255 0 0
-0.033150 0.662425 2.008000 255 0 0
-0.027697 0.662757 2.009000 255 0 0
-0.022238 0.663088 2.010000 255 0 0
-0.016775 0.663420 2.011000 255 0 0
-0.011266 0.661441 2.005000 255 0 0
0.005309 0.687174 2.083000 255 0 0
-0.147637 0.655564 2.004000 255 0 0
-0.142964 0.659172 2.015000 255 0 0
-0.137549 0.659509 2.016000 255 0 0
-0.131932 0.658864 2.014000 255 0 0
-0.126326 0.658218 2.012000 255 0 0
-0.120790 0.657900 2.011000 255 0 0
-0.115202 0.657254 2.009000 255 0 0
-0.109625 0.656607 2.007000 255 0 0
-0.104007 0.655633 2.004000 255 0 0
-0.098552 0.655640 2.004000 255 0 0
-0.092958 0.654665 2.001000 255 0 0
-0.087336 0.653363 1.997000 255 0 0
-0.081818 0.652715 1.995000 255 0 0
-0.076541 0.654029 1.999000 255 0 0
-0.071277 0.655670 2.004000 255 0 0
-0.065854 0.656002 2.005000 255 0 0
-0.060396 0.656007 2.005000 255 0 0
-0.054992 0.656665 2.007000 255 0 0
-0.049577 0.657323 2.009000 255 0 0
-0.044086 0.656999 2.008000 255 0 0
-0.038638 0.657329 2.009000 255 0 0
-0.033169 0.657332 2.009000 255 0 0
-0.027740 0.658316 2.012000 255 0 0
-0.022262 0.658318 2.012000 255 0 0
-0.016784 0.658319 2.012000 255 0 0
-0.011250 0.655048 2.002000 255 0 0
0.005314 0.682206 2.085000 255 0 0
-0.143187 0.654705 2.018000 255 0 0
-0.137764 0.655039 2.019000 255 0 0
-0.132072 0.654075 2.016000 255 0 0
-0.126460 0.653435 2.014000 255 0 0
-0.120919 0.653119 2.013000 255 0 0
-0.115440 0.653128 2.013000 255 0 0
-0.109742 0.651838 2.009000 255 0 0
-0.104118 0.650872 2.006000 255 0 0
-0.098559 0.650230 2.004000 255 0 0
-0.093058 0.649912 2.003000 255 0 0
-0.087430 0.648621 1.999000 255 0 0
-0.081947 0.648303 1.998000 255 0 0
-0.076584 0.648957 2.000000 255 0 0
-0.071389 0.651234 2.007000 255 0 0
-0.065957 0.651563 2.008000 255 0 0
-0.060521 0.651892 2.009000 255 0 0
-0.055078 0.652221 2.010000 255 0 0
-0.049680 0.653198 2.013000 255 0 0
-0.044155 0.652553 2.011000 255 0 0
-0.038680 0.652556 2.011000 255 0 0
-0.033204 0.652558 2.011000 255 0 0
-0.027797 0.654183 2.016000 255 0 0
-0.022297 0.653860 2.015000 255 0 0
-0.016777 0.652564 2.011000 255 0 0
-0.000358 0.668466 2.060000 255 0 0
0.005327 0.678201 2.090000 255 0 0
-0.143268 0.649578 2.019000 255 0 0
-0.137773 0.649588 2.019000 255 0 0
-0.132213 0.649275 2.018000 255 0 0
-0.126595 0.648641 2.016000 255 0 0
-0.120987 0.648006 2.014000 255 0 0
-0.115505 0.648015 2.014000 255 0 0
-0.109859 0.647057 2.011000 255 0 0
-0.104229 0.646100 2.008000 255 0 0
-0.098517 0.644498 2.003000 255 0 0
-0.093018 0.644183 2.002000 255 0 0
-0.087393 0.642903 1.998000 255 0 0
-0.082035 0.643552 2.000000 255 0 0
-0.076705 0.644524 2.003000 255 0 0
-0.071500 0.646781 2.010000 255 0 0
-0.066061 0.647108 2.011000 255 0 0
-0.060585 0.647113 2.011000 255 0 0
-0.055137 0.647439 2.012000 255 0 0
-0.049708 0.648086 2.014000 255 0 0
-0.044202 0.647768 2.013000 255 0 0
-0.038740 0.648093 2.014000 255 0 0
-0.033256 0.648095 2.014000 255 0 0
-0.027813 0.649063 2.017000 255 0 0
-0.022299 0.648421 2.015000 255 0 0
-0.016753 0.646170 2.008000 255 0 0
-0.143491 0.645083 2.022000 255 0 0
-0.138124 0.645731 2.024000 255 0 0
-0.132550 0.645422 2.023000 255 0 0
-0.126729 0.643836 2.018000 255 0 0
-0.121056 0.642888 2.015000 255 0 0
-0.115456 0.642258 2.013000 255 0 0
-0.109922 0.641947 2.012000 255 0 0
-0.104392 0.641636 2.011000 255 0 0
-0.098721 0.640367 2.007000 255 0 0
-0.093071 0.639098 2.003000 255 0 0
-0.087399 0.637509 1.998000 255 0 0
-0.082041 0.638153 2.000000 255 0 0
-0.076710 0.639116 2.003000 255 0 0
-0.071541 0.641674 2.011000 255 0 0
-0.066098 0.641998 2.012000 255 0 0
-0.060680 0.642641 2.014000 255 0 0
-0.055223 0.642965 2.015000 255 0 0
-0.049786 0.643607 2.017000 255 0 0
-0.044249 0.642972 2.015000 255 0 0
-0.038781 0.643294 2.016000 255 0 0
-0.033291 0.643297 2.016000 255 0 0
-0.027843 0.644256 2.019000 255 0 0
-0.022322 0.643620 2.017000 255 0 0
-0.016780 0.641707 2.011000 255 0 0
-0.143075 0.637725 2.016000 255 0 0
-0.138202 0.640582 2.025000 255 0 0
-0.132756 0.640908 2.026000 255 0 0
-0.126990 0.639652 2.022000 255 0 0
-0.121305 0.638712 2.019000 255 0 0
-0.115694 0.638088 2.017000 255 0 0
-0.110203 0.638097 2.017000 255 0 0
-0.104660 0.637788 2.016000 255 0 0
-0.098925 0.636214 2.011000 255 0 0
-0.093078 0.633690 2.003000 255 0 0
-0.087405 0.632115 1.998000 255 0 0
-0.082088 0.633070 2.001000 255 0 0
-0.076793 0.634341 2.005000 255 0 0
-0.071582 0.636561 2.012000 255 0 0
-0.066202 0.637516 2.015000 255 0 0
-0.060715 0.637520 2.015000 255 0 0
-0.055255 0.637841 2.016000 255 0 0
-0.049740 0.637529 2.015000 255 0 0
-0.044297 0.638165 2.017000 255 0 0
-0.038842 0.638801 2.019000 255 0 0
-0.033377 0.639437 2.021000 255 0 0
-0.027872 0.639439 2.021000 255 0 0
-0.022368 0.639441 2.021000 255 0 0
-0.016848 0.638809 2.019000 255 0 0
-0.138622 0.636996 2.031000 255 0 0
-0.133224 0.637633 2.033000 255 0 0
-0.127438 0.636388 2.029000 255 0 0
-0.121614 0.634829 2.024000 255 0 0
-0.115932 0.633897 2.021000 255 0 0
-0.110430 0.633905 2.021000 255 0 0
-0.104875 0.633599 2.020000 255 0 0
-0.099080 0.631725 2.014000 255 0 0
-0.093224 0.629223 2.006000 255 0 0
-0.087499 0.627347 2.000000 255 0 0
-0.082094 0.627667 2.001000 255 0 0
-0.076760 0.628614 2.004000 255 0 0
-0.071587 0.631129 2.012000 255 0 0
-0.066305 0.633017 2.018000 255 0 0
-0.060870 0.633649 2.020000 255 0 0
-0.055369 0.633653 2.020000 255 0 0
-0.049818 0.633030 2.018000 255 0 0
-0.044344 0.633347 2.019000 255 0 0
-0.038883 0.633978 2.021000 255 0 0
-0.033429 0.634921 2.024000 255 0 0
-0.027916 0.634924 2.024000 255 0 0
-0.022403 0.634926 2.024000 255 0 0
-0.016874 0.634300 2.022000 255 0 0
-0.138905 0.632755 2.035000 255 0 0
-0.133430 0.633076 2.036000 255 0 0
-0.127636 0.631842 2.032000 255 0 0
-0.121924 0.630918 2.029000 255 0 0
-0.116342 0.630616 2.028000 255 0 0
-0.110766 0.630313 2.027000 255 0 0
-0.104987 0.628767 2.022000 255 0 0
-0.099186 0.626908 2.016000 255 0 0
-0.093324 0.624428 2.008000 255 0 0
-0.087681 0.623191 2.004000 255 0 0
-0.082141 0.622575 2.002000 255 0 0
-0.076766 0.623203 2.004000 255 0 0
-0.071628 0.626008 2.013000 255 0 0
-0.066409 0.628501 2.021000 255 0 0
-0.060995 0.629439 2.024000 255 0 0
-0.055482 0.629443 2.024000 255 0 0
-0.049896 0.628514 2.021000 255 0 0
-0.044457 0.629451 2.024000 255 0 0
-0.038983 0.630076 2.026000 255 0 0
-0.033514 0.631012 2.029000 255 0 0
-0.027973 0.630703 2.028000 255 0 0
-0.022460 0.631016 2.029000 255 0 0
-0.016892 0.629463 2.024000 255 0 0
-0.138778 0.626642 2.033000 255 0 0
-0.133637 0.628502 2.039000 255 0 0
-0.128023 0.628204 2.038000 255 0 0
-0.122293 0.627288 2.035000 255 0 0
-0.116580 0.626372 2.032000 255 0 0
-0.110938 0.625764 2.030000 255 0 0
-0.105254 0.624848 2.027000 255 0 0
-0.099537 0.623622 2.023000 255 0 0
-0.093656 0.621164 2.015000 255 0 0
-0.087863 0.619013 2.008000 255 0 0
-0.082271 0.618094 2.005000 255 0 0
-0.076963 0.619333 2.009000 255 0 0
-0.071741 0.621497 2.016000 255 0 0
-0.066480 0.623660 2.023000 255 0 0
-0.061060 0.624590 2.026000 255 0 0
-0.055624 0.625520 2.029000 255 0 0
-0.050097 0.625524 2.029000 255 0 0
-0.044592 0.625836 2.030000 255 0 0
-0.039101 0.626455 2.032000 255 0 0
-0.033648 0.628000 2.037000 255 0 0
-0.028100 0.628002 2.037000 255 0 0
-0.022540 0.627696 2.036000 255 0 0
-0.138379 0.619318 2.027000 255 0 0
-0.133516 0.622384 2.037000 255 0 0
-0.128221 0.623616 2.041000 255 0 0
-0.122543 0.623014 2.039000 255 0 0
-0.116818 0.622107 2.036000 255 0 0
-0.111110 0.621199 2.033000 255 0 0
-0.105366 0.619985 2.029000 255 0 0
-0.099643 0.618770 2.025000 255 0 0
-0.093896 0.617250 2.020000 255 0 0
-0.088132 0.615423 2.014000 255 0 0
-0.082564 0.614819 2.012000 255 0 0
-0.077161 0.615436 2.014000 255 0 0
-0.071889 0.617275 2.020000 255 0 0
-0.066518 0.618503 2.024000 255 0 0
-0.061095 0.619425 2.027000 255 0 0
-0.055710 0.620957 2.032000 255 0 0
-0.050224 0.621573 2.034000 255 0 0
-0.044727 0.622187 2.036000 255 0 0
-0.039220 0.622802 2.038000 255 0 0
-0.033734 0.624027 2.042000 255 0 0
-0.028212 0.624946 2.045000 255 0 0
-0.022608 0.624031 2.042000 255 0 0
-0.138389 0.613843 2.027000 255 0 0
-0.133853 0.618396 2.042000 255 0 0
-0.128733 0.620526 2.049000 255 0 0
-0.123033 0.619930 2.047000 255 0 0
-0.117172 0.618425 2.042000 255 0 0
-0.111228 0.616314 2.035000 255 0 0
-0.105530 0.615413 2.032000 255 0 0
-0.099799 0.614210 2.028000 255 0 0
-0.094089 0.613006 2.024000 255 0 0
-0.088401 0.611801 2.020000 255 0 0
-0.082858 0.611505 2.019000 255 0 0
-0.077473 0.612420 2.022000 255 0 0
-0.072108 0.613637 2.026000 255 0 0
-0.066654 0.614249 2.028000 255 0 0
-0.061190 0.614859 2.030000 255 0 0
-0.055770 0.616076 2.034000 255 0 0
-0.050327 0.617291 2.038000 255 0 0
-0.044863 0.618506 2.042000 255 0 0
-0.039338 0.619116 2.044000 255 0 0
-0.033852 0.620633 2.049000 255 0 0
-0.028283 0.620938 2.050000 255 0 0
-0.022709 0.621243 2.051000 255 0 0
-0.138878 0.610469 2.034000 255 0 0
-0.134323 0.614981 2.049000 255 0 0
-0.128994 0.616192 2.053000 255 0 0
-0.123283 0.615601 2.051000 255 0 0
-0.117353 0.613810 2.045000 255 0 0
-0.111455 0.612017 2.039000 255 0 0
-0.105642 0.610525 2.034000 255 0 0
-0.099856 0.609032 2.029000 255 0 0
-0.094189 0.608139 2.026000 255 0 0
-0.088627 0.607846 2.025000 255 0 0
-0.083111 0.607853 2.025000 255 0 0
-0.077709 0.608760 2.028000 255 0 0
-0.072220 0.609066 2.029000 255 0 0
-0.066824 0.610272 2.033000 255 0 0
-0.061376 0.611178 2.036000 255 0 0
-0.055911 0.612083 2.039000 255 0 0
-0.050405 0.612688 2.041000 255 0 0
-0.044932 0.613892 2.045000 255 0 0
-0.039437 0.615096 2.049000 255 0 0
-0.033937 0.616600 2.054000 255 0 0
-0.028396 0.617803 2.058000 255 0 0
-0.022910 0.621107 2.069000 255 0 0
-0.017540 0.630715 2.101000 255 0 0
-0.140664 0.612707 2.060000 255 0 0
-0.135251 0.613610 2.063000 255 0 0
-0.129570 0.613323 2.062000 255 0 0
-0.123653 0.611845 2.057000 255 0 0
-0.117706 0.610070 2.051000 255 0 0
-0.111792 0.608294 2.045000 255 0 0
-0.106014 0.607113 2.041000 255 0 0
-0.100159 0.605336 2.035000 255 0 0
-0.094429 0.604154 2.031000 255 0 0
-0.088853 0.603864 2.030000 255 0 0
-0.083281 0.603573 2.029000 255 0 0
-0.077907 0.604769 2.033000 255 0 0
-0.072333 0.604478 2.032000 255 0 0
-0.066994 0.606268 2.038000 255 0 0
-0.061471 0.606571 2.039000 255 0 0
-0.056025 0.607765 2.043000 255 0 0
-0.050483 0.608067 2.044000 255 0 0
-0.045046 0.609856 2.050000 255 0 0
-0.039556 0.611347 2.055000 255 0 0
-0.034089 0.613730 2.063000 255 0 0
-0.028536 0.615220 2.068000 255 0 0
-0.023189 0.622957 2.094000 255 0 0
-0.017792 0.633966 2.131000 255 0 0
-0.144431 0.623352 2.115000 255 0 0
-0.137031 0.615994 2.090000 255 0 0
-0.130459 0.611878 2.076000 255 0 0
-0.124144 0.608646 2.065000 255 0 0
-0.118002 0.606003 2.056000 255 0 0
-0.112074 0.604243 2.050000 255 0 0
-0.106386 0.603662 2.048000 255 0 0
-0.100610 0.602492 2.044000 255 0 0
-0.094809 0.601025 2.039000 255 0 0
-0.089166 0.600443 2.037000 255 0 0
-0.083575 0.600155 2.036000 255 0 0
-0.078181 0.601341 2.040000 255 0 0
-0.072552 0.600757 2.038000 255 0 0
-0.067163 0.602237 2.043000 255 0 0
-0.061657 0.602831 2.045000 255 0 0
-0.056194 0.604015 2.049000 255 0 0
-0.050685 0.604904 2.052000 255 0 0
-0.045225 0.606677 2.058000 255 0 0
-0.039752 0.608744 2.065000 255 0 0
-0.034240 0.610810 2.072000 255 0 0
-0.028746 0.614055 2.083000 255 0 0
-0.023446 0.624080 2.117000 255 0 0
-0.017927 0.632926 2.147000 255 0 0
-0.012121 0.635286 2.155000 255 0 0
-0.152403 0.626678 2.146000 255 0 0
-0.146149 0.624938 2.140000 255 0 0
-0.139468 0.621152 2.127000 255 0 0
-0.132103 0.613862 2.102000 255 0 0
-0.125115 0.607739 2.081000 255 0 0
-0.118643 0.603660 2.067000 255 0 0
-0.112465 0.600749 2.057000 255 0 0
-0.106602 0.599297 2.052000 255 0 0
-0.100765 0.597845 2.047000 255 0 0
-0.095002 0.596685 2.043000 255 0 0
-0.089436 0.596692 2.043000 255 0 0
-0.083746 0.595823 2.040000 255 0 0
-0.078341 0.596998 2.044000 255 0 0
-0.072807 0.597296 2.045000 255 0 0
-0.067399 0.598762 2.050000 255 0 0
-0.061813 0.598767 2.050000 255 0 0
-0.056363 0.600232 2.055000 255 0 0
-0.050862 0.601405 2.059000 255 0 0
-0.045427 0.603746 2.067000 255 0 0
-0.039947 0.606086 2.075000 255 0 0
-0.034458 0.609010 2.085000 255 0 0
-0.029024 0.614270 2.103000 255 0 0
-0.023702 0.625079 2.140000 255 0 0
-0.018029 0.630631 2.159000 255 0 0
-0.012144 0.630632 2.159000 255 0 0
-0.006252 0.629757 2.156000 255 0 0
-0.158039 0.619999 2.143000 255 0 0
-0.151847 0.618565 2.138000 255 0 0
-0.146434 0.620312 2.144000 255 0 0
-0.140528 0.620034 2.143000 255 0 0
-0.134062 0.617152 2.133000 255 0 0
-0.126568 0.609060 2.105000 255 0 0
-0.119399 0.601837 2.080000 255 0 0
-0.112857 0.597216 2.064000 255 0 0
-0.106766 0.594621 2.055000 255 0 0
-0.101019 0.593761 2.052000 255 0 0
-0.095196 0.592322 2.047000 255 0 0
-0.089618 0.592330 2.047000 255 0 0
-0.083958 0.591758 2.045000 255 0 0
-0.078501 0.592632 2.048000 255 0 0
-0.073026 0.593507 2.051000 255 0 0
-0.067569 0.594670 2.055000 255 0 0
-0.062059 0.595543 2.058000 255 0 0
-0.056587 0.596995 2.063000 255 0 0
-0.051187 0.599604 2.072000 255 0 0
-0.045738 0.602212 2.081000 255 0 0
-0.040259 0.605110 2.091000 255 0 0
-0.034791 0.609164 2.105000 255 0 0
-0.029344 0.615244 2.126000 255 0 0
-0.023804 0.621902 2.149000 255 0 0
-0.018088 0.626823 2.166000 255 0 0
-0.012174 0.626246 2.164000 255 0 0
-0.006255 0.624221 2.157000 255 0 0
-0.000375 0.623642 2.155000 255 0 0
-0.166488 0.623940 2.177000 255 0 0
-0.158125 0.614494 2.144000 255 0 0
-0.151859 0.612787 2.138000 255 0 0
-0.146582 0.615091 2.146000 255 0 0
-0.141064 0.616536 2.151000 255 0 0
-0.135204 0.616547 2.151000 255 0 0
-0.128262 0.611398 2.133000 255 0 0
-0.120786 0.603095 2.104000 255 0 0
-0.113796 0.596512 2.081000 255 0 0
-0.107190 0.591361 2.063000 255 0 0
-0.101225 0.589363 2.056000 255 0 0
-0.095436 0.588224 2.052000 255 0 0
-0.089976 0.589091 2.055000 255 0 0
-0.084252 0.588238 2.052000 255 0 0
-0.078660 0.588245 2.052000 255 0 0
-0.073139 0.588825 2.054000 255 0 0
-0.067739 0.590550 2.060000 255 0 0
-0.062305 0.592276 2.066000 255 0 0
-0.056949 0.595147 2.076000 255 0 0
-0.051537 0.598019 2.086000 255 0 0
-0.046137 0.601749 2.099000 255 0 0
-0.040628 0.604906 2.110000 255 0 0
-0.035125 0.609210 2.125000 255 0 0
-0.029498 0.612653 2.137000 255 0 0
-0.023861 0.617529 2.154000 255 0 0
-0.018098 0.621257 2.167000 255 0 0
-0.012180 0.620685 2.165000 255 0 0
-0.006244 0.617246 2.153000 255 0 0
-0.000374 0.615239 2.146000 255 0 0
0.005504 0.618392 2.157000 255 0 0
-0.179915 0.623422 2.196000 255 0 0
-0.172668 0.618894 2.180000 255 0 0
-0.165583 0.614648 2.165000 255 0 0
-0.158211 0.608983 2.145000 255 0 0
-0.151800 0.606724 2.137000 255 0 0
-0.146525 0.609007 2.145000 255 0 0
-0.141272 0.611574 2.154000 255 0 0
-0.135592 0.612437 2.157000 255 0 0
-0.129114 0.609608 2.147000 255 0 0
-0.122116 0.603939 2.127000 255 0 0
-0.115172 0.597986 2.106000 255 0 0
-0.108290 0.591748 2.084000 255 0 0
-0.102070 0.588633 2.073000 255 0 0
-0.096141 0.586937 2.067000 255 0 0
-0.090465 0.586661 2.066000 255 0 0
-0.084670 0.585532 2.062000 255 0 0
-0.078935 0.584687 2.059000 255 0 0
-0.073430 0.585545 2.062000 255 0 0
-0.068073 0.587823 2.070000 255 0 0
-0.062793 0.591236 2.082000 255 0 0
-0.057502 0.595216 2.096000 255 0 0
-0.052085 0.598629 2.108000 255 0 0
-0.046537 0.601188 2.117000 255 0 0
-0.040882 0.602896 2.123000 255 0 0
-0.035260 0.605739 2.133000 255 0 0
-0.029597 0.608865 2.144000 255 0 0
-0.023896 0.612559 2.157000 255 0 0
-0.018075 0.614549 2.164000 255 0 0
-0.012159 0.613698 2.161000 255 0 0
-0.006221 0.609155 2.145000 255 0 0
-0.000373 0.607452 2.139000 255 0 0
0.005481 0.610007 2.148000 255 0 0
0.011443 0.615686 2.168000 255 0 0
0.017417 0.617957 2.176000 255 0 0
0.023413 0.619659 2.182000 255 0 0
-0.192764 0.620269 2.206000 255 0 0
-0.185148 0.614941 2.187000 255 0 0
-0.178864 0.613831 2.183000 255 0 0
-0.172523 0.612438 2.178000 255 0 0
-0.165902 0.609921 2.169000 255 0 0
-0.158740 0.605153 2.152000 255 0 0
-0.151954 0.601510 2.139000 255 0 0
-0.146537 0.603209 2.145000 255 0 0
-0.141152 0.605189 2.152000 255 0 0
-0.135729 0.607169 2.159000 255 0 0
-0.129545 0.605773 2.154000 255 0 0
-0.123102 0.602971 2.144000 255 0 0
-0.116549 0.599324 2.131000 255 0 0
-0.109858 0.594552 2.114000 255 0 0
-0.103506 0.591186 2.102000 255 0 0
-0.097498 0.589507 2.096000 255 0 0
-0.091698 0.588952 2.094000 255 0 0
-0.085703 0.586990 2.087000 255 0 0
-0.079862 0.585872 2.083000 255 0 0
-0.074255 0.586441 2.085000 255 0 0
-0.068901 0.589260 2.095000 255 0 0
-0.063522 0.592359 2.106000 255 0 0
-0.058000 0.594614 2.114000 255 0 0
-0.052386 0.596306 2.120000 255 0 0
-0.046739 0.597998 2.126000 255 0 0
-0.041039 0.599408 2.131000 255 0 0
-0.035345 0.601380 2.138000 255 0 0
-0.029627 0.603633 2.146000 255 0 0
-0.023887 0.606448 2.156000 255 0 0
-0.018068 0.608419 2.163000 255 0 0
-0.012126 0.606170 2.155000 255 0 0
-0.006210 0.602233 2.141000 255 0 0
-0.000372 0.600264 2.134000 255 0 0
0.005469 0.602795 2.143000 255 0 0
0.011396 0.607295 2.159000 255 0 0
0.017330 0.608982 2.165000 255 0 0
0.023286 0.610387 2.170000 255 0 0
0.029270 0.611791 2.175000 255 0 0
0.035312 0.613757 2.182000 255 0 0
-0.203865 0.611489 2.196000 255 0 0
-0.197435 0.610112 2.191000 255 0 0
-0.191206 0.609292 2.188000 255 0 0
-0.184739 0.607636 2.182000 255 0 0
-0.178469 0.606536 2.178000 255 0 0
-0.172140 0.605157 2.173000 255 0 0
-0.165762 0.603500 2.167000 255 0 0
-0.159047 0.600449 2.156000 255 0 0
-0.152250 0.596841 2.143000 255 0 0
-0.146343 0.596574 2.142000 255 0 0
-0.140901 0.598257 2.148000 255 0 0
-0.135614 0.600775 2.157000 255 0 0
-0.129736 0.600785 2.157000 255 0 0
-0.123456 0.598846 2.150000 255 0 0
-0.117050 0.596070 2.140000 255 0 0
-0.110750 0.593573 2.131000 255 0 0
-0.104647 0.591910 2.125000 255 0 0
-0.098716 0.591083 2.122000 255 0 0
-0.092801 0.590255 2.119000 255 0 0
-0.086778 0.588591 2.113000 255 0 0
-0.080904 0.587762 2.110000 255 0 0
-0.075223 0.588326 2.112000 255 0 0
-0.069597 0.589446 2.116000 255 0 0
-0.063980 0.590845 2.121000 255 0 0
-0.058280 0.591685 2.124000 255 0 0
-0.052588 0.592804 2.128000 255 0 0
-0.046830 0.593366 2.130000 255 0 0
-0.041100 0.594484 2.134000 255 0 0
-0.035365 0.595880 2.139000 255 0 0
-0.029657 0.598390 2.148000 255 0 0
-0.023889 0.600620 2.156000 255 0 0
-0.018053 0.602015 2.161000 255 0 0
-0.012116 0.599788 2.153000 255 0 0
-0.006205 0.595888 2.139000 255 0 0
-0.000372 0.594774 2.135000 255 0 0
0.005475 0.597560 2.145000 255 0 0
0.011392 0.601181 2.158000 255 0 0
0.017308 0.602294 2.162000 255 0 0
0.023202 0.602292 2.162000 255 0 0
0.029137 0.603126 2.165000 255 0 0
0.035040 0.603123 2.165000 255 0 0
0.041037 0.604513 2.170000 255 0 0
0.047062 0.605902 2.175000 255 0 0
0.053211 0.608405 2.184000 255 0 0
-0.215643 0.604967 2.194000 255 0 0
-0.209000 0.603053 2.187000 255 0 0
-0.202581 0.601691 2.182000 255 0 0
-0.196459 0.601155 2.180000 255 0 0
-0.190434 0.600894 2.179000 255 0 0
-0.184246 0.600081 2.176000 255 0 0
-0.178237 0.599820 2.175000 255 0 0
-0.171995 0.598730 2.171000 255 0 0
-0.165852 0.597916 2.168000 255 0 0
-0.159503 0.596275 2.162000 255 0 0
-0.152760 0.592977 2.150000 255 0 0
-0.146355 0.590783 2.142000 255 0 0
-0.140781 0.591898 2.146000 255 0 0
-0.135499 0.594391 2.155000 255 0 0
-0.129987 0.596057 2.161000 255 0 0
-0.123754 0.594412 2.155000 255 0 0
-0.117443 0.592215 2.147000 255 0 0
-0.111071 0.589466 2.137000 255 0 0
-0.105050 0.588372 2.133000 255 0 0
-0.099096 0.587553 2.130000 255 0 0
-0.093246 0.587285 2.129000 255 0 0
-0.087278 0.586189 2.125000 255 0 0
-0.081447 0.585920 2.124000 255 0 0
-0.075657 0.585926 2.124000 255 0 0
-0.069932 0.586484 2.126000 255 0 0
-0.064136 0.586490 2.126000 255 0 0
-0.058394 0.587047 2.128000 255 0 0
-0.052666 0.587879 2.131000 255 0 0
-0.046922 0.588711 2.134000 255 0 0
-0.041161 0.589542 2.137000 255 0 0
-0.035384 0.590373 2.140000 255 0 0
-0.029646 0.592307 2.147000 255 0 0
-0.023858 0.593964 2.153000 255 0 0
-0.018029 0.595345 2.158000 255 0 0
-0.012094 0.592864 2.149000 255 0 0
-0.006202 0.589830 2.138000 255 0 0
-0.000372 0.588727 2.134000 255 0 0
0.005473 0.591485 2.144000 255 0 0
0.011372 0.594243 2.154000 255 0 0
0.017285 0.595621 2.159000 255 0 0
0.023172 0.595620 2.159000 255 0 0
0.029073 0.595893 2.160000 255 0 0
0.034914 0.595063 2.157000 255 0 0
0.040871 0.596163 2.161000 255 0 0
0.046828 0.596987 2.164000 255 0 0
0.052874 0.598638 2.170000 255 0 0
0.058818 0.598910 2.171000 255 0 0
0.064886 0.600284 2.176000 255 0 0
-0.226881 0.597089 2.187000 255 0 0
-0.220421 0.595741 2.182000 255 0 0
-0.214480 0.595757 2.182000 255 0 0
-0.208539 0.595774 2.182000 255 0 0
-0.202318 0.594971 2.179000 255 0 0
-0.195933 0.593621 2.174000 255 0 0
-0.189750 0.592817 2.171000 255 0 0
-0.183752 0.592558 2.170000 255 0 0
-0.177677 0.592026 2.168000 255 0 0
-0.171533 0.591221 2.165000 255 0 0
-0.165635 0.591235 2.165000 255 0 0
-0.159737 0.591247 2.165000 255 0 0
-0.153056 0.588256 2.154000 255 0 0
-0.146299 0.584718 2.141000 255 0 0
-0.140464 0.584729 2.141000 255 0 0
-0.135196 0.587198 2.150000 255 0 0
-0.129878 0.589667 2.159000 255 0 0
-0.123764 0.588585 2.155000 255 0 0
-0.117562 0.586956 2.149000 255 0 0
-0.111288 0.584780 2.141000 255 0 0
-0.105255 0.583697 2.137000 255 0 0
-0.099290 0.582886 2.134000 255 0 0
-0.093341 0.582074 2.131000 255 0 0
-0.087368 0.580989 2.127000 255 0 0
-0.081569 0.580996 2.127000 255 0 0
-0.075734 0.580730 2.126000 255 0 0
-0.069971 0.581009 2.127000 255 0 0
-0.064201 0.581288 2.128000 255 0 0
-0.058509 0.582385 2.132000 255 0 0
-0.052770 0.583210 2.135000 255 0 0
-0.047036 0.584306 2.139000 255 0 0
-0.041223 0.584583 2.140000 255 0 0
-0.035437 0.585406 2.143000 255 0 0
-0.029662 0.586775 2.148000 255 0 0
-0.023849 0.587870 2.152000 255 0 0
-0.017989 0.588144 2.153000 255 0 0
-0.012056 0.585141 2.142000 255 0 0
-0.006188 0.582683 2.133000 255 0 0
-0.000371 0.582137 2.131000 255 0 0
0.005465 0.584868 2.141000 255 0 0
0.011346 0.587053 2.149000 255 0 0
0.017247 0.588418 2.154000 255 0 0
0.023120 0.588416 2.154000 255 0 0
0.028994 0.588414 2.154000 255 0 0
0.034836 0.587865 2.152000 255 0 0
0.040742 0.588408 2.154000 255 0 0
0.046615 0.588404 2.154000 255 0 0
0.052562 0.589220 2.157000 255 0 0
0.058470 0.589488 2.158000 255 0 0
0.064474 0.590576 2.162000 255 0 0
0.070434 0.591116 2.164000 255 0 0
-0.083608 0.675848 2.077124 0 255 0
-0.088583 0.678673 2.093329 0 255 0
-0.082033 0.680489 2.100978 0 255 0
-0.055934 0.680627 2.094308 0 255 0
-0.239133 0.591949 2.190000 255 0 0
-0.232958 0.591426 2.188000 255 0 0
-0.226483 0.590092 2.183000 255 0 0
-0.220135 0.589028 2.179000 255 0 0
-0.214104 0.588774 2.178000 255 0 0
-0.208268 0.589061 2.179000 255 0 0
-0.201963 0.587996 2.175000 255 0 0
-0.195498 0.586389 2.169000 255 0 0
-0.189328 0.585593 2.166000 255 0 0
-0.183343 0.585338 2.165000 255 0 0
-0.177527 0.585622 2.166000 255 0 0
-0.171468 0.585095 2.164000 255 0 0
-0.165572 0.585109 2.164000 255 0 0
-0.159750 0.585392 2.165000 255 0 0
-0.153282 0.583242 2.157000 255 0 0
-0.146379 0.579198 2.142000 255 0 0
-0.140344 0.578398 2.139000 255 0 0
-0.134892 0.580032 2.145000 255 0 0
-0.129708 0.583017 2.156000 255 0 0
-0.123889 0.583298 2.157000 255 0 0
-0.117626 0.581415 2.150000 255 0 0
-0.111401 0.579531 2.143000 255 0 0
-0.105412 0.578729 2.140000 255 0 0
-0.099485 0.578197 2.138000 255 0 0
-0.093481 0.577123 2.134000 255 0 0
-0.087539 0.576319 2.131000 255 0 0
-0.081691 0.576056 2.130000 255 0 0
-0.075919 0.576333 2.131000 255 0 0
-0.070174 0.576880 2.133000 255 0 0
-0.064358 0.576885 2.133000 255 0 0
-0.058596 0.577431 2.135000 255 0 0
-0.052848 0.578247 2.138000 255 0 0
-0.047128 0.579604 2.143000 255 0 0
-0.041342 0.580419 2.146000 255 0 0
-0.035522 0.580963 2.148000 255 0 0
-0.029692 0.581507 2.150000 255 0 0
-0.023851 0.582050 2.152000 255 0 0
-0.017949 0.580970 2.148000 255 0 0
-0.012023 0.577726 2.136000 255 0 0
-0.006174 0.575563 2.128000 255 0 0
-0.000371 0.576374 2.131000 255 0 0
0.005463 0.578808 2.140000 255 0 0
0.011331 0.580430 2.146000 255 0 0
0.017200 0.580970 2.148000 255 0 0
0.023047 0.580698 2.147000 255 0 0
0.028902 0.580696 2.147000 255 0 0
0.034758 0.580693 2.147000 255 0 0
0.040651 0.581231 2.149000 255 0 0
0.046468 0.580686 2.147000 255 0 0
0.052371 0.581223 2.149000 255 0 0
0.058286 0.581759 2.151000 255 0 0
0.064181 0.582025 2.152000 255 0 0
0.069984 0.581478 2.150000 255 0 0
0.075776 0.580931 2.148000 255 0 0
0.081747 0.581736 2.151000 255 0 0
0.087815 0.583081 2.156000 255 0 0
-0.082563 0.662833 2.065022 0 255 0
-0.096039 0.668859 2.100078 0 255 0
-0.079061 0.674522 2.124977 0 255 0
-0.251647 0.587325 2.195000 255 0 0
-0.244665 0.584936 2.186000 255 0 0
-0.238605 0.584687 2.185000 255 0 0
-0.232444 0.584169 2.183000 255 0 0
-0.226189 0.583384 2.180000 255 0 0
-0.219950 0.582598 2.177000 255 0 0
-0.213825 0.582080 2.175000 255 0 0
-0.207806 0.581828 2.174000 255 0 0
-0.201700 0.581309 2.172000 255 0 0
-0.195333 0.579987 2.167000 255 0 0
-0.189081 0.578931 2.163000 255 0 0
-0.183104 0.578678 2.162000 255 0 0
-0.177377 0.579228 2.164000 255 0 0
-0.171402 0.578974 2.163000 255 0 0
-0.165432 0.578720 2.162000 255 0 0
-0.159467 0.578465 2.161000 255 0 0
-0.153152 0.576872 2.155000 255 0 0
-0.146391 0.573404 2.142000 255 0 0
-0.140159 0.571810 2.136000 255 0 0
-0.134589 0.572891 2.140000 255 0 0
-0.129357 0.575579 2.150000 255 0 0
-0.123784 0.576928 2.155000 255 0 0
-0.117636 0.575600 2.150000 255 0 0
-0.111567 0.574538 2.146000 255 0 0
-0.105568 0.573744 2.143000 255 0 0
-0.099726 0.573753 2.143000 255 0 0
-0.093707 0.572690 2.139000 255 0 0
-0.087793 0.572162 2.137000 255 0 0
-0.081851 0.571366 2.134000 255 0 0
-0.076103 0.571908 2.136000 255 0 0
-0.070344 0.572449 2.138000 255 0 0
-0.064484 0.572187 2.137000 255 0 0
-0.058629 0.571925 2.136000 255 0 0
-0.052877 0.572733 2.139000 255 0 0
-0.047198 0.574611 2.146000 255 0 0
-0.041422 0.575686 2.150000 255 0 0
-0.035592 0.576225 2.152000 255 0 0
-0.029750 0.576763 2.154000 255 0 0
-0.023864 0.576498 2.153000 255 0 0
-0.017892 0.573286 2.141000 255 0 0
-0.011973 0.569539 2.127000 255 0 0
-0.006155 0.567933 2.121000 255 0 0
-0.000371 0.570075 2.129000 255 0 0
0.005461 0.572753 2.139000 255 0 0
0.011327 0.574359 2.145000 255 0 0
0.017177 0.574357 2.145000 255 0 0
0.023028 0.574356 2.145000 255 0 0
0.028851 0.573818 2.143000 255 0 0
0.034696 0.573815 2.143000 255 0 0
0.040522 0.573544 2.142000 255 0 0
0.046342 0.573273 2.141000 255 0 0
0.052229 0.573804 2.143000 255 0 0
0.058128 0.574335 2.145000 255 0 0
0.063948 0.574062 2.144000 255 0 0
0.069632 0.572718 2.139000 255 0 0
0.075359 0.571908 2.136000 255 0 0
0.081259 0.572437 2.138000 255 0 0
0.087293 0.573769 2.143000 255 0 0
0.093484 0.575904 2.151000 255 0 0
0.099672 0.577770 2.158000 255 0 0
-0.082940 0.652328 2.066527 0 255 0
-0.084353 0.654877 2.080133 0 255 0
-0.090747 0.660293 2.109867 0 255 0
-0.100172 0.663563 2.129225 0 255 0
-0.101890 0.670890 2.167571 0 255 0
-0.091792 0.672372 2.172625 0 255 0
-0.080792 0.673785 2.177078 0 255 0
-0.256349 0.578454 2.184000 255 0 0
-0.249831 0.577149 2.179000 255 0 0
-0.243788 0.576902 2.178000 255 0 0
-0.237750 0.576656 2.177000 255 0 0
-0.231929 0.576939 2.178000 255 0 0
-0.225895 0.576691 2.177000 255 0 0
-0.219866 0.576444 2.176000 255 0 0
-0.213645 0.575666 2.173000 255 0 0
-0.207345 0.574622 2.169000 255 0 0
-0.201251 0.574109 2.167000 255 0 0
-0.195078 0.573329 2.164000 255 0 0
-0.189096 0.573080 2.163000 255 0 0
-0.183033 0.572564 2.161000 255 0 0
-0.177146 0.572579 2.161000 255 0 0
-0.171099 0.572063 2.159000 255 0 0
-0.164910 0.571016 2.155000 255 0 0
-0.158963 0.570765 2.154000 255 0 0
-0.152951 0.570247 2.152000 255 0 0
-0.146471 0.567874 2.143000 255 0 0
-0.140170 0.566031 2.136000 255 0 0
-0.134411 0.566307 2.137000 255 0 0
-0.129067 0.568438 2.145000 255 0 0
-0.123622 0.570304 2.152000 255 0 0
-0.117700 0.570049 2.151000 255 0 0
-0.111680 0.569263 2.148000 255 0 0
-0.105626 0.568212 2.144000 255 0 0
-0.099687 0.567691 2.142000 255 0 0
-0.093759 0.567169 2.140000 255 0 0
-0.087924 0.567176 2.140000 255 0 0
-0.082050 0.566918 2.139000 255 0 0
-0.076323 0.567720 2.142000 255 0 0
-0.070515 0.567991 2.143000 255 0 0
-0.064610 0.567467 2.141000 255 0 0
-0.058661 0.566412 2.137000 255 0 0
-0.052907 0.567212 2.140000 255 0 0
-0.047224 0.569071 2.147000 255 0 0
-0.041445 0.570135 2.151000 255 0 0
-0.035611 0.570669 2.153000 255 0 0
-0.029766 0.571202 2.155000 255 0 0
-0.023844 0.570144 2.151000 255 0 0
-0.017835 0.565639 2.134000 255 0 0
-0.011935 0.561930 2.120000 255 0 0
-0.006146 0.561400 2.118000 255 0 0
-0.000371 0.564316 2.129000 255 0 0
0.005459 0.566702 2.138000 255 0 0
0.011323 0.568291 2.144000 255 0 0
0.017155 0.567760 2.142000 255 0 0
0.023019 0.568288 2.144000 255 0 0
0.028840 0.567756 2.142000 255 0 0
0.034683 0.567753 2.142000 255 0 0
0.040487 0.567220 2.140000 255 0 0
0.046346 0.567481 2.141000 255 0 0
0.052209 0.567742 2.142000 255 0 0
0.058079 0.568003 2.143000 255 0 0
0.063774 0.566672 2.138000 255 0 0
0.069442 0.565341 2.133000 255 0 0
0.075153 0.564540 2.130000 255 0 0
0.081076 0.565329 2.133000 255 0 0
0.087056 0.566382 2.137000 255 0 0
0.093057 0.567435 2.141000 255 0 0
0.099033 0.568222 2.144000 255 0 0
0.105173 0.569803 2.150000 255 0 0
0.111499 0.572180 2.159000 255 0 0
-0.069849 0.647800 2.095717 0 255 0
-0.089002 0.652047 2.122275 0 255 0
-0.088668 0.654428 2.134468 0 255 0
-0.097221 0.657639 2.153085 0 255 0
-0.091570 0.659515 2.161363 0 255 0
-0.086804 0.661478 2.170292 0 255 0
-0.087379 0.663933 2.183048 0 255 0
-0.086178 0.666224 2.194512 0 255 0
-0.083197 0.668352 2.204699 0 255 0
-0.269485 0.575126 2.194000 255 0 0
-0.262193 0.572263 2.183000 255 0 0
-0.255782 0.571233 2.179000 255 0 0
-0.249392 0.570204 2.175000 255 0 0
-0.243135 0.569436 2.172000 255 0 0
-0.236894 0.568668 2.169000 255 0 0
-0.230988 0.568686 2.169000 255 0 0
-0.225186 0.568965 2.170000 255 0 0
-0.219277 0.568982 2.170000 255 0 0
-0.213465 0.569261 2.171000 255 0 0
-0.207265 0.568491 2.168000 255 0 0
-0.201174 0.567983 2.166000 255 0 0
-0.195093 0.567474 2.164000 255 0 0
-0.188936 0.566703 2.161000 255 0 0
-0.182794 0.565931 2.158000 255 0 0
-0.176668 0.565158 2.155000 255 0 0
-0.170558 0.564386 2.152000 255 0 0
-0.164464 0.563612 2.149000 255 0 0
-0.158607 0.563625 2.149000 255 0 0
-0.152679 0.563376 2.148000 255 0 0
-0.146278 0.561290 2.140000 255 0 0
-0.139985 0.559465 2.133000 255 0 0
-0.134108 0.559214 2.132000 255 0 0
-0.128837 0.561586 2.141000 255 0 0
-0.123460 0.563695 2.149000 255 0 0
-0.117710 0.564229 2.151000 255 0 0
-0.111741 0.563714 2.149000 255 0 0
-0.105684 0.562674 2.145000 255 0 0
-0.099742 0.562158 2.143000 255 0 0
-0.093767 0.561379 2.140000 255 0 0
-0.087972 0.561649 2.141000 255 0 0
-0.082095 0.561394 2.140000 255 0 0
-0.076330 0.561925 2.142000 255 0 0
-0.070455 0.561669 2.141000 255 0 0
-0.064615 0.561674 2.141000 255 0 0
-0.058721 0.561155 2.139000 255 0 0
-0.052936 0.561684 2.141000 255 0 0
-0.047228 0.563263 2.147000 255 0 0
-0.041429 0.564053 2.150000 255 0 0
-0.035581 0.564319 2.151000 255 0 0
-0.029700 0.564060 2.150000 255 0 0
-0.023757 0.562225 2.143000 255 0 0
-0.017769 0.557767 2.126000 255 0 0
-0.011913 0.555145 2.116000 255 0 0
-0.006141 0.555146 2.116000 255 0 0
-0.000371 0.558032 2.127000 255 0 0
0.005447 0.559606 2.133000 255 0 0
0.011292 0.560917 2.138000 255 0 0
0.017132 0.561178 2.139000 255 0 0
0.023010 0.562226 2.143000 255 0 0
0.028842 0.561961 2.142000 255 0 0
0.034685 0.561958 2.142000 255 0 0
0.040491 0.561430 2.140000 255 0 0
0.046306 0.561164 2.139000 255 0 0
0.052165 0.561423 2.140000 255 0 0
0.058002 0.561418 2.140000 255 0 0
0.063750 0.560626 2.137000 255 0 0
0.069448 0.559571 2.133000 255 0 0
0.075195 0.559040 2.131000 255 0 0
0.081007 0.559033 2.131000 255 0 0
0.086900 0.559551 2.133000 255 0 0
0.092760 0.559806 2.134000 255 0 0
0.098672 0.560323 2.136000 255 0 0
0.104741 0.561626 2.141000 255 0 0
0.110889 0.563191 2.147000 255 0 0
0.117069 0.564755 2.153000 255 0 0
0.123339 0.566581 2.160000 255 0 0
-0.087258 0.643803 2.134680 0 255 0
-0.092250 0.646707 2.150722 0 255 0
-0.091926 0.649092 2.162866 0 255 0
-0.096942 0.651983 2.178824 0 255 0
-0.095742 0.654276 2.190280 0 255 0
-0.091873 0.656318 2.199823 0 255 0
-0.086220 0.658196 2.208105 0 255 0
-0.274722 0.567612 2.188000 255 0 0
-0.267908 0.565816 2.181000 255 0 0
-0.261492 0.564798 2.177000 255 0 0
-0.254979 0.563520 2.172000 255 0 0
-0.248608 0.562501 2.168000 255 0 0
-0.242370 0.561742 2.165000 255 0 0
-0.236366 0.561500 2.164000 255 0 0
-0.230580 0.561778 2.165000 255 0 0
-0.224685 0.561795 2.165000 255 0 0
-0.218889 0.562072 2.166000 255 0 0
-0.213285 0.562867 2.169000 255 0 0
-0.207282 0.562624 2.168000 255 0 0
-0.201190 0.562122 2.166000 255 0 0
-0.195019 0.561359 2.163000 255 0 0
-0.188776 0.560336 2.159000 255 0 0
-0.182639 0.559572 2.156000 255 0 0
-0.176354 0.558289 2.151000 255 0 0
-0.170334 0.557783 2.149000 255 0 0
-0.164248 0.557018 2.146000 255 0 0
-0.158399 0.557031 2.146000 255 0 0
-0.152407 0.556525 2.144000 255 0 0
-0.146153 0.554980 2.138000 255 0 0
-0.139865 0.553174 2.131000 255 0 0
-0.133930 0.552666 2.129000 255 0 0
-0.128667 0.555013 2.138000 255 0 0
-0.123298 0.557101 2.146000 255 0 0
-0.117774 0.558668 2.152000 255 0 0
-0.111802 0.558159 2.150000 255 0 0
-0.105841 0.557648 2.148000 255 0 0
-0.099844 0.556878 2.145000 255 0 0
-0.093862 0.556108 2.142000 255 0 0
-0.088062 0.556375 2.143000 255 0 0
-0.082217 0.556382 2.143000 255 0 0
-0.076407 0.556648 2.144000 255 0 0
-0.070494 0.556135 2.142000 255 0 0
-0.064621 0.555881 2.141000 255 0 0
-0.058753 0.555627 2.140000 255 0 0
-0.052965 0.556151 2.142000 255 0 0
-0.047188 0.556934 2.145000 255 0 0
-0.041375 0.557457 2.147000 255 0 0
-0.035534 0.557720 2.148000 255 0 0
-0.029619 0.556684 2.144000 255 0 0
-0.023659 0.554090 2.134000 255 0 0
-0.017737 0.550976 2.122000 255 0 0
-0.011909 0.549160 2.115000 255 0 0
-0.006150 0.550199 2.119000 255 0 0
-0.000371 0.552017 2.126000 255 0 0
0.005440 0.553055 2.130000 255 0 0
0.011261 0.553574 2.132000 255 0 0
0.017086 0.553832 2.133000 255 0 0
0.022948 0.554869 2.137000 255 0 0
0.028805 0.555386 2.139000 255 0 0
0.034672 0.555903 2.141000 255 0 0
0.040494 0.555640 2.140000 255 0 0
0.046310 0.555377 2.139000 255 0 0
0.052145 0.555373 2.139000 255 0 0
0.057980 0.555368 2.139000 255 0 0
0.063725 0.554584 2.136000 255 0 0
0.069421 0.553540 2.132000 255 0 0
0.075166 0.553014 2.130000 255 0 0
0.080976 0.553008 2.130000 255 0 0
0.086785 0.553001 2.130000 255 0 0
0.092551 0.552733 2.129000 255 0 0
0.098357 0.552725 2.129000 255 0 0
0.104407 0.554015 2.134000 255 0 0
0.110433 0.555045 2.138000 255 0 0
0.116535 0.556333 2.143000 255 0 0
0.122607 0.557362 2.147000 255 0 0
0.128820 0.558909 2.153000 255 0 0
0.135315 0.561494 2.163000 255 0 0
-0.076988 0.632268 2.128441 0 255 0
-0.088176 0.635822 2.149011 0 255 0
-0.102052 0.639624 2.171417 0 255 0
-0.106181 0.642447 2.186705 0 255 0
-0.102318 0.644482 2.196231 0 255 0
-0.098454 0.646520 2.205760 0 255 0
-0.088352 0.647960 2.210877 0 255 0
-0.279670 0.559615 2.180000 255 0 0
-0.273110 0.558352 2.175000 255 0 0
-0.266822 0.557602 2.172000 255 0 0
-0.260790 0.557365 2.171000 255 0 0
-0.254529 0.556614 2.168000 255 0 0
-0.248397 0.556120 2.166000 255 0 0
-0.242164 0.555368 2.163000 255 0 0
-0.236056 0.554873 2.161000 255 0 0
-0.230065 0.554634 2.160000 255 0 0
-0.224183 0.554652 2.160000 255 0 0
-0.218603 0.555439 2.163000 255 0 0
-0.213105 0.556483 2.167000 255 0 0
-0.207202 0.556500 2.167000 255 0 0
-0.201020 0.555746 2.164000 255 0 0
-0.194764 0.554734 2.160000 255 0 0
-0.188529 0.553722 2.156000 255 0 0
-0.182315 0.552710 2.152000 255 0 0
-0.176204 0.551953 2.149000 255 0 0
-0.170348 0.551967 2.149000 255 0 0
-0.164261 0.551210 2.146000 255 0 0
-0.158338 0.550967 2.145000 255 0 0
-0.152278 0.550209 2.142000 255 0 0
-0.146028 0.548680 2.136000 255 0 0
-0.139745 0.546893 2.129000 255 0 0
-0.133815 0.546391 2.127000 255 0 0
-0.128377 0.547943 2.133000 255 0 0
-0.123078 0.550265 2.142000 255 0 0
-0.117675 0.552330 2.150000 255 0 0
-0.111916 0.552854 2.152000 255 0 0
-0.105948 0.552349 2.150000 255 0 0
-0.099992 0.551844 2.148000 255 0 0
-0.093958 0.550824 2.144000 255 0 0
-0.088151 0.551089 2.145000 255 0 0
-0.082224 0.550582 2.143000 255 0 0
-0.076343 0.550332 2.142000 255 0 0
-0.070434 0.549824 2.140000 255 0 0
-0.064626 0.550087 2.141000 255 0 0
-0.058786 0.550092 2.141000 255 0 0
-0.052945 0.550097 2.141000 255 0 0
-0.047126 0.550358 2.142000 255 0 0
-0.041301 0.550619 2.143000 255 0 0
-0.035438 0.550365 2.142000 255 0 0
-0.029525 0.549083 2.137000 255 0 0
-0.023584 0.546516 2.127000 255 0 0
-0.017705 0.544205 2.118000 255 0 0
-0.011904 0.543179 2.114000 255 0 0
-0.006148 0.544207 2.118000 255 0 0
-0.000370 0.545749 2.124000 255 0 0
0.005432 0.546520 2.127000 255 0 0
0.011241 0.546776 2.128000 255 0 0
0.017071 0.547546 2.131000 255 0 0
0.022928 0.548572 2.135000 255 0 0
0.028780 0.549084 2.137000 255 0 0
0.034627 0.549338 2.138000 255 0 0
0.040460 0.549335 2.138000 255 0 0
0.046292 0.549331 2.138000 255 0 0
0.052125 0.549327 2.138000 255 0 0
0.057904 0.548808 2.136000 255 0 0
0.063641 0.548032 2.133000 255 0 0
0.069297 0.546742 2.128000 255 0 0
0.075102 0.546736 2.128000 255 0 0
0.080944 0.546986 2.129000 255 0 0
0.086751 0.546979 2.129000 255 0 0
0.092471 0.546458 2.127000 255 0 0
0.098273 0.546450 2.127000 255 0 0
0.104269 0.547469 2.131000 255 0 0
0.110288 0.548488 2.135000 255 0 0
0.116218 0.548992 2.137000 255 0 0
0.122160 0.549496 2.139000 255 0 0
0.128292 0.550770 2.144000 255 0 0
0.134763 0.553328 2.154000 255 0 0
0.141223 0.555629 2.163000 255 0 0
-0.104181 0.629391 2.174195 0 255 0
-0.110971 0.632504 2.191387 0 255 0
-0.109778 0.634804 2.202808 0 255 0
-0.104139 0.636659 2.211055 0 255 0
-0.090484 0.637725 2.213649 0 255 0
-0.075919 0.638716 2.215675 0 255 0
-0.286278 0.554963 2.185000 255 0 0
-0.278665 0.551682 2.172000 255 0 0
-0.272251 0.550686 2.168000 255 0 0
-0.265859 0.549690 2.164000 255 0 0
-0.260089 0.549964 2.165000 255 0 0
-0.253843 0.549221 2.162000 255 0 0
-0.247843 0.548986 2.161000 255 0 0
-0.241623 0.548243 2.158000 255 0 0
-0.235856 0.548515 2.159000 255 0 0
-0.229977 0.548533 2.159000 255 0 0
-0.224200 0.548805 2.160000 255 0 0
-0.218620 0.549584 2.163000 255 0 0
-0.213024 0.550363 2.166000 255 0 0
-0.207027 0.550126 2.165000 255 0 0
-0.200757 0.549126 2.161000 255 0 0
-0.194599 0.548379 2.158000 255 0 0
-0.188456 0.547632 2.155000 255 0 0
-0.182329 0.546884 2.152000 255 0 0
-0.176465 0.546899 2.152000 255 0 0
-0.170520 0.546659 2.151000 255 0 0
-0.164351 0.545656 2.147000 255 0 0
-0.158277 0.544906 2.144000 255 0 0
-0.152219 0.544157 2.141000 255 0 0
-0.146040 0.542898 2.136000 255 0 0
-0.139823 0.541385 2.130000 255 0 0
-0.133826 0.540633 2.127000 255 0 0
-0.128207 0.541407 2.130000 255 0 0
-0.122858 0.543451 2.138000 255 0 0
-0.117575 0.546003 2.148000 255 0 0
-0.111977 0.547283 2.153000 255 0 0
-0.106105 0.547292 2.153000 255 0 0
-0.100140 0.546792 2.151000 255 0 0
-0.094141 0.546038 2.148000 255 0 0
-0.088241 0.545791 2.147000 255 0 0
-0.082307 0.545290 2.145000 255 0 0
-0.076492 0.545551 2.146000 255 0 0
-0.070604 0.545303 2.145000 255 0 0
-0.064662 0.544546 2.142000 255 0 0
-0.058791 0.544297 2.141000 255 0 0
-0.052850 0.543285 2.137000 255 0 0
-0.047042 0.543544 2.138000 255 0 0
-0.041209 0.543547 2.138000 255 0 0
-0.035325 0.542788 2.135000 255 0 0
-0.029417 0.541265 2.129000 255 0 0
-0.023508 0.538979 2.120000 255 0 0
-0.017682 0.537710 2.115000 255 0 0
-0.011894 0.536948 2.112000 255 0 0
-0.006149 0.538475 2.118000 255 0 0
-0.000370 0.539746 2.123000 255 0 0
0.005433 0.540763 2.127000 255 0 0
0.011242 0.541016 2.128000 255 0 0
0.017081 0.542032 2.132000 255 0 0
0.022919 0.542539 2.134000 255 0 0
0.028756 0.542791 2.135000 255 0 0
0.034597 0.543042 2.136000 255 0 0
0.040425 0.543039 2.136000 255 0 0
0.046275 0.543290 2.137000 255 0 0
0.052105 0.543286 2.137000 255 0 0
0.057854 0.542518 2.134000 255 0 0
0.063527 0.541242 2.129000 255 0 0
0.069205 0.540219 2.125000 255 0 0
0.075002 0.540213 2.125000 255 0 0
0.080875 0.540715 2.127000 255 0 0
0.086759 0.541217 2.129000 255 0 0
0.092479 0.540701 2.127000 255 0 0
0.098235 0.540439 2.126000 255 0 0
0.104131 0.540938 2.128000 255 0 0
0.110142 0.541946 2.132000 255 0 0
0.116065 0.542445 2.134000 255 0 0
0.122056 0.543198 2.137000 255 0 0
0.128123 0.544204 2.141000 255 0 0
0.134524 0.546481 2.150000 255 0 0
0.140778 0.547995 2.156000 255 0 0
0.147473 0.551033 2.168000 255 0 0
-0.053404 0.703909 2.237922 255 255 0
-0.086800 0.617113 2.162912 0 255 0
-0.106882 0.621654 2.189698 0 255 0
-0.116343 0.625065 2.208741 0 255 0
-0.119602 0.627824 2.223290 0 255 0
-0.097065 0.627944 2.219563 0 255 0
-0.083402 0.628990 2.222209 0 255 0
-0.075070 0.630589 2.228657 0 255 0
-0.285120 0.546785 2.176000 255 0 0
-0.278429 0.545298 2.170000 255 0 0
-0.272020 0.544314 2.166000 255 0 0
-0.265634 0.543329 2.162000 255 0 0
-0.259869 0.543600 2.163000 255 0 0
-0.253745 0.543116 2.161000 255 0 0
-0.247862 0.543135 2.161000 255 0 0
-0.241530 0.542149 2.157000 255 0 0
-0.235547 0.541916 2.156000 255 0 0
-0.229568 0.541682 2.155000 255 0 0
-0.224010 0.542454 2.158000 255 0 0
-0.218435 0.543225 2.161000 255 0 0
-0.212745 0.543745 2.163000 255 0 0
-0.206661 0.543259 2.161000 255 0 0
-0.200587 0.542772 2.159000 255 0 0
-0.194344 0.541782 2.155000 255 0 0
-0.188471 0.541798 2.155000 255 0 0
-0.182259 0.540807 2.151000 255 0 0
-0.176397 0.540821 2.151000 255 0 0
-0.170455 0.540584 2.150000 255 0 0
-0.164364 0.539843 2.147000 255 0 0
-0.158290 0.539102 2.144000 255 0 0
-0.152302 0.538612 2.142000 255 0 0
-0.146121 0.537367 2.137000 255 0 0
-0.139834 0.535618 2.130000 255 0 0
-0.133711 0.534372 2.125000 255 0 0
-0.127917 0.534383 2.125000 255 0 0
-0.122409 0.535651 2.130000 255 0 0
-0.117147 0.538176 2.140000 255 0 0
-0.111674 0.539946 2.147000 255 0 0
-0.105966 0.540709 2.150000 255 0 0
-0.100055 0.540466 2.149000 255 0 0
-0.094149 0.540223 2.148000 255 0 0
-0.088248 0.539979 2.147000 255 0 0
-0.082391 0.539986 2.147000 255 0 0
-0.076498 0.539742 2.146000 255 0 0
-0.070610 0.539496 2.145000 255 0 0
-0.064637 0.538496 2.141000 255 0 0
-0.058713 0.537747 2.138000 255 0 0
-0.052830 0.537248 2.136000 255 0 0
-0.047046 0.537756 2.138000 255 0 0
-0.041154 0.537005 2.135000 255 0 0
-0.035196 0.534996 2.127000 255 0 0
-0.029295 0.533238 2.120000 255 0 0
-0.023433 0.531480 2.113000 255 0 0
-0.017642 0.530727 2.110000 255 0 0
-0.011878 0.530476 2.109000 255 0 0
-0.006140 0.531986 2.115000 255 0 0
-0.000370 0.533747 2.122000 255 0 0
0.005433 0.535005 2.127000 255 0 0
0.011238 0.535004 2.127000 255 0 0
0.017082 0.536261 2.132000 255 0 0
0.022921 0.536762 2.134000 255 0 0
0.028758 0.537011 2.135000 255 0 0
0.034568 0.536757 2.134000 255 0 0
0.040410 0.537005 2.135000 255 0 0
0.046257 0.537253 2.136000 255 0 0
0.052061 0.536997 2.135000 255 0 0
0.057751 0.535735 2.130000 255 0 0
0.063503 0.535227 2.128000 255 0 0
0.069211 0.534467 2.125000 255 0 0
0.075044 0.534712 2.126000 255 0 0
0.080844 0.534706 2.126000 255 0 0
0.086725 0.535202 2.128000 255 0 0
0.092530 0.535194 2.128000 255 0 0
0.098289 0.534934 2.127000 255 0 0
0.104140 0.535178 2.128000 255 0 0
0.110048 0.535671 2.130000 255 0 0
0.115911 0.535914 2.131000 255 0 0
0.121895 0.536658 2.134000 255 0 0
0.127894 0.537402 2.137000 255 0 0
0.134285 0.539655 2.146000 255 0 0
0.140528 0.541152 2.152000 255 0 0
0.147008 0.543403 2.161000 255 0 0
0.153608 0.545906 2.171000 255 0 0
-0.081116 0.692184 2.218846 255 255 0
-0.075613 0.674488 2.106203 255 255 0
-0.069339 0.672784 2.097908 255 255 0
-0.110784 0.611623 2.193740 0 255 0
-0.136221 0.616770 2.224165 0 255 0
-0.129716 0.618504 2.231718 0 255 0
-0.110756 0.618936 2.230494 0 255 0
-0.091769 0.619389 2.229360 0 255 0
-0.086117 0.621246 2.237660 0 255 0
-0.292266 0.543109 2.185000 255 0 0
-0.285010 0.540645 2.175000 255 0 0
-0.278578 0.539671 2.171000 255 0 0
-0.272041 0.538449 2.166000 255 0 0
-0.265408 0.536977 2.160000 255 0 0
-0.259287 0.536500 2.158000 255 0 0
-0.253295 0.536270 2.157000 255 0 0
-0.247422 0.536289 2.157000 255 0 0
-0.241212 0.535562 2.154000 255 0 0
-0.235455 0.535829 2.155000 255 0 0
-0.229586 0.535847 2.155000 255 0 0
-0.223924 0.536362 2.157000 255 0 0
-0.218149 0.536628 2.158000 255 0 0
-0.212565 0.537391 2.161000 255 0 0
-0.206582 0.537159 2.160000 255 0 0
-0.200603 0.536926 2.159000 255 0 0
-0.194359 0.535947 2.155000 255 0 0
-0.188399 0.535714 2.154000 255 0 0
-0.182274 0.534983 2.151000 255 0 0
-0.176329 0.534748 2.150000 255 0 0
-0.170310 0.534265 2.148000 255 0 0
-0.164225 0.533532 2.145000 255 0 0
-0.158229 0.533048 2.143000 255 0 0
-0.152315 0.532812 2.142000 255 0 0
-0.146201 0.531829 2.138000 255 0 0
-0.139977 0.530349 2.132000 255 0 0
-0.133722 0.528619 2.125000 255 0 0
-0.127867 0.528381 2.124000 255 0 0
-0.122189 0.528889 2.126000 255 0 0
-0.116774 0.530640 2.133000 255 0 0
-0.111424 0.532889 2.142000 255 0 0
-0.105926 0.534639 2.149000 255 0 0
-0.100156 0.535145 2.151000 255 0 0
-0.094201 0.534656 2.149000 255 0 0
-0.088256 0.534166 2.147000 255 0 0
-0.082436 0.534422 2.148000 255 0 0
-0.076576 0.534429 2.148000 255 0 0
-0.070649 0.533937 2.146000 255 0 0
-0.064673 0.532948 2.142000 255 0 0
-0.058773 0.532456 2.140000 255 0 0
-0.052884 0.531963 2.138000 255 0 0
-0.047006 0.531469 2.136000 255 0 0
-0.041061 0.529980 2.130000 255 0 0
-0.035100 0.527744 2.121000 255 0 0
-0.029215 0.526005 2.114000 255 0 0
-0.023390 0.524763 2.109000 255 0 0
-0.017618 0.524267 2.107000 255 0 0
-0.011868 0.524269 2.107000 255 0 0
-0.006135 0.525762 2.113000 255 0 0
-0.000370 0.527255 2.119000 255 0 0
0.005424 0.528251 2.123000 255 0 0
0.011228 0.528747 2.125000 255 0 0
0.017051 0.529493 2.128000 255 0 0
0.022902 0.530486 2.132000 255 0 0
0.028734 0.530733 2.133000 255 0 0
0.034571 0.530979 2.134000 255 0 0
0.040413 0.531225 2.135000 255 0 0
0.046239 0.531221 2.135000 255 0 0
0.052041 0.530968 2.134000 255 0 0
0.057729 0.529719 2.129000 255 0 0
0.063568 0.529963 2.130000 255 0 0
0.069282 0.529211 2.127000 255 0 0
0.075085 0.529205 2.127000 255 0 0
0.080813 0.528700 2.125000 255 0 0
0.086651 0.528942 2.126000 255 0 0
0.092451 0.528935 2.126000 255 0 0
0.098344 0.529424 2.128000 255 0 0
0.104198 0.529665 2.129000 255 0 0
0.110057 0.529904 2.130000 255 0 0
0.115921 0.530144 2.131000 255 0 0
0.121791 0.530383 2.132000 255 0 0
0.127905 0.531616 2.137000 255 0 0
0.134108 0.533098 2.143000 255 0 0
0.140409 0.534828 2.150000 255 0 0
0.146816 0.536806 2.158000 255 0 0
0.153196 0.538535 2.165000 255 0 0
0.159981 0.541507 2.177000 255 0 0
-0.126143 0.679486 2.187159 255 255 0
-0.074777 0.671853 2.160096 255 255 0
-0.079466 0.667600 2.130544 255 255 0
-0.068890 0.666117 2.125505 255 255 0
-0.059188 0.664597 2.119850 255 255 0
-0.062372 0.662421 2.104361 255 255 0
-0.083546 0.659298 2.074963 255 255 0
-0.133602 0.601243 2.199100 0 255 0
-0.148373 0.605309 2.221912 0 255 0
-0.145429 0.607413 2.231968 0 255 0
-0.132717 0.608458 2.235092 0 255 0
-0.114656 0.608940 2.234504 0 255 0
-0.095072 0.614181 2.257417 0 255 0
-0.291618 0.535962 2.180000 255 0 0
-0.284769 0.534262 2.173000 255 0 0
-0.278727 0.534037 2.172000 255 0 0
-0.272187 0.532828 2.167000 255 0 0
-0.265673 0.531619 2.162000 255 0 0
-0.259427 0.530901 2.159000 255 0 0
-0.253314 0.530429 2.157000 255 0 0
-0.247555 0.530694 2.158000 255 0 0
-0.241455 0.530221 2.156000 255 0 0
-0.235583 0.530239 2.156000 255 0 0
-0.229497 0.529765 2.154000 255 0 0
-0.223630 0.529783 2.154000 255 0 0
-0.217863 0.530046 2.155000 255 0 0
-0.212287 0.530801 2.158000 255 0 0
-0.206311 0.530571 2.157000 255 0 0
-0.200341 0.530342 2.156000 255 0 0
-0.194104 0.529373 2.152000 255 0 0
-0.188239 0.529389 2.152000 255 0 0
-0.182204 0.528912 2.150000 255 0 0
-0.176097 0.528188 2.147000 255 0 0
-0.170006 0.527464 2.144000 255 0 0
-0.164008 0.526986 2.142000 255 0 0
-0.158168 0.526999 2.142000 255 0 0
-0.152327 0.527011 2.142000 255 0 0
-0.146281 0.526286 2.139000 255 0 0
-0.139988 0.524575 2.132000 255 0 0
-0.133733 0.522864 2.125000 255 0 0
-0.127817 0.522383 2.123000 255 0 0
-0.122027 0.522393 2.123000 255 0 0
-0.116400 0.523141 2.126000 255 0 0
-0.110965 0.524873 2.133000 255 0 0
