ply
format ascii 1.0
element vertex 1301
property double x
property double y
property double z
property uchar red
property uchar green
property uchar blue
end_header
-0.139189 -0.204138 2.203000 255 0 0
-0.133763 -0.205071 2.213000 255 0 0
-0.128108 -0.205725 2.220000 255 0 0
-0.122359 -0.206287 2.226000 255 0 0
-0.116734 -0.207127 2.235000 255 0 0
-0.111158 -0.208151 2.246000 255 0 0
-0.058269 -0.217455 2.346000 255 0 0
-0.051708 -0.216902 2.340000 255 0 0
-0.045199 -0.216440 2.335000 255 0 0
-0.038751 -0.216164 2.332000 255 0 0
-0.032292 -0.215702 2.327000 255 0 0
-0.025804 -0.214777 2.317000 255 0 0
-0.019353 -0.213665 2.305000 255 0 0
-0.013003 -0.213110 2.299000 255 0 0
-0.006694 -0.212832 2.296000 255 0 0
-0.000402 -0.212740 2.295000 255 0 0
0.005885 -0.212647 2.294000 255 0 0
0.012150 -0.212276 2.290000 255 0 0
0.018434 -0.212368 2.291000 255 0 0
0.024722 -0.212460 2.292000 255 0 0
0.031017 -0.212551 2.293000 255 0 0
0.037268 -0.212364 2.291000 255 0 0
0.043488 -0.212084 2.288000 255 0 0
0.049801 -0.212267 2.290000 255 0 0
0.056100 -0.212357 2.291000 255 0 0
0.062268 -0.211984 2.287000 255 0 0
0.068654 -0.212352 2.291000 255 0 0
0.075389 -0.213646 2.305000 255 0 0
-0.253128 -0.214676 2.252000 255 0 0
-0.244564 -0.212590 2.230000 255 0 0
-0.237723 -0.211933 2.223000 255 0 0
-0.230294 -0.210704 2.210000 255 0 0
-0.223240 -0.209761 2.200000 255 0 0
-0.216338 -0.208913 2.191000 255 0 0
-0.210253 -0.208827 2.190000 255 0 0
-0.204266 -0.208836 2.190000 255 0 0
-0.198459 -0.209036 2.192000 255 0 0
-0.192202 -0.208759 2.189000 255 0 0
-0.185705 -0.208195 2.183000 255 0 0
-0.179322 -0.207727 2.178000 255 0 0
-0.173683 -0.208116 2.182000 255 0 0
-0.168021 -0.208506 2.186000 255 0 0
-0.162410 -0.208990 2.191000 255 0 0
-0.156272 -0.208807 2.189000 255 0 0
-0.150487 -0.209100 2.192000 255 0 0
-0.144620 -0.209298 2.194000 255 0 0
-0.139056 -0.209972 2.201000 255 0 0
-0.133333 -0.210456 2.206000 255 0 0
-0.127756 -0.211225 2.214000 255 0 0
-0.122024 -0.211803 2.220000 255 0 0
-0.116624 -0.213049 2.233000 255 0 0
-0.111648 -0.215249 2.256000 255 0 0
-0.058142 -0.223396 2.341000 255 0 0
-0.051639 -0.223017 2.337000 255 0 0
-0.045197 -0.222828 2.335000 255 0 0
-0.038799 -0.222830 2.335000 255 0 0
-0.032235 -0.221687 2.323000 255 0 0
-0.025702 -0.220257 2.308000 255 0 0
-0.019285 -0.219208 2.297000 255 0 0
-0.012968 -0.218827 2.293000 255 0 0
-0.006691 -0.219019 2.295000 255 0 0
-0.000402 -0.219305 2.298000 255 0 0
0.005908 -0.219782 2.303000 255 0 0
0.012197 -0.219400 2.299000 255 0 0
0.018481 -0.219208 2.297000 255 0 0
0.024754 -0.219016 2.295000 255 0 0
0.031042 -0.219015 2.295000 255 0 0
0.037315 -0.218918 2.294000 255 0 0
0.043543 -0.218630 2.291000 255 0 0
0.049821 -0.218628 2.291000 255 0 0
0.056122 -0.218720 2.292000 255 0 0
0.062293 -0.218336 2.288000 255 0 0
0.068501 -0.218142 2.286000 255 0 0
0.075156 -0.219284 2.298000 255 0 0
-0.252218 -0.220046 2.244000 255 0 0
-0.244553 -0.218684 2.230000 255 0 0
-0.237712 -0.218009 2.223000 255 0 0
-0.230180 -0.216647 2.209000 255 0 0
-0.223230 -0.215774 2.200000 255 0 0
-0.216724 -0.215294 2.195000 255 0 0
-0.210724 -0.215304 2.195000 255 0 0
-0.204257 -0.214823 2.190000 255 0 0
-0.197998 -0.214538 2.187000 255 0 0
-0.191842 -0.214351 2.185000 255 0 0
-0.185696 -0.214164 2.183000 255 0 0
-0.179479 -0.213878 2.180000 255 0 0
-0.173834 -0.214279 2.184000 255 0 0
-0.167936 -0.214385 2.185000 255 0 0
-0.162254 -0.214785 2.189000 255 0 0
-0.156122 -0.214596 2.187000 255 0 0
-0.150549 -0.215192 2.193000 255 0 0
-0.144679 -0.215396 2.195000 255 0 0
-0.139050 -0.215991 2.201000 255 0 0
-0.133085 -0.216096 2.202000 255 0 0
-0.127519 -0.216887 2.210000 255 0 0
-0.121908 -0.217678 2.218000 255 0 0
-0.116566 -0.219058 2.232000 255 0 0
-0.065049 -0.231564 2.359000 255 0 0
-0.058238 -0.230192 2.345000 255 0 0
-0.051659 -0.229508 2.338000 255 0 0
-0.045195 -0.229216 2.335000 255 0 0
-0.038664 -0.228432 2.327000 255 0 0
-0.032108 -0.227158 2.314000 255 0 0
-0.025623 -0.225883 2.301000 255 0 0
-0.019301 -0.225688 2.299000 255 0 0
-0.013002 -0.225689 2.299000 255 0 0
-0.006714 -0.226082 2.303000 255 0 0
-0.000404 -0.226278 2.305000 255 0 0
0.005918 -0.226475 2.307000 255 0 0
0.012207 -0.225885 2.301000 255 0 0
0.018496 -0.225688 2.299000 255 0 0
0.024785 -0.225589 2.298000 255 0 0
0.031108 -0.225784 2.300000 255 0 0
0.037362 -0.225488 2.297000 255 0 0
0.043617 -0.225289 2.295000 255 0 0
0.049840 -0.224993 2.292000 255 0 0
0.056119 -0.224990 2.292000 255 0 0
0.062263 -0.224496 2.287000 255 0 0
0.068348 -0.223904 2.281000 255 0 0
-0.251082 -0.225170 2.234000 255 0 0
-0.243993 -0.224274 2.225000 255 0 0
-0.237487 -0.223882 2.221000 255 0 0
-0.230377 -0.222885 2.211000 255 0 0
-0.223727 -0.222291 2.205000 255 0 0
-0.217405 -0.221999 2.202000 255 0 0
-0.211194 -0.221807 2.200000 255 0 0
-0.204714 -0.221313 2.195000 255 0 0
-0.198260 -0.220818 2.190000 255 0 0
-0.191833 -0.220324 2.185000 255 0 0
-0.185602 -0.220030 2.182000 255 0 0
-0.179470 -0.219837 2.180000 255 0 0
-0.173746 -0.220148 2.183000 255 0 0
-0.167620 -0.219955 2.181000 255 0 0
-0.161950 -0.220366 2.185000 255 0 0
-0.156114 -0.220576 2.187000 255 0 0
-0.150541 -0.221188 2.193000 255 0 0
-0.144804 -0.221599 2.197000 255 0 0
-0.139296 -0.222413 2.205000 255 0 0
-0.133502 -0.222823 2.209000 255 0 0
-0.127743 -0.223334 2.214000 255 0 0
-0.122012 -0.223945 2.220000 255 0 0
-0.116404 -0.224859 2.229000 255 0 0
-0.058186 -0.236404 2.343000 255 0 0
-0.051789 -0.236508 2.344000 255 0 0
-0.045270 -0.236006 2.339000 255 0 0
-0.038646 -0.234696 2.326000 255 0 0
-0.032037 -0.232982 2.309000 255 0 0
-0.025655 -0.232479 2.304000 255 0 0
-0.019359 -0.232682 2.306000 255 0 0
-0.013046 -0.232784 2.307000 255 0 0
-0.006719 -0.232583 2.305000 255 0 0
-0.000404 -0.232583 2.305000 255 0 0
0.005917 -0.232785 2.307000 255 0 0
0.012223 -0.232481 2.304000 255 0 0
0.018535 -0.232481 2.304000 255 0 0
0.024848 -0.232480 2.304000 255 0 0
0.031175 -0.232579 2.305000 255 0 0
0.037409 -0.232073 2.300000 255 0 0
0.043634 -0.231667 2.296000 255 0 0
0.049859 -0.231362 2.293000 255 0 0
0.056190 -0.231561 2.295000 255 0 0
0.062341 -0.231054 2.290000 255 0 0
0.068435 -0.230445 2.284000 255 0 0
-0.244091 -0.230457 2.226000 255 0 0
-0.237797 -0.230261 2.224000 255 0 0
-0.231096 -0.229651 2.218000 255 0 0
-0.224325 -0.228937 2.211000 255 0 0
-0.217592 -0.228223 2.204000 255 0 0
-0.211184 -0.227819 2.200000 255 0 0
-0.204611 -0.227208 2.194000 255 0 0
-0.198069 -0.226597 2.188000 255 0 0
-0.191911 -0.226399 2.186000 255 0 0
-0.185849 -0.226305 2.185000 255 0 0
-0.179791 -0.226210 2.184000 255 0 0
-0.173897 -0.226322 2.185000 255 0 0
-0.167535 -0.225813 2.180000 255 0 0
-0.161868 -0.226235 2.184000 255 0 0
-0.156035 -0.226451 2.186000 255 0 0
-0.150465 -0.227080 2.192000 255 0 0
-0.144599 -0.227294 2.194000 255 0 0
-0.139099 -0.228130 2.202000 255 0 0
-0.133495 -0.228862 2.209000 255 0 0
-0.127910 -0.229698 2.217000 255 0 0
-0.122446 -0.230844 2.228000 255 0 0
-0.116868 -0.231886 2.238000 255 0 0
-0.052007 -0.243954 2.354000 255 0 0
-0.045345 -0.242817 2.343000 255 0 0
-0.038677 -0.241264 2.328000 255 0 0
-0.032119 -0.239919 2.315000 255 0 0
-0.025810 -0.240231 2.318000 255 0 0
-0.019467 -0.240336 2.319000 255 0 0
-0.013091 -0.239922 2.315000 255 0 0
-0.006731 -0.239301 2.309000 255 0 0
-0.000404 -0.238887 2.305000 255 0 0
0.005904 -0.238575 2.302000 255 0 0
0.012190 -0.238160 2.298000 255 0 0
0.018502 -0.238367 2.300000 255 0 0
0.024825 -0.238573 2.302000 255 0 0
0.031159 -0.238779 2.304000 255 0 0
0.037439 -0.238570 2.302000 255 0 0
0.043670 -0.238153 2.298000 255 0 0
0.049922 -0.237944 2.296000 255 0 0
0.056163 -0.237734 2.294000 255 0 0
0.062501 -0.237938 2.296000 255 0 0
0.067952 -0.235033 2.268000 255 0 0
-0.243970 -0.236432 2.225000 255 0 0
-0.237785 -0.236337 2.224000 255 0 0
-0.231397 -0.236030 2.221000 255 0 0
-0.224618 -0.235297 2.214000 255 0 0
-0.217877 -0.234564 2.207000 255 0 0
-0.211461 -0.234150 2.203000 255 0 0
-0.204973 -0.233629 2.198000 255 0 0
-0.198603 -0.233213 2.194000 255 0 0
-0.192253 -0.232798 2.190000 255 0 0
-0.186009 -0.232489 2.187000 255 0 0
-0.179699 -0.232073 2.183000 255 0 0
-0.173729 -0.232081 2.183000 255 0 0
-0.167527 -0.231771 2.180000 255 0 0
-0.161860 -0.232205 2.184000 255 0 0
-0.156170 -0.232638 2.188000 255 0 0
-0.150526 -0.233178 2.193000 255 0 0
-0.144723 -0.233504 2.196000 255 0 0
-0.139282 -0.234468 2.205000 255 0 0
-0.133912 -0.235645 2.216000 255 0 0
-0.128308 -0.236503 2.224000 255 0 0
-0.122879 -0.237785 2.236000 255 0 0
-0.117541 -0.239387 2.251000 255 0 0
-0.052115 -0.250922 2.359000 255 0 0
-0.045459 -0.249861 2.349000 255 0 0
-0.038891 -0.249012 2.341000 255 0 0
-0.032325 -0.247844 2.330000 255 0 0
-0.025964 -0.248058 2.332000 255 0 0
-0.019525 -0.247421 2.326000 255 0 0
-0.013113 -0.246678 2.319000 255 0 0
-0.006736 -0.245827 2.311000 255 0 0
-0.000404 -0.245189 2.305000 255 0 0
0.005906 -0.244976 2.303000 255 0 0
0.012200 -0.244657 2.300000 255 0 0
0.018517 -0.244869 2.302000 255 0 0
0.024846 -0.245080 2.304000 255 0 0
0.031171 -0.245185 2.305000 255 0 0
0.037486 -0.245183 2.305000 255 0 0
0.043782 -0.245075 2.304000 255 0 0
0.050071 -0.244966 2.303000 255 0 0
0.056307 -0.244644 2.300000 255 0 0
0.062634 -0.244747 2.301000 255 0 0
-0.254417 -0.246748 2.264000 255 0 0
-0.244068 -0.242618 2.226000 255 0 0
-0.237774 -0.242412 2.224000 255 0 0
-0.231281 -0.241988 2.220000 255 0 0
-0.224404 -0.241128 2.212000 255 0 0
-0.217866 -0.240594 2.207000 255 0 0
-0.211739 -0.240495 2.206000 255 0 0
-0.205243 -0.239961 2.201000 255 0 0
-0.198774 -0.239426 2.196000 255 0 0
-0.192331 -0.238891 2.191000 255 0 0
-0.186255 -0.238792 2.190000 255 0 0
-0.179773 -0.238147 2.184000 255 0 0
-0.173879 -0.238265 2.185000 255 0 0
-0.167903 -0.238274 2.185000 255 0 0
-0.162370 -0.238937 2.191000 255 0 0
-0.156447 -0.239054 2.192000 255 0 0
-0.150656 -0.239389 2.195000 255 0 0
-0.144913 -0.239833 2.199000 255 0 0
-0.139338 -0.240604 2.206000 255 0 0
-0.133844 -0.241593 2.215000 255 0 0
-0.128474 -0.242909 2.227000 255 0 0
-0.123312 -0.244769 2.244000 255 0 0
-0.118109 -0.246739 2.262000 255 0 0
-0.052200 -0.257808 2.363000 255 0 0
-0.045534 -0.256719 2.353000 255 0 0
-0.038956 -0.255849 2.345000 255 0 0
-0.032434 -0.255087 2.338000 255 0 0
-0.026030 -0.255089 2.338000 255 0 0
-0.019532 -0.253890 2.327000 255 0 0
-0.013118 -0.253127 2.320000 255 0 0
-0.006739 -0.252254 2.312000 255 0 0
-0.000404 -0.251709 2.307000 255 0 0
0.005904 -0.251163 2.302000 255 0 0
0.012199 -0.250945 2.300000 255 0 0
0.018524 -0.251271 2.303000 255 0 0
0.024844 -0.251379 2.304000 255 0 0
0.031183 -0.251596 2.306000 255 0 0
0.037517 -0.251703 2.307000 255 0 0
0.043874 -0.251919 2.309000 255 0 0
0.050243 -0.252135 2.311000 255 0 0
0.056524 -0.251914 2.309000 255 0 0
0.062903 -0.252129 2.311000 255 0 0
-0.244604 -0.249257 2.231000 255 0 0
-0.237869 -0.248598 2.225000 255 0 0
-0.231270 -0.248052 2.220000 255 0 0
-0.224089 -0.246834 2.209000 255 0 0
-0.217460 -0.246175 2.203000 255 0 0
-0.211248 -0.245963 2.201000 255 0 0
-0.204859 -0.245526 2.197000 255 0 0
-0.198492 -0.245090 2.193000 255 0 0
-0.191794 -0.244206 2.185000 255 0 0
-0.185735 -0.244104 2.184000 255 0 0
-0.179681 -0.244002 2.183000 255 0 0
-0.174109 -0.244570 2.188000 255 0 0
-0.168124 -0.244579 2.188000 255 0 0
-0.162288 -0.244811 2.190000 255 0 0
-0.156439 -0.245043 2.192000 255 0 0
-0.150923 -0.245834 2.199000 255 0 0
-0.145367 -0.246625 2.206000 255 0 0
-0.139836 -0.247527 2.214000 255 0 0
-0.134139 -0.248205 2.220000 255 0 0
-0.128813 -0.249665 2.233000 255 0 0
-0.123580 -0.251461 2.249000 255 0 0
-0.118468 -0.253704 2.269000 255 0 0
-0.052330 -0.264938 2.369000 255 0 0
-0.045686 -0.264046 2.361000 255 0 0
-0.039136 -0.263489 2.356000 255 0 0
-0.032585 -0.262708 2.349000 255 0 0
-0.026106 -0.262262 2.345000 255 0 0
-0.019540 -0.260362 2.328000 255 0 0
-0.013117 -0.259468 2.320000 255 0 0
-0.006744 -0.258798 2.314000 255 0 0
-0.000405 -0.258574 2.312000 255 0 0
0.005916 -0.258015 2.307000 255 0 0
0.012220 -0.257679 2.304000 255 0 0
0.018548 -0.257902 2.306000 255 0 0
0.024875 -0.258013 2.307000 255 0 0
0.031222 -0.258235 2.309000 255 0 0
0.037563 -0.258345 2.310000 255 0 0
0.043929 -0.258566 2.312000 255 0 0
0.050305 -0.258787 2.314000 255 0 0
0.056717 -0.259120 2.317000 255 0 0
0.063172 -0.259564 2.321000 255 0 0
-0.243933 -0.254662 2.225000 255 0 0
-0.237429 -0.254217 2.221000 255 0 0
-0.231049 -0.253886 2.218000 255 0 0
-0.223671 -0.252409 2.205000 255 0 0
-0.217054 -0.251734 2.199000 255 0 0
-0.210469 -0.251058 2.193000 255 0 0
-0.204289 -0.250840 2.191000 255 0 0
-0.197848 -0.250279 2.186000 255 0 0
-0.191433 -0.249716 2.181000 255 0 0
-0.185470 -0.249727 2.181000 255 0 0
-0.179589 -0.249851 2.182000 255 0 0
-0.174179 -0.250662 2.189000 255 0 0
-0.168269 -0.250786 2.190000 255 0 0
-0.162501 -0.251138 2.193000 255 0 0
-0.156574 -0.251261 2.194000 255 0 0
-0.151052 -0.252071 2.201000 255 0 0
-0.145425 -0.252766 2.207000 255 0 0
-0.139828 -0.253576 2.214000 255 0 0
-0.133951 -0.253927 2.217000 255 0 0
-0.128633 -0.255423 2.230000 255 0 0
-0.123464 -0.257377 2.247000 255 0 0
-0.118514 -0.260019 2.270000 255 0 0
-0.052416 -0.271870 2.373000 255 0 0
-0.045800 -0.271186 2.367000 255 0 0
-0.039167 -0.270157 2.358000 255 0 0
-0.032625 -0.269472 2.352000 255 0 0
-0.026071 -0.268328 2.342000 255 0 0
-0.019555 -0.266954 2.330000 255 0 0
-0.013133 -0.266153 2.323000 255 0 0
-0.006761 -0.265810 2.320000 255 0 0
-0.000406 -0.265466 2.317000 255 0 0
0.005918 -0.264435 2.308000 255 0 0
0.012209 -0.263747 2.302000 255 0 0
0.018547 -0.264204 2.306000 255 0 0
0.024885 -0.264432 2.308000 255 0 0
0.031261 -0.264889 2.312000 255 0 0
0.037610 -0.265002 2.313000 255 0 0
0.043964 -0.265114 2.314000 255 0 0
0.050324 -0.265226 2.315000 255 0 0
0.056714 -0.265452 2.317000 255 0 0
0.063277 -0.266365 2.325000 255 0 0
-0.243592 -0.260385 2.222000 255 0 0
-0.237309 -0.260164 2.220000 255 0 0
-0.230725 -0.259590 2.215000 255 0 0
-0.223558 -0.258313 2.204000 255 0 0
-0.216845 -0.257504 2.197000 255 0 0
-0.210458 -0.257047 2.193000 255 0 0
-0.203905 -0.256355 2.187000 255 0 0
-0.197475 -0.255780 2.182000 255 0 0
-0.191072 -0.255204 2.177000 255 0 0
-0.185375 -0.255566 2.180000 255 0 0
-0.179497 -0.255693 2.181000 255 0 0
-0.173931 -0.256289 2.186000 255 0 0
-0.167953 -0.256299 2.186000 255 0 0
-0.162196 -0.256659 2.189000 255 0 0
-0.156351 -0.256903 2.191000 255 0 0
-0.150906 -0.257849 2.199000 255 0 0
-0.145219 -0.258444 2.204000 255 0 0
-0.139820 -0.259624 2.214000 255 0 0
-0.134185 -0.260453 2.221000 255 0 0
-0.128741 -0.261750 2.232000 255 0 0
-0.123567 -0.263751 2.249000 255 0 0
-0.118455 -0.266103 2.269000 255 0 0
-0.052413 -0.278355 2.373000 255 0 0
-0.045855 -0.278006 2.370000 255 0 0
-0.039231 -0.277070 2.362000 255 0 0
-0.032693 -0.276485 2.357000 255 0 0
-0.026125 -0.275314 2.347000 255 0 0
-0.019605 -0.274025 2.336000 255 0 0
-0.013161 -0.273087 2.328000 255 0 0
-0.006781 -0.272971 2.327000 255 0 0
-0.000406 -0.272267 2.321000 255 0 0
0.005933 -0.271446 2.314000 255 0 0
0.012245 -0.270859 2.309000 255 0 0
0.018570 -0.270858 2.309000 255 0 0
0.024894 -0.270856 2.309000 255 0 0
0.031286 -0.271441 2.314000 255 0 0
0.037705 -0.272026 2.319000 255 0 0
0.044152 -0.272610 2.324000 255 0 0
0.050408 -0.272021 2.319000 255 0 0
0.056710 -0.271783 2.317000 255 0 0
0.063029 -0.271663 2.316000 255 0 0
-0.242702 -0.265492 2.214000 255 0 0
-0.236335 -0.265145 2.211000 255 0 0
-0.229671 -0.264438 2.205000 255 0 0
-0.222937 -0.263611 2.198000 255 0 0
-0.216735 -0.263383 2.196000 255 0 0
-0.210543 -0.263155 2.194000 255 0 0
-0.203988 -0.262447 2.188000 255 0 0
-0.197555 -0.261858 2.183000 255 0 0
-0.191412 -0.261629 2.181000 255 0 0
-0.185620 -0.261879 2.183000 255 0 0
-0.179487 -0.261649 2.181000 255 0 0
-0.173762 -0.262019 2.184000 255 0 0
-0.167943 -0.262269 2.186000 255 0 0
-0.162261 -0.262758 2.190000 255 0 0
-0.156628 -0.263367 2.195000 255 0 0
-0.151172 -0.264335 2.203000 255 0 0
-0.145607 -0.265184 2.210000 255 0 0
-0.140065 -0.266152 2.218000 255 0 0
-0.134661 -0.267479 2.229000 255 0 0
-0.129080 -0.268567 2.238000 255 0 0
-0.123670 -0.270134 2.251000 255 0 0
-0.118448 -0.272301 2.269000 255 0 0
-0.052078 -0.283038 2.358000 255 0 0
-0.045795 -0.284121 2.367000 255 0 0
-0.039146 -0.282923 2.357000 255 0 0
-0.032635 -0.282445 2.353000 255 0 0
-0.026024 -0.280646 2.338000 255 0 0
-0.019561 -0.279807 2.331000 255 0 0
-0.013166 -0.279568 2.329000 255 0 0
-0.006778 -0.279208 2.326000 255 0 0
-0.000406 -0.278488 2.320000 255 0 0
0.005933 -0.277768 2.314000 255 0 0
0.012255 -0.277407 2.311000 255 0 0
0.018601 -0.277647 2.313000 255 0 0
0.024925 -0.277525 2.312000 255 0 0
0.031338 -0.278244 2.318000 255 0 0
0.037752 -0.278722 2.322000 255 0 0
0.044206 -0.279320 2.327000 255 0 0
0.050471 -0.278717 2.322000 255 0 0
0.056707 -0.278114 2.317000 255 0 0
0.063107 -0.278350 2.319000 255 0 0
-0.243346 -0.272271 2.220000 255 0 0
-0.236429 -0.271303 2.212000 255 0 0
-0.229554 -0.270335 2.204000 255 0 0
-0.222722 -0.269366 2.196000 255 0 0
-0.216526 -0.269133 2.194000 255 0 0
-0.210723 -0.269390 2.196000 255 0 0
-0.204163 -0.268665 2.190000 255 0 0
-0.197815 -0.268186 2.186000 255 0 0
-0.191577 -0.267829 2.183000 255 0 0
-0.185695 -0.267962 2.184000 255 0 0
-0.179888 -0.268218 2.186000 255 0 0
-0.174071 -0.268473 2.188000 255 0 0
-0.168472 -0.269097 2.193000 255 0 0
-0.162622 -0.269352 2.195000 255 0 0
-0.156690 -0.269483 2.196000 255 0 0
-0.150958 -0.269983 2.200000 255 0 0
-0.145401 -0.270851 2.207000 255 0 0
-0.140183 -0.272454 2.220000 255 0 0
-0.135015 -0.274303 2.235000 255 0 0
-0.129419 -0.275416 2.244000 255 0 0
-0.123937 -0.276896 2.256000 255 0 0
-0.118494 -0.278621 2.270000 255 0 0
-0.045753 -0.290341 2.365000 255 0 0
-0.039227 -0.289975 2.362000 255 0 0
-0.032647 -0.288995 2.354000 255 0 0
-0.026089 -0.287769 2.344000 255 0 0
-0.019594 -0.286666 2.335000 255 0 0
-0.013188 -0.286421 2.333000 255 0 0
-0.006780 -0.285685 2.327000 255 0 0
-0.000406 -0.285072 2.322000 255 0 0
0.005948 -0.284826 2.320000 255 0 0
0.012302 -0.284825 2.320000 255 0 0
0.018640 -0.284579 2.318000 255 0 0
0.024967 -0.284332 2.316000 255 0 0
0.031377 -0.284944 2.321000 255 0 0
0.037782 -0.285310 2.324000 255 0 0
0.044242 -0.285922 2.329000 255 0 0
0.050555 -0.285551 2.326000 255 0 0
0.056998 -0.285916 2.329000 255 0 0
-0.242785 -0.277703 2.215000 255 0 0
-0.235881 -0.276713 2.207000 255 0 0
-0.229645 -0.276475 2.205000 255 0 0
-0.222811 -0.275485 2.197000 255 0 0
-0.216612 -0.275247 2.195000 255 0 0
-0.210327 -0.274882 2.192000 255 0 0
-0.204151 -0.274643 2.190000 255 0 0
-0.197804 -0.274153 2.186000 255 0 0
-0.191654 -0.273914 2.184000 255 0 0
-0.185684 -0.273924 2.184000 255 0 0
-0.179878 -0.274186 2.186000 255 0 0
-0.174140 -0.274572 2.189000 255 0 0
-0.168462 -0.275084 2.193000 255 0 0
-0.162835 -0.275721 2.198000 255 0 0
-0.157395 -0.276734 2.206000 255 0 0
-0.151567 -0.277119 2.209000 255 0 0
-0.145787 -0.277630 2.213000 255 0 0
-0.140175 -0.278516 2.220000 255 0 0
-0.135008 -0.280406 2.235000 255 0 0
-0.129411 -0.281543 2.244000 255 0 0
-0.124040 -0.283307 2.258000 255 0 0
-0.119165 -0.286451 2.283000 255 0 0
-0.045983 -0.298306 2.377000 255 0 0
-0.039357 -0.297431 2.370000 255 0 0
-0.032756 -0.296429 2.362000 255 0 0
-0.026154 -0.294924 2.350000 255 0 0
-0.019643 -0.293796 2.341000 255 0 0
-0.013226 -0.293672 2.340000 255 0 0
-0.006789 -0.292417 2.330000 255 0 0
-0.000407 -0.292041 2.327000 255 0 0
0.005963 -0.291916 2.326000 255 0 0
0.012317 -0.291538 2.323000 255 0 0
0.018671 -0.291412 2.322000 255 0 0
0.025008 -0.291160 2.320000 255 0 0
0.031443 -0.291911 2.326000 255 0 0
0.037845 -0.292160 2.328000 255 0 0
0.044315 -0.292785 2.333000 255 0 0
0.050769 -0.293159 2.336000 255 0 0
0.057410 -0.294410 2.346000 255 0 0
0.064460 -0.297293 2.369000 255 0 0
-0.243319 -0.284387 2.220000 255 0 0
-0.236402 -0.283376 2.212000 255 0 0
-0.230257 -0.283261 2.211000 255 0 0
-0.223204 -0.281993 2.201000 255 0 0
-0.216797 -0.281493 2.197000 255 0 0
-0.210411 -0.280993 2.193000 255 0 0
-0.204233 -0.280749 2.191000 255 0 0
-0.197974 -0.280376 2.188000 255 0 0
-0.191643 -0.279875 2.184000 255 0 0
-0.185673 -0.279886 2.184000 255 0 0
-0.179785 -0.280025 2.185000 255 0 0
-0.174130 -0.280548 2.189000 255 0 0
-0.168529 -0.281199 2.194000 255 0 0
-0.163048 -0.282106 2.201000 255 0 0
-0.157314 -0.282628 2.205000 255 0 0
-0.151283 -0.282637 2.205000 255 0 0
-0.145647 -0.283415 2.211000 255 0 0
-0.140293 -0.284833 2.222000 255 0 0
-0.135181 -0.286893 2.238000 255 0 0
-0.129634 -0.288183 2.248000 255 0 0
-0.124417 -0.290370 2.265000 255 0 0
-0.046270 -0.306721 2.392000 255 0 0
-0.039654 -0.306211 2.388000 255 0 0
-0.032962 -0.304802 2.377000 255 0 0
-0.026320 -0.303265 2.365000 255 0 0
-0.019734 -0.301600 2.352000 255 0 0
-0.013259 -0.300831 2.346000 255 0 0
-0.006818 -0.300063 2.340000 255 0 0
-0.000409 -0.299678 2.337000 255 0 0
0.005988 -0.299550 2.336000 255 0 0
0.012375 -0.299293 2.334000 255 0 0
0.018742 -0.298907 2.331000 255 0 0
0.025071 -0.298265 2.326000 255 0 0
0.031509 -0.298904 2.331000 255 0 0
0.037989 -0.299671 2.337000 255 0 0
0.044616 -0.301207 2.349000 255 0 0
0.051157 -0.301846 2.354000 255 0 0
0.057921 -0.303509 2.367000 255 0 0
-0.254196 -0.296055 2.263000 255 0 0
-0.244401 -0.291752 2.230000 255 0 0
-0.237564 -0.290850 2.223000 255 0 0
-0.231077 -0.290341 2.219000 255 0 0
-0.224104 -0.289176 2.210000 255 0 0
-0.217278 -0.288142 2.202000 255 0 0
-0.210207 -0.286715 2.191000 255 0 0
-0.203755 -0.286073 2.186000 255 0 0
-0.197691 -0.285954 2.185000 255 0 0
-0.191895 -0.286227 2.187000 255 0 0
-0.185917 -0.286239 2.187000 255 0 0
-0.179692 -0.285857 2.184000 255 0 0
-0.173722 -0.285867 2.184000 255 0 0
-0.168135 -0.286532 2.189000 255 0 0
-0.162816 -0.287720 2.198000 255 0 0
-0.157233 -0.288515 2.204000 255 0 0
-0.151343 -0.288786 2.206000 255 0 0
-0.145704 -0.289581 2.212000 255 0 0
-0.140411 -0.291161 2.224000 255 0 0
-0.135414 -0.293525 2.242000 255 0 0
-0.130203 -0.295628 2.258000 255 0 0
-0.125398 -0.298909 2.283000 255 0 0
-0.053059 -0.314689 2.403000 255 0 0
-0.046209 -0.312859 2.389000 255 0 0
-0.039734 -0.313385 2.393000 255 0 0
-0.033113 -0.312733 2.388000 255 0 0
-0.026474 -0.311556 2.379000 255 0 0
-0.019800 -0.309069 2.360000 255 0 0
-0.013264 -0.307368 2.347000 255 0 0
-0.006826 -0.306845 2.343000 255 0 0
-0.000409 -0.306190 2.338000 255 0 0
0.005988 -0.305928 2.336000 255 0 0
0.012374 -0.305665 2.334000 255 0 0
0.018741 -0.305272 2.331000 255 0 0
0.025081 -0.304746 2.327000 255 0 0
0.031480 -0.305006 2.329000 255 0 0
0.038052 -0.306576 2.341000 255 0 0
0.044671 -0.308014 2.352000 255 0 0
0.051219 -0.308666 2.357000 255 0 0
0.057941 -0.310103 2.368000 255 0 0
-0.246579 -0.300506 2.250000 255 0 0
-0.239153 -0.298918 2.238000 255 0 0
-0.232313 -0.297997 2.231000 255 0 0
-0.224902 -0.296274 2.218000 255 0 0
-0.217561 -0.294550 2.205000 255 0 0
-0.210003 -0.292426 2.189000 255 0 0
-0.203556 -0.291770 2.184000 255 0 0
-0.197769 -0.292049 2.186000 255 0 0
-0.192498 -0.293130 2.194000 255 0 0
-0.186501 -0.293141 2.194000 255 0 0
-0.180340 -0.292885 2.192000 255 0 0
-0.174268 -0.292762 2.191000 255 0 0
-0.168585 -0.293307 2.195000 255 0 0
-0.163102 -0.294253 2.202000 255 0 0
-0.157152 -0.294396 2.203000 255 0 0
-0.151402 -0.294940 2.207000 255 0 0
-0.145761 -0.295751 2.213000 255 0 0
-0.140781 -0.298032 2.230000 255 0 0
-0.135768 -0.300446 2.248000 255 0 0
-0.131002 -0.303662 2.272000 255 0 0
-0.053144 -0.321784 2.407000 255 0 0
-0.046555 -0.321787 2.407000 255 0 0
-0.039948 -0.321656 2.406000 255 0 0
-0.033249 -0.320589 2.398000 255 0 0
-0.026594 -0.319521 2.390000 255 0 0
-0.019891 -0.316982 2.371000 255 0 0
-0.013292 -0.314443 2.352000 255 0 0
-0.006828 -0.313374 2.344000 255 0 0
-0.000409 -0.312439 2.337000 255 0 0
0.005980 -0.311904 2.333000 255 0 0
0.012378 -0.312171 2.335000 255 0 0
0.018756 -0.311902 2.333000 255 0 0
0.025165 -0.312168 2.335000 255 0 0
0.031559 -0.312166 2.335000 255 0 0
0.038179 -0.314036 2.349000 255 0 0
0.044763 -0.315103 2.357000 255 0 0
0.051281 -0.315501 2.360000 255 0 0
0.057889 -0.316299 2.366000 255 0 0
-0.248099 -0.308551 2.264000 255 0 0
-0.240742 -0.307066 2.253000 255 0 0
-0.233236 -0.305309 2.240000 255 0 0
-0.225598 -0.303278 2.225000 255 0 0
-0.217548 -0.300565 2.205000 255 0 0
-0.210086 -0.298533 2.190000 255 0 0
-0.203637 -0.297864 2.185000 255 0 0
-0.198119 -0.298558 2.190000 255 0 0
-0.192837 -0.299661 2.198000 255 0 0
-0.186830 -0.299672 2.198000 255 0 0
-0.180658 -0.299411 2.196000 255 0 0
-0.174337 -0.298876 2.192000 255 0 0
-0.168498 -0.299160 2.194000 255 0 0
-0.162944 -0.299988 2.200000 255 0 0
-0.157428 -0.300953 2.207000 255 0 0
-0.152010 -0.302190 2.216000 255 0 0
-0.146081 -0.302472 2.218000 255 0 0
-0.140836 -0.304254 2.231000 255 0 0
-0.135820 -0.306717 2.249000 255 0 0
-0.131743 -0.311635 2.285000 255 0 0
-0.053494 -0.330536 2.423000 255 0 0
-0.046764 -0.329857 2.418000 255 0 0
-0.040095 -0.329451 2.415000 255 0 0
-0.033358 -0.328225 2.406000 255 0 0
-0.026715 -0.327545 2.401000 255 0 0
-0.020032 -0.325773 2.388000 255 0 0
-0.013410 -0.323728 2.373000 255 0 0
-0.006869 -0.321682 2.358000 255 0 0
-0.000410 -0.320045 2.346000 255 0 0
0.005992 -0.318954 2.338000 255 0 0
0.012367 -0.318271 2.333000 255 0 0
0.018747 -0.318134 2.332000 255 0 0
0.025164 -0.318541 2.335000 255 0 0
0.031611 -0.319085 2.339000 255 0 0
0.038161 -0.320311 2.348000 255 0 0
0.044703 -0.321127 2.354000 255 0 0
0.051191 -0.321396 2.356000 255 0 0
0.057787 -0.322211 2.362000 255 0 0
-0.249508 -0.316532 2.277000 255 0 0
-0.241903 -0.314740 2.264000 255 0 0
-0.233951 -0.312391 2.247000 255 0 0
-0.225179 -0.308790 2.221000 255 0 0
-0.216943 -0.305745 2.199000 255 0 0
-0.210169 -0.304645 2.191000 255 0 0
-0.204184 -0.304658 2.191000 255 0 0
-0.198650 -0.305366 2.196000 255 0 0
-0.192913 -0.305795 2.199000 255 0 0
-0.186988 -0.305946 2.200000 255 0 0
-0.180893 -0.305818 2.199000 255 0 0
-0.174644 -0.305412 2.196000 255 0 0
-0.168795 -0.305701 2.198000 255 0 0
-0.163230 -0.306546 2.204000 255 0 0
-0.157917 -0.307947 2.214000 255 0 0
-0.152481 -0.309209 2.223000 255 0 0
-0.146533 -0.309496 2.225000 255 0 0
-0.141205 -0.311175 2.237000 255 0 0
-0.136295 -0.313966 2.257000 255 0 0
-0.132312 -0.319261 2.295000 255 0 0
-0.053535 -0.337426 2.425000 255 0 0
-0.046839 -0.337012 2.422000 255 0 0
-0.040142 -0.336458 2.418000 255 0 0
-0.033356 -0.334791 2.406000 255 0 0
-0.026702 -0.333958 2.400000 255 0 0
-0.020090 -0.333264 2.395000 255 0 0
-0.013488 -0.332152 2.387000 255 0 0
-0.006909 -0.330065 2.372000 255 0 0
-0.000412 -0.327978 2.357000 255 0 0
0.006018 -0.326725 2.348000 255 0 0
0.012425 -0.326168 2.344000 255 0 0
0.018842 -0.326167 2.344000 255 0 0
0.025248 -0.326027 2.343000 255 0 0
0.031717 -0.326581 2.347000 255 0 0
0.038191 -0.326997 2.350000 255 0 0
0.044776 -0.328107 2.358000 255 0 0
0.051274 -0.328382 2.360000 255 0 0
0.057930 -0.329492 2.368000 255 0 0
-0.242316 -0.321479 2.268000 255 0 0
-0.233416 -0.317809 2.242000 255 0 0
-0.224658 -0.314137 2.216000 255 0 0
-0.217127 -0.312024 2.201000 255 0 0
-0.210923 -0.311754 2.199000 255 0 0
-0.204823 -0.311625 2.198000 255 0 0
-0.198728 -0.311496 2.197000 255 0 0
-0.192813 -0.311650 2.198000 255 0 0
-0.186892 -0.311804 2.199000 255 0 0
-0.180882 -0.311816 2.199000 255 0 0
-0.174792 -0.311685 2.198000 255 0 0
-0.169091 -0.312263 2.202000 255 0 0
-0.163516 -0.313125 2.208000 255 0 0
-0.158406 -0.314979 2.221000 255 0 0
-0.152951 -0.316265 2.230000 255 0 0
-0.147051 -0.316700 2.233000 255 0 0
-0.141575 -0.318128 2.243000 255 0 0
-0.136527 -0.320690 2.261000 255 0 0
-0.131957 -0.324670 2.289000 255 0 0
-0.053355 -0.342907 2.417000 255 0 0
-0.046700 -0.342627 2.415000 255 0 0
-0.040056 -0.342346 2.413000 255 0 0
-0.033340 -0.341213 2.405000 255 0 0
-0.026701 -0.340506 2.400000 255 0 0
-0.020105 -0.340082 2.397000 255 0 0
-0.013504 -0.339090 2.390000 255 0 0
-0.006941 -0.338098 2.383000 255 0 0
-0.000414 -0.335970 2.368000 255 0 0
0.006043 -0.334551 2.358000 255 0 0
0.012456 -0.333415 2.350000 255 0 0
0.018905 -0.333698 2.352000 255 0 0
0.025301 -0.333129 2.348000 255 0 0
0.031769 -0.333552 2.351000 255 0 0
0.038123 -0.332841 2.346000 255 0 0
0.044716 -0.334115 2.355000 255 0 0
0.051184 -0.334254 2.356000 255 0 0
0.057829 -0.335385 2.364000 255 0 0
-0.240698 -0.325495 2.253000 255 0 0
-0.232777 -0.323054 2.236000 255 0 0
-0.224644 -0.320179 2.216000 255 0 0
-0.217311 -0.318314 2.203000 255 0 0
-0.211006 -0.317894 2.200000 255 0 0
-0.204904 -0.317763 2.199000 255 0 0
-0.198896 -0.317776 2.199000 255 0 0
-0.192888 -0.317788 2.199000 255 0 0
-0.186965 -0.317945 2.200000 255 0 0
-0.181117 -0.318246 2.202000 255 0 0
-0.175258 -0.318546 2.204000 255 0 0
-0.169541 -0.319135 2.208000 255 0 0
-0.164098 -0.320302 2.216000 255 0 0
-0.158967 -0.322192 2.229000 255 0 0
-0.153627 -0.323792 2.240000 255 0 0
-0.147634 -0.324091 2.242000 255 0 0
-0.141881 -0.324968 2.248000 255 0 0
-0.136639 -0.327145 2.263000 255 0 0
-0.131315 -0.329323 2.278000 255 0 0
-0.126072 -0.331933 2.296000 255 0 0
-0.053263 -0.348922 2.413000 255 0 0
-0.046620 -0.348636 2.411000 255 0 0
-0.039987 -0.348350 2.409000 255 0 0
-0.033365 -0.348063 2.407000 255 0 0
-0.026721 -0.347342 2.402000 255 0 0
-0.020129 -0.347055 2.400000 255 0 0
-0.013520 -0.346044 2.393000 255 0 0
-0.006958 -0.345466 2.389000 255 0 0
-0.000416 -0.344020 2.379000 255 0 0
0.006055 -0.341706 2.363000 255 0 0
0.012492 -0.340838 2.357000 255 0 0
0.018960 -0.341126 2.359000 255 0 0
0.025428 -0.341269 2.360000 255 0 0
0.031861 -0.340978 2.358000 255 0 0
0.038218 -0.340108 2.352000 255 0 0
0.044827 -0.341407 2.361000 255 0 0
0.051376 -0.341982 2.365000 255 0 0
0.058021 -0.342990 2.372000 255 0 0
0.064349 -0.342119 2.366000 255 0 0
-0.237478 -0.327220 2.223000 255 0 0
-0.230577 -0.326057 2.215000 255 0 0
-0.224123 -0.325483 2.211000 255 0 0
-0.217494 -0.324614 2.205000 255 0 0
-0.211185 -0.324186 2.202000 255 0 0
-0.204704 -0.323463 2.197000 255 0 0
-0.198612 -0.323329 2.196000 255 0 0
-0.192788 -0.323636 2.198000 255 0 0
-0.186953 -0.323943 2.200000 255 0 0
-0.181188 -0.324396 2.203000 255 0 0
-0.175644 -0.325291 2.209000 255 0 0
-0.169837 -0.325745 2.212000 255 0 0
-0.164531 -0.327228 2.222000 255 0 0
-0.159527 -0.329448 2.237000 255 0 0
-0.154371 -0.331520 2.251000 255 0 0
-0.148480 -0.332119 2.255000 255 0 0
-0.142629 -0.332865 2.260000 255 0 0
-0.137053 -0.334347 2.270000 255 0 0
-0.131363 -0.335682 2.279000 255 0 0
-0.125515 -0.336722 2.286000 255 0 0
-0.060558 -0.359625 2.441000 255 0 0
-0.053171 -0.354914 2.409000 255 0 0
-0.046694 -0.355801 2.415000 255 0 0
-0.040084 -0.355804 2.415000 255 0 0
-0.033474 -0.355807 2.415000 255 0 0
-0.026753 -0.354336 2.405000 255 0 0
-0.020145 -0.353895 2.402000 255 0 0
-0.013530 -0.352865 2.395000 255 0 0
-0.006980 -0.353160 2.397000 255 0 0
-0.000419 -0.352571 2.393000 255 0 0
0.006091 -0.350214 2.377000 255 0 0
0.012518 -0.348003 2.362000 255 0 0
0.018951 -0.347413 2.358000 255 0 0
0.025426 -0.347706 2.360000 255 0 0
0.031859 -0.347409 2.358000 255 0 0
0.038248 -0.346817 2.354000 255 0 0
0.044843 -0.347993 2.362000 255 0 0
0.051568 -0.349758 2.374000 255 0 0
0.058237 -0.350786 2.381000 255 0 0
0.064726 -0.350634 2.380000 255 0 0
-0.235433 -0.330430 2.204000 255 0 0
-0.229937 -0.331194 2.209000 255 0 0
-0.224008 -0.331359 2.210000 255 0 0
-0.217677 -0.330923 2.207000 255 0 0
-0.211171 -0.330187 2.202000 255 0 0
-0.204598 -0.329301 2.196000 255 0 0
-0.198690 -0.329464 2.197000 255 0 0
-0.192951 -0.329927 2.200000 255 0 0
-0.187365 -0.330689 2.205000 255 0 0
-0.181834 -0.331601 2.211000 255 0 0
-0.175951 -0.331913 2.213000 255 0 0
-0.170364 -0.332824 2.219000 255 0 0
-0.165039 -0.334335 2.229000 255 0 0
-0.160087 -0.336746 2.245000 255 0 0
-0.154704 -0.338407 2.256000 255 0 0
-0.148997 -0.339467 2.263000 255 0 0
-0.143188 -0.340377 2.269000 255 0 0
-0.137647 -0.342036 2.280000 255 0 0
-0.131528 -0.342345 2.282000 255 0 0
-0.125671 -0.343404 2.289000 255 0 0
-0.053212 -0.361783 2.411000 255 0 0
-0.046671 -0.362237 2.414000 255 0 0
-0.040131 -0.362840 2.418000 255 0 0
-0.033513 -0.362843 2.418000 255 0 0
-0.026851 -0.362244 2.414000 255 0 0
-0.020219 -0.361796 2.411000 255 0 0
-0.013597 -0.361197 2.407000 255 0 0
-0.006997 -0.360597 2.403000 255 0 0
-0.000420 -0.360447 2.402000 255 0 0
0.006126 -0.358797 2.391000 255 0 0
0.012612 -0.357145 2.380000 255 0 0
0.019030 -0.355343 2.368000 255 0 0
0.025468 -0.354742 2.364000 255 0 0
0.031870 -0.353989 2.359000 255 0 0
0.038310 -0.353837 2.358000 255 0 0
0.044897 -0.354884 2.365000 255 0 0
0.051521 -0.355931 2.372000 255 0 0
0.058282 -0.357578 2.383000 255 0 0
-0.234564 -0.335214 2.196000 255 0 0
-0.229714 -0.336908 2.207000 255 0 0
-0.224297 -0.337839 2.213000 255 0 0
-0.218058 -0.337548 2.211000 255 0 0
-0.211349 -0.336493 2.204000 255 0 0
-0.204678 -0.335438 2.197000 255 0 0
-0.198586 -0.335299 2.196000 255 0 0
-0.193202 -0.336381 2.203000 255 0 0
-0.187693 -0.337309 2.209000 255 0 0
-0.182069 -0.338085 2.214000 255 0 0
-0.176019 -0.338097 2.214000 255 0 0
-0.170352 -0.338872 2.219000 255 0 0
-0.165176 -0.340716 2.231000 255 0 0
-0.159933 -0.342560 2.243000 255 0 0
-0.154282 -0.343639 2.250000 255 0 0
-0.148921 -0.345483 2.262000 255 0 0
-0.143620 -0.347631 2.276000 255 0 0
-0.138121 -0.349473 2.288000 255 0 0
-0.132037 -0.349941 2.291000 255 0 0
-0.125992 -0.350561 2.295000 255 0 0
-0.059558 -0.366825 2.401000 255 0 0
-0.053186 -0.368204 2.410000 255 0 0
-0.046765 -0.369582 2.419000 255 0 0
-0.040178 -0.369891 2.421000 255 0 0
-0.033525 -0.369588 2.419000 255 0 0
-0.026871 -0.369132 2.416000 255 0 0
-0.020242 -0.368828 2.414000 255 0 0
-0.013630 -0.368676 2.413000 255 0 0
-0.007017 -0.368218 2.410000 255 0 0
-0.000420 -0.367302 2.404000 255 0 0
0.006141 -0.366232 2.397000 255 0 0
0.012669 -0.365315 2.391000 255 0 0
0.019157 -0.364244 2.384000 255 0 0
0.025552 -0.362409 2.372000 255 0 0
0.031990 -0.361796 2.368000 255 0 0
0.038438 -0.361488 2.366000 255 0 0
0.044913 -0.361485 2.366000 255 0 0
0.051431 -0.361787 2.368000 255 0 0
0.058058 -0.362700 2.374000 255 0 0
-0.234549 -0.341196 2.196000 255 0 0
-0.229908 -0.343231 2.209000 255 0 0
-0.224992 -0.344956 2.220000 255 0 0
-0.218339 -0.344038 2.214000 255 0 0
-0.211719 -0.343120 2.208000 255 0 0
-0.205037 -0.342046 2.201000 255 0 0
-0.199116 -0.342215 2.202000 255 0 0
-0.193452 -0.342849 2.206000 255 0 0
-0.187935 -0.343795 2.212000 255 0 0
-0.182056 -0.344118 2.214000 255 0 0
-0.175927 -0.343975 2.213000 255 0 0
-0.170494 -0.345230 2.221000 255 0 0
-0.165387 -0.347262 2.234000 255 0 0
-0.159923 -0.348672 2.243000 255 0 0
-0.154134 -0.349460 2.248000 255 0 0
-0.148779 -0.351336 2.260000 255 0 0
-0.143673 -0.353989 2.277000 255 0 0
-0.138293 -0.356175 2.291000 255 0 0
-0.132259 -0.356806 2.295000 255 0 0
-0.059628 -0.373836 2.404000 255 0 0
-0.053447 -0.376639 2.422000 255 0 0
-0.046781 -0.376332 2.420000 255 0 0
-0.040225 -0.376957 2.424000 255 0 0
-0.033578 -0.376804 2.423000 255 0 0
-0.026947 -0.376806 2.423000 255 0 0
-0.020300 -0.376497 2.421000 255 0 0
-0.013674 -0.376498 2.421000 255 0 0
-0.007040 -0.376032 2.418000 255 0 0
-0.000421 -0.374477 2.408000 255 0 0
0.006159 -0.373855 2.404000 255 0 0
0.012716 -0.373232 2.400000 255 0 0
0.019252 -0.372609 2.396000 255 0 0
0.025701 -0.371052 2.386000 255 0 0
0.032163 -0.370273 2.381000 255 0 0
0.038598 -0.369492 2.376000 255 0 0
0.044985 -0.368556 2.370000 255 0 0
0.051275 -0.367154 2.361000 255 0 0
0.057809 -0.367616 2.364000 255 0 0
-0.235067 -0.347968 2.201000 255 0 0
-0.229476 -0.348616 2.205000 255 0 0
-0.224572 -0.350370 2.216000 255 0 0
-0.218818 -0.350859 2.219000 255 0 0
-0.212376 -0.350241 2.215000 255 0 0
-0.205768 -0.349307 2.209000 255 0 0
-0.199916 -0.349637 2.211000 255 0 0
-0.193877 -0.349650 2.211000 255 0 0
-0.188007 -0.349979 2.213000 255 0 0
-0.181797 -0.349676 2.211000 255 0 0
-0.175995 -0.350162 2.214000 255 0 0
-0.170406 -0.351123 2.220000 255 0 0
-0.165450 -0.353507 2.235000 255 0 0
-0.159698 -0.354309 2.240000 255 0 0
-0.154398 -0.356218 2.252000 255 0 0
-0.148966 -0.357969 2.263000 255 0 0
-0.143916 -0.360826 2.281000 255 0 0
-0.138283 -0.362418 2.291000 255 0 0
-0.132768 -0.364484 2.304000 255 0 0
-0.060492 -0.385926 2.439000 255 0 0
-0.053686 -0.384980 2.433000 255 0 0
-0.046932 -0.384193 2.428000 255 0 0
-0.040239 -0.383721 2.425000 255 0 0
-0.033576 -0.383407 2.423000 255 0 0
-0.026934 -0.383251 2.422000 255 0 0
-0.020323 -0.383569 2.424000 255 0 0
-0.013679 -0.383254 2.422000 255 0 0
-0.007045 -0.382938 2.420000 255 0 0
-0.000421 -0.381198 2.409000 255 0 0
0.006150 -0.379932 2.401000 255 0 0
0.012689 -0.378982 2.395000 255 0 0
0.019219 -0.378506 2.392000 255 0 0
0.025764 -0.378504 2.392000 255 0 0
0.032309 -0.378502 2.392000 255 0 0
0.038773 -0.377709 2.387000 255 0 0
0.045115 -0.376123 2.377000 255 0 0
0.051380 -0.374379 2.366000 255 0 0
0.057707 -0.373426 2.360000 255 0 0
-0.235052 -0.353962 2.201000 255 0 0
-0.229565 -0.354782 2.206000 255 0 0
-0.224354 -0.356084 2.214000 255 0 0
-0.219099 -0.357385 2.222000 255 0 0
-0.213224 -0.357722 2.224000 255 0 0
-0.207058 -0.357575 2.223000 255 0 0
-0.200987 -0.357589 2.223000 255 0 0
-0.194390 -0.356637 2.217000 255 0 0
-0.188249 -0.356490 2.216000 255 0 0
-0.182114 -0.356342 2.215000 255 0 0
-0.176221 -0.356676 2.217000 255 0 0
-0.170548 -0.357492 2.222000 255 0 0
-0.165364 -0.359435 2.234000 255 0 0
-0.159758 -0.360572 2.241000 255 0 0
-0.154387 -0.362353 2.252000 255 0 0
-0.149088 -0.364456 2.265000 255 0 0
-0.144032 -0.367362 2.283000 255 0 0
-0.138394 -0.368981 2.293000 255 0 0
-0.132701 -0.370600 2.303000 255 0 0
-0.060711 -0.394020 2.448000 255 0 0
-0.053903 -0.393219 2.443000 255 0 0
-0.047103 -0.392257 2.437000 255 0 0
-0.040302 -0.390973 2.429000 255 0 0
-0.033601 -0.390332 2.425000 255 0 0
-0.026977 -0.390495 2.426000 255 0 0
-0.020347 -0.390657 2.427000 255 0 0
-0.013678 -0.389854 2.422000 255 0 0
-0.007042 -0.389372 2.419000 255 0 0
-0.000422 -0.388084 2.411000 255 0 0
0.006163 -0.387279 2.406000 255 0 0
0.012704 -0.385991 2.398000 255 0 0
0.019233 -0.385346 2.394000 255 0 0
0.025784 -0.385344 2.394000 255 0 0
0.032348 -0.385503 2.395000 255 0 0
0.038852 -0.385018 2.392000 255 0 0
0.045207 -0.383405 2.382000 255 0 0
0.051420 -0.381148 2.368000 255 0 0
0.057605 -0.379213 2.356000 255 0 0
-0.235143 -0.360119 2.202000 255 0 0
-0.229862 -0.361279 2.209000 255 0 0
-0.225048 -0.363257 2.221000 255 0 0
-0.219971 -0.364908 2.231000 255 0 0
-0.214168 -0.365414 2.234000 255 0 0
-0.207975 -0.365265 2.233000 255 0 0
-0.201787 -0.365115 2.232000 255 0 0
-0.195166 -0.364147 2.226000 255 0 0
-0.188746 -0.363506 2.222000 255 0 0
-0.182430 -0.363028 2.219000 255 0 0
-0.176686 -0.363695 2.223000 255 0 0
-0.170919 -0.364362 2.227000 255 0 0
-0.165500 -0.365846 2.236000 255 0 0
-0.159818 -0.366840 2.242000 255 0 0
-0.154102 -0.367832 2.248000 255 0 0
-0.148748 -0.369807 2.260000 255 0 0
-0.143769 -0.372926 2.279000 255 0 0
-0.138384 -0.375227 2.293000 255 0 0
-0.132577 -0.376546 2.301000 255 0 0
-0.127383 -0.379828 2.321000 255 0 0
-0.060657 -0.400362 2.446000 255 0 0
-0.053899 -0.399875 2.443000 255 0 0
-0.047099 -0.398896 2.437000 255 0 0
-0.040299 -0.397590 2.429000 255 0 0
-0.033557 -0.396447 2.422000 255 0 0
-0.026941 -0.396613 2.423000 255 0 0
-0.020337 -0.397106 2.426000 255 0 0
-0.013694 -0.396943 2.425000 255 0 0
-0.007047 -0.396289 2.421000 255 0 0
-0.000422 -0.395307 2.415000 255 0 0
0.006160 -0.393670 2.405000 255 0 0
0.012719 -0.393015 2.401000 255 0 0
0.019256 -0.392359 2.397000 255 0 0
0.025803 -0.392194 2.396000 255 0 0
0.032345 -0.392028 2.395000 255 0 0
0.038865 -0.391698 2.393000 255 0 0
0.045355 -0.391204 2.390000 255 0 0
0.051633 -0.389236 2.378000 255 0 0
0.057821 -0.387104 2.365000 255 0 0
-0.236728 -0.368607 2.217000 255 0 0
-0.231511 -0.369953 2.225000 255 0 0
-0.225843 -0.370634 2.229000 255 0 0
-0.220153 -0.371315 2.233000 255 0 0
-0.213866 -0.370997 2.231000 255 0 0
-0.207775 -0.371012 2.231000 255 0 0
-0.201773 -0.371192 2.232000 255 0 0
-0.195503 -0.370873 2.230000 255 0 0
-0.189158 -0.370388 2.227000 255 0 0
-0.183075 -0.370401 2.227000 255 0 0
-0.177309 -0.371079 2.231000 255 0 0
-0.171675 -0.372090 2.237000 255 0 0
-0.166007 -0.373100 2.243000 255 0 0
-0.160306 -0.374109 2.249000 255 0 0
-0.154297 -0.374453 2.251000 255 0 0
-0.148671 -0.375795 2.259000 255 0 0
-0.143633 -0.378800 2.277000 255 0 0
-0.138435 -0.381638 2.294000 255 0 0
-0.133028 -0.384143 2.309000 255 0 0
-0.127209 -0.385650 2.318000 255 0 0
-0.067260 -0.406520 2.443000 255 0 0
-0.060603 -0.406691 2.444000 255 0 0
-0.053895 -0.406529 2.443000 255 0 0
-0.047212 -0.406533 2.443000 255 0 0
-0.040462 -0.405870 2.439000 255 0 0
-0.033707 -0.404875 2.433000 255 0 0
-0.027017 -0.404378 2.430000 255 0 0
-0.020344 -0.403880 2.427000 255 0 0
-0.013704 -0.403881 2.427000 255 0 0
-0.007056 -0.403383 2.424000 255 0 0
-0.000423 -0.402718 2.420000 255 0 0
0.006185 -0.401885 2.415000 255 0 0
0.012776 -0.401385 2.412000 255 0 0
0.019327 -0.400386 2.406000 255 0 0
0.025812 -0.398886 2.397000 255 0 0
0.032275 -0.397719 2.390000 255 0 0
0.038797 -0.397550 2.389000 255 0 0
0.045371 -0.397880 2.391000 255 0 0
0.051912 -0.397876 2.391000 255 0 0
0.058257 -0.396541 2.383000 255 0 0
-0.238527 -0.377514 2.234000 255 0 0
-0.232119 -0.377024 2.231000 255 0 0
-0.226233 -0.377377 2.233000 255 0 0
-0.220040 -0.377224 2.232000 255 0 0
-0.213755 -0.376901 2.230000 255 0 0
-0.207481 -0.376578 2.228000 255 0 0
-0.201578 -0.376930 2.230000 255 0 0
-0.195489 -0.376944 2.230000 255 0 0
-0.189484 -0.377127 2.231000 255 0 0
-0.183637 -0.377647 2.234000 255 0 0
-0.178012 -0.378674 2.240000 255 0 0
-0.172123 -0.379194 2.243000 255 0 0
-0.166291 -0.379883 2.247000 255 0 0
-0.160508 -0.380740 2.252000 255 0 0
-0.154766 -0.381765 2.258000 255 0 0
-0.148924 -0.382622 2.263000 255 0 0
-0.143685 -0.385169 2.278000 255 0 0
-0.138907 -0.389237 2.302000 255 0 0
-0.133594 -0.392121 2.319000 255 0 0
-0.128133 -0.394836 2.335000 255 0 0
-0.067090 -0.412158 2.437000 255 0 0
-0.060499 -0.412670 2.440000 255 0 0
-0.053979 -0.413858 2.447000 255 0 0
-0.047208 -0.413186 2.443000 255 0 0
-0.040476 -0.412681 2.440000 255 0 0
-0.033732 -0.411839 2.435000 255 0 0
-0.027071 -0.411841 2.435000 255 0 0
-0.020376 -0.411166 2.431000 255 0 0
-0.013720 -0.410998 2.430000 255 0 0
-0.007058 -0.410153 2.425000 255 0 0
-0.000423 -0.409308 2.420000 255 0 0
0.006182 -0.408293 2.414000 255 0 0
0.012780 -0.408123 2.413000 255 0 0
0.019341 -0.407276 2.408000 255 0 0
0.025853 -0.406091 2.401000 255 0 0
0.032327 -0.404904 2.394000 255 0 0
0.038811 -0.404225 2.390000 255 0 0
0.045443 -0.405068 2.395000 255 0 0
0.052038 -0.405402 2.397000 255 0 0
0.058595 -0.405398 2.397000 255 0 0
-0.238511 -0.383594 2.234000 255 0 0
-0.232935 -0.384469 2.239000 255 0 0
-0.226622 -0.384141 2.237000 255 0 0
-0.220221 -0.383642 2.234000 255 0 0
-0.213932 -0.383314 2.232000 255 0 0
-0.207559 -0.382813 2.229000 255 0 0
-0.201383 -0.382656 2.228000 255 0 0
-0.195475 -0.383014 2.230000 255 0 0
-0.189895 -0.384058 2.236000 255 0 0
-0.184528 -0.385618 2.245000 255 0 0
-0.178317 -0.385459 2.244000 255 0 0
-0.172341 -0.385815 2.246000 255 0 0
-0.166131 -0.385656 2.245000 255 0 0
-0.160568 -0.387042 2.253000 255 0 0
-0.154960 -0.388428 2.261000 255 0 0
-0.149440 -0.390157 2.271000 255 0 0
-0.144243 -0.392916 2.287000 255 0 0
-0.138958 -0.395676 2.303000 255 0 0
-0.133757 -0.398950 2.322000 255 0 0
-0.128508 -0.402396 2.342000 255 0 0
-0.066975 -0.418106 2.433000 255 0 0
-0.060494 -0.419314 2.440000 255 0 0
-0.053997 -0.420693 2.448000 255 0 0
-0.047301 -0.420696 2.448000 255 0 0
-0.040572 -0.420356 2.446000 255 0 0
-0.033799 -0.419328 2.440000 255 0 0
-0.027091 -0.418814 2.437000 255 0 0
-0.020400 -0.418301 2.434000 255 0 0
-0.013736 -0.418130 2.433000 255 0 0
-0.007072 -0.417615 2.430000 255 0 0
-0.000423 -0.415725 2.419000 255 0 0
0.006179 -0.414694 2.413000 255 0 0
0.012748 -0.413662 2.407000 255 0 0
0.019324 -0.413489 2.406000 255 0 0
0.025862 -0.412800 2.402000 255 0 0
0.032406 -0.412454 2.400000 255 0 0
0.038922 -0.411936 2.397000 255 0 0
0.045497 -0.412104 2.398000 255 0 0
0.052208 -0.413304 2.405000 255 0 0
-0.237533 -0.388102 2.225000 255 0 0
-0.232503 -0.389863 2.235000 255 0 0
-0.226606 -0.390228 2.237000 255 0 0
-0.220501 -0.390244 2.237000 255 0 0
-0.214492 -0.390434 2.238000 255 0 0
-0.208010 -0.389751 2.234000 255 0 0
-0.201550 -0.389068 2.230000 255 0 0
-0.195461 -0.389082 2.230000 255 0 0
-0.189797 -0.389969 2.235000 255 0 0
-0.184515 -0.391727 2.245000 255 0 0
-0.178383 -0.391740 2.245000 255 0 0
-0.172558 -0.392451 2.249000 255 0 0
-0.166415 -0.392463 2.249000 255 0 0
-0.160485 -0.392999 2.252000 255 0 0
-0.154949 -0.394581 2.261000 255 0 0
-0.149363 -0.396163 2.270000 255 0 0
-0.144169 -0.398966 2.286000 255 0 0
-0.138827 -0.401595 2.301000 255 0 0
-0.133517 -0.404572 2.318000 255 0 0
-0.127840 -0.406676 2.330000 255 0 0
-0.067245 -0.426475 2.443000 255 0 0
-0.060490 -0.425956 2.440000 255 0 0
-0.053905 -0.426658 2.444000 255 0 0
-0.047259 -0.427011 2.446000 255 0 0
-0.040569 -0.427015 2.446000 255 0 0
-0.033824 -0.426319 2.442000 255 0 0
-0.027078 -0.425274 2.436000 255 0 0
-0.020398 -0.424927 2.434000 255 0 0
-0.013724 -0.424404 2.431000 255 0 0
-0.007063 -0.423707 2.427000 255 0 0
-0.000422 -0.421437 2.414000 255 0 0
0.006166 -0.420390 2.408000 255 0 0
0.012715 -0.419167 2.401000 255 0 0
0.019306 -0.419689 2.404000 255 0 0
0.025871 -0.419513 2.403000 255 0 0
0.032457 -0.419685 2.404000 255 0 0
0.038967 -0.418984 2.400000 255 0 0
0.045588 -0.419505 2.403000 255 0 0
0.052356 -0.421072 2.412000 255 0 0
-0.237303 -0.393801 2.223000 255 0 0
-0.232694 -0.396298 2.237000 255 0 0
-0.226793 -0.396668 2.239000 255 0 0
-0.220880 -0.397039 2.241000 255 0 0
-0.214668 -0.396877 2.240000 255 0 0
-0.208368 -0.396538 2.238000 255 0 0
-0.201626 -0.395313 2.231000 255 0 0
-0.195798 -0.395859 2.234000 255 0 0
-0.190122 -0.396759 2.239000 255 0 0
-0.184912 -0.398722 2.250000 255 0 0
-0.178688 -0.398558 2.249000 255 0 0
-0.172776 -0.399102 2.252000 255 0 0
-0.166551 -0.398938 2.251000 255 0 0
-0.160829 -0.400013 2.257000 255 0 0
-0.155417 -0.401974 2.268000 255 0 0
-0.149681 -0.403226 2.275000 255 0 0
-0.144032 -0.404833 2.284000 255 0 0
-0.138273 -0.406261 2.292000 255 0 0
-0.133162 -0.409816 2.312000 255 0 0
-0.127995 -0.413549 2.333000 255 0 0
-0.074405 -0.435955 2.459000 255 0 0
-0.067405 -0.434187 2.449000 255 0 0
-0.060609 -0.433483 2.445000 255 0 0
-0.053901 -0.433310 2.444000 255 0 0
-0.047294 -0.434023 2.448000 255 0 0
-0.040649 -0.434558 2.451000 255 0 0
-0.033932 -0.434384 2.450000 255 0 0
-0.027142 -0.432968 2.442000 255 0 0
-0.020464 -0.432970 2.442000 255 0 0
-0.013751 -0.431907 2.436000 255 0 0
-0.007074 -0.431021 2.431000 255 0 0
-0.000422 -0.428008 2.414000 255 0 0
0.006170 -0.427298 2.410000 255 0 0
0.012714 -0.425702 2.401000 255 0 0
0.019297 -0.426055 2.403000 255 0 0
0.025826 -0.425344 2.399000 255 0 0
0.032414 -0.425696 2.401000 255 0 0
0.038997 -0.425871 2.402000 255 0 0
0.045661 -0.426754 2.407000 255 0 0
0.052591 -0.429587 2.423000 255 0 0
0.060805 -0.441107 2.488000 255 0 0
-0.232574 -0.402202 2.236000 255 0 0
-0.226574 -0.402399 2.237000 255 0 0
-0.220766 -0.402955 2.240000 255 0 0
-0.214173 -0.402071 2.235000 255 0 0
-0.207887 -0.401726 2.233000 255 0 0
-0.201521 -0.401202 2.230000 255 0 0
-0.195696 -0.401756 2.233000 255 0 0
-0.190024 -0.402670 2.238000 255 0 0
-0.184570 -0.404123 2.246000 255 0 0
-0.178754 -0.404856 2.250000 255 0 0
-0.172686 -0.405049 2.251000 255 0 0
-0.166760 -0.405601 2.254000 255 0 0
-0.161102 -0.406873 2.261000 255 0 0
-0.155816 -0.409224 2.274000 255 0 0
-0.149669 -0.409416 2.275000 255 0 0
-0.143958 -0.410867 2.283000 255 0 0
-0.138203 -0.412317 2.291000 255 0 0
-0.133382 -0.416827 2.316000 255 0 0
-0.127985 -0.419896 2.333000 255 0 0
-0.074308 -0.442106 2.456000 255 0 0
-0.067400 -0.440851 2.449000 255 0 0
-0.060704 -0.440856 2.449000 255 0 0
-0.054029 -0.441040 2.450000 255 0 0
-0.047310 -0.440864 2.449000 255 0 0
-0.040646 -0.441228 2.451000 255 0 0
-0.033888 -0.440511 2.447000 255 0 0
-0.027152 -0.439793 2.443000 255 0 0
-0.020429 -0.438895 2.438000 255 0 0
-0.013722 -0.437636 2.431000 255 0 0
-0.007053 -0.436376 2.424000 255 0 0
-0.000421 -0.433676 2.409000 255 0 0
0.006160 -0.433136 2.406000 255 0 0
0.012718 -0.432415 2.402000 255 0 0
