ply
format ascii 1.0
element vertex 1323
property double x
property double y
property double z
property uchar red
property uchar green
property uchar blue
end_header
0.035318 0.191427 2.171000 255 0 0
0.041306 0.191601 2.173000 255 0 0
0.047325 0.191864 2.176000 255 0 0
0.053411 0.192303 2.181000 255 0 0
0.059496 0.192653 2.185000 255 0 0
0.065632 0.193091 2.190000 255 0 0
0.071796 0.193529 2.195000 255 0 0
0.078058 0.194142 2.202000 255 0 0
0.084244 0.194491 2.206000 255 0 0
0.090614 0.195193 2.214000 255 0 0
0.096941 0.195718 2.220000 255 0 0
0.103161 0.195978 2.223000 255 0 0
0.109299 0.196061 2.224000 255 0 0
0.115545 0.196321 2.227000 255 0 0
0.122026 0.196933 2.234000 255 0 0
0.125505 0.192872 2.188000 255 0 0
0.130174 0.190928 2.166000 255 0 0
0.135098 0.189511 2.150000 255 0 0
0.139738 0.187831 2.131000 255 0 0
0.144752 0.186767 2.119000 255 0 0
0.149912 0.185967 2.110000 255 0 0
0.155539 0.185784 2.108000 255 0 0
0.161001 0.185425 2.104000 255 0 0
0.166679 0.185330 2.103000 255 0 0
0.172268 0.185146 2.101000 255 0 0
0.178016 0.185139 2.101000 255 0 0
0.183675 0.185043 2.100000 255 0 0
0.188877 0.184507 2.094000 255 0 0
-0.111743 0.059134 2.425754 255 255 0
-0.128403 0.052734 2.401657 255 255 0
-0.070746 0.060169 2.414527 255 255 0
-0.056840 0.060600 2.411098 255 255 0
-0.045498 0.060469 2.405992 255 255 0
-0.030788 0.061111 2.403257 255 255 0
-0.011874 0.062723 2.403510 255 255 0
0.003628 0.063583 2.401508 255 255 0
0.019106 0.064457 2.399577 255 255 0
0.031186 0.064572 2.395350 255 255 0
0.033147 0.062376 2.384046 255 255 0
0.040996 0.061536 2.376907 255 255 0
0.051357 0.061282 2.371592 255 255 0
0.053312 0.059090 2.360301 255 255 0
0.056108 0.057092 2.349605 255 255 0
0.053045 0.053724 2.334659 255 255 0
0.047487 0.049762 2.317844 255 255 0
0.051975 0.048147 2.308316 255 255 0
0.054791 0.046140 2.297563 255 255 0
0.060111 0.044724 2.288656 255 255 0
0.059596 0.041926 2.275425 255 255 0
0.072402 0.042295 2.272115 255 255 0
0.041144 0.032145 2.235780 255 255 0
0.096807 0.002174 2.069434 255 255 0
-0.271310 -0.006550 2.321007 0 255 0
-0.250924 -0.006579 2.330869 0 255 0
-0.225778 -0.010961 2.325374 0 255 0
-0.192907 -0.017563 2.314639 0 255 0
-0.196743 -0.013408 2.329632 0 255 0
-0.183479 -0.014237 2.332749 0 255 0
-0.180474 -0.012073 2.342997 0 255 0
-0.169755 -0.012139 2.347962 0 255 0
-0.150444 -0.014666 2.347133 0 255 0
-0.136257 -0.015693 2.349887 0 255 0
-0.121191 -0.016952 2.352129 0 255 0
-0.122446 -0.013530 2.365392 0 255 0
-0.119405 -0.011338 2.375760 0 255 0
-0.114641 -0.009635 2.384985 0 255 0
-0.322488 0.193094 2.264000 255 0 0
-0.316733 0.193362 2.267000 255 0 0
-0.311235 0.193801 2.272000 255 0 0
-0.305305 0.193983 2.274000 255 0 0
-0.298969 0.193910 2.273000 255 0 0
-0.292895 0.194006 2.274000 255 0 0
-0.286814 0.194103 2.275000 255 0 0
-0.281344 0.194626 2.281000 255 0 0
-0.275478 0.194893 2.284000 255 0 0
-0.269359 0.194989 2.285000 255 0 0
-0.262773 0.194744 2.282000 255 0 0
-0.255528 0.193986 2.273000 255 0 0
-0.247453 0.192545 2.256000 255 0 0
-0.240540 0.191957 2.249000 255 0 0
-0.233665 0.191370 2.242000 255 0 0
-0.226928 0.190867 2.236000 255 0 0
-0.220026 0.190193 2.228000 255 0 0
-0.212975 0.189348 2.218000 255 0 0
-0.205511 0.188076 2.203000 255 0 0
-0.198491 0.187145 2.192000 255 0 0
-0.191881 0.186556 2.185000 255 0 0
-0.185309 0.185966 2.178000 255 0 0
-0.178692 0.185290 2.170000 255 0 0
-0.172437 0.184956 2.166000 255 0 0
-0.166049 0.184451 2.160000 255 0 0
-0.159916 0.184201 2.157000 255 0 0
-0.153655 0.183781 2.152000 255 0 0
-0.147628 0.183616 2.150000 255 0 0
-0.141281 0.183025 2.143000 255 0 0
-0.134972 0.182433 2.136000 255 0 0
-0.128882 0.182097 2.132000 255 0 0
-0.122871 0.181846 2.129000 255 0 0
-0.116931 0.181680 2.127000 255 0 0
-0.110949 0.181429 2.124000 255 0 0
-0.105083 0.181348 2.123000 255 0 0
-0.099221 0.181267 2.122000 255 0 0
-0.093409 0.181271 2.122000 255 0 0
-0.087513 0.181104 2.120000 255 0 0
-0.081744 0.181193 2.121000 255 0 0
-0.075933 0.181196 2.121000 255 0 0
-0.070089 0.181114 2.120000 255 0 0
-0.064219 0.180946 2.118000 255 0 0
-0.058388 0.180863 2.117000 255 0 0
-0.052662 0.181122 2.120000 255 0 0
-0.046852 0.181124 2.120000 255 0 0
-0.041081 0.181297 2.122000 255 0 0
-0.035266 0.181298 2.122000 255 0 0
-0.029492 0.181556 2.125000 255 0 0
-0.023702 0.181814 2.128000 255 0 0
-0.017895 0.182071 2.131000 255 0 0
-0.012077 0.182413 2.135000 255 0 0
-0.006237 0.182755 2.139000 255 0 0
-0.000375 0.183012 2.142000 255 0 0
0.005501 0.183183 2.144000 255 0 0
0.011419 0.183866 2.152000 255 0 0
0.017382 0.184549 2.160000 255 0 0
0.023377 0.185146 2.167000 255 0 0
0.029343 0.185316 2.169000 255 0 0
0.035352 0.185656 2.173000 255 0 0
0.041383 0.185996 2.177000 255 0 0
0.047458 0.186421 2.182000 255 0 0
0.053535 0.186761 2.186000 255 0 0
0.059662 0.187186 2.191000 255 0 0
0.065755 0.187439 2.194000 255 0 0
0.071963 0.187949 2.200000 255 0 0
0.078203 0.188458 2.206000 255 0 0
0.084553 0.189138 2.214000 255 0 0
0.090823 0.189562 2.219000 255 0 0
0.097163 0.190070 2.225000 255 0 0
0.103351 0.190237 2.227000 255 0 0
0.109549 0.190403 2.229000 255 0 0
0.122687 0.191845 2.246000 255 0 0
0.125396 0.186715 2.186000 255 0 0
0.130119 0.184916 2.165000 255 0 0
0.135041 0.183544 2.149000 255 0 0
0.139810 0.182086 2.132000 255 0 0
0.144963 0.181226 2.122000 255 0 0
0.149989 0.180280 2.111000 255 0 0
0.155398 0.179847 2.106000 255 0 0
0.160702 0.179328 2.100000 255 0 0
0.166448 0.179321 2.100000 255 0 0
0.172194 0.179314 2.100000 255 0 0
0.178023 0.179392 2.101000 255 0 0
0.183508 0.179128 2.098000 255 0 0
0.188704 0.178609 2.092000 255 0 0
-0.113284 0.047487 2.426047 255 255 0
-0.122276 0.042746 2.407071 255 255 0
-0.107456 0.043365 2.404006 255 255 0
-0.075687 0.047841 2.412476 255 255 0
-0.066866 0.047144 2.405562 255 255 0
-0.045354 0.049350 2.407357 255 255 0
-0.028956 0.050413 2.405772 255 255 0
-0.004981 0.053237 2.409515 255 255 0
0.000381 0.051803 2.400487 255 255 0
0.015857 0.052711 2.398532 255 255 0
0.025411 0.052263 2.392512 255 255 0
0.040001 0.052998 2.390088 255 255 0
0.044481 0.051389 2.380578 255 255 0
0.047281 0.049387 2.369876 255 255 0
0.053436 0.048173 2.361575 255 255 0
0.048695 0.044393 2.345443 255 255 0
0.072424 0.047340 2.349866 255 255 0
0.070196 0.044154 2.335546 255 255 0
0.044922 0.032775 2.291462 255 255 0
0.051919 0.031759 2.283751 255 255 0
0.061406 0.031347 2.277915 255 255 0
0.060903 0.028533 2.264663 255 255 0
0.088019 -0.011196 2.063325 255 255 0
-0.272580 -0.016967 2.323139 0 255 0
-0.276445 -0.012817 2.338019 0 255 0
-0.259871 -0.014759 2.338428 0 255 0
-0.229628 -0.020730 2.329338 0 255 0
-0.191655 -0.028938 2.315044 0 255 0
-0.183524 -0.028287 2.321732 0 255 0
-0.196761 -0.021346 2.343225 0 255 0
-0.187774 -0.020946 2.349319 0 255 0
-0.185631 -0.018536 2.360136 0 255 0
-0.158627 -0.023368 2.354027 0 255 0
-0.140161 -0.025679 2.353868 0 255 0
-0.127681 -0.026229 2.357848 0 255 0
-0.121202 -0.025030 2.365913 0 255 0
-0.113856 -0.024075 2.373425 0 255 0
-0.032602 -0.034922 2.369936 0 255 0
-0.326496 0.185657 2.249000 255 0 0
-0.321645 0.186412 2.258000 255 0 0
-0.316745 0.187167 2.267000 255 0 0
-0.311246 0.187591 2.272000 255 0 0
-0.305317 0.187768 2.274000 255 0 0
-0.298849 0.187614 2.272000 255 0 0
-0.293035 0.187873 2.275000 255 0 0
-0.287077 0.188049 2.277000 255 0 0
-0.281848 0.188721 2.285000 255 0 0
-0.275850 0.188896 2.287000 255 0 0
-0.269369 0.188742 2.285000 255 0 0
-0.262668 0.188421 2.281000 255 0 0
-0.255200 0.187523 2.270000 255 0 0
-0.247353 0.186293 2.255000 255 0 0
-0.240657 0.185890 2.250000 255 0 0
-0.233779 0.185321 2.243000 255 0 0
-0.226937 0.184751 2.236000 255 0 0
-0.220035 0.184099 2.228000 255 0 0
-0.213176 0.183447 2.220000 255 0 0
-0.206079 0.182546 2.209000 255 0 0
-0.199042 0.181645 2.198000 255 0 0
-0.192504 0.181157 2.192000 255 0 0
-0.185912 0.180586 2.185000 255 0 0
-0.179029 0.179684 2.174000 255 0 0
-0.172603 0.179196 2.168000 255 0 0
-0.166133 0.178624 2.161000 255 0 0
-0.159922 0.178300 2.157000 255 0 0
-0.153590 0.177810 2.151000 255 0 0
-0.147702 0.177816 2.151000 255 0 0
-0.141484 0.177409 2.146000 255 0 0
-0.135104 0.176753 2.138000 255 0 0
-0.128887 0.176263 2.132000 255 0 0
-0.122934 0.176102 2.130000 255 0 0
-0.117046 0.176025 2.129000 255 0 0
-0.111059 0.175781 2.126000 255 0 0
-0.105186 0.175703 2.125000 255 0 0
-0.099272 0.175542 2.123000 255 0 0
-0.093412 0.175463 2.122000 255 0 0
-0.087558 0.175384 2.121000 255 0 0
-0.081747 0.175388 2.121000 255 0 0
-0.075936 0.175391 2.121000 255 0 0
-0.070092 0.175312 2.120000 255 0 0
-0.064283 0.175314 2.120000 255 0 0
-0.058473 0.175317 2.120000 255 0 0
-0.052689 0.175402 2.121000 255 0 0
-0.046898 0.175487 2.122000 255 0 0
-0.041102 0.175571 2.123000 255 0 0
-0.035301 0.175656 2.124000 255 0 0
-0.029507 0.175822 2.126000 255 0 0
-0.023714 0.176072 2.129000 255 0 0
-0.017912 0.176403 2.133000 255 0 0
-0.012089 0.176735 2.137000 255 0 0
-0.006243 0.177066 2.141000 255 0 0
-0.000375 0.177232 2.143000 255 0 0
0.005506 0.177480 2.146000 255 0 0
0.011420 0.177975 2.152000 255 0 0
0.017382 0.178636 2.160000 255 0 0
0.023378 0.179214 2.167000 255 0 0
0.029385 0.179627 2.172000 255 0 0
0.035403 0.179956 2.176000 255 0 0
0.041461 0.180368 2.181000 255 0 0
0.047569 0.180862 2.187000 255 0 0
0.053685 0.181274 2.192000 255 0 0
0.059800 0.181602 2.196000 255 0 0
0.065878 0.181765 2.198000 255 0 0
0.072064 0.182176 2.203000 255 0 0
0.078349 0.182751 2.210000 255 0 0
0.084633 0.183244 2.216000 255 0 0
0.090949 0.183737 2.222000 255 0 0
0.097168 0.183981 2.225000 255 0 0
0.103448 0.184307 2.229000 255 0 0
0.126261 0.181973 2.201000 255 0 0
0.130185 0.179074 2.166000 255 0 0
0.135110 0.177746 2.150000 255 0 0
0.139947 0.176418 2.134000 255 0 0
0.144900 0.175337 2.121000 255 0 0
0.149853 0.174339 2.109000 255 0 0
0.155257 0.173920 2.104000 255 0 0
0.160709 0.173583 2.100000 255 0 0
0.166455 0.173576 2.100000 255 0 0
0.172201 0.173569 2.100000 255 0 0
0.177946 0.173562 2.100000 255 0 0
0.183340 0.173224 2.096000 255 0 0
0.188441 0.172638 2.089000 255 0 0
-0.119928 0.034657 2.422956 255 255 0
-0.108505 0.034530 2.417590 255 255 0
-0.126816 0.027605 2.392311 255 255 0
-0.081962 0.032442 2.396595 255 255 0
-0.058750 0.035086 2.399482 255 255 0
-0.039806 0.036770 2.399583 255 255 0
-0.005694 0.042012 2.410267 255 255 0
-0.007079 0.039005 2.396548 255 255 0
-0.000027 0.037969 2.388679 255 255 0
0.008701 0.037333 2.382011 255 255 0
0.014895 0.036107 2.373596 255 255 0
0.026964 0.036277 2.369363 255 255 0
0.041532 0.037055 2.366975 255 255 0
0.048532 0.036046 2.359250 255 255 0
0.049664 0.033638 2.347324 255 255 0
0.062510 0.034039 2.343860 255 255 0
0.066145 0.032237 2.333764 255 255 0
0.064773 0.029225 2.320006 255 255 0
0.055074 0.024187 2.300089 255 255 0
0.047903 0.019743 2.281939 255 255 0
0.054897 0.018739 2.274227 255 255 0
-0.281113 -0.022193 2.342560 0 255 0
-0.273918 -0.021361 2.349577 0 255 0
-0.249669 -0.025634 2.344660 0 255 0
-0.191668 -0.036897 2.328679 0 255 0
-0.186955 -0.035244 2.337743 0 255 0
-0.185660 -0.032574 2.349168 0 255 0
-0.178376 -0.031676 2.356484 0 255 0
-0.159947 -0.034053 2.356249 0 255 0
-0.148351 -0.034395 2.360746 0 255 0
-0.141890 -0.033220 2.368760 0 255 0
-0.129411 -0.033794 2.372766 0 255 0
-0.109177 -0.036608 2.371676 0 255 0
-0.022766 -0.049134 2.364948 0 255 0
-0.321942 0.180400 2.260000 255 0 0
-0.316756 0.180970 2.267000 255 0 0
-0.311258 0.181381 2.272000 255 0 0
-0.305328 0.181552 2.274000 255 0 0
-0.299254 0.181642 2.275000 255 0 0
-0.293432 0.181893 2.278000 255 0 0
-0.287592 0.182143 2.281000 255 0 0
-0.282105 0.182633 2.287000 255 0 0
-0.276223 0.182883 2.290000 255 0 0
-0.269851 0.182813 2.289000 255 0 0
-0.263369 0.182663 2.287000 255 0 0
-0.254648 0.180916 2.265000 255 0 0
-0.247363 0.180126 2.255000 255 0 0
-0.240666 0.179736 2.250000 255 0 0
-0.233788 0.179186 2.243000 255 0 0
-0.226845 0.178556 2.235000 255 0 0
-0.220044 0.178005 2.228000 255 0 0
-0.213280 0.177454 2.221000 255 0 0
-0.206740 0.177063 2.216000 255 0 0
-0.199956 0.176431 2.208000 255 0 0
-0.193302 0.175879 2.201000 255 0 0
-0.186600 0.175248 2.193000 255 0 0
-0.179695 0.174376 2.182000 255 0 0
-0.173088 0.173743 2.174000 255 0 0
-0.166524 0.173111 2.166000 255 0 0
-0.160225 0.172717 2.161000 255 0 0
-0.153811 0.172164 2.154000 255 0 0
-0.147571 0.171770 2.149000 255 0 0
-0.141358 0.171376 2.144000 255 0 0
-0.135109 0.170902 2.138000 255 0 0
-0.129013 0.170588 2.134000 255 0 0
-0.122997 0.170353 2.131000 255 0 0
-0.117161 0.170358 2.131000 255 0 0
-0.111272 0.170283 2.130000 255 0 0
-0.105339 0.170127 2.128000 255 0 0
-0.099416 0.169971 2.126000 255 0 0
-0.093504 0.169815 2.124000 255 0 0
-0.087603 0.169659 2.122000 255 0 0
-0.081789 0.169662 2.122000 255 0 0
-0.075939 0.169586 2.121000 255 0 0
-0.070161 0.169668 2.122000 255 0 0
-0.064346 0.169671 2.122000 255 0 0
-0.058531 0.169674 2.122000 255 0 0
-0.052716 0.169676 2.122000 255 0 0
-0.046900 0.169678 2.122000 255 0 0
-0.041123 0.169840 2.124000 255 0 0
-0.035352 0.170081 2.127000 255 0 0
-0.029536 0.170162 2.128000 255 0 0
-0.023726 0.170323 2.130000 255 0 0
-0.017913 0.170564 2.133000 255 0 0
-0.012100 0.171045 2.139000 255 0 0
-0.006252 0.171445 2.144000 255 0 0
-0.000376 0.171685 2.147000 255 0 0
0.005514 0.171845 2.149000 255 0 0
0.011425 0.172164 2.153000 255 0 0
0.017383 0.172723 2.160000 255 0 0
0.023390 0.173362 2.168000 255 0 0
0.029427 0.173921 2.175000 255 0 0
0.035485 0.174399 2.181000 255 0 0
0.041558 0.174798 2.186000 255 0 0
0.047658 0.175196 2.191000 255 0 0
0.053736 0.175433 2.194000 255 0 0
0.059912 0.175911 2.200000 255 0 0
0.066030 0.176148 2.203000 255 0 0
0.072231 0.176545 2.208000 255 0 0
0.078458 0.176942 2.213000 255 0 0
0.084713 0.177338 2.218000 255 0 0
0.090912 0.177575 2.221000 255 0 0
0.096997 0.177571 2.221000 255 0 0
0.103267 0.177887 2.225000 255 0 0
0.126553 0.176349 2.206000 255 0 0
0.130611 0.173706 2.173000 255 0 0
0.135429 0.172262 2.155000 255 0 0
0.140083 0.170738 2.136000 255 0 0
0.144770 0.169373 2.119000 255 0 0
0.149717 0.168408 2.107000 255 0 0
0.154968 0.167843 2.100000 255 0 0
0.160409 0.167517 2.096000 255 0 0
0.166065 0.167431 2.095000 255 0 0
0.171879 0.167504 2.096000 255 0 0
0.177698 0.167577 2.097000 255 0 0
0.182910 0.167090 2.091000 255 0 0
0.188178 0.166684 2.086000 255 0 0
-0.106640 0.023633 2.420152 255 255 0
-0.112210 0.019597 2.403434 255 255 0
-0.093178 0.021281 2.403256 255 255 0
-0.077565 0.022188 2.400870 255 255 0
-0.054366 0.024895 2.403750 255 255 0
-0.050643 0.023048 2.393414 255 255 0
-0.030883 0.024989 2.394140 255 255 0
-0.019589 0.024950 2.389115 255 255 0
0.001795 0.027321 2.391184 255 255 0
-0.002100 0.023692 2.375666 255 255 0
0.010830 0.024077 2.371949 255 255 0
0.021221 0.023867 2.366503 255 255 0
0.042500 0.026292 2.368863 255 255 0
0.048662 0.025091 2.360533 255 255 0
0.053980 0.023690 2.351615 255 255 0
0.061803 0.022902 2.344523 255 255 0
0.067946 0.021710 2.336242 255 255 0
0.071582 0.019909 2.326147 255 255 0
0.065218 0.015651 2.308704 255 255 0
0.052216 0.009742 2.286283 255 255 0
-0.261943 -0.044881 2.305809 0 255 0
-0.268325 -0.039896 2.322567 0 255 0
-0.275575 -0.034663 2.339870 0 255 0
-0.265429 -0.031721 2.356967 0 255 0
-0.243726 -0.035267 2.353935 0 255 0
-0.211752 -0.041874 2.343907 0 255 0
-0.176713 -0.046276 2.344327 0 255 0
-0.166856 -0.046151 2.349926 0 255 0
-0.150993 -0.047801 2.351490 0 255 0
-0.148821 -0.045365 2.362402 0 255 0
-0.144934 -0.043438 2.372153 0 255 0
-0.126451 -0.045815 2.372144 0 255 0
-0.027418 -0.052922 2.394663 0 255 0
-0.323520 0.175071 2.271000 255 0 0
-0.317606 0.175236 2.273000 255 0 0
-0.311543 0.175324 2.274000 255 0 0
-0.305070 0.175181 2.272000 255 0 0
-0.299134 0.175345 2.274000 255 0 0
-0.293185 0.175510 2.276000 255 0 0
-0.287855 0.176060 2.283000 255 0 0
-0.282239 0.176456 2.288000 255 0 0
-0.276715 0.176929 2.294000 255 0 0
-0.270568 0.177016 2.295000 255 0 0
-0.264300 0.177026 2.295000 255 0 0
-0.254320 0.174489 2.262000 255 0 0
-0.246933 0.173650 2.251000 255 0 0
-0.239926 0.173042 2.243000 255 0 0
-0.233171 0.172588 2.237000 255 0 0
-0.226244 0.171979 2.229000 255 0 0
-0.219657 0.171601 2.224000 255 0 0
-0.213096 0.171224 2.219000 255 0 0
-0.206748 0.171000 2.216000 255 0 0
-0.200054 0.170467 2.209000 255 0 0
-0.193397 0.169935 2.202000 255 0 0
-0.186692 0.169324 2.194000 255 0 0
-0.180031 0.168714 2.186000 255 0 0
-0.173572 0.168257 2.180000 255 0 0
-0.167068 0.167724 2.173000 255 0 0
-0.160750 0.167344 2.168000 255 0 0
-0.154245 0.166732 2.160000 255 0 0
-0.147851 0.166198 2.153000 255 0 0
-0.141562 0.165740 2.147000 255 0 0
-0.135304 0.165282 2.141000 255 0 0
-0.129200 0.164979 2.137000 255 0 0
-0.123117 0.164675 2.133000 255 0 0
-0.117220 0.164602 2.132000 255 0 0
-0.111329 0.164529 2.131000 255 0 0
-0.105492 0.164534 2.131000 255 0 0
-0.099514 0.164306 2.128000 255 0 0
-0.093640 0.164233 2.127000 255 0 0
-0.087689 0.164004 2.124000 255 0 0
-0.081908 0.164085 2.125000 255 0 0
-0.076014 0.163934 2.123000 255 0 0
-0.070263 0.164091 2.125000 255 0 0
-0.064500 0.164248 2.127000 255 0 0
-0.058671 0.164250 2.127000 255 0 0
-0.052817 0.164175 2.126000 255 0 0
-0.046991 0.164177 2.126000 255 0 0
-0.041183 0.164256 2.127000 255 0 0
-0.035403 0.164490 2.130000 255 0 0
-0.029593 0.164645 2.132000 255 0 0
-0.023760 0.164724 2.133000 255 0 0
-0.017939 0.164956 2.136000 255 0 0
-0.012101 0.165188 2.139000 255 0 0
-0.006258 0.165729 2.146000 255 0 0
-0.000377 0.166038 2.150000 255 0 0
0.005527 0.166347 2.154000 255 0 0
0.011442 0.166501 2.156000 255 0 0
0.017400 0.166964 2.162000 255 0 0
0.023412 0.167581 2.170000 255 0 0
0.029455 0.168121 2.177000 255 0 0
0.035519 0.168583 2.183000 255 0 0
0.041579 0.168890 2.187000 255 0 0
0.047660 0.169197 2.191000 255 0 0
0.053763 0.169504 2.195000 255 0 0
0.059941 0.169965 2.201000 255 0 0
0.066063 0.170194 2.204000 255 0 0
0.072266 0.170578 2.209000 255 0 0
0.078461 0.170884 2.213000 255 0 0
0.084678 0.171189 2.217000 255 0 0
0.090834 0.171340 2.219000 255 0 0
0.096826 0.171182 2.217000 255 0 0
0.103132 0.171564 2.222000 255 0 0
0.126386 0.170080 2.203000 255 0 0
0.131337 0.168685 2.185000 255 0 0
0.135560 0.166518 2.157000 255 0 0
0.140154 0.164969 2.137000 255 0 0
0.144570 0.163342 2.116000 255 0 0
0.149581 0.162488 2.105000 255 0 0
0.154826 0.161941 2.098000 255 0 0
0.160262 0.161627 2.094000 255 0 0
0.165992 0.161621 2.094000 255 0 0
0.171722 0.161614 2.094000 255 0 0
0.177621 0.161762 2.096000 255 0 0
0.182742 0.161215 2.089000 255 0 0
0.187734 0.160591 2.081000 255 0 0
-0.115812 0.010146 2.415350 255 255 0
-0.116277 0.007274 2.402021 255 255 0
-0.070632 0.012552 2.406865 255 255 0
-0.049984 0.014719 2.408016 255 255 0
-0.050487 0.011867 2.394792 255 255 0
-0.047607 0.009818 2.383869 255 255 0
-0.034612 0.010198 2.379952 255 255 0
-0.004801 0.014645 2.387824 255 255 0
0.010658 0.015664 2.385837 255 255 0
0.022732 0.015881 2.381554 255 255 0
0.038143 0.016923 2.379698 255 255 0
0.040117 0.014705 2.368366 255 255 0
0.047956 0.013920 2.361221 255 255 0
0.059131 0.013963 2.356506 255 255 0
0.074468 0.015044 2.354858 255 255 0
0.063905 0.009738 2.334475 255 255 0
0.066713 0.007727 2.323753 255 255 0
0.067857 0.005302 2.311803 255 255 0
0.128542 -0.039548 2.073014 255 255 0
0.146829 -0.037441 2.074862 255 255 0
0.150483 -0.039242 2.064707 255 255 0
-0.221661 -0.068241 2.278226 0 255 0
-0.261112 -0.052973 2.318667 0 255 0
-0.265799 -0.048489 2.334185 0 255 0
-0.270499 -0.044015 2.349654 0 255 0
-0.218169 -0.050896 2.349643 0 255 0
-0.172906 -0.058494 2.343023 0 255 0
-0.151078 -0.061998 2.340471 0 255 0
-0.142910 -0.061359 2.347331 0 255 0
-0.146723 -0.057116 2.362323 0 255 0
-0.145404 -0.054421 2.373816 0 255 0
-0.119209 -0.059146 2.368661 0 255 0
-0.100701 -0.061544 2.368783 0 255 0
-0.021895 -0.065943 2.392549 0 255 0
-0.021370 -0.062943 2.404832 0 255 0
-0.325241 0.169755 2.283000 255 0 0
-0.318735 0.169617 2.281000 255 0 0
-0.312238 0.169479 2.279000 255 0 0
-0.305752 0.169340 2.277000 255 0 0
-0.299670 0.169425 2.278000 255 0 0
-0.293839 0.169658 2.281000 255 0 0
-0.288243 0.170040 2.286000 255 0 0
-0.282619 0.170422 2.291000 255 0 0
-0.277087 0.170878 2.297000 255 0 0
-0.271050 0.171037 2.299000 255 0 0
-0.265231 0.171344 2.303000 255 0 0
-0.254217 0.168228 2.261000 255 0 0
-0.246284 0.167046 2.245000 255 0 0
-0.239079 0.166311 2.235000 255 0 0
-0.232345 0.165872 2.229000 255 0 0
-0.225644 0.165434 2.223000 255 0 0
-0.219171 0.165144 2.219000 255 0 0
-0.212624 0.164780 2.214000 255 0 0
-0.206383 0.164639 2.212000 255 0 0
-0.199789 0.164200 2.206000 255 0 0
-0.193228 0.163760 2.200000 255 0 0
-0.186529 0.163171 2.192000 255 0 0
-0.180120 0.162806 2.187000 255 0 0
-0.173658 0.162366 2.181000 255 0 0
-0.167382 0.162074 2.177000 255 0 0
-0.160979 0.161634 2.171000 255 0 0
-0.154608 0.161193 2.165000 255 0 0
-0.148269 0.160752 2.159000 255 0 0
-0.141831 0.160161 2.151000 255 0 0
-0.135625 0.159794 2.146000 255 0 0
-0.129567 0.159576 2.143000 255 0 0
-0.123468 0.159283 2.139000 255 0 0
-0.117445 0.159064 2.136000 255 0 0
-0.111437 0.158845 2.133000 255 0 0
-0.105545 0.158774 2.132000 255 0 0
-0.099611 0.158629 2.130000 255 0 0
-0.093732 0.158558 2.129000 255 0 0
-0.087816 0.158413 2.127000 255 0 0
-0.081950 0.158342 2.126000 255 0 0
-0.076088 0.158270 2.125000 255 0 0
-0.070298 0.158347 2.126000 255 0 0
-0.064533 0.158499 2.128000 255 0 0
-0.058701 0.158501 2.128000 255 0 0
-0.052869 0.158503 2.128000 255 0 0
-0.047037 0.158505 2.128000 255 0 0
-0.041243 0.158656 2.130000 255 0 0
-0.035438 0.158806 2.132000 255 0 0
-0.029649 0.159106 2.136000 255 0 0
-0.023806 0.159181 2.137000 255 0 0
-0.017982 0.159480 2.141000 255 0 0
-0.012118 0.159555 2.142000 255 0 0
-0.006267 0.160077 2.149000 255 0 0
-0.000377 0.160375 2.153000 255 0 0
0.005535 0.160673 2.157000 255 0 0
0.011469 0.160970 2.161000 255 0 0
0.017425 0.161268 2.165000 255 0 0
0.023445 0.161863 2.173000 255 0 0
0.029469 0.162234 2.178000 255 0 0
0.035537 0.162680 2.184000 255 0 0
0.041599 0.162976 2.188000 255 0 0
0.047683 0.163273 2.192000 255 0 0
0.053740 0.163420 2.194000 255 0 0
0.059889 0.163790 2.199000 255 0 0
0.066036 0.164085 2.203000 255 0 0
0.072302 0.164604 2.210000 255 0 0
0.078464 0.164825 2.213000 255 0 0
0.084605 0.164971 2.215000 255 0 0
0.090674 0.164967 2.215000 255 0 0
0.096786 0.165038 2.216000 255 0 0
0.103228 0.165630 2.224000 255 0 0
0.127883 0.165985 2.229000 255 0 0
0.131883 0.163374 2.194000 255 0 0
0.135691 0.160763 2.159000 255 0 0
0.140291 0.159269 2.139000 255 0 0
0.144644 0.157625 2.117000 255 0 0
0.149587 0.156726 2.105000 255 0 0
0.154758 0.156125 2.097000 255 0 0
0.160038 0.155672 2.091000 255 0 0
0.165761 0.155666 2.091000 255 0 0
0.171564 0.155735 2.092000 255 0 0
0.177542 0.155952 2.095000 255 0 0
0.182574 0.155350 2.087000 255 0 0
0.187471 0.154673 2.078000 255 0 0
-0.099616 -0.002908 2.401523 255 255 0
-0.070471 0.001321 2.408265 255 255 0
-0.039691 0.005984 2.416311 255 255 0
-0.032604 0.004961 2.408321 255 255 0
-0.037329 0.001078 2.392218 255 255 0
-0.032771 -0.000558 2.382484 255 255 0
-0.016437 0.000683 2.380960 255 255 0
0.010798 0.004615 2.387164 255 255 0
0.035462 0.007953 2.391735 255 255 0
0.038274 0.005937 2.381000 255 255 0
0.045278 0.004956 2.373242 255 255 0
0.053948 0.004395 2.366701 255 255 0
0.073474 0.006546 2.368004 255 255 0
0.065408 0.001830 2.349486 255 255 0
0.059870 -0.002272 2.332716 255 255 0
0.058518 -0.005335 2.318935 255 255 0
0.121415 -0.052571 2.068192 255 255 0
-0.260283 -0.061065 2.331523 0 255 0
-0.266672 -0.056036 2.348206 0 255 0
-0.253510 -0.057073 2.351125 0 255 0
-0.236075 -0.059409 2.351139 0 255 0
-0.217762 -0.061990 2.350645 0 255 0
-0.202835 -0.063505 2.352595 0 255 0
-0.178496 -0.067877 2.348173 0 255 0
-0.146430 -0.074566 2.338627 0 255 0
-0.146811 -0.071339 2.351317 0 255 0
-0.140350 -0.070191 2.359361 0 255 0
-0.138167 -0.067744 2.370303 0 255 0
-0.119695 -0.070208 2.370351 0 255 0
-0.038465 -0.075647 2.392072 0 255 0
-0.024144 -0.076720 2.395444 0 255 0
-0.020164 -0.074728 2.405515 0 255 0
-0.013591 -0.073496 2.413940 0 255 0
-0.325109 0.163442 2.282000 255 0 0
-0.319165 0.163595 2.284000 255 0 0
-0.312660 0.163462 2.282000 255 0 0
-0.306165 0.163329 2.280000 255 0 0
-0.299812 0.163267 2.279000 255 0 0
-0.294107 0.163564 2.283000 255 0 0
-0.288505 0.163932 2.288000 255 0 0
-0.282999 0.164371 2.294000 255 0 0
-0.277096 0.164596 2.297000 255 0 0
-0.271531 0.165035 2.303000 255 0 0
-0.266852 0.166047 2.317000 255 0 0
-0.254451 0.162186 2.263000 255 0 0
-0.246073 0.160761 2.243000 255 0 0
-0.238660 0.159909 2.231000 255 0 0
-0.231832 0.159416 2.224000 255 0 0
-0.225144 0.158993 2.218000 255 0 0
-0.218586 0.158643 2.213000 255 0 0
-0.212055 0.158292 2.208000 255 0 0
-0.205643 0.158012 2.204000 255 0 0
-0.199344 0.157804 2.201000 255 0 0
-0.192796 0.157381 2.195000 255 0 0
-0.186196 0.156886 2.188000 255 0 0
-0.179797 0.156534 2.183000 255 0 0
-0.173505 0.156253 2.179000 255 0 0
-0.167157 0.155901 2.174000 255 0 0
-0.160762 0.155476 2.168000 255 0 0
-0.154542 0.155195 2.164000 255 0 0
-0.148412 0.154985 2.161000 255 0 0
-0.142166 0.154632 2.156000 255 0 0
-0.135946 0.154278 2.151000 255 0 0
-0.129814 0.153996 2.147000 255 0 0
-0.123703 0.153714 2.143000 255 0 0
-0.117559 0.153359 2.138000 255 0 0
-0.111494 0.153077 2.134000 255 0 0
-0.105599 0.153009 2.133000 255 0 0
-0.099708 0.152941 2.132000 255 0 0
-0.093867 0.152944 2.132000 255 0 0
-0.088026 0.152948 2.132000 255 0 0
-0.082145 0.152879 2.131000 255 0 0
-0.076234 0.152738 2.129000 255 0 0
-0.070400 0.152741 2.129000 255 0 0
-0.064596 0.152815 2.130000 255 0 0
-0.058758 0.152818 2.130000 255 0 0
-0.052921 0.152820 2.130000 255 0 0
-0.047105 0.152893 2.131000 255 0 0
-0.041302 0.153038 2.133000 255 0 0
-0.035472 0.153111 2.134000 255 0 0
-0.029678 0.153400 2.138000 255 0 0
-0.023862 0.153688 2.142000 255 0 0
-0.018016 0.153904 2.145000 255 0 0
-0.012136 0.153904 2.145000 255 0 0
-0.006270 0.154263 2.150000 255 0 0
-0.000378 0.154622 2.155000 255 0 0
0.005540 0.154909 2.159000 255 0 0
0.011485 0.155268 2.164000 255 0 0
0.017441 0.155482 2.167000 255 0 0
0.023425 0.155769 2.171000 255 0 0
0.029430 0.156055 2.175000 255 0 0
0.035490 0.156484 2.181000 255 0 0
0.041563 0.156841 2.186000 255 0 0
0.047642 0.157127 2.190000 255 0 0
0.053669 0.157196 2.191000 255 0 0
0.059783 0.157481 2.195000 255 0 0
0.065918 0.157766 2.199000 255 0 0
0.072141 0.158194 2.205000 255 0 0
0.078290 0.158406 2.208000 255 0 0
0.084455 0.158619 2.211000 255 0 0
0.090595 0.158759 2.213000 255 0 0
0.096833 0.159042 2.217000 255 0 0
0.103511 0.159971 2.230000 255 0 0
0.127543 0.159452 2.223000 255 0 0
0.131828 0.157296 2.193000 255 0 0
0.135822 0.154996 2.161000 255 0 0
0.140427 0.153557 2.141000 255 0 0
0.144718 0.151902 2.118000 255 0 0
0.149521 0.150893 2.104000 255 0 0
0.154616 0.150242 2.095000 255 0 0
0.159891 0.149806 2.089000 255 0 0
0.165608 0.149800 2.089000 255 0 0
0.171571 0.150009 2.092000 255 0 0
0.177464 0.150146 2.094000 255 0 0
0.182493 0.149566 2.086000 255 0 0
0.186665 0.148341 2.069000 255 0 0
0.186561 0.143889 2.007000 255 0 0
-0.116369 -0.018336 2.391543 255 255 0
-0.095673 -0.016097 2.392483 255 255 0
-0.060655 -0.010331 2.403306 255 255 0
-0.034985 -0.006807 2.407959 255 255 0
-0.036331 -0.009889 2.394171 255 255 0
-0.032614 -0.011730 2.383851 255 255 0
-0.027217 -0.013155 2.374703 255 255 0
-0.018464 -0.013744 2.367918 255 255 0
0.037569 -0.005270 2.381713 255 255 0
0.046248 -0.005821 2.375135 255 255 0
0.059098 -0.005315 2.371578 255 255 0
0.046862 -0.011121 2.350063 255 255 0
0.046345 -0.013987 2.336895 255 255 0
0.042502 -0.017704 2.321281 255 255 0
0.029513 -0.023762 2.298934 255 255 0
-0.223051 -0.092971 2.269317 0 255 0
-0.242074 -0.083847 2.295306 0 255 0
-0.242481 -0.080633 2.307900 0 255 0
-0.253928 -0.073955 2.328274 0 255 0
-0.251809 -0.071556 2.338997 0 255 0
-0.244591 -0.070752 2.346143 0 255 0
-0.224603 -0.073922 2.344422 0 255 0
-0.211398 -0.074953 2.347522 0 255 0
-0.195618 -0.076763 2.348920 0 255 0
-0.188348 -0.075920 2.356242 0 255 0
-0.163992 -0.080335 2.351939 0 255 0
-0.139600 -0.084722 2.347763 0 255 0
-0.128856 -0.084889 2.352950 0 255 0
-0.124949 -0.082955 2.362781 0 255 0
-0.106473 -0.085456 2.362888 0 255 0
-0.003432 -0.091155 2.396268 0 255 0
-0.014452 -0.081528 2.428571 0 255 0
0.003372 -0.083616 2.429947 0 255 0
0.013430 -0.083396 2.436287 0 255 0
-0.325119 0.157202 2.282000 255 0 0
-0.319175 0.157350 2.284000 255 0 0
-0.312944 0.157360 2.284000 255 0 0
-0.306578 0.157301 2.283000 255 0 0
-0.300348 0.157310 2.283000 255 0 0
-0.294889 0.157733 2.289000 255 0 0
-0.289145 0.158018 2.293000 255 0 0
-0.283501 0.158372 2.298000 255 0 0
-0.277226 0.158381 2.298000 255 0 0
-0.271657 0.158804 2.304000 255 0 0
-0.264442 0.158261 2.296000 255 0 0
-0.257158 0.157649 2.287000 255 0 0
-0.246191 0.154693 2.244000 255 0 0
-0.238775 0.153874 2.232000 255 0 0
-0.231840 0.153330 2.224000 255 0 0
-0.225050 0.152855 2.217000 255 0 0
-0.218396 0.152449 2.211000 255 0 0
-0.211678 0.151973 2.204000 255 0 0
-0.205464 0.151843 2.202000 255 0 0
-0.199079 0.151573 2.198000 255 0 0
-0.192539 0.151166 2.192000 255 0 0
-0.185862 0.150621 2.184000 255 0 0
-0.179556 0.150351 2.180000 255 0 0
-0.173352 0.150151 2.177000 255 0 0
-0.167009 0.149811 2.172000 255 0 0
-0.160842 0.149610 2.169000 255 0 0
-0.154619 0.149340 2.165000 255 0 0
-0.148417 0.149069 2.161000 255 0 0
-0.142105 0.148660 2.155000 255 0 0
-0.135951 0.148389 2.151000 255 0 0
-0.129940 0.148256 2.149000 255 0 0
-0.123939 0.148122 2.147000 255 0 0
-0.117783 0.147781 2.142000 255 0 0
-0.111654 0.147440 2.137000 255 0 0
-0.105652 0.147237 2.134000 255 0 0
-0.099805 0.147241 2.134000 255 0 0
-0.093915 0.147175 2.133000 255 0 0
-0.088112 0.147247 2.134000 255 0 0
-0.082226 0.147181 2.133000 255 0 0
-0.076345 0.147115 2.132000 255 0 0
-0.070469 0.147049 2.131000 255 0 0
-0.064629 0.147051 2.131000 255 0 0
-0.058816 0.147122 2.132000 255 0 0
-0.053022 0.147262 2.134000 255 0 0
-0.047195 0.147333 2.135000 255 0 0
-0.041323 0.147266 2.134000 255 0 0
-0.035474 0.147267 2.134000 255 0 0
-0.029666 0.147475 2.137000 255 0 0
-0.023863 0.147821 2.142000 255 0 0
-0.018025 0.148098 2.146000 255 0 0
-0.012153 0.148237 2.148000 255 0 0
-0.006274 0.148444 2.151000 255 0 0
-0.000378 0.148858 2.157000 255 0 0
0.005543 0.149065 2.160000 255 0 0
0.011491 0.149410 2.165000 255 0 0
0.017442 0.149547 2.167000 255 0 0
0.023426 0.149823 2.171000 255 0 0
0.029445 0.150167 2.176000 255 0 0
0.035507 0.150580 2.182000 255 0 0
0.041583 0.150923 2.187000 255 0 0
0.047578 0.150922 2.187000 255 0 0
0.053597 0.150989 2.188000 255 0 0
0.059676 0.151194 2.191000 255 0 0
0.065801 0.151468 2.195000 255 0 0
0.072013 0.151879 2.201000 255 0 0
0.078151 0.152084 2.204000 255 0 0
0.084305 0.152288 2.207000 255 0 0
0.090517 0.152561 2.211000 255 0 0
0.096924 0.153110 2.219000 255 0 0
0.103607 0.154003 2.232000 255 0 0
0.131592 0.151016 2.189000 255 0 0
0.136078 0.149355 2.165000 255 0 0
0.140695 0.147971 2.145000 255 0 0
0.144996 0.146379 2.122000 255 0 0
0.149597 0.145202 2.105000 255 0 0
0.154548 0.144438 2.094000 255 0 0
0.159820 0.144018 2.088000 255 0 0
0.165535 0.144013 2.088000 255 0 0
0.171413 0.144145 2.090000 255 0 0
0.177216 0.144208 2.091000 255 0 0
0.182149 0.143581 2.082000 255 0 0
0.185318 0.141644 2.054000 255 0 0
0.186381 0.138259 2.005000 255 0 0
-0.143685 -0.033655 2.387628 255 255 0
-0.136486 -0.034713 2.379313 255 255 0
-0.104791 -0.029721 2.387614 255 255 0
-0.071466 -0.024282 2.397232 255 255 0
-0.045794 -0.020696 2.401831 255 255 0
-0.033647 -0.020443 2.397285 255 255 0
-0.019835 -0.019760 2.393956 255 255 0
-0.031261 -0.025387 2.373143 255 255 0
-0.027541 -0.027229 2.362813 255 255 0
-0.006209 -0.024627 2.364869 255 255 0
0.025976 -0.019250 2.374730 255 255 0
0.054752 -0.014692 2.382384 255 255 0
0.037817 -0.024485 2.344761 255 255 0
0.042319 -0.026086 2.335177 255 255 0
0.032652 -0.031329 2.315317 255 255 0
0.031339 -0.034439 2.301451 255 255 0
-0.235270 -0.087716 2.328623 0 255 0
-0.238235 -0.083694 2.342961 0 255 0
-0.217399 -0.087178 2.340687 0 255 0
-0.199937 -0.089571 2.340877 0 255 0
-0.184154 -0.091411 2.342325 0 255 0
-0.170053 -0.092704 2.345016 0 255 0
-0.152521 -0.095044 2.345446 0 255 0
-0.128130 -0.099488 2.341328 0 255 0
-0.103702 -0.103905 2.337334 0 255 0
-0.325272 0.151028 2.283000 255 0 0
-0.319324 0.151170 2.285000 255 0 0
-0.313228 0.151246 2.286000 255 0 0
-0.306856 0.151189 2.285000 255 0 0
-0.300620 0.151199 2.285000 255 0 0
-0.295028 0.151539 2.290000 255 0 0
-0.289154 0.151746 2.293000 255 0 0
-0.283510 0.152086 2.298000 255 0 0
-0.277235 0.152095 2.298000 255 0 0
-0.271312 0.152302 2.301000 255 0 0
-0.246309 0.148619 2.245000 255 0 0
-0.238676 0.147700 2.231000 255 0 0
-0.231848 0.147244 2.224000 255 0 0
-0.224854 0.146656 2.215000 255 0 0
-0.218206 0.146265 2.209000 255 0 0
-0.211589 0.145875 2.203000 255 0 0
-0.205471 0.145816 2.202000 255 0 0
-0.198995 0.145491 2.197000 255 0 0
-0.192458 0.145100 2.191000 255 0 0
-0.185698 0.144510 2.182000 255 0 0
-0.179233 0.144119 2.176000 255 0 0
-0.173039 0.143926 2.173000 255 0 0
-0.166784 0.143667 2.169000 255 0 0
-0.160773 0.143606 2.168000 255 0 0
-0.154481 0.143280 2.163000 255 0 0
-0.148422 0.143152 2.161000 255 0 0
-0.142175 0.142826 2.156000 255 0 0
-0.136082 0.142632 2.153000 255 0 0
-0.130004 0.142438 2.150000 255 0 0
-0.124001 0.142309 2.148000 255 0 0
-0.117842 0.141982 2.143000 255 0 0
-0.111711 0.141655 2.138000 255 0 0
-0.105754 0.141526 2.136000 255 0 0
-0.099902 0.141529 2.136000 255 0 0
-0.094006 0.141466 2.135000 255 0 0
-0.088156 0.141469 2.135000 255 0 0
-0.082305 0.141472 2.135000 255 0 0
-0.076490 0.141541 2.136000 255 0 0
-0.070604 0.141477 2.135000 255 0 0
-0.064813 0.141612 2.137000 255 0 0
-0.058956 0.141614 2.137000 255 0 0
-0.053148 0.141749 2.139000 255 0 0
-0.047285 0.141751 2.139000 255 0 0
-0.041402 0.141686 2.138000 255 0 0
-0.035508 0.141555 2.136000 255 0 0
-0.029680 0.141688 2.138000 255 0 0
-0.023864 0.141954 2.142000 255 0 0
-0.018017 0.142154 2.145000 255 0 0
-0.012159 0.142419 2.149000 255 0 0
-0.006274 0.142552 2.151000 255 0 0
-0.000378 0.142884 2.156000 255 0 0
0.005541 0.143082 2.159000 255 0 0
0.011481 0.143347 2.163000 255 0 0
0.017435 0.143546 2.166000 255 0 0
0.023416 0.143810 2.170000 255 0 0
0.029432 0.144140 2.175000 255 0 0
0.035476 0.144471 2.180000 255 0 0
0.041528 0.144734 2.184000 255 0 0
0.047536 0.144799 2.185000 255 0 0
0.053525 0.144797 2.185000 255 0 0
0.059623 0.145061 2.189000 255 0 0
0.065773 0.145390 2.194000 255 0 0
0.071950 0.145719 2.199000 255 0 0
0.078083 0.145915 2.202000 255 0 0
0.084232 0.146111 2.205000 255 0 0
0.090643 0.146704 2.214000 255 0 0
0.096928 0.147033 2.219000 255 0 0
0.103472 0.147692 2.229000 255 0 0
0.132198 0.145684 2.199000 255 0 0
0.136397 0.143759 2.170000 255 0 0
0.140831 0.142230 2.147000 255 0 0
0.145001 0.140569 2.122000 255 0 0
0.149460 0.139306 2.103000 255 0 0
0.154405 0.138572 2.092000 255 0 0
0.159596 0.138103 2.085000 255 0 0
0.165223 0.138032 2.084000 255 0 0
0.170926 0.138026 2.084000 255 0 0
0.176713 0.138087 2.085000 255 0 0
0.181718 0.137551 2.077000 255 0 0
0.184603 0.135492 2.046000 255 0 0
0.190199 0.135486 2.046000 255 0 0
-0.155336 -0.048065 2.381164 255 255 0
-0.141362 -0.047434 2.377359 255 255 0
-0.114741 -0.043626 2.382191 255 255 0
-0.059961 -0.035511 2.393416 255 255 0
-0.027597 -0.030142 2.402716 255 255 0
-0.015477 -0.029850 2.398228 255 255 0
-0.015136 -0.032535 2.385612 255 255 0
-0.010593 -0.034155 2.375911 255 255 0
0.005683 -0.032775 2.374465 255 255 0
0.028631 -0.029664 2.377827 255 255 0
0.042337 -0.028898 2.374770 255 255 0
0.040144 -0.032217 2.360435 255 255 0
0.045477 -0.033597 2.351460 255 255 0
0.051639 -0.034759 2.343096 255 255 0
0.059461 -0.035485 2.335957 255 255 0
0.053131 -0.039900 2.318529 255 255 0
-0.234874 -0.098832 2.329610 0 255 0
-0.207265 -0.104544 2.322574 0 255 0
-0.194447 -0.102382 2.338375 0 255 0
-0.176963 -0.104796 2.338684 0 255 0
-0.166270 -0.105041 2.343747 0 255 0
-0.137655 -0.110909 2.336652 0 255 0
-0.121798 -0.112730 2.338386 0 255 0
-0.325139 0.144722 2.282000 255 0 0
-0.319753 0.145111 2.288000 255 0 0
-0.313374 0.145057 2.287000 255 0 0
-0.306865 0.144939 2.285000 255 0 0
-0.300629 0.144948 2.285000 255 0 0
-0.295036 0.145274 2.290000 255 0 0
-0.289289 0.145537 2.294000 255 0 0
-0.283396 0.145736 2.297000 255 0 0
-0.277244 0.145807 2.298000 255 0 0
-0.256274 0.144626 2.279000 255 0 0
-0.246536 0.142603 2.247000 255 0 0
-0.238576 0.141531 2.230000 255 0 0
-0.231438 0.140904 2.220000 255 0 0
-0.224557 0.140403 2.212000 255 0 0
-0.218213 0.140219 2.209000 255 0 0
-0.211692 0.139909 2.204000 255 0 0
-0.205571 0.139852 2.203000 255 0 0
-0.199001 0.139477 2.197000 255 0 0
-0.192640 0.139229 2.193000 255 0 0
-0.185959 0.138727 2.185000 255 0 0
-0.179486 0.138352 2.179000 255 0 0
-0.173124 0.138040 2.174000 255 0 0
-0.166944 0.137855 2.171000 255 0 0
-0.160927 0.137797 2.170000 255 0 0
-0.154843 0.137675 2.168000 255 0 0
-0.148702 0.137489 2.165000 255 0 0
-0.142444 0.137176 2.160000 255 0 0
-0.136276 0.136927 2.156000 255 0 0
-0.130251 0.136804 2.154000 255 0 0
-0.124236 0.136681 2.152000 255 0 0
-0.118176 0.136494 2.149000 255 0 0
-0.112080 0.136244 2.145000 255 0 0
-0.106105 0.136120 2.143000 255 0 0
-0.100186 0.136060 2.142000 255 0 0
-0.094185 0.135873 2.139000 255 0 0
-0.088365 0.135939 2.140000 255 0 0
-0.082501 0.135942 2.140000 255 0 0
-0.076708 0.136072 2.142000 255 0 0
-0.070804 0.136011 2.141000 255 0 0
-0.064967 0.136076 2.142000 255 0 0
-0.059096 0.136078 2.142000 255 0 0
-0.053274 0.136207 2.144000 255 0 0
-0.047397 0.136209 2.144000 255 0 0
-0.041539 0.136274 2.145000 255 0 0
-0.035626 0.136148 2.143000 255 0 0
-0.029765 0.136213 2.144000 255 0 0
-0.023909 0.136341 2.146000 255 0 0
-0.018043 0.136468 2.148000 255 0 0
-0.012165 0.136596 2.150000 255 0 0
-0.006277 0.136723 2.152000 255 0 0
-0.000378 0.136978 2.156000 255 0 0
0.005541 0.137168 2.159000 255 0 0
0.011470 0.137295 2.161000 255 0 0
0.017427 0.137549 2.165000 255 0 0
0.023395 0.137739 2.168000 255 0 0
0.029433 0.138182 2.175000 255 0 0
0.035444 0.138372 2.178000 255 0 0
0.041491 0.138625 2.182000 255 0 0
0.047494 0.138687 2.183000 255 0 0
0.053576 0.138939 2.187000 255 0 0
0.059680 0.139192 2.191000 255 0 0
0.065835 0.139507 2.196000 255 0 0
0.072018 0.139823 2.201000 255 0 0
0.078156 0.140011 2.204000 255 0 0
0.084349 0.140262 2.208000 255 0 0
0.090686 0.140704 2.215000 255 0 0
0.096974 0.141019 2.220000 255 0 0
0.103568 0.141714 2.231000 255 0 0
0.132262 0.139726 2.200000 255 0 0
0.136401 0.137816 2.170000 255 0 0
0.140704 0.136224 2.145000 255 0 0
0.145006 0.134759 2.122000 255 0 0
0.149323 0.133421 2.101000 255 0 0
0.154337 0.132781 2.091000 255 0 0
0.159601 0.132395 2.085000 255 0 0
0.165308 0.132390 2.085000 255 0 0
0.170932 0.132321 2.084000 255 0 0
0.176634 0.132315 2.084000 255 0 0
0.181461 0.131675 2.074000 255 0 0
0.182804 0.128622 2.026000 255 0 0
0.191507 0.130774 2.060000 255 0 0
-0.155131 -0.059581 2.382645 255 255 0
-0.074497 -0.047709 2.397759 255 255 0
-0.053896 -0.045277 2.398850 255 255 0
-0.033331 -0.042825 2.400043 255 255 0
-0.010281 -0.039710 2.403079 255 255 0
-0.000707 -0.040028 2.396894 255 255 0
0.008015 -0.040556 2.390161 255 255 0
0.019240 -0.040428 2.385223 255 255 0
0.029612 -0.040508 2.379741 255 255 0
0.035788 -0.041670 2.371331 255 255 0
0.049475 -0.040866 2.368302 255 255 0
0.062306 -0.040269 2.364736 255 255 0
0.076783 -0.039224 2.362426 255 255 0
0.067930 -0.044313 2.343282 255 255 0
0.060766 -0.048975 2.325275 255 255 0
-0.203959 -0.119829 2.309158 0 255 0
-0.199248 -0.118211 2.318255 0 255 0
-0.192836 -0.117136 2.326179 0 255 0
-0.194918 -0.113333 2.340002 0 255 0
-0.191905 -0.111167 2.350281 0 255 0
-0.183783 -0.110630 2.357060 0 255 0
-0.152640 -0.117398 2.348199 0 255 0
-0.125714 -0.122780 2.342393 0 255 0
-0.109845 -0.124625 2.344208 0 255 0
-0.028303 -0.118113 2.416558 0 255 0
-0.031220 -0.114022 2.431018 0 255 0
-0.324863 0.138359 2.280000 255 0 0
-0.320042 0.138975 2.290000 255 0 0
-0.313657 0.138923 2.289000 255 0 0
-0.307008 0.138750 2.286000 255 0 0
-0.300638 0.138697 2.285000 255 0 0
-0.294787 0.138888 2.288000 255 0 0
-0.289045 0.139139 2.292000 255 0 0
-0.283157 0.139329 2.295000 255 0 0
-0.277493 0.139641 2.300000 255 0 0
-0.273569 0.140863 2.320000 255 0 0
-0.254708 0.137539 2.265000 255 0 0
-0.246543 0.136453 2.247000 255 0 0
-0.238583 0.135428 2.230000 255 0 0
-0.231132 0.134645 2.217000 255 0 0
-0.224259 0.134166 2.209000 255 0 0
-0.218120 0.134112 2.208000 255 0 0
-0.211890 0.133997 2.206000 255 0 0
-0.205670 0.133882 2.204000 255 0 0
-0.199189 0.133584 2.199000 255 0 0
-0.192821 0.133347 2.195000 255 0 0
-0.186305 0.132988 2.189000 255 0 0
-0.179821 0.132629 2.183000 255 0 0
-0.173289 0.132209 2.176000 255 0 0
-0.166949 0.131910 2.171000 255 0 0
-0.160858 0.131794 2.169000 255 0 0
-0.154705 0.131616 2.166000 255 0 0
-0.148775 0.131621 2.166000 255 0 0
-0.142712 0.131504 2.164000 255 0 0
-0.136470 0.131204 2.159000 255 0 0
-0.130315 0.130965 2.155000 255 0 0
-0.124239 0.130787 2.152000 255 0 0
-0.118180 0.130608 2.149000 255 0 0
-0.112136 0.130430 2.146000 255 0 0
-0.106207 0.130372 2.145000 255 0 0
-0.100377 0.130436 2.146000 255 0 0
-0.094452 0.130379 2.145000 255 0 0
-0.088575 0.130381 2.145000 255 0 0
-0.082696 0.130384 2.145000 255 0 0
-0.076889 0.130508 2.147000 255 0 0
-0.071005 0.130510 2.147000 255 0 0
-0.065120 0.130513 2.147000 255 0 0
-0.059208 0.130454 2.146000 255 0 0
-0.053350 0.130516 2.147000 255 0 0
-0.047443 0.130457 2.146000 255 0 0
-0.041599 0.130580 2.148000 255 0 0
-0.035693 0.130520 2.147000 255 0 0
-0.029835 0.130643 2.149000 255 0 0
-0.023944 0.130644 2.149000 255 0 0
-0.018077 0.130827 2.152000 255 0 0
-0.012177 0.130828 2.152000 255 0 0
-0.006283 0.130949 2.154000 255 0 0
-0.000378 0.131010 2.155000 255 0 0
0.005541 0.131253 2.159000 255 0 0
0.011466 0.131314 2.160000 255 0 0
0.017412 0.131496 2.163000 255 0 0
0.023374 0.131678 2.166000 255 0 0
0.029393 0.132041 2.172000 255 0 0
0.035397 0.132223 2.175000 255 0 0
0.041435 0.132465 2.179000 255 0 0
0.047496 0.132707 2.183000 255 0 0
0.053627 0.133070 2.189000 255 0 0
0.059736 0.133311 2.193000 255 0 0
0.065867 0.133552 2.197000 255 0 0
0.072053 0.133854 2.202000 255 0 0
0.078301 0.134216 2.208000 255 0 0
0.084543 0.134518 2.213000 255 0 0
0.090853 0.134880 2.219000 255 0 0
0.097109 0.135120 2.223000 255 0 0
0.132627 0.134065 2.206000 255 0 0
0.136532 0.131995 2.172000 255 0 0
0.140643 0.130289 2.144000 255 0 0
0.145010 0.128948 2.122000 255 0 0
0.149185 0.127546 2.099000 255 0 0
0.154194 0.126933 2.089000 255 0 0
0.159453 0.126564 2.083000 255 0 0
0.165154 0.126559 2.083000 255 0 0
0.170773 0.126493 2.082000 255 0 0
0.176385 0.126427 2.081000 255 0 0
0.181204 0.125814 2.071000 255 0 0
-0.133357 -0.068471 2.385410 255 255 0
-0.076008 -0.059455 2.398032 255 255 0
-0.060463 -0.058274 2.395648 255 255 0
-0.039058 -0.055557 2.397380 255 255 0
-0.014330 -0.051948 2.401541 255 255 0
0.003639 -0.050064 2.401164 255 255 0
0.015709 -0.049699 2.396776 255 255 0
0.025248 -0.049982 2.390674 255 255 0
0.033939 -0.050479 2.384018 255 255 0
0.040111 -0.051631 2.375614 255 255 0
0.052955 -0.051013 2.371990 255 255 0
0.064945 -0.050607 2.367824 255 255 0
0.071087 -0.051744 2.359504 255 255 0
0.053097 -0.059318 2.333714 255 255 0
0.054268 -0.061797 2.321720 255 255 0
-0.215450 -0.127196 2.318509 0 255 0
-0.193788 -0.131111 2.315731 0 255 0
-0.183976 -0.131145 2.321320 0 255 0
-0.192842 -0.125119 2.339871 0 255 0
-0.201729 -0.119109 2.358349 0 255 0
-0.196170 -0.117770 2.366856 0 255 0
-0.176979 -0.120803 2.366103 0 255 0
-0.124860 -0.131164 2.355688 0 255 0
-0.029054 -0.135795 2.393214 0 255 0
-0.015612 -0.136758 2.397244 0 255 0
-0.015061 -0.133702 2.409573 0 255 0
-0.325584 0.132413 2.285000 255 0 0
-0.319910 0.132653 2.289000 255 0 0
-0.313803 0.132719 2.290000 255 0 0
-0.307420 0.132670 2.289000 255 0 0
-0.301041 0.132620 2.288000 255 0 0
-0.295053 0.132744 2.290000 255 0 0
-0.288927 0.132810 2.291000 255 0 0
-0.283165 0.133050 2.295000 255 0 0
-0.277742 0.133463 2.302000 255 0 0
-0.254377 0.131166 2.262000 255 0 0
-0.246770 0.130419 2.249000 255 0 0
-0.238911 0.129498 2.233000 255 0 0
-0.231035 0.128519 2.216000 255 0 0
-0.223758 0.127829 2.204000 255 0 0
-0.217336 0.127603 2.200000 255 0 0
-0.211416 0.127668 2.201000 255 0 0
-0.205303 0.127616 2.200000 255 0 0
-0.199194 0.127563 2.199000 255 0 0
-0.192739 0.127279 2.194000 255 0 0
-0.186481 0.127110 2.191000 255 0 0
-0.179908 0.126709 2.184000 255 0 0
-0.173453 0.126366 2.178000 255 0 0
-0.167108 0.126081 2.173000 255 0 0
-0.160937 0.125912 2.170000 255 0 0
-0.154924 0.125859 2.169000 255 0 0
-0.148848 0.125747 2.167000 255 0 0
-0.142848 0.125693 2.166000 255 0 0
-0.136537 0.125349 2.160000 255 0 0
-0.130380 0.125121 2.156000 255 0 0
-0.124243 0.124893 2.152000 255 0 0
-0.118238 0.124780 2.150000 255 0 0
-0.112139 0.124551 2.146000 255 0 0
-0.106260 0.124555 2.146000 255 0 0
-0.100380 0.124558 2.146000 255 0 0
-0.094499 0.124561 2.146000 255 0 0
-0.088619 0.124563 2.146000 255 0 0
-0.082776 0.124624 2.147000 255 0 0
-0.076928 0.124684 2.148000 255 0 0
-0.071073 0.124745 2.149000 255 0 0
-0.065183 0.124747 2.149000 255 0 0
-0.059292 0.124749 2.149000 255 0 0
-0.053402 0.124750 2.149000 255 0 0
-0.047510 0.124752 2.149000 255 0 0
-0.041639 0.124811 2.150000 255 0 0
-0.035761 0.124870 2.151000 255 0 0
-0.029864 0.124871 2.151000 255 0 0
-0.023967 0.124872 2.151000 255 0 0
-0.018086 0.124989 2.153000 255 0 0
-0.012183 0.124989 2.153000 255 0 0
-0.006283 0.125048 2.154000 255 0 0
-0.000377 0.125048 2.154000 255 0 0
0.005541 0.125338 2.159000 255 0 0
0.011476 0.125512 2.162000 255 0 0
0.017436 0.125744 2.166000 255 0 0
0.023407 0.125917 2.169000 255 0 0
0.029435 0.126265 2.175000 255 0 0
0.035447 0.126438 2.178000 255 0 0
0.041475 0.126611 2.181000 255 0 0
0.047541 0.126842 2.185000 255 0 0
0.053727 0.127305 2.193000 255 0 0
0.059820 0.127477 2.196000 255 0 0
0.065929 0.127649 2.199000 255 0 0
0.072120 0.127938 2.204000 255 0 0
0.078409 0.128342 2.211000 255 0 0
0.084622 0.128571 2.215000 255 0 0
0.090856 0.128801 2.219000 255 0 0
0.097024 0.128914 2.221000 255 0 0
0.132270 0.127675 2.200000 255 0 0
0.136787 0.126278 2.176000 255 0 0
0.140778 0.124533 2.146000 255 0 0
0.145015 0.123136 2.122000 255 0 0
0.149190 0.121797 2.099000 255 0 0
0.154051 0.121097 2.087000 255 0 0
0.159381 0.120802 2.082000 255 0 0
0.165001 0.120739 2.081000 255 0 0
0.170696 0.120734 2.081000 255 0 0
0.176221 0.120613 2.079000 255 0 0
0.181210 0.120144 2.071000 255 0 0
-0.075830 -0.070783 2.399455 255 255 0
-0.056925 -0.068686 2.399356 255 255 0
-0.032168 -0.065031 2.403389 255 255 0
-0.012495 -0.062678 2.404071 255 255 0
-0.002083 -0.062740 2.398442 255 255 0
0.007477 -0.063016 2.392271 255 255 0
0.022883 -0.061731 2.390247 255 255 0
0.039099 -0.060211 2.388884 255 255 0
0.039420 -0.062913 2.376341 255 255 0
0.042252 -0.064948 2.365564 255 255 0
0.045084 -0.066984 2.354783 255 255 0
0.052913 -0.067675 2.347596 255 255 0
0.056574 -0.069485 2.337423 255 255 0
0.043625 -0.075798 2.315154 255 255 0
-0.209258 -0.146659 2.290606 0 255 0
-0.235003 -0.134980 2.321197 0 255 0
-0.210841 -0.139811 2.316554 0 255 0
-0.170041 -0.146889 2.312945 0 255 0
-0.166151 -0.144981 2.322735 0 255 0
-0.151213 -0.146675 2.324934 0 255 0
-0.157516 -0.141440 2.341743 0 255 0
-0.174050 -0.132905 2.365443 0 255 0
-0.168468 -0.131556 2.374037 0 255 0
-0.059311 -0.140983 2.401599 0 255 0
-0.036461 -0.144977 2.399444 0 255 0
-0.003861 -0.145508 2.416609 0 255 0
-0.005891 -0.141639 2.430574 0 255 0
-0.325878 0.126273 2.287000 255 0 0
-0.320198 0.126502 2.291000 255 0 0
-0.314222 0.126620 2.293000 255 0 0
-0.307831 0.126573 2.292000 255 0 0
-0.301312 0.126471 2.290000 255 0 0
-0.295061 0.126478 2.290000 255 0 0
-0.288809 0.126486 2.290000 255 0 0
-0.283419 0.126880 2.297000 255 0 0
-0.279439 0.127937 2.316000 255 0 0
-0.253822 0.124698 2.257000 255 0 0
-0.246228 0.123987 2.244000 255 0 0
-0.239025 0.123441 2.234000 255 0 0
-0.231458 0.122674 2.220000 255 0 0
-0.223764 0.121795 2.204000 255 0 0
-0.216651 0.121194 2.193000 255 0 0
-0.210461 0.121089 2.191000 255 0 0
-0.204375 0.121039 2.190000 255 0 0
-0.198475 0.121100 2.191000 255 0 0
-0.192393 0.121050 2.190000 255 0 0
