ply
format ascii 1.0
element vertex 1328
property double x
property double y
property double z
property uchar red
property uchar green
property uchar blue
end_header
-0.061487 0.770500 1.875000 255 0 0
-0.056872 0.777077 1.891000 255 0 0
-0.051868 0.779133 1.896000 255 0 0
-0.046936 0.782833 1.905000 255 0 0
-0.042065 0.788587 1.919000 255 0 0
-0.036983 0.791464 1.926000 255 0 0
-0.149873 0.748641 1.834000 255 0 0
-0.145600 0.752317 1.843000 255 0 0
-0.144176 0.771506 1.890000 255 0 0
-0.133902 0.771513 1.890000 255 0 0
-0.127880 0.766209 1.877000 255 0 0
-0.124348 0.776009 1.901000 255 0 0
-0.118679 0.772746 1.893000 255 0 0
-0.111555 0.759278 1.860000 255 0 0
-0.109305 0.779283 1.909000 255 0 0
-0.102044 0.763774 1.871000 255 0 0
-0.096854 0.762960 1.869000 255 0 0
-0.092609 0.769902 1.886000 255 0 0
-0.087204 0.767455 1.880000 255 0 0
-0.081570 0.762558 1.868000 255 0 0
-0.076124 0.758886 1.859000 255 0 0
-0.071415 0.762562 1.868000 255 0 0
-0.066621 0.765830 1.876000 255 0 0
-0.061226 0.762158 1.867000 255 0 0
-0.056151 0.762159 1.867000 255 0 0
-0.051377 0.766651 1.878000 255 0 0
-0.046716 0.774001 1.896000 255 0 0
-0.041781 0.778084 1.906000 255 0 0
-0.036600 0.778085 1.906000 255 0 0
-0.031831 0.788292 1.931000 255 0 0
-0.158239 0.759888 1.874000 255 0 0
-0.147183 0.755435 1.863000 255 0 0
-0.143569 0.763143 1.882000 255 0 0
-0.138822 0.765174 1.887000 255 0 0
-0.131851 0.754634 1.861000 255 0 0
-0.128019 0.761936 1.879000 255 0 0
-0.122716 0.760723 1.876000 255 0 0
-0.117303 0.758699 1.871000 255 0 0
-0.111138 0.751403 1.853000 255 0 0
-0.104383 0.739240 1.823000 255 0 0
-0.100464 0.746948 1.842000 255 0 0
-0.095458 0.746950 1.842000 255 0 0
-0.091384 0.754658 1.861000 255 0 0
-0.086696 0.757904 1.869000 255 0 0
-0.081572 0.757501 1.868000 255 0 0
-0.076044 0.753043 1.857000 255 0 0
-0.071455 0.757911 1.869000 255 0 0
-0.066729 0.761968 1.879000 255 0 0
-0.061851 0.764809 1.886000 255 0 0
-0.056273 0.758728 1.871000 255 0 0
-0.051515 0.763595 1.883000 255 0 0
-0.047407 0.780223 1.924000 255 0 0
-0.041278 0.763598 1.883000 255 0 0
-0.036447 0.769682 1.898000 255 0 0
-0.031634 0.778199 1.919000 255 0 0
-0.027092 0.798071 1.968000 255 0 0
-0.185192 0.782587 1.943000 255 0 0
-0.176485 0.767689 1.906000 255 0 0
-0.169148 0.758026 1.882000 255 0 0
-0.157736 0.752396 1.868000 255 0 0
-0.153558 0.756830 1.879000 255 0 0
-0.149004 0.759653 1.886000 255 0 0
-0.143115 0.755629 1.876000 255 0 0
-0.137942 0.755230 1.875000 255 0 0
-0.132846 0.755234 1.875000 255 0 0
-0.127477 0.753626 1.871000 255 0 0
-0.122981 0.757255 1.880000 255 0 0
-0.116240 0.746786 1.854000 255 0 0
-0.110961 0.745178 1.850000 255 0 0
-0.105703 0.743570 1.846000 255 0 0
-0.100031 0.738739 1.834000 255 0 0
-0.095512 0.742367 1.843000 255 0 0
-0.090797 0.744787 1.849000 255 0 0
-0.086513 0.751234 1.865000 255 0 0
-0.081400 0.750834 1.864000 255 0 0
-0.076660 0.754059 1.872000 255 0 0
-0.072260 0.761312 1.890000 255 0 0
-0.067406 0.764536 1.898000 255 0 0
-0.062017 0.761718 1.891000 255 0 0
-0.056606 0.758095 1.882000 255 0 0
-0.050806 0.748026 1.857000 255 0 0
-0.046546 0.760918 1.889000 255 0 0
-0.041235 0.757697 1.881000 255 0 0
-0.036986 0.775825 1.926000 255 0 0
-0.031668 0.773812 1.921000 255 0 0
-0.026734 0.782272 1.942000 255 0 0
-0.198175 0.786917 1.967000 255 0 0
-0.190477 0.777320 1.943000 255 0 0
-0.185005 0.776524 1.941000 255 0 0
-0.180286 0.778929 1.947000 255 0 0
-0.171040 0.761331 1.903000 255 0 0
-0.165170 0.758135 1.895000 255 0 0
-0.160442 0.760140 1.900000 255 0 0
-0.154951 0.758544 1.896000 255 0 0
-0.149798 0.758548 1.896000 255 0 0
-0.144034 0.755351 1.888000 255 0 0
-0.138829 0.754955 1.887000 255 0 0
-0.133771 0.755359 1.888000 255 0 0
-0.128299 0.753363 1.883000 255 0 0
-0.121872 0.745365 1.863000 255 0 0
-0.116808 0.745368 1.863000 255 0 0
-0.111444 0.743371 1.858000 255 0 0
-0.105935 0.740174 1.850000 255 0 0
-0.100743 0.738977 1.847000 255 0 0
-0.095878 0.740180 1.850000 255 0 0
-0.090947 0.740983 1.852000 255 0 0
-0.086098 0.742586 1.856000 255 0 0
-0.081490 0.746590 1.866000 255 0 0
-0.076786 0.750194 1.875000 255 0 0
-0.073065 0.764600 1.911000 255 0 0
-0.068864 0.775805 1.939000 255 0 0
-0.062216 0.759003 1.897000 255 0 0
-0.055765 0.741800 1.854000 255 0 0
-0.050534 0.739001 1.847000 255 0 0
-0.045857 0.744604 1.861000 255 0 0
-0.042245 0.771013 1.927000 255 0 0
-0.036641 0.763412 1.908000 255 0 0
-0.031932 0.775016 1.937000 255 0 0
-0.026708 0.776218 1.940000 255 0 0
-0.021522 0.779419 1.948000 255 0 0
-0.202284 0.776816 1.955000 255 0 0
-0.193848 0.764503 1.924000 255 0 0
-0.188521 0.764111 1.923000 255 0 0
-0.184438 0.768884 1.935000 255 0 0
-0.179550 0.770479 1.939000 255 0 0
-0.172662 0.763331 1.921000 255 0 0
-0.167180 0.762144 1.918000 255 0 0
-0.161798 0.761354 1.916000 255 0 0
-0.156018 0.758577 1.909000 255 0 0
-0.150118 0.755005 1.900000 255 0 0
-0.144725 0.753817 1.897000 255 0 0
-0.139863 0.755411 1.901000 255 0 0
-0.135334 0.758992 1.910000 255 0 0
-0.129665 0.756214 1.903000 255 0 0
-0.122661 0.745091 1.875000 255 0 0
-0.117000 0.741519 1.866000 255 0 0
-0.112467 0.745099 1.875000 255 0 0
-0.107256 0.744308 1.873000 255 0 0
-0.101837 0.741927 1.867000 255 0 0
-0.096244 0.737956 1.857000 255 0 0
-0.091196 0.737959 1.857000 255 0 0
-0.086101 0.737565 1.856000 255 0 0
-0.081143 0.738362 1.858000 255 0 0
-0.076338 0.740750 1.864000 255 0 0
-0.071423 0.742342 1.868000 255 0 0
-0.066558 0.744729 1.874000 255 0 0
-0.061201 0.741552 1.866000 255 0 0
-0.056128 0.741554 1.866000 255 0 0
-0.051219 0.743940 1.872000 255 0 0
-0.046105 0.743544 1.871000 255 0 0
-0.041128 0.745533 1.876000 255 0 0
-0.037507 0.776134 1.953000 255 0 0
-0.032296 0.778520 1.959000 255 0 0
-0.026681 0.770176 1.938000 255 0 0
-0.021412 0.770176 1.938000 255 0 0
-0.201461 0.768365 1.947000 255 0 0
-0.193450 0.757715 1.920000 255 0 0
-0.187447 0.754563 1.912000 255 0 0
-0.184157 0.762461 1.932000 255 0 0
-0.178629 0.761283 1.929000 255 0 0
-0.172667 0.758131 1.921000 255 0 0
-0.166836 0.755373 1.914000 255 0 0
-0.161971 0.756957 1.918000 255 0 0
-0.156186 0.754199 1.911000 255 0 0
-0.150597 0.752231 1.906000 255 0 0
-0.145035 0.750262 1.901000 255 0 0
-0.140162 0.751845 1.905000 255 0 0
-0.135196 0.753034 1.908000 255 0 0
-0.129397 0.749486 1.899000 255 0 0
-0.123581 0.745544 1.889000 255 0 0
-0.118070 0.743180 1.883000 255 0 0
-0.113311 0.745552 1.889000 255 0 0
-0.108061 0.744766 1.887000 255 0 0
-0.102222 0.739639 1.874000 255 0 0
-0.096713 0.736485 1.866000 255 0 0
-0.091543 0.735699 1.864000 255 0 0
-0.086522 0.736097 1.865000 255 0 0
-0.081408 0.735705 1.864000 255 0 0
-0.076340 0.735708 1.864000 255 0 0
-0.071388 0.736895 1.867000 255 0 0
-0.066241 0.736108 1.865000 255 0 0
-0.061498 0.740057 1.875000 255 0 0
-0.056611 0.742822 1.882000 255 0 0
-0.051577 0.744008 1.885000 255 0 0
-0.046378 0.742826 1.882000 255 0 0
-0.040955 0.737302 1.868000 255 0 0
-0.037508 0.770853 1.953000 255 0 0
-0.032231 0.771644 1.955000 255 0 0
-0.026751 0.766908 1.943000 255 0 0
-0.200950 0.761134 1.942000 255 0 0
-0.192851 0.750166 1.914000 255 0 0
-0.187943 0.751347 1.917000 255 0 0
-0.184163 0.757232 1.932000 255 0 0
-0.178449 0.755278 1.927000 255 0 0
-0.172942 0.754108 1.924000 255 0 0
-0.167277 0.752153 1.919000 255 0 0
-0.161892 0.751375 1.917000 255 0 0
-0.156109 0.748636 1.910000 255 0 0
-0.150365 0.745898 1.903000 255 0 0
-0.145040 0.745119 1.901000 255 0 0
-0.139799 0.744732 1.900000 255 0 0
-0.134563 0.744344 1.899000 255 0 0
-0.128924 0.741605 1.892000 255 0 0
-0.123454 0.739650 1.887000 255 0 0
-0.118262 0.739262 1.886000 255 0 0
-0.113195 0.739658 1.887000 255 0 0
-0.108065 0.739662 1.887000 255 0 0
-0.102608 0.737314 1.881000 255 0 0
-0.097132 0.734574 1.874000 255 0 0
-0.091742 0.732226 1.868000 255 0 0
-0.086339 0.729485 1.861000 255 0 0
-0.081411 0.730664 1.864000 255 0 0
-0.076507 0.732235 1.868000 255 0 0
-0.071390 0.731846 1.867000 255 0 0
-0.066492 0.733809 1.872000 255 0 0
-0.061829 0.738907 1.885000 255 0 0
-0.056734 0.739301 1.886000 255 0 0
-0.051469 0.737343 1.881000 255 0 0
-0.046109 0.733425 1.871000 255 0 0
-0.042008 0.751067 1.916000 255 0 0
-0.037164 0.758516 1.935000 255 0 0
-0.031804 0.756166 1.929000 255 0 0
-0.026518 0.754991 1.926000 255 0 0
-0.020828 0.738920 1.885000 255 0 0
-0.207614 0.760931 1.955000 255 0 0
-0.199197 0.749261 1.925000 255 0 0
-0.193461 0.747321 1.920000 255 0 0
-0.188831 0.749662 1.926000 255 0 0
-0.184931 0.755117 1.940000 255 0 0
-0.178547 0.750453 1.928000 255 0 0
-0.173127 0.749680 1.926000 255 0 0
-0.167282 0.746961 1.919000 255 0 0
-0.161813 0.745799 1.916000 255 0 0
-0.155788 0.741912 1.906000 255 0 0
-0.150212 0.739971 1.901000 255 0 0
-0.144892 0.739198 1.899000 255 0 0
-0.139509 0.738035 1.896000 255 0 0
-0.134285 0.737651 1.895000 255 0 0
-0.128793 0.735709 1.890000 255 0 0
-0.123524 0.734935 1.888000 255 0 0
-0.118266 0.734161 1.886000 255 0 0
-0.113019 0.733387 1.884000 255 0 0
-0.107897 0.733391 1.884000 255 0 0
-0.102666 0.732617 1.882000 255 0 0
-0.097602 0.733010 1.883000 255 0 0
-0.092483 0.733014 1.883000 255 0 0
-0.087363 0.733017 1.883000 255 0 0
-0.082069 0.731463 1.879000 255 0 0
-0.076715 0.729131 1.873000 255 0 0
-0.071622 0.729134 1.873000 255 0 0
-0.066708 0.731083 1.878000 255 0 0
-0.061897 0.734589 1.887000 255 0 0
-0.056646 0.733034 1.883000 255 0 0
-0.051253 0.729144 1.873000 255 0 0
-0.046628 0.736542 1.892000 255 0 0
-0.042186 0.749002 1.924000 255 0 0
-0.036647 0.742774 1.908000 255 0 0
-0.031393 0.741219 1.904000 255 0 0
-0.026216 0.741220 1.904000 255 0 0
-0.021249 0.748617 1.923000 255 0 0
-0.206452 0.751389 1.944000 255 0 0
-0.198789 0.742505 1.921000 255 0 0
-0.193065 0.740579 1.916000 255 0 0
-0.188642 0.743678 1.924000 255 0 0
-0.183889 0.745617 1.929000 255 0 0
-0.178276 0.744077 1.925000 255 0 0
-0.173313 0.745243 1.928000 255 0 0
-0.167550 0.742929 1.922000 255 0 0
-0.161650 0.739843 1.914000 255 0 0
-0.155793 0.736756 1.906000 255 0 0
-0.150059 0.734056 1.899000 255 0 0
-0.144897 0.734062 1.899000 255 0 0
-0.139367 0.732134 1.894000 255 0 0
-0.134077 0.731366 1.892000 255 0 0
-0.128661 0.729825 1.888000 255 0 0
-0.123529 0.729830 1.888000 255 0 0
-0.118208 0.728675 1.885000 255 0 0
-0.112903 0.727520 1.882000 255 0 0
-0.107672 0.726751 1.880000 255 0 0
-0.102670 0.727529 1.882000 255 0 0
-0.097709 0.728692 1.885000 255 0 0
-0.092683 0.729469 1.887000 255 0 0
-0.087552 0.729473 1.887000 255 0 0
-0.082378 0.729090 1.886000 255 0 0
-0.077046 0.727160 1.881000 255 0 0
-0.071893 0.726777 1.880000 255 0 0
-0.066923 0.728326 1.884000 255 0 0
-0.061801 0.728329 1.884000 255 0 0
-0.056739 0.729104 1.886000 255 0 0
-0.051747 0.731040 1.891000 255 0 0
-0.046803 0.734134 1.899000 255 0 0
-0.042385 0.747280 1.933000 255 0 0
-0.036399 0.732592 1.895000 255 0 0
-0.031823 0.746124 1.930000 255 0 0
-0.026148 0.734141 1.899000 255 0 0
-0.204335 0.738452 1.924000 255 0 0
-0.198485 0.736156 1.918000 255 0 0
-0.192466 0.733092 1.910000 255 0 0
-0.188158 0.736553 1.919000 255 0 0
-0.182847 0.736176 1.918000 255 0 0
-0.178282 0.738870 1.925000 255 0 0
-0.173050 0.738876 1.925000 255 0 0
-0.167643 0.738115 1.923000 255 0 0
-0.161571 0.734283 1.913000 255 0 0
-0.155718 0.731218 1.905000 255 0 0
-0.150223 0.729689 1.901000 255 0 0
-0.144979 0.729310 1.900000 255 0 0
-0.139520 0.727781 1.896000 255 0 0
-0.134011 0.725867 1.891000 255 0 0
-0.128666 0.724720 1.888000 255 0 0
-0.123534 0.724726 1.888000 255 0 0
-0.118338 0.724347 1.887000 255 0 0
-0.113028 0.723200 1.884000 255 0 0
-0.107734 0.722053 1.881000 255 0 0
-0.102620 0.722057 1.881000 255 0 0
-0.097713 0.723597 1.885000 255 0 0
-0.092785 0.725136 1.889000 255 0 0
-0.087695 0.725524 1.890000 255 0 0
-0.082469 0.724760 1.888000 255 0 0
-0.077295 0.724379 1.887000 255 0 0
-0.071973 0.722463 1.882000 255 0 0
-0.066855 0.722466 1.882000 255 0 0
-0.061771 0.722853 1.883000 255 0 0
-0.057012 0.727462 1.895000 255 0 0
-0.052023 0.729768 1.901000 255 0 0
-0.047027 0.732457 1.908000 255 0 0
-0.041992 0.735147 1.915000 255 0 0
-0.037361 0.746665 1.945000 255 0 0
-0.031528 0.733998 1.912000 255 0 0
-0.206360 0.740488 1.943000 255 0 0
-0.197975 0.729062 1.913000 255 0 0
-0.191869 0.725639 1.904000 255 0 0
-0.186988 0.726789 1.907000 255 0 0
-0.182949 0.731370 1.919000 255 0 0
-0.178659 0.735188 1.929000 255 0 0
-0.173146 0.734051 1.926000 255 0 0
-0.167388 0.731771 1.920000 255 0 0
-0.161155 0.727204 1.908000 255 0 0
-0.155397 0.724542 1.901000 255 0 0
-0.150071 0.723786 1.899000 255 0 0
-0.144909 0.723792 1.899000 255 0 0
-0.139452 0.722273 1.895000 255 0 0
-0.134017 0.720754 1.891000 255 0 0
-0.128740 0.719998 1.889000 255 0 0
-0.123539 0.719622 1.888000 255 0 0
-0.118406 0.719627 1.888000 255 0 0
-0.113093 0.718488 1.885000 255 0 0
-0.107910 0.718112 1.884000 255 0 0
-0.102897 0.718879 1.886000 255 0 0
-0.097873 0.719646 1.888000 255 0 0
-0.092789 0.720031 1.889000 255 0 0
-0.087653 0.720035 1.889000 255 0 0
-0.082429 0.719276 1.887000 255 0 0
-0.077421 0.720424 1.890000 255 0 0
-0.072129 0.718902 1.886000 255 0 0
-0.066965 0.718524 1.885000 255 0 0
-0.061774 0.717765 1.883000 255 0 0
-0.056984 0.721960 1.894000 255 0 0
-0.051971 0.723869 1.899000 255 0 0
-0.046979 0.726539 1.906000 255 0 0
-0.042323 0.735690 1.930000 255 0 0
-0.037516 0.744459 1.953000 255 0 0
-0.031678 0.732262 1.921000 255 0 0
-0.206262 0.734854 1.942000 255 0 0
-0.199638 0.729942 1.929000 255 0 0
-0.192783 0.723895 1.913000 255 0 0
-0.188172 0.726173 1.919000 255 0 0
-0.183909 0.729964 1.929000 255 0 0
-0.178851 0.730728 1.931000 255 0 0
-0.172973 0.728086 1.924000 255 0 0
-0.167220 0.725823 1.918000 255 0 0
-0.161077 0.721667 1.907000 255 0 0
-0.155403 0.719403 1.901000 255 0 0
-0.150156 0.719031 1.900000 255 0 0
-0.144915 0.718659 1.899000 255 0 0
-0.139679 0.718286 1.898000 255 0 0
-0.134164 0.716400 1.893000 255 0 0
-0.128950 0.716027 1.892000 255 0 0
-0.123609 0.714897 1.889000 255 0 0
-0.118474 0.714903 1.889000 255 0 0
-0.113158 0.713772 1.886000 255 0 0
-0.108030 0.713777 1.886000 255 0 0
-0.102902 0.713782 1.886000 255 0 0
-0.097929 0.714922 1.889000 255 0 0
-0.092793 0.714926 1.889000 255 0 0
-0.087610 0.714552 1.888000 255 0 0
-0.082476 0.714556 1.888000 255 0 0
-0.077424 0.715317 1.890000 255 0 0
-0.072285 0.715320 1.890000 255 0 0
-0.067110 0.714945 1.889000 255 0 0
-0.061875 0.713812 1.886000 255 0 0
-0.056927 0.716086 1.892000 255 0 0
-0.051946 0.718360 1.898000 255 0 0
-0.047154 0.724039 1.913000 255 0 0
-0.042434 0.732368 1.935000 255 0 0
-0.037383 0.736533 1.946000 255 0 0
-0.032273 0.740698 1.957000 255 0 0
-0.026661 0.732751 1.936000 255 0 0
-0.212746 0.733726 1.953000 255 0 0
-0.207756 0.734861 1.956000 255 0 0
-0.201198 0.730361 1.944000 255 0 0
-0.194101 0.723606 1.926000 255 0 0
-0.188474 0.722111 1.922000 255 0 0
-0.183631 0.723621 1.926000 255 0 0
-0.178396 0.723629 1.926000 255 0 0
-0.172801 0.722133 1.922000 255 0 0
-0.166791 0.718759 1.913000 255 0 0
-0.160915 0.715760 1.905000 255 0 0
-0.155328 0.713888 1.900000 255 0 0
-0.150242 0.714271 1.901000 255 0 0
-0.144997 0.713901 1.900000 255 0 0
-0.139758 0.713532 1.899000 255 0 0
-0.134241 0.711659 1.894000 255 0 0
-0.129024 0.711290 1.893000 255 0 0
-0.123746 0.710544 1.891000 255 0 0
-0.118542 0.710174 1.890000 255 0 0
-0.113163 0.708676 1.886000 255 0 0
-0.108092 0.709057 1.887000 255 0 0
-0.103125 0.710189 1.890000 255 0 0
-0.098037 0.710570 1.891000 255 0 0
-0.092846 0.710198 1.890000 255 0 0
-0.087661 0.709827 1.889000 255 0 0
-0.082568 0.710207 1.890000 255 0 0
-0.077469 0.710586 1.891000 255 0 0
-0.072403 0.711341 1.893000 255 0 0
-0.067326 0.712096 1.895000 255 0 0
-0.062239 0.712851 1.897000 255 0 0
-0.057200 0.714357 1.901000 255 0 0
-0.052140 0.715863 1.905000 255 0 0
-0.047181 0.719247 1.914000 255 0 0
-0.042239 0.723759 1.926000 255 0 0
-0.037385 0.731276 1.946000 255 0 0
-0.031648 0.721132 1.919000 255 0 0
-0.026677 0.727898 1.937000 255 0 0
-0.214170 0.733293 1.966000 255 0 0
-0.208933 0.733675 1.967000 255 0 0
-0.201931 0.727715 1.951000 255 0 0
-0.195116 0.722129 1.936000 255 0 0
-0.189658 0.721390 1.934000 255 0 0
-0.183829 0.719160 1.928000 255 0 0
-0.178125 0.717303 1.923000 255 0 0
-0.172628 0.716192 1.920000 255 0 0
-0.166886 0.713961 1.914000 255 0 0
-0.161176 0.711730 1.908000 255 0 0
-0.155662 0.710245 1.904000 255 0 0
-0.150565 0.710625 1.905000 255 0 0
-0.145309 0.710259 1.904000 255 0 0
-0.139912 0.709146 1.901000 255 0 0
-0.134389 0.707287 1.896000 255 0 0
-0.129029 0.706174 1.893000 255 0 0
-0.123752 0.705434 1.891000 255 0 0
-0.118547 0.705067 1.890000 255 0 0
-0.113228 0.703953 1.887000 255 0 0
-0.108040 0.703585 1.886000 255 0 0
-0.103021 0.704337 1.888000 255 0 0
-0.097938 0.704715 1.889000 255 0 0
-0.092900 0.705465 1.891000 255 0 0
-0.087711 0.705097 1.890000 255 0 0
-0.082572 0.705101 1.890000 255 0 0
-0.077432 0.705105 1.890000 255 0 0
-0.072407 0.706228 1.893000 255 0 0
-0.067365 0.707351 1.896000 255 0 0
-0.062406 0.709592 1.902000 255 0 0
-0.057594 0.714072 1.914000 255 0 0
-0.052361 0.713702 1.913000 255 0 0
-0.047233 0.714824 1.916000 255 0 0
-0.042000 0.714453 1.915000 255 0 0
-0.036830 0.715201 1.917000 255 0 0
-0.031616 0.715203 1.917000 255 0 0
-0.026072 0.706250 1.893000 255 0 0
-0.207667 0.723913 1.955000 255 0 0
-0.201939 0.722440 1.951000 255 0 0
-0.195024 0.716524 1.935000 255 0 0
-0.189176 0.714311 1.929000 255 0 0
-0.183742 0.713578 1.927000 255 0 0
-0.178226 0.712476 1.924000 255 0 0
-0.172726 0.711372 1.921000 255 0 0
-0.166980 0.709158 1.915000 255 0 0
-0.161352 0.707314 1.910000 255 0 0
-0.155914 0.706211 1.907000 255 0 0
-0.150651 0.705847 1.906000 255 0 0
-0.145392 0.705484 1.905000 255 0 0
-0.139992 0.704380 1.902000 255 0 0
-0.134608 0.703275 1.899000 255 0 0
-0.129172 0.701800 1.895000 255 0 0
-0.123823 0.700695 1.892000 255 0 0
-0.118616 0.700331 1.891000 255 0 0
-0.113474 0.700337 1.891000 255 0 0
-0.108217 0.699601 1.889000 255 0 0
-0.103135 0.699977 1.890000 255 0 0
-0.097995 0.699982 1.890000 255 0 0
-0.093003 0.701098 1.893000 255 0 0
-0.087855 0.701103 1.893000 255 0 0
-0.082707 0.701107 1.893000 255 0 0
-0.077518 0.700741 1.892000 255 0 0
-0.072410 0.701115 1.893000 255 0 0
-0.067440 0.702970 1.898000 255 0 0
-0.062475 0.705196 1.904000 255 0 0
-0.057718 0.710384 1.918000 255 0 0
-0.052474 0.710017 1.917000 255 0 0
-0.047235 0.709649 1.916000 255 0 0
-0.041892 0.707429 1.910000 255 0 0
-0.036678 0.707061 1.909000 255 0 0
-0.031387 0.704840 1.903000 255 0 0
-0.026376 0.709286 1.915000 255 0 0
-0.202258 0.699881 1.904000 255 0 0
-0.200189 0.710917 1.934000 255 0 0
-0.194831 0.710559 1.933000 255 0 0
-0.189675 0.710935 1.934000 255 0 0
-0.184036 0.709473 1.930000 255 0 0
-0.178512 0.708378 1.927000 255 0 0
-0.172824 0.706549 1.922000 255 0 0
-0.167250 0.705086 1.918000 255 0 0
-0.161697 0.703623 1.914000 255 0 0
-0.156249 0.702528 1.911000 255 0 0
-0.150974 0.702168 1.910000 255 0 0
-0.145552 0.701072 1.907000 255 0 0
-0.140146 0.699976 1.904000 255 0 0
-0.134685 0.698512 1.900000 255 0 0
-0.129315 0.697416 1.897000 255 0 0
-0.123960 0.696320 1.894000 255 0 0
-0.118684 0.695590 1.892000 255 0 0
-0.113479 0.695229 1.891000 255 0 0
-0.108337 0.695234 1.891000 255 0 0
-0.103249 0.695607 1.892000 255 0 0
-0.098156 0.695980 1.893000 255 0 0
-0.093057 0.696353 1.894000 255 0 0
-0.087906 0.696357 1.894000 255 0 0
-0.082711 0.695994 1.893000 255 0 0
-0.077604 0.696366 1.894000 255 0 0
-0.072452 0.696370 1.894000 255 0 0
-0.067479 0.698212 1.899000 255 0 0
-0.062478 0.700054 1.904000 255 0 0
-0.057690 0.704837 1.917000 255 0 0
-0.052504 0.705208 1.918000 255 0 0
-0.047262 0.704843 1.917000 255 0 0
-0.041960 0.703374 1.913000 255 0 0
-0.036776 0.703744 1.914000 255 0 0
-0.031488 0.701907 1.909000 255 0 0
-0.026130 0.697497 1.897000 255 0 0
-0.197610 0.696568 1.909000 255 0 0
-0.194235 0.703145 1.927000 255 0 0
-0.189095 0.703518 1.928000 255 0 0
-0.183854 0.703527 1.928000 255 0 0
-0.178520 0.703171 1.927000 255 0 0
-0.173012 0.702085 1.924000 255 0 0
-0.167519 0.700998 1.921000 255 0 0
-0.161874 0.699182 1.916000 255 0 0
-0.156338 0.697730 1.912000 255 0 0
-0.151060 0.697372 1.911000 255 0 0
-0.145559 0.695920 1.907000 255 0 0
-0.140079 0.694468 1.903000 255 0 0
-0.134692 0.693380 1.900000 255 0 0
-0.129389 0.692657 1.898000 255 0 0
-0.124163 0.692298 1.897000 255 0 0
-0.118816 0.691210 1.894000 255 0 0
-0.113545 0.690486 1.892000 255 0 0
-0.108400 0.690492 1.892000 255 0 0
-0.103309 0.690862 1.893000 255 0 0
-0.098213 0.691232 1.894000 255 0 0
-0.093111 0.691603 1.895000 255 0 0
-0.087957 0.691607 1.895000 255 0 0
-0.082847 0.691977 1.896000 255 0 0
-0.077690 0.691981 1.896000 255 0 0
-0.072609 0.692715 1.898000 255 0 0
-0.067553 0.693814 1.901000 255 0 0
-0.062678 0.697102 1.910000 255 0 0
-0.057724 0.700025 1.918000 255 0 0
-0.052589 0.701123 1.921000 255 0 0
-0.047339 0.700761 1.920000 255 0 0
-0.042138 0.701129 1.921000 255 0 0
-0.037028 0.703321 1.927000 255 0 0
-0.031918 0.706242 1.935000 255 0 0
-0.026420 0.700039 1.918000 255 0 0
-0.187633 0.692875 1.913000 255 0 0
-0.184053 0.699042 1.930000 255 0 0
-0.178621 0.698326 1.928000 255 0 0
-0.173110 0.697248 1.925000 255 0 0
-0.167440 0.695446 1.920000 255 0 0
-0.161882 0.694005 1.916000 255 0 0
-0.156182 0.691840 1.910000 255 0 0
-0.150910 0.691485 1.909000 255 0 0
-0.145337 0.689682 1.904000 255 0 0
-0.140013 0.688965 1.902000 255 0 0
-0.134699 0.688248 1.900000 255 0 0
-0.129601 0.688617 1.901000 255 0 0
-0.124366 0.688261 1.900000 255 0 0
-0.119010 0.687181 1.897000 255 0 0
-0.113671 0.686100 1.894000 255 0 0
-0.108635 0.686831 1.896000 255 0 0
-0.103478 0.686837 1.896000 255 0 0
-0.098374 0.687204 1.897000 255 0 0
-0.093116 0.686485 1.895000 255 0 0
-0.088054 0.687215 1.897000 255 0 0
-0.082895 0.687219 1.897000 255 0 0
-0.077735 0.687224 1.897000 255 0 0
-0.072690 0.688315 1.900000 255 0 0
-0.067628 0.689406 1.903000 255 0 0
-0.062747 0.692670 1.912000 255 0 0
-0.057727 0.694847 1.918000 255 0 0
-0.052619 0.696299 1.922000 255 0 0
-0.047415 0.696664 1.923000 255 0 0
-0.042272 0.698116 1.927000 255 0 0
-0.037165 0.700654 1.934000 255 0 0
-0.031986 0.702467 1.939000 255 0 0
-0.183681 0.692389 1.926000 255 0 0
-0.178445 0.692398 1.926000 255 0 0
-0.173119 0.692047 1.925000 255 0 0
-0.167710 0.691337 1.923000 255 0 0
-0.161975 0.689189 1.917000 255 0 0
-0.156436 0.687759 1.913000 255 0 0
-0.150918 0.686329 1.909000 255 0 0
-0.145192 0.683820 1.902000 255 0 0
-0.139799 0.682749 1.899000 255 0 0
-0.134706 0.683116 1.900000 255 0 0
-0.129676 0.683842 1.902000 255 0 0
-0.124438 0.683489 1.901000 255 0 0
-0.119079 0.682417 1.898000 255 0 0
-0.113857 0.682064 1.897000 255 0 0
-0.108698 0.682070 1.897000 255 0 0
-0.103539 0.682076 1.897000 255 0 0
-0.098327 0.681722 1.896000 255 0 0
-0.093121 0.681368 1.895000 255 0 0
-0.088059 0.682092 1.897000 255 0 0
-0.082943 0.682457 1.898000 255 0 0
-0.077780 0.682461 1.898000 255 0 0
-0.072770 0.683904 1.902000 255 0 0
-0.067668 0.684627 1.904000 255 0 0
-0.062784 0.687867 1.913000 255 0 0
-0.057670 0.688949 1.916000 255 0 0
-0.052595 0.690750 1.921000 255 0 0
-0.047467 0.692191 1.925000 255 0 0
-0.042384 0.694711 1.932000 255 0 0
-0.037282 0.697590 1.940000 255 0 0
-0.031823 0.693637 1.929000 255 0 0
-0.172138 0.682922 1.914000 255 0 0
-0.167458 0.685072 1.920000 255 0 0
-0.162322 0.685438 1.921000 255 0 0
-0.156689 0.683662 1.916000 255 0 0
-0.151163 0.682243 1.912000 255 0 0
-0.145429 0.679753 1.905000 255 0 0
-0.140028 0.678690 1.902000 255 0 0
-0.134855 0.678698 1.902000 255 0 0
-0.129887 0.679776 1.905000 255 0 0
-0.124575 0.679069 1.903000 255 0 0
-0.119337 0.678719 1.902000 255 0 0
-0.114104 0.678369 1.901000 255 0 0
-0.108933 0.678375 1.901000 255 0 0
-0.103708 0.678025 1.900000 255 0 0
-0.098436 0.677317 1.898000 255 0 0
-0.093225 0.676965 1.897000 255 0 0
-0.088157 0.677684 1.899000 255 0 0
-0.083079 0.678403 1.901000 255 0 0
-0.077949 0.678764 1.902000 255 0 0
-0.072813 0.679126 1.903000 255 0 0
-0.067707 0.679843 1.905000 255 0 0
-0.062722 0.681989 1.911000 255 0 0
-0.057643 0.683420 1.915000 255 0 0
-0.052461 0.683780 1.916000 255 0 0
-0.047396 0.685924 1.922000 255 0 0
-0.042343 0.688782 1.930000 255 0 0
-0.037303 0.692710 1.941000 255 0 0
-0.031973 0.691641 1.938000 255 0 0
-0.171428 0.674919 1.906000 255 0 0
-0.167728 0.680948 1.923000 255 0 0
-0.162584 0.681311 1.924000 255 0 0
-0.157025 0.679903 1.920000 255 0 0
-0.151804 0.679912 1.920000 255 0 0
-0.146277 0.678504 1.916000 255 0 0
-0.140625 0.676387 1.910000 255 0 0
-0.135005 0.674270 1.904000 255 0 0
-0.129895 0.674631 1.905000 255 0 0
-0.124713 0.674639 1.905000 255 0 0
-0.119469 0.674292 1.904000 255 0 0
-0.114291 0.674298 1.904000 255 0 0
-0.109054 0.673951 1.903000 255 0 0
-0.103823 0.673603 1.902000 255 0 0
-0.098598 0.673254 1.901000 255 0 0
-0.093476 0.673614 1.902000 255 0 0
-0.088348 0.673974 1.903000 255 0 0
-0.083259 0.674687 1.905000 255 0 0
-0.078281 0.676463 1.910000 255 0 0
-0.073123 0.676821 1.911000 255 0 0
-0.067924 0.676826 1.911000 255 0 0
-0.062791 0.677538 1.913000 255 0 0
-0.057707 0.678958 1.917000 255 0 0
-0.052437 0.678253 1.915000 255 0 0
-0.047251 0.678610 1.916000 255 0 0
-0.042126 0.680030 1.920000 255 0 0
-0.037190 0.685345 1.935000 255 0 0
-0.031942 0.685701 1.936000 255 0 0
-0.172337 0.673285 1.916000 255 0 0
-0.167825 0.676105 1.924000 255 0 0
-0.162677 0.676466 1.925000 255 0 0
-0.157034 0.674718 1.920000 255 0 0
-0.152128 0.676132 1.924000 255 0 0
-0.146896 0.676141 1.924000 255 0 0
-0.141295 0.674392 1.919000 255 0 0
-0.135722 0.672643 1.914000 255 0 0
-0.130379 0.671947 1.912000 255 0 0
-0.125244 0.672306 1.913000 255 0 0
-0.119790 0.670908 1.909000 255 0 0
-0.114537 0.670563 1.908000 255 0 0
-0.109290 0.670218 1.907000 255 0 0
-0.104266 0.671279 1.910000 255 0 0
-0.099122 0.671637 1.911000 255 0 0
-0.094022 0.672345 1.913000 255 0 0
-0.088864 0.672702 1.914000 255 0 0
-0.083657 0.672707 1.914000 255 0 0
-0.078696 0.674821 1.920000 255 0 0
-0.073434 0.674474 1.919000 255 0 0
-0.068177 0.674127 1.918000 255 0 0
-0.062926 0.673780 1.917000 255 0 0
-0.057861 0.675541 1.922000 255 0 0
-0.052577 0.674841 1.920000 255 0 0
-0.047328 0.674493 1.919000 255 0 0
-0.037096 0.678364 1.930000 255 0 0
-0.031928 0.680124 1.935000 255 0 0
-0.021939 0.697350 1.984000 255 0 0
-0.184197 0.673320 1.931000 255 0 0
-0.179317 0.674725 1.935000 255 0 0
-0.174145 0.675084 1.936000 255 0 0
-0.168445 0.673350 1.931000 255 0 0
-0.162855 0.671964 1.927000 255 0 0
-0.157042 0.669532 1.920000 255 0 0
-0.152137 0.670936 1.924000 255 0 0
-0.146981 0.671294 1.925000 255 0 0
-0.141672 0.670953 1.924000 255 0 0
-0.136226 0.669915 1.921000 255 0 0
-0.130796 0.668877 1.918000 255 0 0
-0.125579 0.668885 1.918000 255 0 0
-0.120048 0.667148 1.913000 255 0 0
-0.114844 0.667155 1.913000 255 0 0
-0.109640 0.667162 1.913000 255 0 0
-0.104764 0.669261 1.919000 255 0 0
-0.099699 0.670314 1.922000 255 0 0
-0.094568 0.671017 1.924000 255 0 0
-0.089287 0.670674 1.923000 255 0 0
-0.084012 0.670331 1.922000 255 0 0
-0.078906 0.671382 1.925000 255 0 0
-0.073706 0.671735 1.926000 255 0 0
-0.068430 0.671391 1.925000 255 0 0
-0.063127 0.670698 1.923000 255 0 0
-0.058015 0.672097 1.927000 255 0 0
-0.052799 0.672449 1.928000 255 0 0
-0.047578 0.672801 1.929000 255 0 0
-0.042285 0.672106 1.927000 255 0 0
-0.037118 0.673504 1.931000 255 0 0
-0.032078 0.678040 1.944000 255 0 0
-0.027353 0.692342 1.985000 255 0 0
-0.022261 0.702110 2.013000 255 0 0
-0.185447 0.672602 1.944000 255 0 0
-0.180254 0.672959 1.945000 255 0 0
-0.174875 0.672623 1.944000 255 0 0
-0.169065 0.670557 1.938000 255 0 0
-0.163541 0.669528 1.935000 255 0 0
-0.157788 0.667462 1.929000 255 0 0
-0.152858 0.668855 1.933000 255 0 0
-0.147371 0.667826 1.930000 255 0 0
-0.141901 0.666796 1.927000 255 0 0
-0.136305 0.665074 1.922000 255 0 0
-0.131009 0.664737 1.921000 255 0 0
-0.125718 0.664398 1.920000 255 0 0
-0.120306 0.663368 1.917000 255 0 0
-0.115091 0.663375 1.917000 255 0 0
-0.109991 0.664074 1.919000 255 0 0
-0.105043 0.665811 1.924000 255 0 0
-0.099912 0.666509 1.926000 255 0 0
-0.094623 0.666169 1.925000 255 0 0
-0.089479 0.666867 1.927000 255 0 0
-0.084236 0.666873 1.927000 255 0 0
-0.079074 0.667570 1.929000 255 0 0
-0.073826 0.667575 1.929000 255 0 0
-0.068612 0.667925 1.930000 255 0 0
-0.063361 0.667930 1.930000 255 0 0
-0.058169 0.668626 1.932000 255 0 0
-0.053021 0.670013 1.936000 255 0 0
-0.047803 0.670709 1.938000 255 0 0
-0.042507 0.670366 1.937000 255 0 0
-0.037236 0.670368 1.937000 255 0 0
-0.032328 0.677984 1.959000 255 0 0
-0.027562 0.692176 2.000000 255 0 0
-0.022362 0.699791 2.022000 255 0 0
-0.185076 0.665978 1.940000 255 0 0
-0.180357 0.668049 1.946000 255 0 0
-0.175065 0.668059 1.946000 255 0 0
-0.169337 0.666353 1.941000 255 0 0
-0.163804 0.665333 1.938000 255 0 0
-0.158124 0.663626 1.933000 255 0 0
-0.152867 0.663635 1.933000 255 0 0
-0.147457 0.662958 1.931000 255 0 0
-0.142130 0.662623 1.930000 255 0 0
-0.136455 0.660572 1.924000 255 0 0
-0.131153 0.660236 1.923000 255 0 0
-0.125856 0.659901 1.922000 255 0 0
-0.120628 0.659909 1.922000 255 0 0
-0.115339 0.659573 1.921000 255 0 0
-0.110170 0.659923 1.922000 255 0 0
-0.105159 0.661303 1.926000 255 0 0
-0.099971 0.661653 1.927000 255 0 0
-0.094728 0.661659 1.927000 255 0 0
-0.089577 0.662352 1.929000 255 0 0
-0.084416 0.663044 1.931000 255 0 0
-0.079161 0.663050 1.931000 255 0 0
-0.073983 0.663741 1.933000 255 0 0
-0.068795 0.664433 1.935000 255 0 0
-0.063562 0.664780 1.936000 255 0 0
-0.058293 0.664784 1.936000 255 0 0
-0.053052 0.665131 1.937000 255 0 0
-0.047830 0.665821 1.939000 255 0 0
-0.042532 0.665481 1.938000 255 0 0
-0.037180 0.664110 1.934000 255 0 0
-0.032429 0.674757 1.965000 255 0 0
-0.027605 0.687808 2.003000 255 0 0
-0.022375 0.694677 2.023000 255 0 0
-0.180275 0.662453 1.945000 255 0 0
-0.175075 0.662804 1.946000 255 0 0
-0.169608 0.662133 1.944000 255 0 0
-0.164068 0.661121 1.941000 255 0 0
-0.158543 0.660109 1.938000 255 0 0
-0.153351 0.660459 1.939000 255 0 0
-0.147924 0.659787 1.937000 255 0 0
-0.142507 0.659115 1.935000 255 0 0
-0.136889 0.657421 1.930000 255 0 0
-0.131434 0.656407 1.927000 255 0 0
-0.125995 0.655393 1.924000 255 0 0
-0.120572 0.654379 1.921000 255 0 0
-0.115346 0.654387 1.921000 255 0 0
-0.110234 0.655075 1.923000 255 0 0
-0.105166 0.656104 1.926000 255 0 0
-0.099925 0.656111 1.926000 255 0 0
-0.094734 0.656458 1.927000 255 0 0
-0.089537 0.656804 1.928000 255 0 0
-0.084378 0.657491 1.930000 255 0 0
-0.079167 0.657837 1.931000 255 0 0
-0.073912 0.657842 1.931000 255 0 0
-0.068763 0.658869 1.934000 255 0 0
-0.063566 0.659555 1.936000 255 0 0
-0.058418 0.660921 1.940000 255 0 0
-0.053193 0.661607 1.942000 255 0 0
-0.047932 0.661951 1.943000 255 0 0
-0.042600 0.661272 1.941000 255 0 0
-0.027662 0.683765 2.007000 255 0 0
-0.180193 0.656862 1.944000 255 0 0
-0.175086 0.657548 1.946000 255 0 0
-0.169706 0.657221 1.945000 255 0 0
-0.164078 0.655880 1.941000 255 0 0
-0.158716 0.655552 1.940000 255 0 0
-0.153360 0.655224 1.939000 255 0 0
-0.148086 0.655233 1.939000 255 0 0
-0.142590 0.654228 1.936000 255 0 0
-0.137252 0.653899 1.935000 255 0 0
-0.131715 0.652556 1.931000 255 0 0
-0.126200 0.651213 1.927000 255 0 0
-0.120517 0.648855 1.920000 255 0 0
-0.115293 0.648863 1.920000 255 0 0
-0.110184 0.649546 1.922000 255 0 0
-0.105227 0.651243 1.927000 255 0 0
-0.100035 0.651587 1.928000 255 0 0
-0.094887 0.652270 1.930000 255 0 0
-0.089682 0.652614 1.931000 255 0 0
-0.084471 0.652957 1.932000 255 0 0
-0.079213 0.652963 1.932000 255 0 0
-0.073955 0.652968 1.932000 255 0 0
-0.068804 0.653987 1.935000 255 0 0
-0.063603 0.654667 1.937000 255 0 0
-0.058422 0.655685 1.940000 255 0 0
-0.053196 0.656365 1.942000 255 0 0
-0.047911 0.656368 1.942000 255 0 0
-0.042515 0.654681 1.937000 255 0 0
-0.027650 0.678010 2.006000 255 0 0
-0.179833 0.650271 1.940000 255 0 0
-0.175187 0.652628 1.947000 255 0 0
-0.169891 0.652639 1.947000 255 0 0
-0.164172 0.650973 1.942000 255 0 0
-0.158726 0.650313 1.940000 255 0 0
-0.153528 0.650658 1.941000 255 0 0
-0.148248 0.650668 1.941000 255 0 0
-0.142820 0.650007 1.939000 255 0 0
-0.137474 0.649681 1.938000 255 0 0
-0.131997 0.648684 1.935000 255 0 0
-0.126339 0.646681 1.929000 255 0 0
-0.120651 0.644342 1.922000 255 0 0
-0.115301 0.643679 1.920000 255 0 0
-0.110363 0.645363 1.925000 255 0 0
-0.105343 0.646711 1.929000 255 0 0
-0.100198 0.647389 1.931000 255 0 0
-0.094943 0.647395 1.931000 255 0 0
-0.089781 0.648072 1.933000 255 0 0
-0.084520 0.648078 1.933000 255 0 0
-0.079300 0.648418 1.934000 255 0 0
-0.074075 0.648759 1.935000 255 0 0
-0.068879 0.649434 1.937000 255 0 0
-0.063673 0.650109 1.939000 255 0 0
-0.058456 0.650784 1.941000 255 0 0
-0.053255 0.651794 1.944000 255 0 0
-0.047939 0.651462 1.943000 255 0 0
-0.027679 0.673266 2.008000 255 0 0
-0.175378 0.648035 1.949000 255 0 0
-0.170076 0.648046 1.949000 255 0 0
-0.164436 0.646727 1.945000 255 0 0
-0.158982 0.646072 1.943000 255 0 0
-0.153617 0.645750 1.942000 255 0 0
-0.148257 0.645427 1.941000 255 0 0
-0.142829 0.644771 1.939000 255 0 0
-0.137483 0.644448 1.938000 255 0 0
-0.132210 0.644457 1.938000 255 0 0
-0.126609 0.642803 1.933000 255 0 0
-0.120973 0.640816 1.927000 255 0 0
-0.115549 0.639826 1.924000 255 0 0
-0.110657 0.641829 1.930000 255 0 0
-0.105569 0.642834 1.933000 255 0 0
-0.100308 0.642841 1.933000 255 0 0
-0.094998 0.642515 1.932000 255 0 0
-0.089833 0.643186 1.934000 255 0 0
-0.084657 0.643858 1.936000 255 0 0
-0.079429 0.644196 1.937000 255 0 0
-0.074195 0.644534 1.938000 255 0 0
-0.068955 0.644871 1.939000 255 0 0
-0.063776 0.645873 1.942000 255 0 0
-0.058490 0.645878 1.942000 255 0 0
-0.053231 0.646214 1.943000 255 0 0
-0.047868 0.645220 1.940000 255 0 0
-0.032702 0.658864 1.981000 255 0 0
-0.027736 0.669177 2.012000 255 0 0
-0.175479 0.643102 1.950000 255 0 0
-0.170174 0.643113 1.950000 255 0 0
-0.164616 0.642134 1.947000 255 0 0
-0.159074 0.641155 1.944000 255 0 0
-0.153706 0.640836 1.943000 255 0 0
-0.148420 0.640846 1.943000 255 0 0
-0.142986 0.640196 1.941000 255 0 0
-0.137634 0.639875 1.940000 255 0 0
-0.132287 0.639555 1.939000 255 0 0
-0.126618 0.637584 1.933000 255 0 0
-0.121044 0.635943 1.928000 255 0 0
-0.115737 0.635621 1.927000 255 0 0
-0.110779 0.637278 1.932000 255 0 0
-0.105685 0.638275 1.935000 255 0 0
-0.100419 0.638283 1.935000 255 0 0
-0.095054 0.637630 1.933000 255 0 0
-0.089886 0.638296 1.935000 255 0 0
-0.084663 0.638632 1.936000 255 0 0
-0.079475 0.639297 1.938000 255 0 0
-0.074200 0.639302 1.938000 255 0 0
-0.069031 0.640297 1.941000 255 0 0
-0.063813 0.640961 1.943000 255 0 0
-0.058644 0.642285 1.947000 255 0 0
-0.053344 0.642289 1.947000 255 0 0
-0.175670 0.638490 1.952000 255 0 0
-0.170447 0.638828 1.953000 255 0 0
-0.164965 0.638185 1.951000 255 0 0
-0.159412 0.637214 1.948000 255 0 0
-0.153875 0.636244 1.945000 255 0 0
-0.148506 0.635927 1.944000 255 0 0
-0.143143 0.635609 1.943000 255 0 0
-0.137856 0.635619 1.943000 255 0 0
-0.132432 0.634974 1.941000 255 0 0
-0.126757 0.633020 1.935000 255 0 0
-0.120989 0.630411 1.927000 255 0 0
-0.115745 0.630419 1.927000 255 0 0
-0.110672 0.631408 1.930000 255 0 0
-0.105747 0.633379 1.936000 255 0 0
-0.100530 0.633713 1.937000 255 0 0
-0.095307 0.634047 1.938000 255 0 0
-0.090078 0.634381 1.939000 255 0 0
-0.084844 0.634714 1.940000 255 0 0
-0.079563 0.634720 1.940000 255 0 0
-0.074282 0.634725 1.940000 255 0 0
-0.069072 0.635385 1.942000 255 0 0
-0.063916 0.636698 1.946000 255 0 0
-0.058739 0.638011 1.950000 255 0 0
-0.053458 0.638343 1.951000 255 0 0
-0.175682 0.633218 1.952000 255 0 0
-0.170633 0.634203 1.955000 255 0 0
-0.165230 0.633890 1.954000 255 0 0
-0.159586 0.632603 1.950000 255 0 0
-0.153964 0.631316 1.946000 255 0 0
-0.148669 0.631326 1.946000 255 0 0
-0.143300 0.631012 1.945000 255 0 0
-0.137936 0.630697 1.944000 255 0 0
-0.132305 0.629084 1.939000 255 0 0
-0.126569 0.626822 1.932000 255 0 0
-0.120872 0.624559 1.925000 255 0 0
-0.115633 0.624568 1.925000 255 0 0
-0.110623 0.625873 1.929000 255 0 0
-0.105754 0.628152 1.936000 255 0 0
-0.100640 0.629133 1.939000 255 0 0
-0.095510 0.630113 1.942000 255 0 0
-0.090224 0.630120 1.942000 255 0 0
-0.084937 0.630126 1.942000 255 0 0
-0.079650 0.630132 1.942000 255 0 0
-0.074440 0.630786 1.944000 255 0 0
-0.069254 0.631765 1.947000 255 0 0
-0.064052 0.632743 1.950000 255 0 0
-0.058894 0.634370 1.955000 255 0 0
-0.053571 0.634374 1.955000 255 0 0
-0.170906 0.629889 1.958000 255 0 0
-0.165664 0.630222 1.959000 255 0 0
-0.159924 0.628624 1.954000 255 0 0
-0.154291 0.627348 1.950000 255 0 0
-0.148756 0.626393 1.947000 255 0 0
-0.143457 0.626403 1.947000 255 0 0
-0.138230 0.626735 1.948000 255 0 0
-0.132724 0.625779 1.945000 255 0 0
-0.126775 0.622571 1.935000 255 0 0
-0.121069 0.620327 1.928000 255 0 0
-0.115821 0.620336 1.928000 255 0 0
-0.110630 0.620665 1.929000 255 0 0
-0.105762 0.622925 1.936000 255 0 0
-0.100751 0.624542 1.941000 255 0 0
-0.095714 0.626158 1.946000 255 0 0
-0.090462 0.626486 1.947000 255 0 0
-0.085118 0.626171 1.946000 255 0 0
-0.079861 0.626498 1.947000 255 0 0
-0.074599 0.626826 1.948000 255 0 0
-0.069402 0.627796 1.951000 255 0 0
-0.064188 0.628766 1.954000 255 0 0
-0.058988 0.630058 1.958000 255 0 0
-0.053685 0.630384 1.959000 255 0 0
-0.171180 0.625558 1.961000 255 0 0
-0.166013 0.626207 1.963000 255 0 0
-0.160263 0.624624 1.958000 255 0 0
-0.154618 0.623358 1.954000 255 0 0
-0.148919 0.621774 1.949000 255 0 0
-0.143615 0.621784 1.949000 255 0 0
-0.138168 0.621156 1.947000 255 0 0
-0.132801 0.620846 1.946000 255 0 0
-0.127046 0.618622 1.939000 255 0 0
-0.121454 0.617036 1.934000 255 0 0
-0.116190 0.617045 1.934000 255 0 0
-0.110982 0.617372 1.935000 255 0 0
-0.105933 0.618656 1.939000 255 0 0
-0.100863 0.619939 1.943000 255 0 0
-0.095720 0.620904 1.946000 255 0 0
-0.090515 0.621549 1.948000 255 0 0
-0.085255 0.621874 1.949000 255 0 0
-0.080072 0.622837 1.952000 255 0 0
-0.074796 0.623162 1.953000 255 0 0
-0.069585 0.624125 1.956000 255 0 0
-0.064357 0.625087 1.959000 255 0 0
-0.059143 0.626368 1.963000 255 0 0
-0.053771 0.626053 1.962000 255 0 0
-0.171279 0.620578 1.962000 255 0 0
-0.166194 0.621539 1.965000 255 0 0
-0.160601 0.620601 1.962000 255 0 0
-0.154945 0.619347 1.958000 255 0 0
-0.149158 0.617460 1.952000 255 0 0
-0.143772 0.617154 1.951000 255 0 0
-0.138391 0.616847 1.950000 255 0 0
-0.133015 0.616541 1.949000 255 0 0
-0.127383 0.614968 1.944000 255 0 0
-0.121777 0.613396 1.939000 255 0 0
-0.116498 0.613404 1.939000 255 0 0
-0.111163 0.613096 1.938000 255 0 0
-0.106160 0.614686 1.943000 255 0 0
-0.101026 0.615642 1.946000 255 0 0
-0.095875 0.616599 1.949000 255 0 0
-0.090661 0.617238 1.951000 255 0 0
-0.085480 0.618194 1.954000 255 0 0
-0.080324 0.619466 1.958000 255 0 0
-0.075031 0.619788 1.959000 255 0 0
-0.069732 0.620110 1.960000 255 0 0
-0.064526 0.621380 1.964000 255 0 0
-0.059268 0.622334 1.967000 255 0 0
-0.053802 0.621073 1.963000 255 0 0
-0.166375 0.616859 1.967000 255 0 0
-0.161022 0.616870 1.967000 255 0 0
-0.155352 0.615627 1.963000 255 0 0
-0.149704 0.614384 1.959000 255 0 0
-0.143930 0.612512 1.953000 255 0 0
-0.138401 0.611582 1.950000 255 0 0
-0.133025 0.611278 1.949000 255 0 0
-0.127588 0.610660 1.947000 255 0 0
-0.122037 0.609414 1.943000 255 0 0
-0.116687 0.609110 1.942000 255 0 0
-0.111458 0.609432 1.943000 255 0 0
-0.106386 0.610694 1.947000 255 0 0
-0.101137 0.611015 1.948000 255 0 0
-0.095833 0.611023 1.948000 255 0 0
-0.090668 0.611971 1.951000 255 0 0
-0.085531 0.613232 1.955000 255 0 0
-0.080412 0.614807 1.960000 255 0 0
-0.075228 0.616067 1.964000 255 0 0
-0.069986 0.617014 1.967000 255 0 0
-0.064728 0.617960 1.970000 255 0 0
-0.059454 0.618905 1.973000 255 0 0
-0.053888 0.616714 1.966000 255 0 0
-0.166640 0.612479 1.970000 255 0 0
-0.161279 0.612491 1.970000 255 0 0
-0.155680 0.611569 1.967000 255 0 0
-0.149944 0.610026 1.962000 255 0 0
-0.144235 0.608482 1.957000 255 0 0
-0.138837 0.608181 1.956000 255 0 0
-0.133376 0.607569 1.954000 255 0 0
-0.127794 0.606335 1.950000 255 0 0
-0.122171 0.604789 1.945000 255 0 0
-0.116756 0.604176 1.943000 255 0 0
-0.111580 0.604807 1.945000 255 0 0
-0.106449 0.605748 1.948000 255 0 0
-0.101300 0.606688 1.951000 255 0 0
-0.096037 0.607007 1.952000 255 0 0
-0.090768 0.607325 1.953000 255 0 0
-0.085537 0.607953 1.955000 255 0 0
-0.080500 0.610136 1.962000 255 0 0
-0.075349 0.611697 1.967000 255 0 0
-0.070205 0.613568 1.973000 255 0 0
-0.064930 0.614507 1.976000 255 0 0
-0.059609 0.615133 1.978000 255 0 0
-0.054057 0.613272 1.972000 255 0 0
-0.167244 0.609315 1.977000 255 0 0
-0.161945 0.609635 1.978000 255 0 0
-0.156245 0.608414 1.974000 255 0 0
-0.150490 0.606884 1.969000 255 0 0
-0.144761 0.605354 1.964000 255 0 0
-0.139273 0.604748 1.962000 255 0 0
-0.133932 0.604758 1.962000 255 0 0
-0.128131 0.602610 1.955000 255 0 0
-0.122495 0.601078 1.950000 255 0 0
-0.117065 0.600470 1.948000 255 0 0
-0.111876 0.601095 1.950000 255 0 0
-0.106675 0.601720 1.952000 255 0 0
-0.101515 0.602653 1.955000 255 0 0
-0.096290 0.603277 1.957000 255 0 0
-0.090961 0.603284 1.957000 255 0 0
-0.085631 0.603291 1.957000 255 0 0
-0.080547 0.605147 1.963000 255 0 0
-0.075469 0.607311 1.970000 255 0 0
-0.070424 0.610091 1.979000 255 0 0
-0.065198 0.611637 1.984000 255 0 0
-0.059885 0.612567 1.987000 255 0 0
-0.054445 0.612263 1.986000 255 0 0
-0.186122 0.631444 2.067000 255 0 0
-0.173772 0.607934 1.990000 255 0 0
-0.168610 0.608863 1.993000 255 0 0
-0.162694 0.607042 1.987000 255 0 0
-0.156652 0.604610 1.979000 255 0 0
-0.150730 0.602482 1.972000 255 0 0
-0.145214 0.601882 1.970000 255 0 0
-0.139922 0.602198 1.971000 255 0 0
-0.134556 0.602208 1.971000 255 0 0
-0.128665 0.599774 1.963000 255 0 0
-0.122944 0.597950 1.957000 255 0 0
-0.117374 0.596737 1.953000 255 0 0
-0.112114 0.597051 1.954000 255 0 0
-0.106902 0.597671 1.956000 255 0 0
-0.101783 0.598901 1.960000 255 0 0
-0.096593 0.599825 1.963000 255 0 0
-0.091246 0.599832 1.963000 255 0 0
-0.085944 0.600145 1.964000 255 0 0
-0.080841 0.601985 1.970000 255 0 0
-0.075705 0.603824 1.976000 255 0 0
-0.070714 0.607191 1.987000 255 0 0
-0.065499 0.609030 1.993000 255 0 0
-0.060281 0.611174 2.000000 255 0 0
-0.055162 0.614845 2.012000 255 0 0
-0.050644 0.626768 2.051000 255 0 0
-0.176929 0.613459 2.026000 255 0 0
-0.170484 0.610141 2.015000 255 0 0
-0.164180 0.607125 2.005000 255 0 0
-0.157614 0.602898 1.991000 255 0 0
-0.151429 0.599881 1.981000 255 0 0
-0.145594 0.598075 1.975000 255 0 0
-0.140146 0.597783 1.974000 255 0 0
-0.134839 0.598096 1.975000 255 0 0
-0.129068 0.596289 1.969000 255 0 0
-0.123330 0.594482 1.963000 255 0 0
-0.117684 0.592976 1.958000 255 0 0
-0.112409 0.593288 1.959000 255 0 0
-0.107238 0.594205 1.962000 255 0 0
-0.102050 0.595122 1.965000 255 0 0
-0.096699 0.595129 1.965000 255 0 0
-0.091439 0.595742 1.967000 255 0 0
-0.086257 0.596961 1.971000 255 0 0
-0.081175 0.599087 1.978000 255 0 0
-0.075979 0.600608 1.983000 255 0 0
-0.070969 0.603945 1.994000 255 0 0
-0.065800 0.606374 2.002000 255 0 0
-0.060678 0.609710 2.013000 255 0 0
-0.055852 0.616984 2.037000 255 0 0
-0.051241 0.628498 2.075000 255 0 0
-0.179562 0.616988 2.056000 255 0 0
-0.172442 0.611599 2.038000 255 0 0
-0.165421 0.606210 2.020000 255 0 0
-0.158259 0.599920 1.999000 255 0 0
-0.151746 0.595730 1.985000 255 0 0
-0.145900 0.593940 1.979000 255 0 0
-0.140227 0.592751 1.975000 255 0 0
-0.134781 0.592461 1.974000 255 0 0
-0.129144 0.591270 1.970000 255 0 0
-0.123591 0.590380 1.967000 255 0 0
-0.117993 0.589188 1.963000 255 0 0
-0.112647 0.589197 1.963000 255 0 0
-0.107465 0.590106 1.966000 255 0 0
-0.102266 0.591015 1.969000 255 0 0
-0.096952 0.591323 1.970000 255 0 0
-0.091679 0.591930 1.972000 255 0 0
-0.086570 0.593738 1.978000 255 0 0
-0.081510 0.596146 1.986000 255 0 0
-0.076368 0.598254 1.993000 255 0 0
-0.071295 0.601261 2.003000 255 0 0
-0.066068 0.603368 2.010000 255 0 0
-0.061074 0.608176 2.026000 255 0 0
-0.056432 0.617787 2.058000 255 0 0
-0.051566 0.626796 2.088000 255 0 0
-0.046031 0.628902 2.095000 255 0 0
-0.187333 0.618557 2.080000 255 0 0
-0.180012 0.612920 2.061000 255 0 0
-0.174063 0.611744 2.057000 255 0 0
-0.167480 0.608188 2.045000 255 0 0
-0.159933 0.600765 2.020000 255 0 0
-0.152828 0.594531 1.999000 255 0 0
-0.146427 0.590676 1.986000 255 0 0
-0.140309 0.587713 1.976000 255 0 0
-0.134655 0.586533 1.972000 255 0 0
-0.129022 0.585354 1.968000 255 0 0
-0.123600 0.585066 1.967000 255 0 0
-0.118123 0.584480 1.965000 255 0 0
-0.112828 0.584787 1.966000 255 0 0
-0.107583 0.585390 1.968000 255 0 0
-0.102430 0.586588 1.972000 255 0 0
-0.097206 0.587489 1.975000 255 0 0
-0.091965 0.588388 1.978000 255 0 0
-0.086883 0.590478 1.985000 255 0 0
-0.081804 0.592864 1.993000 255 0 0
-0.076681 0.595250 2.001000 255 0 0
-0.071656 0.598826 2.013000 255 0 0
-0.066533 0.602104 2.024000 255 0 0
-0.061622 0.608058 2.044000 255 0 0
-0.056958 0.617880 2.077000 255 0 0
-0.051718 0.622942 2.094000 255 0 0
-0.045991 0.622648 2.093000 255 0 0
-0.040211 0.621461 2.089000 255 0 0
-0.195793 0.621763 2.110000 255 0 0
-0.185996 0.608516 2.065000 255 0 0
-0.180113 0.607646 2.062000 255 0 0
-0.174584 0.607954 2.063000 255 0 0
-0.168803 0.607377 2.061000 255 0 0
-0.162004 0.602969 2.046000 255 0 0
-0.154522 0.595614 2.021000 255 0 0
-0.147618 0.590026 2.002000 255 0 0
-0.140959 0.585026 1.985000 255 0 0
-0.134870 0.582090 1.975000 255 0 0
-0.129164 0.580626 1.970000 255 0 0
-0.123735 0.580341 1.969000 255 0 0
-0.118372 0.580351 1.969000 255 0 0
-0.112952 0.580065 1.968000 255 0 0
-0.107755 0.580958 1.971000 255 0 0
-0.102594 0.582145 1.975000 255 0 0
-0.097558 0.584216 1.982000 255 0 0
-0.092391 0.585698 1.987000 255 0 0
-0.087328 0.588063 1.995000 255 0 0
-0.082303 0.591017 2.005000 255 0 0
-0.077300 0.594561 2.017000 255 0 0
-0.072267 0.598399 2.030000 255 0 0
-0.067163 0.602237 2.043000 255 0 0
-0.062139 0.607548 2.061000 255 0 0
-0.057209 0.614922 2.086000 255 0 0
-0.051796 0.618169 2.097000 255 0 0
-0.046016 0.617289 2.094000 255 0 0
-0.040214 0.615819 2.089000 255 0 0
-0.034604 0.617296 2.094000 255 0 0
-0.201742 0.616630 2.112000 255 0 0
-0.192930 0.607009 2.079000 255 0 0
-0.185920 0.602644 2.064000 255 0 0
-0.180388 0.602950 2.065000 255 0 0
-0.175020 0.603839 2.068000 255 0 0
-0.169717 0.605020 2.072000 255 0 0
-0.163600 0.603281 2.066000 255 0 0
-0.156522 0.597745 2.047000 255 0 0
-0.149473 0.591916 2.027000 255 0 0
-0.142603 0.586379 2.008000 255 0 0
-0.135973 0.581426 1.991000 255 0 0
-0.129960 0.578808 1.982000 255 0 0
-0.124311 0.577650 1.978000 255 0 0
-0.118742 0.576783 1.975000 255 0 0
-0.113305 0.576500 1.974000 255 0 0
-0.108146 0.577677 1.978000 255 0 0
-0.103121 0.579730 1.985000 255 0 0
-0.098058 0.581782 1.992000 255 0 0
-0.092956 0.583834 1.999000 255 0 0
-0.087948 0.586762 2.009000 255 0 0
-0.082966 0.590274 2.021000 255 0 0
-0.077958 0.594077 2.034000 255 0 0
-0.072914 0.598172 2.048000 255 0 0
-0.067662 0.601099 2.058000 255 0 0
-0.062476 0.605193 2.072000 255 0 0
-0.057296 0.610163 2.089000 255 0 0
-0.051875 0.613381 2.100000 255 0 0
-0.046130 0.613092 2.099000 255 0 0
-0.040236 0.610467 2.090000 255 0 0
-0.034540 0.610470 2.090000 255 0 0
-0.207211 0.610039 2.109000 255 0 0
-0.200037 0.605715 2.094000 255 0 0
-0.193038 0.601680 2.080000 255 0 0
-0.186294 0.598223 2.068000 255 0 0
-0.180489 0.597658 2.066000 255 0 0
-0.175033 0.598250 2.068000 255 0 0
-0.169730 0.599421 2.072000 255 0 0
-0.164009 0.599144 2.071000 255 0 0
-0.157757 0.596842 2.063000 255 0 0
-0.151254 0.593382 2.051000 255 0 0
-0.144816 0.589922 2.039000 255 0 0
-0.138169 0.585304 2.023000 255 0 0
-0.131872 0.581843 2.011000 255 0 0
-0.125829 0.579249 2.002000 255 0 0
-0.120074 0.577812 1.997000 255 0 0
-0.114519 0.577242 1.995000 255 0 0
-0.109412 0.578987 2.001000 255 0 0
-0.104272 0.580732 2.007000 255 0 0
-0.099149 0.582766 2.014000 255 0 0
-0.093987 0.584799 2.021000 255 0 0
-0.088874 0.587410 2.030000 255 0 0
-0.083671 0.589732 2.038000 255 0 0
-0.078462 0.592343 2.047000 255 0 0
-0.073205 0.594953 2.056000 255 0 0
-0.067832 0.596985 2.063000 255 0 0
-0.062481 0.599595 2.072000 255 0 0
-0.057191 0.603361 2.085000 255 0 0
-0.051830 0.607128 2.098000 255 0 0
-0.046156 0.607711 2.100000 255 0 0
-0.040297 0.605688 2.093000 255 0 0
-0.034494 0.603955 2.087000 255 0 0
-0.028847 0.604826 2.090000 255 0 0
-0.218396 0.603447 2.106000 255 0 0
-0.212260 0.602316 2.102000 255 0 0
-0.206342 0.601759 2.100000 255 0 0
-0.199956 0.599768 2.093000 255 0 0
