ply
format ascii 1.0
element vertex 1332
property double x
property double y
property double z
property uchar red
property uchar green
property uchar blue
end_header
-0.096243 0.548078 2.068000 255 0 0
-0.090780 0.549146 2.072000 255 0 0
-0.085294 0.550214 2.076000 255 0 0
-0.079671 0.550486 2.077000 255 0 0
-0.074043 0.550757 2.078000 255 0 0
-0.068343 0.550498 2.077000 255 0 0
-0.062648 0.550239 2.076000 255 0 0
-0.056794 0.548388 2.069000 255 0 0
-0.050879 0.545477 2.058000 255 0 0
-0.045090 0.543361 2.050000 255 0 0
-0.039518 0.543630 2.051000 255 0 0
-0.034089 0.546283 2.061000 255 0 0
-0.028620 0.549202 2.072000 255 0 0
-0.023001 0.549999 2.075000 255 0 0
-0.017342 0.550001 2.075000 255 0 0
-0.011693 0.550532 2.077000 255 0 0
-0.006033 0.551063 2.079000 255 0 0
-0.000363 0.551858 2.082000 255 0 0
0.005321 0.552388 2.084000 255 0 0
0.011011 0.552653 2.085000 255 0 0
0.016690 0.552386 2.084000 255 0 0
0.022353 0.551855 2.082000 255 0 0
0.028032 0.551853 2.082000 255 0 0
0.033695 0.551585 2.081000 255 0 0
0.039371 0.551582 2.081000 255 0 0
0.045090 0.552108 2.083000 255 0 0
0.050893 0.553429 2.088000 255 0 0
0.056778 0.555280 2.095000 255 0 0
0.062969 0.559516 2.111000 255 0 0
-0.109117 0.637087 2.049734 0 255 0
-0.114937 0.640082 2.066667 0 255 0
-0.118124 0.642808 2.081557 0 255 0
-0.119555 0.645354 2.095087 0 255 0
-0.118340 0.647639 2.106615 0 255 0
-0.108277 0.649071 2.111581 0 255 0
-0.107062 0.651360 2.123106 0 255 0
-0.096096 0.652721 2.127472 0 255 0
-0.096655 0.655182 2.140291 0 255 0
-0.327877 0.552595 2.109000 255 0 0
-0.318784 0.546853 2.087000 255 0 0
-0.312210 0.545302 2.081000 255 0 0
-0.305815 0.544013 2.076000 255 0 0
-0.299737 0.543248 2.073000 255 0 0
-0.293957 0.543007 2.072000 255 0 0
-0.288044 0.542503 2.070000 255 0 0
-0.282141 0.542000 2.068000 255 0 0
-0.276382 0.541758 2.067000 255 0 0
-0.270759 0.541777 2.067000 255 0 0
-0.265263 0.542059 2.068000 255 0 0
-0.259762 0.542340 2.069000 255 0 0
-0.254254 0.542622 2.070000 255 0 0
-0.249101 0.543689 2.074000 255 0 0
-0.243574 0.543969 2.075000 255 0 0
-0.238040 0.544250 2.076000 255 0 0
-0.232277 0.544005 2.075000 255 0 0
-0.226518 0.543761 2.074000 255 0 0
-0.220658 0.543253 2.072000 255 0 0
-0.214809 0.542746 2.070000 255 0 0
-0.208869 0.541975 2.067000 255 0 0
-0.202846 0.540943 2.063000 255 0 0
-0.196940 0.540172 2.060000 255 0 0
-0.191236 0.539925 2.059000 255 0 0
-0.185627 0.539940 2.059000 255 0 0
-0.179493 0.538381 2.053000 255 0 0
-0.173476 0.537083 2.048000 255 0 0
-0.167650 0.536310 2.045000 255 0 0
-0.162632 0.538159 2.052000 255 0 0
-0.157576 0.540008 2.059000 255 0 0
-0.152555 0.542119 2.067000 255 0 0
-0.147206 0.543180 2.071000 255 0 0
-0.141561 0.543192 2.071000 255 0 0
-0.135850 0.542941 2.070000 255 0 0
-0.130208 0.542952 2.070000 255 0 0
-0.124565 0.542962 2.070000 255 0 0
-0.118806 0.542448 2.068000 255 0 0
-0.113058 0.541933 2.066000 255 0 0
-0.107321 0.541417 2.064000 255 0 0
-0.101792 0.541951 2.066000 255 0 0
-0.096205 0.542221 2.067000 255 0 0
-0.090700 0.543016 2.070000 255 0 0
-0.085137 0.543548 2.072000 255 0 0
-0.079486 0.543555 2.072000 255 0 0
-0.073907 0.544086 2.074000 255 0 0
-0.068184 0.543567 2.072000 255 0 0
-0.062473 0.543048 2.070000 255 0 0
-0.056579 0.540692 2.061000 255 0 0
-0.050711 0.538073 2.051000 255 0 0
-0.044984 0.536503 2.045000 255 0 0
-0.039483 0.537556 2.049000 255 0 0
-0.034059 0.540183 2.059000 255 0 0
-0.028567 0.542547 2.068000 255 0 0
-0.022948 0.543073 2.070000 255 0 0
-0.017318 0.543600 2.072000 255 0 0
-0.011671 0.543863 2.073000 255 0 0
-0.006022 0.544389 2.075000 255 0 0
-0.000362 0.545176 2.078000 255 0 0
0.005312 0.545701 2.080000 255 0 0
0.010996 0.546225 2.082000 255 0 0
0.016668 0.545961 2.081000 255 0 0
0.022312 0.545173 2.078000 255 0 0
0.027981 0.545170 2.078000 255 0 0
0.033649 0.545168 2.078000 255 0 0
0.039317 0.545165 2.078000 255 0 0
0.045007 0.545423 2.079000 255 0 0
0.050751 0.546206 2.082000 255 0 0
0.056566 0.547514 2.087000 255 0 0
0.062527 0.549870 2.096000 255 0 0
-0.123241 0.630439 2.074127 0 255 0
-0.126981 0.635648 2.101839 0 255 0
-0.119583 0.637317 2.108752 0 255 0
-0.113062 0.639081 2.116340 0 255 0
-0.107421 0.640938 2.124596 0 255 0
-0.103548 0.642973 2.134161 0 255 0
-0.091693 0.644234 2.137912 0 255 0
-0.324479 0.541182 2.087000 255 0 0
-0.317889 0.539648 2.081000 255 0 0
-0.311631 0.538632 2.077000 255 0 0
-0.305247 0.537357 2.072000 255 0 0
-0.299179 0.536600 2.069000 255 0 0
-0.293269 0.536102 2.067000 255 0 0
-0.287647 0.536123 2.067000 255 0 0
-0.282025 0.536143 2.067000 255 0 0
-0.276535 0.536423 2.068000 255 0 0
-0.270909 0.536442 2.068000 255 0 0
-0.265283 0.536462 2.068000 255 0 0
-0.259781 0.536741 2.069000 255 0 0
-0.254273 0.537019 2.070000 255 0 0
-0.248879 0.537557 2.072000 255 0 0
-0.243240 0.537575 2.072000 255 0 0
-0.237599 0.537594 2.072000 255 0 0
-0.232071 0.537871 2.073000 255 0 0
-0.226208 0.537369 2.071000 255 0 0
-0.220569 0.537387 2.071000 255 0 0
-0.214722 0.536884 2.069000 255 0 0
-0.208885 0.536382 2.067000 255 0 0
-0.202763 0.535100 2.062000 255 0 0
-0.196956 0.534597 2.060000 255 0 0
-0.191251 0.534353 2.059000 255 0 0
-0.185732 0.534627 2.060000 255 0 0
-0.179508 0.532825 2.053000 255 0 0
-0.173405 0.531282 2.047000 255 0 0
-0.167664 0.530776 2.045000 255 0 0
-0.162566 0.532347 2.051000 255 0 0
-0.157436 0.533917 2.057000 255 0 0
-0.152346 0.535747 2.064000 255 0 0
-0.147005 0.536797 2.068000 255 0 0
-0.141504 0.537328 2.070000 255 0 0
-0.135862 0.537340 2.070000 255 0 0
-0.130281 0.537610 2.071000 255 0 0
-0.124575 0.537361 2.070000 255 0 0
-0.118931 0.537371 2.070000 255 0 0
-0.113123 0.536602 2.067000 255 0 0
-0.107382 0.536092 2.065000 255 0 0
-0.101751 0.536101 2.065000 255 0 0
-0.096166 0.536368 2.066000 255 0 0
-0.090620 0.536896 2.068000 255 0 0
-0.085103 0.537682 2.071000 255 0 0
-0.079416 0.537429 2.070000 255 0 0
-0.073806 0.537695 2.071000 255 0 0
-0.068058 0.536922 2.068000 255 0 0
-0.062327 0.536149 2.065000 255 0 0
-0.056474 0.534077 2.057000 255 0 0
-0.050665 0.532004 2.049000 255 0 0
-0.044988 0.530970 2.045000 255 0 0
-0.039506 0.532272 2.050000 255 0 0
-0.034029 0.534092 2.057000 255 0 0
-0.028542 0.536432 2.066000 255 0 0
-0.022917 0.536694 2.067000 255 0 0
-0.017303 0.537474 2.070000 255 0 0
-0.011667 0.537995 2.072000 255 0 0
-0.006023 0.538774 2.075000 255 0 0
-0.000362 0.539294 2.077000 255 0 0
0.005304 0.539294 2.077000 255 0 0
0.010971 0.539293 2.077000 255 0 0
0.016629 0.539032 2.076000 255 0 0
0.022293 0.539031 2.076000 255 0 0
0.027956 0.539028 2.076000 255 0 0
0.033652 0.539545 2.078000 255 0 0
0.039340 0.539802 2.079000 255 0 0
0.045011 0.539798 2.079000 255 0 0
0.050731 0.540313 2.081000 255 0 0
0.056435 0.540568 2.082000 255 0 0
0.062204 0.541342 2.085000 255 0 0
0.068151 0.543414 2.093000 255 0 0
0.074354 0.547043 2.107000 255 0 0
-0.128896 0.620556 2.079586 0 255 0
-0.132966 0.623405 2.095093 0 255 0
-0.129105 0.625425 2.104630 0 255 0
-0.120826 0.626991 2.110888 0 255 0
-0.113423 0.628656 2.117826 0 255 0
-0.106012 0.630327 2.124785 0 255 0
-0.101252 0.632273 2.133711 0 255 0
-0.088511 0.633423 2.136833 0 255 0
-0.330016 0.535253 2.086000 255 0 0
-0.323412 0.533736 2.080000 255 0 0
-0.317300 0.532988 2.077000 255 0 0
-0.311203 0.532240 2.074000 255 0 0
-0.304974 0.531235 2.070000 255 0 0
-0.298911 0.530486 2.067000 255 0 0
-0.292864 0.529737 2.064000 255 0 0
-0.287111 0.529501 2.063000 255 0 0
-0.281636 0.529778 2.064000 255 0 0
-0.276288 0.530311 2.066000 255 0 0
-0.270667 0.530331 2.066000 255 0 0
-0.265174 0.530608 2.067000 255 0 0
-0.259674 0.530884 2.068000 255 0 0
-0.254292 0.531416 2.070000 255 0 0
-0.248898 0.531949 2.072000 255 0 0
-0.242906 0.531197 2.069000 255 0 0
-0.237273 0.531215 2.069000 255 0 0
-0.231528 0.530976 2.068000 255 0 0
-0.226007 0.531250 2.069000 255 0 0
-0.220479 0.531524 2.070000 255 0 0
-0.214634 0.531028 2.068000 255 0 0
-0.208699 0.530274 2.065000 255 0 0
-0.202779 0.529519 2.062000 255 0 0
-0.197067 0.529278 2.061000 255 0 0
-0.191266 0.528780 2.059000 255 0 0
-0.185566 0.528538 2.058000 255 0 0
-0.179434 0.527012 2.052000 255 0 0
-0.173504 0.525999 2.048000 255 0 0
-0.167759 0.525499 2.046000 255 0 0
-0.162262 0.525769 2.047000 255 0 0
-0.156913 0.526552 2.050000 255 0 0
-0.151916 0.528620 2.058000 255 0 0
-0.146875 0.530687 2.066000 255 0 0
-0.141516 0.531726 2.070000 255 0 0
-0.135807 0.531480 2.069000 255 0 0
-0.130229 0.531748 2.070000 255 0 0
-0.124525 0.531502 2.069000 255 0 0
-0.118826 0.531255 2.068000 255 0 0
-0.113132 0.531008 2.067000 255 0 0
-0.107547 0.531274 2.068000 255 0 0
-0.101908 0.531283 2.068000 255 0 0
-0.096268 0.531291 2.068000 255 0 0
-0.090627 0.531299 2.068000 255 0 0
-0.084987 0.531306 2.068000 255 0 0
-0.079308 0.531056 2.067000 255 0 0
-0.073634 0.530806 2.066000 255 0 0
-0.067867 0.529784 2.062000 255 0 0
-0.062061 0.528248 2.056000 255 0 0
-0.056205 0.525941 2.047000 255 0 0
-0.050472 0.524404 2.041000 255 0 0
-0.044882 0.524151 2.040000 255 0 0
-0.039451 0.525953 2.047000 255 0 0
-0.034032 0.528525 2.057000 255 0 0
-0.028503 0.530070 2.063000 255 0 0
-0.022885 0.530329 2.064000 255 0 0
-0.017279 0.531101 2.067000 255 0 0
-0.011662 0.532130 2.071000 255 0 0
-0.006026 0.533416 2.076000 255 0 0
-0.000362 0.533930 2.078000 255 0 0
0.005307 0.533930 2.078000 255 0 0
0.010972 0.533672 2.077000 255 0 0
0.016630 0.533414 2.076000 255 0 0
0.022295 0.533412 2.076000 255 0 0
0.027959 0.533410 2.076000 255 0 0
0.033622 0.533408 2.076000 255 0 0
0.039305 0.533661 2.077000 255 0 0
0.044950 0.533401 2.076000 255 0 0
0.050687 0.534168 2.079000 255 0 0
0.056358 0.534163 2.079000 255 0 0
0.062090 0.534672 2.081000 255 0 0
0.067864 0.535437 2.084000 255 0 0
0.073761 0.536973 2.090000 255 0 0
0.079576 0.537737 2.093000 255 0 0
0.085570 0.539529 2.100000 255 0 0
-0.131229 0.615202 2.107419 0 255 0
-0.122071 0.616661 2.113024 0 255 0
-0.119088 0.618779 2.123228 0 255 0
-0.109030 0.620159 2.128229 0 255 0
-0.106042 0.622285 2.138446 0 255 0
-0.091538 0.623223 2.140276 0 255 0
-0.083222 0.624812 2.146666 0 255 0
-0.086991 0.630079 2.174183 0 255 0
-0.342628 0.540499 2.129000 255 0 0
-0.329247 0.528336 2.081000 255 0 0
-0.322968 0.527343 2.077000 255 0 0
-0.317169 0.527111 2.076000 255 0 0
-0.311224 0.526625 2.074000 255 0 0
-0.304848 0.525376 2.069000 255 0 0
-0.298498 0.524128 2.064000 255 0 0
-0.292601 0.523641 2.062000 255 0 0
-0.287271 0.524170 2.064000 255 0 0
-0.281929 0.524698 2.066000 255 0 0
-0.276442 0.524972 2.067000 255 0 0
-0.270818 0.524992 2.067000 255 0 0
-0.265065 0.524758 2.066000 255 0 0
-0.259568 0.525032 2.067000 255 0 0
-0.254065 0.525305 2.068000 255 0 0
-0.248556 0.525577 2.069000 255 0 0
-0.242689 0.525088 2.067000 255 0 0
-0.237177 0.525360 2.068000 255 0 0
-0.231434 0.525124 2.067000 255 0 0
-0.225915 0.525396 2.068000 255 0 0
-0.220390 0.525667 2.069000 255 0 0
-0.214547 0.525176 2.067000 255 0 0
-0.208614 0.524430 2.064000 255 0 0
-0.202599 0.523430 2.060000 255 0 0
-0.196987 0.523445 2.060000 255 0 0
-0.191374 0.523461 2.060000 255 0 0
-0.185491 0.522713 2.057000 255 0 0
-0.179449 0.521457 2.052000 255 0 0
-0.173349 0.519947 2.046000 255 0 0
-0.167691 0.519706 2.045000 255 0 0
-0.162038 0.519466 2.044000 255 0 0
-0.156619 0.519987 2.046000 255 0 0
-0.151411 0.521270 2.051000 255 0 0
-0.146531 0.523824 2.061000 255 0 0
-0.141391 0.525615 2.068000 255 0 0
-0.135818 0.525880 2.069000 255 0 0
-0.130303 0.526400 2.071000 255 0 0
-0.124656 0.526410 2.071000 255 0 0
-0.119008 0.526420 2.071000 255 0 0
-0.113306 0.526176 2.070000 255 0 0
-0.107712 0.526439 2.071000 255 0 0
-0.102015 0.526194 2.070000 255 0 0
-0.096369 0.526202 2.070000 255 0 0
-0.090679 0.525956 2.069000 255 0 0
-0.085035 0.525963 2.069000 255 0 0
-0.079353 0.525716 2.068000 255 0 0
-0.073533 0.524451 2.063000 255 0 0
-0.067741 0.523186 2.058000 255 0 0
-0.061885 0.521158 2.050000 255 0 0
-0.056100 0.519383 2.043000 255 0 0
-0.050402 0.518117 2.038000 255 0 0
-0.044864 0.518375 2.039000 255 0 0
-0.039474 0.520666 2.048000 255 0 0
-0.034035 0.522958 2.057000 255 0 0
-0.028491 0.524231 2.062000 255 0 0
-0.022865 0.524234 2.062000 255 0 0
-0.017281 0.525507 2.067000 255 0 0
-0.011669 0.526779 2.072000 255 0 0
-0.006030 0.528051 2.077000 255 0 0
-0.000362 0.528305 2.078000 255 0 0
0.005303 0.527797 2.076000 255 0 0
0.010957 0.527288 2.074000 255 0 0
0.016616 0.527286 2.074000 255 0 0
0.022275 0.527285 2.074000 255 0 0
0.027934 0.527283 2.074000 255 0 0
0.033577 0.527026 2.073000 255 0 0
0.039252 0.527277 2.074000 255 0 0
0.044911 0.527273 2.074000 255 0 0
0.050618 0.527778 2.076000 255 0 0
0.056309 0.528027 2.077000 255 0 0
0.062035 0.528531 2.079000 255 0 0
0.067805 0.529288 2.082000 255 0 0
0.073626 0.530299 2.086000 255 0 0
0.079430 0.531055 2.089000 255 0 0
0.085292 0.532065 2.093000 255 0 0
-0.121732 0.675026 2.016602 255 255 0
-0.138317 0.607960 2.126285 0 255 0
-0.131813 0.609689 2.133838 0 255 0
-0.127957 0.611708 2.143357 0 255 0
-0.119676 0.613257 2.149643 0 255 0
-0.107845 0.614438 2.153379 0 255 0
-0.100430 0.616097 2.160371 0 255 0
-0.090348 0.617485 2.165468 0 255 0
-0.087354 0.619621 2.175695 0 255 0
-0.337823 0.527199 2.099000 255 0 0
-0.329111 0.522450 2.080000 255 0 0
-0.322679 0.521216 2.075000 255 0 0
-0.316885 0.520987 2.074000 255 0 0
-0.311096 0.520758 2.073000 255 0 0
-0.304869 0.519774 2.069000 255 0 0
-0.298519 0.518539 2.064000 255 0 0
-0.292764 0.518309 2.063000 255 0 0
-0.287291 0.518581 2.064000 255 0 0
-0.281813 0.518853 2.065000 255 0 0
-0.276328 0.519125 2.066000 255 0 0
-0.270576 0.518893 2.065000 255 0 0
-0.264956 0.518913 2.065000 255 0 0
-0.259462 0.519184 2.066000 255 0 0
-0.253961 0.519454 2.067000 255 0 0
-0.248575 0.519976 2.069000 255 0 0
-0.242708 0.519492 2.067000 255 0 0
-0.236965 0.519259 2.066000 255 0 0
-0.231228 0.519025 2.065000 255 0 0
-0.225823 0.519545 2.067000 255 0 0
-0.220300 0.519814 2.068000 255 0 0
-0.214460 0.519328 2.066000 255 0 0
-0.208428 0.518339 2.062000 255 0 0
-0.202516 0.517601 2.059000 255 0 0
-0.196907 0.517617 2.059000 255 0 0
-0.191204 0.517381 2.058000 255 0 0
-0.185235 0.516390 2.054000 255 0 0
-0.179376 0.515651 2.051000 255 0 0
-0.173278 0.514156 2.045000 255 0 0
-0.167540 0.513667 2.043000 255 0 0
-0.161734 0.512926 2.040000 255 0 0
-0.156173 0.512939 2.040000 255 0 0
-0.150981 0.514209 2.045000 255 0 0
-0.146117 0.516735 2.055000 255 0 0
-0.141129 0.519010 2.064000 255 0 0
-0.135764 0.520028 2.068000 255 0 0
-0.130314 0.520793 2.071000 255 0 0
-0.124666 0.520803 2.071000 255 0 0
-0.118961 0.520562 2.070000 255 0 0
-0.113260 0.520320 2.069000 255 0 0
-0.107669 0.520581 2.070000 255 0 0
-0.102072 0.520841 2.071000 255 0 0
-0.096377 0.520598 2.070000 255 0 0
-0.090686 0.520354 2.069000 255 0 0
-0.084919 0.519607 2.066000 255 0 0
-0.079168 0.518860 2.063000 255 0 0
-0.073290 0.517106 2.056000 255 0 0
-0.067516 0.515854 2.051000 255 0 0
-0.061679 0.513847 2.043000 255 0 0
-0.055967 0.512595 2.038000 255 0 0
-0.050307 0.511593 2.034000 255 0 0
-0.044823 0.512352 2.037000 255 0 0
-0.039458 0.514871 2.047000 255 0 0
-0.034038 0.517389 2.057000 255 0 0
-0.028452 0.517895 2.059000 255 0 0
-0.022845 0.518149 2.060000 255 0 0
-0.017257 0.519156 2.064000 255 0 0
-0.011653 0.520415 2.069000 255 0 0
-0.006018 0.521422 2.073000 255 0 0
-0.000362 0.521674 2.074000 255 0 0
0.005295 0.521422 2.073000 255 0 0
0.010947 0.521170 2.072000 255 0 0
0.016601 0.521169 2.072000 255 0 0
0.022277 0.521670 2.074000 255 0 0
0.027923 0.521417 2.073000 255 0 0
0.033563 0.521162 2.072000 255 0 0
0.039198 0.520908 2.071000 255 0 0
0.044849 0.520904 2.071000 255 0 0
0.050549 0.521403 2.073000 255 0 0
0.056260 0.521902 2.075000 255 0 0
0.062040 0.522903 2.079000 255 0 0
0.067778 0.523400 2.081000 255 0 0
0.073526 0.523897 2.083000 255 0 0
0.079323 0.524645 2.086000 255 0 0
0.085095 0.525141 2.088000 255 0 0
0.091226 0.527649 2.098000 255 0 0
-0.105650 0.666959 2.043540 255 255 0
-0.170419 0.601120 2.151289 0 255 0
-0.154235 0.601741 2.151593 0 255 0
-0.152163 0.603942 2.162348 0 255 0
-0.143904 0.605463 2.168571 0 255 0
-0.124134 0.605736 2.166457 0 255 0
-0.104336 0.606031 2.164437 0 255 0
-0.092487 0.607206 2.168256 0 255 0
-0.085946 0.608964 2.175937 0 255 0
-0.336880 0.520024 2.093000 255 0 0
-0.329133 0.516817 2.080000 255 0 0
-0.322701 0.515597 2.075000 255 0 0
-0.316754 0.515122 2.073000 255 0 0
-0.311118 0.515144 2.073000 255 0 0
-0.304743 0.513923 2.068000 255 0 0
-0.298685 0.513199 2.065000 255 0 0
-0.293068 0.513220 2.065000 255 0 0
-0.287730 0.513738 2.067000 255 0 0
-0.281970 0.513510 2.066000 255 0 0
-0.276348 0.513530 2.066000 255 0 0
-0.270596 0.513302 2.065000 255 0 0
-0.264976 0.513321 2.065000 255 0 0
-0.259356 0.513341 2.065000 255 0 0
-0.253858 0.513609 2.066000 255 0 0
-0.248233 0.513627 2.066000 255 0 0
-0.242609 0.513646 2.066000 255 0 0
-0.237098 0.513913 2.067000 255 0 0
-0.231358 0.513682 2.066000 255 0 0
-0.225841 0.513949 2.067000 255 0 0
-0.220104 0.513717 2.066000 255 0 0
-0.214166 0.512988 2.063000 255 0 0
-0.208141 0.512010 2.059000 255 0 0
-0.202237 0.511280 2.056000 255 0 0
-0.196635 0.511296 2.056000 255 0 0
-0.191033 0.511311 2.056000 255 0 0
-0.185250 0.510829 2.054000 255 0 0
-0.179478 0.510346 2.052000 255 0 0
-0.173546 0.509365 2.048000 255 0 0
-0.168046 0.509628 2.049000 255 0 0
-0.162223 0.508895 2.046000 255 0 0
-0.156568 0.508659 2.045000 255 0 0
-0.150993 0.508672 2.045000 255 0 0
-0.145702 0.509679 2.049000 255 0 0
-0.140730 0.511929 2.058000 255 0 0
-0.135644 0.513931 2.066000 255 0 0
-0.130387 0.515434 2.072000 255 0 0
-0.124797 0.515694 2.073000 255 0 0
-0.119143 0.515704 2.073000 255 0 0
-0.113434 0.515465 2.072000 255 0 0
-0.107730 0.515225 2.071000 255 0 0
-0.102081 0.515234 2.071000 255 0 0
-0.096431 0.515242 2.071000 255 0 0
-0.090694 0.514753 2.069000 255 0 0
-0.084844 0.513516 2.064000 255 0 0
-0.078867 0.511284 2.055000 255 0 0
-0.073011 0.509548 2.048000 255 0 0
-0.067324 0.508808 2.045000 255 0 0
-0.061623 0.507818 2.041000 255 0 0
-0.055972 0.507077 2.038000 255 0 0
-0.050312 0.506086 2.034000 255 0 0
-0.044849 0.507085 2.038000 255 0 0
-0.039442 0.509079 2.046000 255 0 0
-0.033991 0.511073 2.054000 255 0 0
-0.028427 0.511822 2.057000 255 0 0
-0.022814 0.511824 2.057000 255 0 0
-0.017242 0.513070 2.062000 255 0 0
-0.011637 0.514067 2.066000 255 0 0
-0.006013 0.515312 2.071000 255 0 0
-0.000361 0.515312 2.071000 255 0 0
0.005288 0.515063 2.070000 255 0 0
0.010932 0.514813 2.069000 255 0 0
0.016579 0.514812 2.069000 255 0 0
0.022247 0.515308 2.071000 255 0 0
0.027898 0.515306 2.071000 255 0 0
0.033550 0.515303 2.071000 255 0 0
0.039183 0.515052 2.070000 255 0 0
0.044832 0.515048 2.070000 255 0 0
0.050505 0.515293 2.071000 255 0 0
0.056210 0.515786 2.073000 255 0 0
0.061926 0.516278 2.075000 255 0 0
0.067686 0.517019 2.078000 255 0 0
0.073426 0.517511 2.080000 255 0 0
0.079292 0.518749 2.085000 255 0 0
0.085062 0.519239 2.087000 255 0 0
0.091147 0.521471 2.096000 255 0 0
-0.127117 0.667263 2.107769 255 255 0
-0.109806 0.655879 2.041440 255 255 0
-0.119747 0.653297 2.020382 255 255 0
-0.124530 0.650979 2.003249 255 255 0
-0.184859 0.592430 2.163183 0 255 0
-0.173104 0.593509 2.166712 0 255 0
-0.166632 0.595202 2.174176 0 255 0
-0.153086 0.596103 2.176494 0 255 0
-0.127142 0.595630 2.169870 0 255 0
-0.104700 0.595580 2.165938 0 255 0
-0.094627 0.596928 2.171042 0 255 0
-0.088975 0.598774 2.179359 0 255 0
-0.346683 0.520476 2.118000 255 0 0
-0.336902 0.514355 2.093000 255 0 0
-0.329472 0.511675 2.082000 255 0 0
-0.323035 0.510468 2.077000 255 0 0
-0.316776 0.509507 2.073000 255 0 0
-0.310989 0.509284 2.072000 255 0 0
-0.304912 0.508568 2.069000 255 0 0
-0.298851 0.507852 2.066000 255 0 0
-0.293089 0.507627 2.065000 255 0 0
-0.287611 0.507894 2.066000 255 0 0
-0.281990 0.507914 2.066000 255 0 0
-0.276369 0.507935 2.066000 255 0 0
-0.270747 0.507955 2.066000 255 0 0
-0.265252 0.508221 2.067000 255 0 0
-0.259501 0.507994 2.066000 255 0 0
-0.254000 0.508259 2.067000 255 0 0
-0.248492 0.508524 2.068000 255 0 0
-0.242862 0.508543 2.068000 255 0 0
-0.237116 0.508315 2.067000 255 0 0
-0.231263 0.507841 2.065000 255 0 0
-0.225639 0.507859 2.065000 255 0 0
-0.220015 0.507876 2.065000 255 0 0
-0.214078 0.507155 2.062000 255 0 0
-0.208057 0.506188 2.058000 255 0 0
-0.202253 0.505712 2.056000 255 0 0
-0.196555 0.505482 2.055000 255 0 0
-0.190862 0.505251 2.054000 255 0 0
-0.185084 0.504774 2.052000 255 0 0
-0.179579 0.505035 2.053000 255 0 0
-0.173899 0.504803 2.052000 255 0 0
-0.168469 0.505309 2.054000 255 0 0
-0.162870 0.505322 2.054000 255 0 0
-0.157117 0.504843 2.052000 255 0 0
-0.151079 0.503380 2.046000 255 0 0
-0.145287 0.502654 2.043000 255 0 0
-0.140058 0.503896 2.048000 255 0 0
-0.135130 0.506367 2.058000 255 0 0
-0.129957 0.508101 2.065000 255 0 0
-0.124566 0.509095 2.069000 255 0 0
-0.118980 0.509352 2.070000 255 0 0
-0.113389 0.509607 2.071000 255 0 0
-0.107635 0.509125 2.069000 255 0 0
-0.101942 0.508887 2.068000 255 0 0
-0.096440 0.509634 2.071000 255 0 0
-0.090614 0.508657 2.067000 255 0 0
-0.084604 0.506450 2.058000 255 0 0
-0.078567 0.503750 2.047000 255 0 0
-0.072803 0.502526 2.042000 255 0 0
-0.067264 0.502778 2.043000 255 0 0
-0.061689 0.502783 2.043000 255 0 0
-0.056059 0.502296 2.041000 255 0 0
-0.050415 0.501562 2.038000 255 0 0
-0.044897 0.502059 2.040000 255 0 0
-0.039426 0.503293 2.045000 255 0 0
-0.033961 0.505019 2.052000 255 0 0
-0.028388 0.505513 2.054000 255 0 0
-0.022782 0.505516 2.054000 255 0 0
-0.017201 0.506256 2.057000 255 0 0
-0.011615 0.507487 2.062000 255 0 0
-0.006008 0.509211 2.069000 255 0 0
-0.000361 0.509457 2.070000 255 0 0
0.005289 0.509457 2.070000 255 0 0
0.010933 0.509210 2.069000 255 0 0
0.016572 0.508963 2.068000 255 0 0
0.022227 0.509208 2.069000 255 0 0
0.027887 0.509452 2.070000 255 0 0
0.033537 0.509449 2.070000 255 0 0
0.039186 0.509446 2.070000 255 0 0
0.044835 0.509442 2.070000 255 0 0
0.050533 0.509930 2.072000 255 0 0
0.056242 0.510418 2.074000 255 0 0
0.061961 0.510905 2.076000 255 0 0
0.067692 0.511392 2.078000 255 0 0
0.073433 0.511878 2.080000 255 0 0
0.079336 0.513348 2.086000 255 0 0
0.085110 0.513834 2.088000 255 0 0
0.091111 0.515549 2.095000 255 0 0
-0.127135 0.646097 2.042519 255 255 0
-0.126795 0.644045 2.029416 255 255 0
-0.227351 0.572638 2.123012 0 255 0
-0.218294 0.573959 2.128345 0 255 0
-0.189596 0.582670 2.167881 0 255 0
-0.176086 0.583516 2.170107 0 255 0
-0.165205 0.584685 2.174332 0 255 0
-0.149014 0.585252 2.174733 0 255 0
-0.124847 0.584920 2.169428 0 255 0
-0.099760 0.584513 2.163603 0 255 0
-0.092341 0.586148 2.170642 0 255 0
-0.093775 0.588790 2.184047 0 255 0
-0.087236 0.590531 2.191738 0 255 0
-0.072704 0.591387 2.193782 0 255 0
-0.344415 0.511336 2.104000 255 0 0
-0.336764 0.508443 2.092000 255 0 0
-0.329811 0.506521 2.084000 255 0 0
-0.323368 0.505328 2.079000 255 0 0
-0.317257 0.504622 2.076000 255 0 0
-0.311161 0.503914 2.073000 255 0 0
-0.305081 0.503207 2.070000 255 0 0
-0.299162 0.502742 2.068000 255 0 0
-0.293394 0.502520 2.067000 255 0 0
-0.287771 0.502541 2.067000 255 0 0
-0.282011 0.502318 2.066000 255 0 0
-0.276389 0.502339 2.066000 255 0 0
-0.270766 0.502359 2.066000 255 0 0
-0.265272 0.502622 2.067000 255 0 0
-0.259520 0.502398 2.066000 255 0 0
-0.253896 0.502418 2.066000 255 0 0
-0.248391 0.502680 2.067000 255 0 0
-0.242880 0.502941 2.068000 255 0 0
-0.237020 0.502473 2.066000 255 0 0
-0.231169 0.502005 2.064000 255 0 0
-0.225548 0.502023 2.064000 255 0 0
-0.220032 0.502283 2.065000 255 0 0
-0.214199 0.501813 2.063000 255 0 0
-0.208275 0.501100 2.060000 255 0 0
-0.202466 0.500630 2.058000 255 0 0
-0.196762 0.500402 2.057000 255 0 0
-0.190971 0.499931 2.055000 255 0 0
-0.185460 0.500189 2.056000 255 0 0
-0.179944 0.500447 2.057000 255 0 0
-0.174506 0.500948 2.059000 255 0 0
-0.168975 0.501205 2.060000 255 0 0
-0.163438 0.501462 2.061000 255 0 0
-0.157589 0.500745 2.058000 255 0 0
-0.151387 0.498811 2.050000 255 0 0
-0.145299 0.497120 2.043000 255 0 0
-0.139659 0.496889 2.042000 255 0 0
-0.134550 0.498603 2.049000 255 0 0
-0.129528 0.500804 2.058000 255 0 0
-0.124396 0.502762 2.066000 255 0 0
-0.119105 0.504232 2.072000 255 0 0
-0.113398 0.503998 2.071000 255 0 0
-0.107644 0.503521 2.069000 255 0 0
-0.101852 0.502799 2.066000 255 0 0
-0.096215 0.502808 2.066000 255 0 0
-0.090271 0.501112 2.059000 255 0 0
-0.084283 0.498929 2.050000 255 0 0
-0.078420 0.497232 2.043000 255 0 0
-0.072845 0.497238 2.043000 255 0 0
-0.067336 0.497731 2.045000 255 0 0
-0.061845 0.498467 2.048000 255 0 0
-0.056256 0.498472 2.048000 255 0 0
-0.050667 0.498476 2.048000 255 0 0
-0.045055 0.498237 2.047000 255 0 0
-0.039487 0.498484 2.048000 255 0 0
-0.033947 0.499217 2.051000 255 0 0
-0.028377 0.499707 2.053000 255 0 0
-0.022773 0.499709 2.053000 255 0 0
-0.017195 0.500441 2.056000 255 0 0
-0.011611 0.501659 2.061000 255 0 0
-0.006008 0.503607 2.069000 255 0 0
-0.000361 0.504094 2.071000 255 0 0
0.005292 0.504094 2.071000 255 0 0
0.010934 0.503606 2.069000 255 0 0
0.016557 0.502875 2.066000 255 0 0
0.022186 0.502630 2.065000 255 0 0
0.027849 0.503115 2.067000 255 0 0
0.033540 0.503842 2.070000 255 0 0
0.039208 0.504083 2.071000 255 0 0
0.044861 0.504079 2.071000 255 0 0
0.050586 0.504805 2.074000 255 0 0
0.056301 0.505287 2.076000 255 0 0
0.062026 0.505769 2.078000 255 0 0
0.067795 0.506494 2.081000 255 0 0
0.073580 0.507218 2.084000 255 0 0
0.079457 0.508428 2.089000 255 0 0
0.085239 0.508908 2.091000 255 0 0
0.091162 0.510118 2.096000 255 0 0
0.097205 0.511813 2.103000 255 0 0
-0.131181 0.645309 2.107014 255 255 0
-0.121412 0.643786 2.101149 255 255 0
-0.127120 0.641396 2.083589 255 255 0
-0.132991 0.634820 2.039140 255 255 0
-0.143764 0.632097 2.017416 255 255 0
-0.266139 0.559991 2.117349 0 255 0
-0.287722 0.565137 2.146090 0 255 0
-0.269098 0.565188 2.143878 0 255 0
-0.250448 0.565259 2.141754 0 255 0
-0.236154 0.565897 2.143042 0 255 0
-0.182006 0.571436 2.163449 0 255 0
-0.172900 0.572788 2.168955 0 255 0
-0.160257 0.573727 2.171907 0 255 0
-0.146715 0.574574 2.174269 0 255 0
-0.109855 0.575169 2.172137 0 255 0
-0.102446 0.576787 2.179156 0 255 0
-0.100343 0.579027 2.189998 0 255 0
-0.094696 0.580858 2.198308 0 255 0
-0.351654 0.507776 2.113000 255 0 0
-0.343129 0.503714 2.096000 255 0 0
-0.336626 0.502535 2.091000 255 0 0
-0.329992 0.501116 2.085000 255 0 0
-0.323546 0.499937 2.080000 255 0 0
-0.317432 0.499238 2.077000 255 0 0
-0.311333 0.498539 2.074000 255 0 0
-0.305250 0.497839 2.071000 255 0 0
-0.299328 0.497380 2.069000 255 0 0
-0.293415 0.496920 2.067000 255 0 0
-0.287653 0.496701 2.066000 255 0 0
-0.281895 0.496481 2.065000 255 0 0
-0.276409 0.496742 2.066000 255 0 0
-0.270918 0.497003 2.067000 255 0 0
-0.265292 0.497022 2.067000 255 0 0
-0.259539 0.496801 2.066000 255 0 0
-0.253915 0.496821 2.066000 255 0 0
-0.248410 0.497080 2.067000 255 0 0
-0.243016 0.497580 2.069000 255 0 0
-0.237038 0.496877 2.066000 255 0 0
-0.231187 0.496414 2.064000 255 0 0
-0.225346 0.495950 2.062000 255 0 0
-0.219943 0.496448 2.064000 255 0 0
-0.214112 0.495984 2.062000 255 0 0
-0.208393 0.495760 2.061000 255 0 0
-0.202678 0.495536 2.060000 255 0 0
-0.196969 0.495311 2.059000 255 0 0
-0.191265 0.495086 2.058000 255 0 0
-0.185746 0.495342 2.059000 255 0 0
-0.180221 0.495597 2.060000 255 0 0
-0.174605 0.495611 2.060000 255 0 0
-0.168989 0.495625 2.060000 255 0 0
-0.163372 0.495638 2.060000 255 0 0
-0.157679 0.495411 2.059000 255 0 0
-0.151695 0.494220 2.054000 255 0 0
-0.145595 0.492548 2.047000 255 0 0
-0.139739 0.491598 2.043000 255 0 0
-0.134101 0.491368 2.042000 255 0 0
-0.128909 0.492823 2.048000 255 0 0
-0.123864 0.494999 2.057000 255 0 0
-0.118885 0.497656 2.068000 255 0 0
-0.113298 0.497907 2.069000 255 0 0
-0.107549 0.497434 2.067000 255 0 0
-0.101663 0.496240 2.062000 255 0 0
-0.095897 0.495526 2.059000 255 0 0
-0.090015 0.494090 2.053000 255 0 0
-0.084207 0.492894 2.048000 255 0 0
-0.078580 0.492660 2.047000 255 0 0
-0.072994 0.492667 2.047000 255 0 0
-0.067440 0.492913 2.048000 255 0 0
-0.061911 0.493400 2.050000 255 0 0
-0.056398 0.494127 2.053000 255 0 0
-0.050844 0.494613 2.055000 255 0 0
-0.045213 0.494377 2.054000 255 0 0
-0.039606 0.494380 2.054000 255 0 0
-0.034000 0.494383 2.054000 255 0 0
-0.028393 0.494386 2.054000 255 0 0
-0.022819 0.495110 2.057000 255 0 0
-0.017221 0.495593 2.059000 255 0 0
-0.011617 0.496317 2.062000 255 0 0
-0.006000 0.497280 2.066000 255 0 0
-0.000361 0.497762 2.068000 255 0 0
0.005287 0.498002 2.069000 255 0 0
0.010919 0.497280 2.066000 255 0 0
0.016543 0.496797 2.064000 255 0 0
0.022177 0.496795 2.064000 255 0 0
0.027852 0.497515 2.067000 255 0 0
0.033542 0.498235 2.070000 255 0 0
0.039212 0.498472 2.071000 255 0 0
0.044908 0.498950 2.073000 255 0 0
0.050615 0.499427 2.075000 255 0 0
0.056360 0.500145 2.078000 255 0 0
0.062091 0.500621 2.080000 255 0 0
0.067899 0.501579 2.084000 255 0 0
0.073692 0.502295 2.087000 255 0 0
0.079502 0.503010 2.090000 255 0 0
0.085246 0.503244 2.091000 255 0 0
0.091083 0.503958 2.094000 255 0 0
0.097028 0.505154 2.099000 255 0 0
-0.128776 0.636634 2.123173 255 255 0
-0.118148 0.635178 2.117947 255 255 0
-0.113551 0.633374 2.108220 255 255 0
-0.115826 0.631163 2.093291 255 255 0
-0.277764 0.544039 2.090970 0 255 0
-0.266737 0.547443 2.106763 0 255 0
-0.277803 0.551313 2.127482 0 255 0
-0.282779 0.554375 2.143412 0 255 0
-0.282522 0.556752 2.155279 0 255 0
-0.263891 0.556771 2.153133 0 255 0
-0.247862 0.557146 2.153066 0 255 0
-0.184985 0.561454 2.166842 0 255 0
-0.180285 0.563331 2.175591 0 255 0
-0.164128 0.563808 2.175950 0 255 0
-0.150594 0.564624 2.178313 0 255 0
-0.133513 0.565026 2.178170 0 255 0
-0.119941 0.565872 2.180659 0 255 0
-0.112542 0.567473 2.187656 0 255 0
-0.102480 0.568764 2.192775 0 255 0
-0.095064 0.570379 2.199824 0 255 0
-0.349181 0.498486 2.098000 255 0 0
-0.342824 0.497559 2.094000 255 0 0
-0.336005 0.495919 2.087000 255 0 0
-0.329857 0.495229 2.084000 255 0 0
-0.323257 0.493826 2.078000 255 0 0
-0.317607 0.493848 2.078000 255 0 0
-0.311505 0.493157 2.075000 255 0 0
-0.305567 0.492703 2.073000 255 0 0
-0.299638 0.492250 2.071000 255 0 0
-0.293578 0.491558 2.068000 255 0 0
-0.287673 0.491103 2.066000 255 0 0
-0.281779 0.490649 2.064000 255 0 0
-0.276296 0.490907 2.065000 255 0 0
-0.270938 0.491402 2.067000 255 0 0
-0.265311 0.491422 2.067000 255 0 0
-0.259559 0.491204 2.066000 255 0 0
-0.253811 0.490985 2.065000 255 0 0
-0.248188 0.491004 2.065000 255 0 0
-0.242800 0.491499 2.067000 255 0 0
-0.236826 0.490803 2.064000 255 0 0
-0.231093 0.490584 2.063000 255 0 0
-0.225255 0.490126 2.061000 255 0 0
-0.219747 0.490381 2.062000 255 0 0
-0.214025 0.490160 2.061000 255 0 0
-0.208510 0.490414 2.062000 255 0 0
-0.202891 0.490430 2.062000 255 0 0
-0.197272 0.490446 2.062000 255 0 0
-0.191466 0.489986 2.060000 255 0 0
-0.185941 0.490239 2.061000 255 0 0
-0.180323 0.490253 2.061000 255 0 0
-0.174704 0.490268 2.061000 255 0 0
-0.169003 0.490044 2.060000 255 0 0
-0.163386 0.490057 2.060000 255 0 0
-0.157768 0.490070 2.060000 255 0 0
-0.152003 0.489607 2.058000 255 0 0
-0.146176 0.488905 2.055000 255 0 0
-0.140298 0.487966 2.051000 255 0 0
-0.134375 0.486787 2.046000 255 0 0
-0.128731 0.486560 2.045000 255 0 0
-0.123453 0.487760 2.050000 255 0 0
-0.118435 0.490150 2.060000 255 0 0
-0.113143 0.491587 2.066000 255 0 0
-0.107402 0.491120 2.064000 255 0 0
-0.101425 0.489463 2.057000 255 0 0
-0.095579 0.488282 2.052000 255 0 0
-0.089848 0.487576 2.049000 255 0 0
-0.084132 0.486869 2.046000 255 0 0
-0.078587 0.487114 2.047000 255 0 0
-0.072964 0.486882 2.046000 255 0 0
-0.067446 0.487364 2.048000 255 0 0
-0.061946 0.488084 2.051000 255 0 0
-0.056458 0.489041 2.055000 255 0 0
-0.050898 0.489521 2.057000 255 0 0
-0.045261 0.489287 2.056000 255 0 0
-0.039668 0.489529 2.057000 255 0 0
-0.034069 0.489770 2.058000 255 0 0
-0.028437 0.489535 2.057000 255 0 0
-0.022855 0.490251 2.060000 255 0 0
-0.017231 0.490253 2.060000 255 0 0
-0.011624 0.490968 2.063000 255 0 0
-0.005998 0.491444 2.065000 255 0 0
-0.000360 0.491445 2.065000 255 0 0
0.005282 0.491920 2.067000 255 0 0
0.010909 0.491206 2.064000 255 0 0
0.016544 0.491205 2.064000 255 0 0
0.022190 0.491441 2.065000 255 0 0
0.027867 0.492153 2.068000 255 0 0
0.033578 0.493102 2.072000 255 0 0
0.039253 0.493337 2.073000 255 0 0
0.044955 0.493809 2.075000 255 0 0
0.050668 0.494281 2.077000 255 0 0
0.056419 0.494991 2.080000 255 0 0
0.062126 0.495224 2.081000 255 0 0
0.067937 0.496170 2.085000 255 0 0
0.073734 0.496878 2.088000 255 0 0
0.079547 0.497585 2.091000 255 0 0
0.085253 0.497578 2.091000 255 0 0
0.091134 0.498523 2.095000 255 0 0
0.097036 0.499467 2.099000 255 0 0
-0.114877 0.626597 2.134703 255 255 0
-0.105126 0.625115 2.128863 255 255 0
-0.096246 0.623586 2.122409 255 255 0
-0.102826 0.621094 2.104279 255 255 0
-0.282434 0.534465 2.095736 0 255 0
-0.276926 0.536156 2.103619 0 255 0
-0.271415 0.537852 2.111512 0 255 0
-0.274624 0.540716 2.126149 0 255 0
-0.280464 0.543921 2.142758 0 255 0
-0.279328 0.546194 2.153965 0 255 0
-0.262452 0.546400 2.153175 0 255 0
-0.253432 0.547653 2.158432 0 255 0
-0.194996 0.552371 2.175436 0 255 0
-0.188544 0.554016 2.182864 0 255 0
-0.169759 0.554120 2.181279 0 255 0
-0.153591 0.554574 2.181710 0 255 0
-0.138283 0.555154 2.182854 0 255 0
-0.130018 0.556622 2.189166 0 255 0
-0.122628 0.558206 2.196141 0 255 0
-0.109040 0.559041 2.198712 0 255 0
-0.097205 0.560105 2.202601 0 255 0
-0.076496 0.560113 2.200266 0 255 0
-0.349538 0.493271 2.100000 255 0 0
-0.342847 0.491885 2.094000 255 0 0
-0.336189 0.490498 2.088000 255 0 0
-0.329721 0.489347 2.083000 255 0 0
-0.323435 0.488430 2.079000 255 0 0
-0.317782 0.488452 2.079000 255 0 0
-0.311977 0.488239 2.078000 255 0 0
-0.305736 0.487321 2.074000 255 0 0
-0.299805 0.486872 2.072000 255 0 0
-0.293600 0.485954 2.068000 255 0 0
-0.287834 0.485740 2.067000 255 0 0
-0.281799 0.485056 2.064000 255 0 0
-0.276450 0.485546 2.066000 255 0 0
-0.271089 0.486036 2.068000 255 0 0
-0.265459 0.486056 2.068000 255 0 0
-0.259829 0.486076 2.068000 255 0 0
-0.253953 0.485625 2.066000 255 0 0
-0.248207 0.485409 2.065000 255 0 0
-0.242466 0.485192 2.064000 255 0 0
-0.236615 0.484740 2.062000 255 0 0
-0.230774 0.484288 2.060000 255 0 0
-0.225053 0.484070 2.059000 255 0 0
-0.219444 0.484088 2.059000 255 0 0
-0.213730 0.483869 2.058000 255 0 0
-0.208223 0.484121 2.059000 255 0 0
-0.202710 0.484372 2.060000 255 0 0
-0.197192 0.484623 2.061000 255 0 0
-0.191574 0.484639 2.061000 255 0 0
-0.185956 0.484654 2.061000 255 0 0
-0.180337 0.484668 2.061000 255 0 0
-0.174633 0.484447 2.060000 255 0 0
-0.169016 0.484461 2.060000 255 0 0
-0.163399 0.484475 2.060000 255 0 0
-0.157781 0.484488 2.060000 255 0 0
-0.152089 0.484265 2.059000 255 0 0
-0.146473 0.484277 2.059000 255 0 0
-0.140720 0.483819 2.057000 255 0 0
-0.134780 0.482654 2.052000 255 0 0
-0.128804 0.481254 2.046000 255 0 0
-0.123162 0.481029 2.045000 255 0 0
-0.117985 0.482685 2.052000 255 0 0
-0.112715 0.484106 2.058000 255 0 0
-0.107047 0.483880 2.057000 255 0 0
-0.101138 0.482478 2.051000 255 0 0
-0.095401 0.481780 2.048000 255 0 0
-0.089811 0.481788 2.048000 255 0 0
-0.084181 0.481560 2.047000 255 0 0
-0.078555 0.481332 2.046000 255 0 0
-0.072935 0.481103 2.045000 255 0 0
-0.067419 0.481579 2.047000 255 0 0
-0.061952 0.482526 2.051000 255 0 0
-0.056408 0.483001 2.053000 255 0 0
-0.050853 0.483476 2.055000 255 0 0
-0.045265 0.483716 2.056000 255 0 0
-0.039690 0.484190 2.058000 255 0 0
-0.034088 0.484428 2.059000 255 0 0
-0.028467 0.484431 2.059000 255 0 0
-0.022868 0.484904 2.061000 255 0 0
-0.017241 0.484905 2.061000 255 0 0
-0.011614 0.484906 2.061000 255 0 0
-0.005987 0.484907 2.061000 255 0 0
-0.000360 0.484908 2.061000 255 0 0
0.005270 0.485143 2.062000 255 0 0
0.010895 0.484907 2.061000 255 0 0
0.016546 0.485611 2.064000 255 0 0
0.022202 0.486080 2.066000 255 0 0
0.027897 0.487019 2.070000 255 0 0
0.033581 0.487487 2.072000 255 0 0
0.039275 0.487955 2.074000 255 0 0
0.045002 0.488657 2.077000 255 0 0
0.050721 0.489123 2.079000 255 0 0
0.056424 0.489354 2.080000 255 0 0
0.062132 0.489584 2.081000 255 0 0
0.067943 0.490520 2.085000 255 0 0
0.073740 0.491220 2.088000 255 0 0
0.079553 0.491919 2.091000 255 0 0
0.085261 0.491912 2.091000 255 0 0
0.091142 0.492846 2.095000 255 0 0
0.096952 0.493308 2.097000 255 0 0
-0.104709 0.618482 2.156536 255 255 0
-0.094106 0.617074 2.151352 255 255 0
-0.092115 0.615119 2.139763 255 255 0
-0.091837 0.613051 2.126867 255 255 0
-0.278405 0.523701 2.093691 0 255 0
-0.281597 0.526590 2.108370 0 255 0
-0.279575 0.528755 2.118956 0 255 0
-0.278426 0.531039 2.130204 0 255 0
-0.278154 0.533441 2.142108 0 255 0
-0.277014 0.535723 2.153324 0 255 0
-0.261892 0.536126 2.153887 0 255 0
-0.255498 0.537714 2.161141 0 255 0
-0.206754 0.543563 2.185314 0 255 0
-0.194158 0.544398 2.188186 0 255 0
-0.175386 0.544454 2.186601 0 255 0
-0.159229 0.544868 2.187030 0 255 0
-0.143051 0.545298 2.187533 0 255 0
-0.133026 0.546527 2.192566 0 255 0
-0.124757 0.547987 2.198906 0 255 0
-0.112060 0.548902 2.202115 0 255 0
-0.097577 0.549611 2.204119 0 255 0
-0.075108 0.549350 2.200549 0 255 0
-0.059694 0.549985 2.202080 0 255 0
-0.349228 0.487115 2.098000 255 0 0
-0.343034 0.486442 2.095000 255 0 0
-0.336373 0.485072 2.089000 255 0 0
-0.329902 0.483934 2.084000 255 0 0
-0.323457 0.482795 2.079000 255 0 0
-0.317804 0.482817 2.079000 255 0 0
-0.312150 0.482839 2.079000 255 0 0
-0.305905 0.481932 2.075000 255 0 0
-0.299971 0.481489 2.073000 255 0 0
-0.293905 0.480814 2.070000 255 0 0
-0.288133 0.480602 2.069000 255 0 0
-0.282093 0.479926 2.066000 255 0 0
-0.276604 0.480179 2.067000 255 0 0
-0.271109 0.480431 2.068000 255 0 0
-0.265351 0.480219 2.067000 255 0 0
-0.259849 0.480471 2.068000 255 0 0
-0.253972 0.480025 2.066000 255 0 0
-0.248226 0.479812 2.065000 255 0 0
-0.242250 0.479133 2.062000 255 0 0
-0.236404 0.478687 2.060000 255 0 0
-0.230568 0.478240 2.058000 255 0 0
-0.224961 0.478258 2.058000 255 0 0
-0.219248 0.478042 2.057000 255 0 0
-0.213643 0.478059 2.057000 255 0 0
-0.208138 0.478308 2.058000 255 0 0
-0.202628 0.478557 2.059000 255 0 0
-0.197111 0.478805 2.060000 255 0 0
-0.191496 0.478820 2.060000 255 0 0
-0.185971 0.479068 2.061000 255 0 0
-0.180351 0.479082 2.061000 255 0 0
-0.174732 0.479097 2.061000 255 0 0
-0.169194 0.479343 2.062000 255 0 0
-0.163571 0.479356 2.062000 255 0 0
-0.157870 0.479137 2.061000 255 0 0
-0.152101 0.478685 2.059000 255 0 0
-0.146485 0.478697 2.059000 255 0 0
-0.140731 0.478244 2.057000 255 0 0
-0.134988 0.477790 2.055000 255 0 0
-0.129004 0.476406 2.049000 255 0 0
-0.123293 0.475951 2.047000 255 0 0
-0.117765 0.476194 2.048000 255 0 0
-0.112286 0.476668 2.050000 255 0 0
-0.106743 0.476910 2.051000 255 0 0
-0.101047 0.476454 2.049000 255 0 0
-0.095409 0.476229 2.048000 255 0 0
-0.089687 0.475539 2.045000 255 0 0
-0.084023 0.475082 2.043000 255 0 0
-0.078446 0.475088 2.043000 255 0 0
-0.072905 0.475327 2.044000 255 0 0
-0.067424 0.476031 2.047000 255 0 0
-0.061927 0.476734 2.050000 255 0 0
-0.056358 0.476972 2.051000 255 0 0
-0.050808 0.477441 2.053000 255 0 0
-0.045224 0.477678 2.054000 255 0 0
-0.039674 0.478379 2.057000 255 0 0
-0.034075 0.478615 2.058000 255 0 0
-0.028469 0.478850 2.059000 255 0 0
-0.022870 0.479317 2.061000 255 0 0
-0.017242 0.479319 2.061000 255 0 0
-0.011615 0.479320 2.061000 255 0 0
-0.005984 0.479089 2.060000 255 0 0
-0.000359 0.479089 2.060000 255 0 0
0.005265 0.479089 2.060000 255 0 0
0.010890 0.479088 2.060000 255 0 0
0.016547 0.480017 2.064000 255 0 0
0.022215 0.480713 2.067000 255 0 0
0.027913 0.481641 2.071000 255 0 0
0.033600 0.482104 2.073000 255 0 0
0.039316 0.482798 2.076000 255 0 0
0.045028 0.483260 2.078000 255 0 0
0.050774 0.483953 2.081000 255 0 0
0.056483 0.484181 2.082000 255 0 0
0.062167 0.484176 2.082000 255 0 0
0.067981 0.485101 2.086000 255 0 0
0.073817 0.486025 2.090000 255 0 0
0.079712 0.487182 2.095000 255 0 0
0.085472 0.487407 2.096000 255 0 0
0.091323 0.488097 2.099000 255 0 0
0.097099 0.488322 2.100000 255 0 0
-0.102283 0.609916 2.172548 255 255 0
-0.082211 0.609157 2.174384 255 255 0
-0.076538 0.605366 2.152578 255 255 0
-0.075415 0.603353 2.140373 255 255 0
-0.078574 0.601043 2.124906 255 255 0
-0.267431 0.511918 2.086218 0 255 0
-0.281916 0.516427 2.109730 0 255 0
-0.289469 0.519939 2.127738 0 255 0
-0.288326 0.522225 2.138959 0 255 0
-0.279339 0.523421 2.144142 0 255 0
-0.270342 0.524625 2.149355 0 255 0
-0.262208 0.525958 2.155265 0 255 0
-0.264559 0.528731 2.169141 0 255 0
-0.252042 0.529478 2.171777 0 255 0
-0.237758 0.530001 2.173153 0 255 0
-0.225209 0.530775 2.175899 0 255 0
-0.218785 0.532382 2.183258 0 255 0
-0.209721 0.533645 2.188686 0 255 0
-0.195374 0.534219 2.190270 0 255 0
-0.180129 0.534693 2.191273 0 255 0
-0.167504 0.535527 2.194267 0 255 0
-0.153101 0.536146 2.196037 0 255 0
-0.138680 0.536779 2.197872 0 255 0
-0.125121 0.537541 2.200402 0 255 0
-0.115078 0.538769 2.205515 0 255 0
-0.104141 0.539894 2.210038 0 255 0
-0.086995 0.540246 2.210223 0 255 0
-0.068941 0.540505 2.209864 0 255 0
-0.054407 0.541227 2.212072 0 255 0
-0.360706 0.489207 2.132000 255 0 0
-0.349584 0.481887 2.100000 255 0 0
-0.343385 0.481222 2.097000 255 0 0
-0.336879 0.480098 2.092000 255 0 0
-0.330241 0.478744 2.086000 255 0 0
-0.323636 0.477389 2.080000 255 0 0
-0.317520 0.476723 2.077000 255 0 0
-0.312021 0.476975 2.078000 255 0 0
-0.305926 0.476308 2.075000 255 0 0
-0.300137 0.476100 2.074000 255 0 0
-0.293926 0.475203 2.070000 255 0 0
-0.288015 0.474765 2.068000 255 0 0
-0.282113 0.474326 2.066000 255 0 0
-0.276624 0.474576 2.067000 255 0 0
-0.271260 0.475055 2.069000 255 0 0
-0.265499 0.474846 2.068000 255 0 0
-0.259994 0.475095 2.069000 255 0 0
-0.253868 0.474196 2.065000 255 0 0
-0.248124 0.473985 2.064000 255 0 0
-0.242033 0.473085 2.060000 255 0 0
-0.236422 0.473103 2.060000 255 0 0
-0.230586 0.472662 2.058000 255 0 0
-0.224870 0.472449 2.057000 255 0 0
-0.219158 0.472237 2.056000 255 0 0
-0.213659 0.472483 2.057000 255 0 0
-0.208256 0.472959 2.059000 255 0 0
-0.202644 0.472975 2.059000 255 0 0
-0.197031 0.472991 2.059000 255 0 0
-0.191511 0.473236 2.060000 255 0 0
-0.185985 0.473481 2.061000 255 0 0
-0.180541 0.473955 2.063000 255 0 0
-0.174915 0.473969 2.063000 255 0 0
-0.169290 0.473983 2.063000 255 0 0
-0.163505 0.473537 2.061000 255 0 0
-0.157883 0.473550 2.061000 255 0 0
-0.152188 0.473333 2.060000 255 0 0
-0.146568 0.473345 2.060000 255 0 0
-0.140743 0.472667 2.057000 255 0 0
-0.134999 0.472219 2.055000 255 0 0
-0.129203 0.471541 2.052000 255 0 0
-0.123423 0.470862 2.049000 255 0 0
-0.117775 0.470642 2.048000 255 0 0
-0.112076 0.470192 2.046000 255 0 0
-0.106492 0.470201 2.046000 255 0 0
-0.100908 0.470209 2.046000 255 0 0
-0.095277 0.469988 2.045000 255 0 0
-0.089607 0.469536 2.043000 255 0 0
-0.083989 0.469313 2.042000 255 0 0
-0.078415 0.469320 2.042000 255 0 0
-0.072947 0.470016 2.045000 255 0 0
-0.067463 0.470711 2.048000 255 0 0
-0.061932 0.471177 2.050000 255 0 0
-0.056362 0.471411 2.051000 255 0 0
-0.050762 0.471416 2.051000 255 0 0
-0.045206 0.471880 2.053000 255 0 0
-0.039639 0.472343 2.055000 255 0 0
-0.034044 0.472576 2.056000 255 0 0
-0.028458 0.473038 2.058000 255 0 0
-0.022860 0.473500 2.060000 255 0 0
-0.017244 0.473732 2.061000 255 0 0
-0.011604 0.473273 2.059000 255 0 0
-0.005976 0.472814 2.057000 255 0 0
-0.000359 0.473044 2.058000 255 0 0
0.005261 0.473044 2.058000 255 0 0
0.010891 0.473503 2.060000 255 0 0
0.016548 0.474422 2.064000 255 0 0
0.022217 0.475109 2.067000 255 0 0
0.027915 0.476027 2.071000 255 0 0
0.033602 0.476484 2.073000 255 0 0
0.039339 0.477400 2.077000 255 0 0
0.045053 0.477856 2.079000 255 0 0
0.050803 0.478542 2.082000 255 0 0
0.056488 0.478537 2.082000 255 0 0
0.062232 0.478992 2.084000 255 0 0
0.068019 0.479676 2.087000 255 0 0
0.073894 0.480819 2.092000 255 0 0
0.079757 0.481732 2.096000 255 0 0
0.085560 0.482185 2.098000 255 0 0
0.091418 0.482867 2.101000 255 0 0
0.097199 0.483089 2.102000 255 0 0
0.103524 0.485838 2.114000 255 0 0
-0.085807 0.600241 2.185865 255 255 0
-0.066620 0.599478 2.187096 255 255 0
-0.053483 0.598311 2.183928 255 255 0
-0.055823 0.596060 2.169234 255 255 0
-0.059008 0.593743 2.153858 255 255 0
-0.049324 0.592344 2.148167 255 255 0
-0.062766 0.589276 2.124933 255 255 0
-0.065910 0.586941 2.109440 255 255 0
-0.263422 0.501063 2.084196 0 255 0
-0.275284 0.505253 2.105680 0 255 0
-0.293862 0.512837 2.144344 0 255 0
-0.284011 0.513890 2.148850 0 255 0
-0.274148 0.514952 2.153393 0 255 0
-0.266019 0.516270 2.159299 0 255 0
-0.267494 0.518936 2.172502 0 255 0
-0.257609 0.520019 2.177117 0 255 0
-0.242459 0.520387 2.177833 0 255 0
-0.229918 0.521131 2.180577 0 255 0
-0.219992 0.522248 2.185326 0 255 0
-0.211809 0.523613 2.191409 0 255 0
-0.194834 0.523799 2.191062 0 255 0
-0.183990 0.524829 2.195296 0 255 0
-0.172252 0.525753 2.198931 0 255 0
-0.159620 0.526571 2.201977 0 255 0
-0.140803 0.526586 2.200629 0 255 0
-0.125487 0.527086 2.201900 0 255 0
-0.116330 0.528410 2.207653 0 255 0
-0.101862 0.529053 2.209671 0 255 0
-0.089144 0.529940 2.213004 0 255 0
-0.064544 0.531865 2.220451 0 255 0
-0.358023 0.479799 2.116000 255 0 0
-0.349774 0.476421 2.101000 255 0 0
-0.343408 0.475537 2.097000 255 0 0
-0.336902 0.474427 2.092000 255 0 0
-0.330264 0.473089 2.086000 255 0 0
-0.323658 0.471750 2.080000 255 0 0
-0.317390 0.470865 2.076000 255 0 0
-0.311743 0.470888 2.076000 255 0 0
-0.306096 0.470909 2.076000 255 0 0
-0.300158 0.470477 2.074000 255 0 0
-0.294089 0.469818 2.071000 255 0 0
-0.288035 0.469158 2.068000 255 0 0
-0.282407 0.469179 2.068000 255 0 0
-0.277046 0.469653 2.070000 255 0 0
-0.271804 0.470354 2.073000 255 0 0
-0.266032 0.470147 2.072000 255 0 0
-0.260013 0.469486 2.069000 255 0 0
-0.253764 0.468370 2.064000 255 0 0
-0.248023 0.468162 2.063000 255 0 0
-0.242169 0.467727 2.061000 255 0 0
-0.236669 0.467972 2.062000 255 0 0
-0.230604 0.467082 2.058000 255 0 0
-0.224668 0.466419 2.055000 255 0 0
-0.219069 0.466436 2.055000 255 0 0
-0.213676 0.466907 2.057000 255 0 0
-0.208373 0.467604 2.060000 255 0 0
-0.202758 0.467620 2.060000 255 0 0
-0.197047 0.467409 2.059000 255 0 0
-0.191341 0.467197 2.058000 255 0 0
-0.185639 0.466985 2.057000 255 0 0
-0.180293 0.467681 2.060000 255 0 0
-0.174760 0.467922 2.061000 255 0 0
-0.169221 0.468163 2.062000 255 0 0
-0.163518 0.467949 2.061000 255 0 0
-0.157973 0.468189 2.062000 255 0 0
-0.152422 0.468429 2.063000 255 0 0
-0.146651 0.467987 2.061000 255 0 0
-0.140823 0.467317 2.058000 255 0 0
-0.135010 0.466647 2.055000 255 0 0
-0.129277 0.466204 2.053000 255 0 0
-0.123554 0.465760 2.051000 255 0 0
-0.117784 0.465089 2.048000 255 0 0
-0.112030 0.464417 2.045000 255 0 0
-0.106345 0.463972 2.043000 255 0 0
-0.100818 0.464208 2.044000 255 0 0
-0.095238 0.464216 2.044000 255 0 0
-0.089658 0.464224 2.044000 255 0 0
-0.084037 0.464004 2.043000 255 0 0
-0.078498 0.464238 2.044000 255 0 0
-0.072953 0.464471 2.045000 255 0 0
-0.067469 0.465159 2.048000 255 0 0
-0.061907 0.465391 2.049000 255 0 0
-0.056340 0.465623 2.050000 255 0 0
-0.050717 0.465401 2.049000 255 0 0
-0.045188 0.466086 2.052000 255 0 0
-0.039604 0.466317 2.053000 255 0 0
-0.034031 0.466774 2.055000 255 0 0
-0.028433 0.467004 2.056000 255 0 0
-0.022840 0.467460 2.058000 255 0 0
-0.017220 0.467462 2.058000 255 0 0
-0.011600 0.467463 2.058000 255 0 0
-0.005979 0.467464 2.058000 255 0 0
-0.000360 0.468146 2.061000 255 0 0
0.005274 0.468600 2.063000 255 0 0
0.010908 0.468599 2.063000 255 0 0
0.016558 0.469052 2.065000 255 0 0
0.022219 0.469505 2.067000 255 0 0
0.027904 0.470184 2.070000 255 0 0
0.033589 0.470636 2.072000 255 0 0
0.039342 0.471769 2.077000 255 0 0
0.045057 0.472219 2.079000 255 0 0
0.050783 0.472669 2.081000 255 0 0
0.056465 0.472665 2.081000 255 0 0
0.062237 0.473341 2.084000 255 0 0
0.068123 0.474699 2.090000 255 0 0
0.074006 0.475828 2.095000 255 0 0
0.079878 0.476730 2.099000 255 0 0
0.085608 0.476723 2.099000 255 0 0
0.091469 0.477397 2.102000 255 0 0
0.097346 0.478071 2.105000 255 0 0
0.103582 0.480334 2.115000 255 0 0
-0.101472 0.590455 2.188497 255 255 0
-0.083123 0.589661 2.188997 255 255 0
-0.060504 0.589195 2.192770 255 255 0
-0.049954 0.587870 2.187690 255 255 0
-0.037702 0.586679 2.183934 255 255 0
-0.032327 0.584987 2.175065 255 255 0
-0.029525 0.583105 2.164261 255 255 0
-0.036988 0.580447 2.145646 255 255 0
-0.267232 0.491328 2.088286 0 255 0
-0.278218 0.495434 2.109075 0 255 0
-0.293577 0.500159 2.133143 0 255 0
