ply
format ascii 1.0
element vertex 1286
property double x
property double y
property double z
property uchar red
property uchar green
property uchar blue
end_header
-0.205999 -0.071517 2.207000 255 0 0
-0.200323 -0.071650 2.211000 255 0 0
-0.194361 -0.071686 2.212000 255 0 0
-0.188223 -0.071656 2.211000 255 0 0
-0.181842 -0.071530 2.207000 255 0 0
-0.175960 -0.071597 2.209000 255 0 0
-0.170066 -0.071665 2.211000 255 0 0
-0.164161 -0.071733 2.213000 255 0 0
-0.157672 -0.071541 2.207000 255 0 0
-0.151491 -0.071479 2.205000 255 0 0
-0.145122 -0.071319 2.200000 255 0 0
-0.139222 -0.071386 2.202000 255 0 0
-0.133069 -0.071324 2.200000 255 0 0
-0.127504 -0.071585 2.208000 255 0 0
-0.122004 -0.071911 2.218000 255 0 0
-0.116815 -0.072465 2.235000 255 0 0
-0.111087 -0.072726 2.243000 255 0 0
-0.104285 -0.072274 2.229000 255 0 0
-0.097515 -0.071789 2.214000 255 0 0
-0.091116 -0.071531 2.206000 255 0 0
-0.084877 -0.071371 2.201000 255 0 0
-0.078771 -0.071307 2.199000 255 0 0
-0.072379 -0.070952 2.188000 255 0 0
-0.065956 -0.070499 2.174000 255 0 0
-0.059747 -0.070208 2.165000 255 0 0
-0.053662 -0.070015 2.159000 255 0 0
-0.047654 -0.069886 2.155000 255 0 0
-0.041570 -0.069595 2.146000 255 0 0
-0.035619 -0.069466 2.142000 255 0 0
-0.029745 -0.069466 2.142000 255 0 0
-0.023938 -0.069661 2.148000 255 0 0
-0.018098 -0.069856 2.154000 255 0 0
-0.012214 -0.069986 2.158000 255 0 0
-0.006296 -0.069986 2.158000 255 0 0
-0.000378 -0.069889 2.155000 255 0 0
0.005535 -0.069921 2.156000 255 0 0
0.011495 -0.070213 2.165000 255 0 0
0.017496 -0.070472 2.173000 255 0 0
0.023499 -0.070602 2.177000 255 0 0
0.029414 -0.070472 2.173000 255 0 0
0.035389 -0.070503 2.174000 255 0 0
0.041370 -0.070535 2.175000 255 0 0
0.047573 -0.070891 2.186000 255 0 0
0.054302 -0.071863 2.216000 255 0 0
-0.177274 -0.453846 2.523772 255 255 0
-0.197644 -0.464481 2.497667 255 255 0
-0.081886 -0.442196 2.492412 255 255 0
-0.070600 -0.441316 2.486696 255 255 0
-0.070942 -0.444695 2.473372 255 255 0
-0.051391 -0.440752 2.473206 255 255 0
-0.049255 -0.443212 2.461551 255 255 0
-0.033888 -0.440775 2.458755 255 255 0
-0.028803 -0.445382 2.436038 255 255 0
-0.028318 -0.448456 2.423265 255 255 0
-0.028648 -0.451841 2.409909 255 255 0
0.002273 -0.443514 2.418068 255 255 0
-0.031228 -0.462641 2.368552 255 255 0
-0.191550 -0.505243 2.409904 0 255 0
-0.252657 -0.475257 2.463222 0 255 0
-0.194881 -0.482775 2.487036 0 255 0
-0.196018 -0.478809 2.500173 0 255 0
-0.186260 -0.479492 2.506287 0 255 0
-0.183205 -0.477314 2.516727 0 255 0
-0.165867 -0.481191 2.518103 0 255 0
-0.146822 -0.485761 2.518505 0 255 0
-0.119332 -0.493862 2.513721 0 255 0
-0.097695 -0.499450 2.512764 0 255 0
-0.079399 -0.503600 2.514010 0 255 0
-0.077110 -0.501013 2.525239 0 255 0
-0.043570 -0.511488 2.517298 0 255 0
-0.037875 -0.510293 2.526549 0 255 0
-0.030483 -0.509800 2.534790 0 255 0
-0.383888 -0.074530 2.125000 255 0 0
-0.375259 -0.073975 2.109000 255 0 0
-0.367417 -0.073559 2.097000 255 0 0
-0.360157 -0.073249 2.088000 255 0 0
-0.353793 -0.073114 2.084000 255 0 0
-0.347451 -0.072979 2.080000 255 0 0
-0.340800 -0.072774 2.074000 255 0 0
-0.334988 -0.072744 2.073000 255 0 0
-0.330135 -0.072925 2.078000 255 0 0
-0.327439 -0.073597 2.097000 255 0 0
-0.318116 -0.074099 2.111000 255 0 0
-0.310141 -0.073577 2.096000 255 0 0
-0.304425 -0.073582 2.096000 255 0 0
-0.300560 -0.074043 2.109000 255 0 0
-0.281160 -0.078286 2.229000 255 0 0
-0.274579 -0.078150 2.225000 255 0 0
-0.268381 -0.078120 2.224000 255 0 0
-0.262659 -0.078229 2.227000 255 0 0
-0.256459 -0.078199 2.226000 255 0 0
-0.250938 -0.078379 2.231000 255 0 0
-0.244182 -0.078172 2.225000 255 0 0
-0.237351 -0.077930 2.218000 255 0 0
-0.230349 -0.077618 2.209000 255 0 0
-0.224207 -0.077587 2.208000 255 0 0
-0.218366 -0.077661 2.210000 255 0 0
-0.212321 -0.077665 2.210000 255 0 0
-0.206556 -0.077774 2.213000 255 0 0
-0.200592 -0.077813 2.214000 255 0 0
-0.194797 -0.077922 2.217000 255 0 0
-0.188645 -0.077890 2.216000 255 0 0
-0.182333 -0.077788 2.213000 255 0 0
-0.176275 -0.077791 2.213000 255 0 0
-0.170525 -0.077935 2.217000 255 0 0
-0.164751 -0.078078 2.221000 255 0 0
-0.158527 -0.078011 2.219000 255 0 0
-0.152244 -0.077908 2.216000 255 0 0
-0.145713 -0.077665 2.209000 255 0 0
-0.139662 -0.077667 2.209000 255 0 0
-0.133490 -0.077599 2.207000 255 0 0
-0.127848 -0.077848 2.214000 255 0 0
-0.122277 -0.078167 2.223000 255 0 0
-0.116970 -0.078696 2.238000 255 0 0
-0.111184 -0.078945 2.245000 255 0 0
-0.104236 -0.078349 2.228000 255 0 0
-0.097601 -0.077929 2.216000 255 0 0
-0.091321 -0.077754 2.211000 255 0 0
-0.085106 -0.077615 2.207000 255 0 0
-0.078842 -0.077406 2.201000 255 0 0
-0.072444 -0.077020 2.190000 255 0 0
-0.065985 -0.076494 2.175000 255 0 0
-0.059856 -0.076284 2.169000 255 0 0
-0.053735 -0.076039 2.162000 255 0 0
-0.047697 -0.075864 2.157000 255 0 0
-0.041589 -0.075513 2.147000 255 0 0
-0.035635 -0.075373 2.143000 255 0 0
-0.029731 -0.075304 2.141000 255 0 0
-0.023938 -0.075550 2.148000 255 0 0
-0.018098 -0.075762 2.154000 255 0 0
-0.012214 -0.075903 2.158000 255 0 0
-0.006290 -0.075833 2.156000 255 0 0
-0.000378 -0.075797 2.155000 255 0 0
0.005545 -0.075973 2.160000 255 0 0
0.011479 -0.076043 2.162000 255 0 0
0.017464 -0.076289 2.169000 255 0 0
0.023444 -0.076395 2.172000 255 0 0
0.029441 -0.076500 2.175000 255 0 0
0.035421 -0.076534 2.176000 255 0 0
0.041445 -0.076639 2.179000 255 0 0
0.047572 -0.076884 2.186000 255 0 0
0.054301 -0.077939 2.216000 255 0 0
-0.172006 -0.463915 2.528558 255 255 0
-0.183169 -0.471280 2.508266 255 255 0
-0.200983 -0.481096 2.483659 255 255 0
-0.085819 -0.455404 2.491262 255 255 0
-0.071212 -0.453274 2.487698 255 255 0
-0.068233 -0.455437 2.476553 255 255 0
-0.031303 -0.444978 2.487901 255 255 0
-0.030013 -0.447741 2.475749 255 255 0
-0.030719 -0.454511 2.449181 255 255 0
-0.026937 -0.456354 2.438654 255 255 0
-0.021508 -0.457577 2.429251 255 255 0
-0.000453 -0.452899 2.430570 255 255 0
-0.038602 -0.470591 2.391226 255 255 0
-0.034796 -0.472446 2.380633 255 255 0
-0.037550 -0.476796 2.365471 255 255 0
-0.063222 -0.489896 2.334205 255 255 0
-0.192889 -0.505679 2.449799 0 255 0
-0.194000 -0.501683 2.463013 0 255 0
-0.187595 -0.500945 2.471294 0 255 0
-0.193735 -0.494791 2.487735 0 255 0
-0.185655 -0.494774 2.494938 0 255 0
-0.196843 -0.486476 2.514534 0 255 0
-0.187924 -0.486818 2.521204 0 255 0
-0.159682 -0.495405 2.515663 0 255 0
-0.147362 -0.497153 2.520342 0 255 0
-0.110047 -0.505974 2.521996 0 255 0
-0.089241 -0.511246 2.521659 0 255 0
-0.085272 -0.509374 2.531825 0 255 0
-0.050913 -0.520302 2.523374 0 255 0
-0.024102 -0.527995 2.519744 0 255 0
-0.375609 -0.079817 2.111000 255 0 0
-0.367061 -0.079218 2.095000 255 0 0
-0.360324 -0.078997 2.089000 255 0 0
-0.354297 -0.078927 2.087000 255 0 0
-0.347946 -0.078781 2.083000 255 0 0
-0.341451 -0.078598 2.078000 255 0 0
-0.335629 -0.078566 2.077000 255 0 0
-0.331082 -0.078836 2.084000 255 0 0
-0.328839 -0.079674 2.106000 255 0 0
-0.310431 -0.079388 2.098000 255 0 0
-0.304565 -0.079356 2.097000 255 0 0
-0.300698 -0.079853 2.110000 255 0 0
-0.281281 -0.084426 2.230000 255 0 0
-0.274821 -0.084318 2.227000 255 0 0
-0.268738 -0.084322 2.227000 255 0 0
-0.263126 -0.084479 2.231000 255 0 0
-0.256915 -0.084446 2.230000 255 0 0
-0.250934 -0.084488 2.231000 255 0 0
-0.244288 -0.084303 2.226000 255 0 0
-0.237240 -0.083967 2.217000 255 0 0
-0.230240 -0.083630 2.208000 255 0 0
-0.223898 -0.083521 2.205000 255 0 0
-0.218066 -0.083601 2.207000 255 0 0
-0.212318 -0.083719 2.210000 255 0 0
-0.206925 -0.083988 2.217000 255 0 0
-0.200860 -0.083992 2.217000 255 0 0
-0.194794 -0.083995 2.217000 255 0 0
-0.188812 -0.084037 2.218000 255 0 0
-0.182989 -0.084154 2.221000 255 0 0
-0.177069 -0.084233 2.223000 255 0 0
-0.171291 -0.084388 2.227000 255 0 0
-0.165416 -0.084505 2.230000 255 0 0
-0.159167 -0.084433 2.228000 255 0 0
-0.152722 -0.084246 2.223000 255 0 0
-0.146238 -0.084022 2.217000 255 0 0
-0.140166 -0.084024 2.217000 255 0 0
-0.134032 -0.083989 2.216000 255 0 0
-0.128192 -0.084143 2.220000 255 0 0
-0.122220 -0.084222 2.222000 255 0 0
-0.116550 -0.084527 2.230000 255 0 0
-0.110786 -0.084795 2.237000 255 0 0
-0.104187 -0.084418 2.227000 255 0 0
-0.097732 -0.084117 2.219000 255 0 0
-0.091443 -0.083929 2.214000 255 0 0
-0.085220 -0.083779 2.210000 255 0 0
-0.078876 -0.083477 2.202000 255 0 0
-0.072443 -0.083024 2.190000 255 0 0
-0.066105 -0.082608 2.179000 255 0 0
-0.059966 -0.082382 2.173000 255 0 0
-0.053859 -0.082156 2.167000 255 0 0
-0.047740 -0.081853 2.159000 255 0 0
-0.041627 -0.081475 2.149000 255 0 0
-0.035634 -0.081248 2.143000 255 0 0
-0.029717 -0.081135 2.140000 255 0 0
-0.023926 -0.081401 2.147000 255 0 0
-0.018073 -0.081553 2.151000 255 0 0
-0.012197 -0.081705 2.155000 255 0 0
-0.006284 -0.081668 2.154000 255 0 0
-0.000378 -0.081781 2.157000 255 0 0
0.005547 -0.081933 2.161000 255 0 0
0.011489 -0.082047 2.164000 255 0 0
0.017448 -0.082160 2.167000 255 0 0
0.023455 -0.082387 2.173000 255 0 0
0.029454 -0.082500 2.176000 255 0 0
0.035437 -0.082538 2.177000 255 0 0
0.041463 -0.082651 2.180000 255 0 0
0.047593 -0.082915 2.187000 255 0 0
0.054325 -0.084051 2.217000 255 0 0
-0.169252 -0.474881 2.531771 255 255 0
-0.183751 -0.483518 2.509392 255 255 0
-0.189028 -0.488797 2.492712 255 255 0
-0.187614 -0.491626 2.480221 255 255 0
-0.086426 -0.467411 2.492285 255 255 0
-0.063527 -0.462152 2.494134 255 255 0
-0.046470 -0.459042 2.492282 255 255 0
-0.013717 -0.450019 2.500925 255 255 0
-0.013270 -0.453092 2.488272 255 255 0
-0.035112 -0.464575 2.460668 255 255 0
-0.027203 -0.464860 2.452910 255 255 0
-0.010239 -0.461705 2.451317 255 255 0
-0.005650 -0.463227 2.441398 255 255 0
0.002225 -0.463495 2.433735 255 255 0
-0.027689 -0.478184 2.400082 255 255 0
-0.021432 -0.479091 2.391221 255 255 0
-0.063531 -0.498549 2.348709 255 255 0
-0.180666 -0.526153 2.430608 0 255 0
-0.192596 -0.517386 2.451030 0 255 0
-0.182851 -0.518115 2.457137 0 255 0
-0.196486 -0.508644 2.478529 0 255 0
-0.200118 -0.503557 2.493317 0 255 0
-0.180902 -0.501373 2.518198 0 255 0
-0.154346 -0.509309 2.513770 0 255 0
-0.136147 -0.513607 2.514775 0 255 0
-0.122965 -0.515725 2.519033 0 255 0
-0.105559 -0.519629 2.520730 0 255 0
-0.096548 -0.519923 2.527731 0 255 0
-0.083313 -0.522003 2.532172 0 255 0
-0.384499 -0.087615 2.161000 255 0 0
-0.367230 -0.084986 2.096000 255 0 0
-0.360835 -0.084831 2.092000 255 0 0
-0.355140 -0.084837 2.092000 255 0 0
-0.348775 -0.084681 2.088000 255 0 0
-0.342103 -0.084444 2.082000 255 0 0
-0.335947 -0.084328 2.079000 255 0 0
-0.331553 -0.084659 2.087000 255 0 0
-0.328989 -0.085476 2.107000 255 0 0
-0.311610 -0.085453 2.106000 255 0 0
-0.305285 -0.085296 2.102000 255 0 0
-0.300835 -0.085667 2.111000 255 0 0
-0.281780 -0.090693 2.234000 255 0 0
-0.275680 -0.090699 2.234000 255 0 0
-0.269337 -0.090623 2.232000 255 0 0
-0.263239 -0.090628 2.232000 255 0 0
-0.257256 -0.090673 2.233000 255 0 0
-0.251154 -0.090678 2.233000 255 0 0
-0.244503 -0.090480 2.228000 255 0 0
-0.237342 -0.090079 2.218000 255 0 0
-0.230861 -0.089921 2.214000 255 0 0
-0.224300 -0.089723 2.209000 255 0 0
-0.218457 -0.089808 2.211000 255 0 0
-0.212602 -0.089894 2.213000 255 0 0
-0.207015 -0.090101 2.218000 255 0 0
-0.200947 -0.090105 2.218000 255 0 0
-0.194966 -0.090150 2.219000 255 0 0
-0.189149 -0.090276 2.222000 255 0 0
-0.183562 -0.090523 2.228000 255 0 0
-0.177623 -0.090608 2.230000 255 0 0
-0.171979 -0.090856 2.236000 255 0 0
-0.165561 -0.090697 2.232000 255 0 0
-0.159307 -0.090619 2.230000 255 0 0
-0.152582 -0.090256 2.221000 255 0 0
-0.146631 -0.090341 2.223000 255 0 0
-0.140352 -0.090222 2.220000 255 0 0
-0.134453 -0.090347 2.223000 255 0 0
-0.128536 -0.090471 2.226000 255 0 0
-0.122768 -0.090718 2.232000 255 0 0
-0.116913 -0.090923 2.237000 255 0 0
-0.111328 -0.091373 2.248000 255 0 0
-0.104560 -0.090847 2.235000 255 0 0
-0.097950 -0.090402 2.224000 255 0 0
-0.091400 -0.089957 2.213000 255 0 0
-0.085219 -0.089837 2.210000 255 0 0
-0.078767 -0.089391 2.199000 255 0 0
-0.072342 -0.088905 2.187000 255 0 0
-0.066104 -0.088581 2.179000 255 0 0
-0.060075 -0.088501 2.177000 255 0 0
-0.053932 -0.088218 2.170000 255 0 0
-0.047806 -0.087894 2.162000 255 0 0
-0.041684 -0.087488 2.152000 255 0 0
-0.035717 -0.087326 2.148000 255 0 0
-0.029744 -0.087083 2.142000 255 0 0
-0.023915 -0.087246 2.146000 255 0 0
-0.018055 -0.087369 2.149000 255 0 0
-0.012185 -0.087532 2.153000 255 0 0
-0.006284 -0.087573 2.154000 255 0 0
-0.000378 -0.087735 2.158000 255 0 0
0.005555 -0.087979 2.164000 255 0 0
0.011494 -0.088020 2.165000 255 0 0
0.017455 -0.088141 2.168000 255 0 0
0.023454 -0.088344 2.173000 255 0 0
0.029494 -0.088587 2.179000 255 0 0
0.035485 -0.088627 2.180000 255 0 0
0.041558 -0.088830 2.185000 255 0 0
0.047636 -0.088992 2.189000 255 0 0
0.054152 -0.089844 2.210000 255 0 0
-0.182387 -0.491706 2.525059 255 255 0
-0.175978 -0.492679 2.515769 255 255 0
-0.189600 -0.501079 2.493840 255 255 0
-0.177348 -0.499886 2.488232 255 255 0
-0.097502 -0.480062 2.499662 255 255 0
-0.067113 -0.471950 2.506269 255 255 0
-0.040928 -0.465372 2.510326 255 255 0
-0.028041 -0.463772 2.505802 255 255 0
-0.019678 -0.467128 2.485374 255 255 0
-0.016737 -0.469276 2.474338 255 255 0
-0.012971 -0.471110 2.463851 255 255 0
0.003149 -0.468221 2.461729 255 255 0
0.016773 -0.466265 2.458003 255 255 0
-0.012682 -0.484138 2.411750 255 255 0
-0.022020 -0.491046 2.392144 255 255 0
-0.076377 -0.515406 2.341109 255 255 0
-0.222684 -0.501718 2.521703 0 255 0
-0.197051 -0.509411 2.517586 0 255 0
-0.147343 -0.523986 2.510827 0 255 0
-0.368100 -0.090933 2.101000 255 0 0
-0.361346 -0.090680 2.095000 255 0 0
-0.355473 -0.090644 2.094000 255 0 0
-0.349270 -0.090521 2.091000 255 0 0
-0.342425 -0.090224 2.084000 255 0 0
-0.335940 -0.090014 2.079000 255 0 0
-0.331706 -0.090410 2.088000 255 0 0
-0.329295 -0.091326 2.109000 255 0 0
-0.329530 -0.093021 2.148000 255 0 0
-0.326990 -0.093981 2.170000 255 0 0
-0.313675 -0.091821 2.120000 255 0 0
-0.306151 -0.091308 2.108000 255 0 0
-0.300829 -0.091444 2.111000 255 0 0
-0.288777 -0.097106 2.241000 255 0 0
-0.282153 -0.096938 2.237000 255 0 0
-0.275921 -0.096901 2.236000 255 0 0
-0.269452 -0.096776 2.233000 255 0 0
-0.262762 -0.096565 2.228000 255 0 0
-0.256905 -0.096657 2.230000 255 0 0
-0.250474 -0.096533 2.227000 255 0 0
-0.243949 -0.096364 2.223000 255 0 0
-0.237016 -0.096023 2.215000 255 0 0
-0.230961 -0.096028 2.215000 255 0 0
-0.224600 -0.095902 2.212000 255 0 0
-0.218452 -0.095864 2.211000 255 0 0
-0.212597 -0.095955 2.213000 255 0 0
-0.206824 -0.096090 2.216000 255 0 0
-0.200942 -0.096181 2.218000 255 0 0
-0.194874 -0.096185 2.218000 255 0 0
-0.189060 -0.096319 2.221000 255 0 0
-0.183476 -0.096584 2.227000 255 0 0
-0.177698 -0.096761 2.231000 255 0 0
-0.172360 -0.097199 2.241000 255 0 0
-0.166077 -0.097116 2.239000 255 0 0
-0.159875 -0.097076 2.238000 255 0 0
-0.153197 -0.096732 2.230000 255 0 0
-0.147221 -0.096822 2.232000 255 0 0
-0.141108 -0.096826 2.232000 255 0 0
-0.134873 -0.096742 2.230000 255 0 0
-0.128822 -0.096788 2.231000 255 0 0
-0.122875 -0.096921 2.234000 255 0 0
-0.117433 -0.097488 2.247000 255 0 0
-0.111970 -0.098098 2.261000 255 0 0
-0.105119 -0.097493 2.247000 255 0 0
-0.098080 -0.096627 2.227000 255 0 0
-0.091316 -0.095935 2.211000 255 0 0
-0.084986 -0.095634 2.204000 255 0 0
-0.078729 -0.095375 2.198000 255 0 0
-0.072406 -0.094986 2.189000 255 0 0
-0.066224 -0.094727 2.183000 255 0 0
-0.060101 -0.094512 2.178000 255 0 0
-0.054006 -0.094296 2.173000 255 0 0
-0.047871 -0.093950 2.165000 255 0 0
-0.041703 -0.093431 2.153000 255 0 0
-0.035749 -0.093301 2.150000 255 0 0
-0.029757 -0.092998 2.143000 255 0 0
-0.023914 -0.093129 2.146000 255 0 0
-0.018030 -0.093129 2.146000 255 0 0
-0.012174 -0.093347 2.151000 255 0 0
-0.006278 -0.093390 2.152000 255 0 0
-0.000378 -0.093651 2.158000 255 0 0
0.005552 -0.093868 2.163000 255 0 0
0.011515 -0.094128 2.169000 255 0 0
0.017471 -0.094171 2.170000 255 0 0
0.023475 -0.094388 2.175000 255 0 0
0.029466 -0.094474 2.177000 255 0 0
0.035517 -0.094690 2.182000 255 0 0
0.041576 -0.094863 2.186000 255 0 0
0.047613 -0.094948 2.188000 255 0 0
0.053930 -0.095511 2.201000 255 0 0
-0.182134 -0.503644 2.526718 255 255 0
-0.172386 -0.503362 2.519517 255 255 0
-0.086478 -0.487724 2.508221 255 255 0
-0.057772 -0.480152 2.513757 255 255 0
-0.030779 -0.473183 2.518362 255 255 0
-0.014595 -0.470288 2.516032 255 255 0
-0.038466 -0.485958 2.474250 255 255 0
-0.020654 -0.482420 2.473084 255 255 0
-0.010288 -0.481720 2.467015 255 255 0
0.007470 -0.478156 2.465999 255 255 0
0.007931 -0.481253 2.453323 255 255 0
-0.001457 -0.488174 2.433886 255 255 0
-0.016559 -0.497340 2.410419 255 255 0
-0.200629 -0.522889 2.508952 0 255 0
-0.184192 -0.526595 2.510818 0 255 0
-0.168568 -0.529917 2.513299 0 255 0
-0.148732 -0.535056 2.513204 0 255 0
-0.362719 -0.096777 2.103000 255 0 0
-0.356145 -0.096554 2.098000 255 0 0
-0.349597 -0.096331 2.093000 255 0 0
-0.342747 -0.096015 2.086000 255 0 0
-0.336257 -0.095792 2.081000 255 0 0
-0.331540 -0.096075 2.087000 255 0 0
-0.328820 -0.096957 2.106000 255 0 0
-0.326762 -0.098068 2.130000 255 0 0
-0.323969 -0.098996 2.150000 255 0 0
-0.318551 -0.099141 2.153000 255 0 0
-0.311954 -0.098917 2.148000 255 0 0
-0.288384 -0.103101 2.238000 255 0 0
-0.282400 -0.103154 2.239000 255 0 0
-0.276285 -0.103160 2.239000 255 0 0
-0.269808 -0.103027 2.236000 255 0 0
-0.263228 -0.102849 2.232000 255 0 0
-0.257245 -0.102901 2.233000 255 0 0
-0.250806 -0.102768 2.230000 255 0 0
-0.244163 -0.102543 2.225000 255 0 0
-0.237653 -0.102364 2.221000 255 0 0
-0.231790 -0.102462 2.223000 255 0 0
-0.225915 -0.102559 2.225000 255 0 0
-0.219534 -0.102426 2.222000 255 0 0
-0.213265 -0.102339 2.220000 255 0 0
-0.207006 -0.102251 2.218000 255 0 0
-0.201119 -0.102348 2.220000 255 0 0
-0.195221 -0.102445 2.222000 255 0 0
-0.189226 -0.102496 2.223000 255 0 0
-0.183389 -0.102638 2.226000 255 0 0
-0.177615 -0.102827 2.230000 255 0 0
-0.172203 -0.103246 2.239000 255 0 0
-0.166221 -0.103342 2.241000 255 0 0
-0.160014 -0.103300 2.240000 255 0 0
-0.153468 -0.103027 2.234000 255 0 0
-0.147614 -0.103215 2.238000 255 0 0
-0.141484 -0.103218 2.238000 255 0 0
-0.135294 -0.103175 2.237000 255 0 0
-0.129166 -0.103178 2.237000 255 0 0
-0.123312 -0.103412 2.242000 255 0 0
-0.117849 -0.104015 2.255000 255 0 0
-0.112462 -0.104755 2.271000 255 0 0
-0.105350 -0.103881 2.252000 255 0 0
-0.098166 -0.102823 2.229000 255 0 0
-0.091272 -0.101949 2.210000 255 0 0
-0.084906 -0.101582 2.202000 255 0 0
-0.078728 -0.101399 2.198000 255 0 0
-0.072471 -0.101078 2.191000 255 0 0
-0.066252 -0.100757 2.184000 255 0 0
-0.060155 -0.100574 2.180000 255 0 0
-0.054104 -0.100437 2.177000 255 0 0
-0.048025 -0.100207 2.172000 255 0 0
-0.041837 -0.099655 2.160000 255 0 0
-0.035832 -0.099425 2.155000 255 0 0
-0.029826 -0.099103 2.148000 255 0 0
-0.023925 -0.099057 2.147000 255 0 0
-0.018029 -0.099012 2.146000 255 0 0
-0.012173 -0.099243 2.151000 255 0 0
-0.006290 -0.099474 2.156000 255 0 0
-0.000378 -0.099658 2.160000 255 0 0
0.005555 -0.099843 2.164000 255 0 0
0.011520 -0.100119 2.170000 255 0 0
0.017503 -0.100304 2.174000 255 0 0
0.023475 -0.100349 2.175000 255 0 0
0.029452 -0.100395 2.176000 255 0 0
0.035500 -0.100625 2.181000 255 0 0
0.041613 -0.100947 2.188000 255 0 0
0.047612 -0.100946 2.188000 255 0 0
0.053782 -0.101267 2.195000 255 0 0
0.060372 -0.102235 2.216000 255 0 0
-0.186057 -0.517162 2.525775 255 255 0
-0.162955 -0.511833 2.526930 255 255 0
-0.151565 -0.510891 2.520835 255 255 0
-0.134362 -0.507734 2.518489 255 255 0
-0.089247 -0.497267 2.520979 255 255 0
-0.072974 -0.494378 2.518375 255 255 0
-0.046782 -0.487672 2.522311 255 255 0
-0.043825 -0.489831 2.511232 255 255 0
-0.048311 -0.494851 2.495257 255 255 0
-0.043691 -0.496379 2.485240 255 255 0
-0.048152 -0.501412 2.469194 255 255 0
-0.026212 -0.496238 2.470738 255 255 0
-0.012549 -0.494242 2.466855 255 255 0
-0.014538 -0.498317 2.452466 255 255 0
-0.013227 -0.501116 2.440279 255 255 0
-0.016837 -0.505843 2.424709 255 255 0
-0.173859 -0.542760 2.505680 0 255 0
-0.169947 -0.540939 2.515661 0 255 0
-0.157659 -0.542808 2.520350 0 255 0
-0.059834 -0.553285 2.573183 0 255 0
-0.368921 -0.104281 2.139000 255 0 0
-0.357496 -0.102680 2.106000 255 0 0
-0.350592 -0.102346 2.099000 255 0 0
-0.343561 -0.101963 2.091000 255 0 0
-0.336896 -0.101678 2.085000 255 0 0
-0.331533 -0.101783 2.087000 255 0 0
-0.326939 -0.102132 2.094000 255 0 0
-0.323073 -0.102724 2.106000 255 0 0
-0.319593 -0.103463 2.121000 255 0 0
-0.316917 -0.104494 2.142000 255 0 0
-0.287604 -0.108933 2.232000 255 0 0
-0.281510 -0.108940 2.232000 255 0 0
-0.275292 -0.108898 2.231000 255 0 0
-0.269319 -0.108953 2.232000 255 0 0
-0.262986 -0.108861 2.230000 255 0 0
-0.256894 -0.108867 2.230000 255 0 0
-0.250688 -0.108825 2.229000 255 0 0
-0.244157 -0.108635 2.225000 255 0 0
-0.238076 -0.108641 2.225000 255 0 0
-0.231889 -0.108598 2.224000 255 0 0
-0.226214 -0.108798 2.228000 255 0 0
-0.219628 -0.108560 2.223000 255 0 0
-0.213644 -0.108614 2.224000 255 0 0
-0.207188 -0.108423 2.220000 255 0 0
-0.201114 -0.108428 2.220000 255 0 0
-0.194865 -0.108336 2.218000 255 0 0
-0.188881 -0.108389 2.219000 255 0 0
-0.183385 -0.108736 2.226000 255 0 0
-0.177690 -0.108984 2.231000 255 0 0
-0.172199 -0.109379 2.239000 255 0 0
-0.166440 -0.109628 2.244000 255 0 0
-0.160296 -0.109632 2.244000 255 0 0
-0.153945 -0.109489 2.241000 255 0 0
-0.147742 -0.109444 2.240000 255 0 0
-0.141734 -0.109545 2.242000 255 0 0
-0.135714 -0.109647 2.244000 255 0 0
-0.129855 -0.109894 2.249000 255 0 0
-0.123914 -0.110093 2.253000 255 0 0
-0.118212 -0.110536 2.262000 255 0 0
-0.112608 -0.111125 2.274000 255 0 0
-0.105394 -0.110101 2.253000 255 0 0
-0.098251 -0.109029 2.231000 255 0 0
-0.091352 -0.108103 2.212000 255 0 0
-0.084904 -0.107616 2.202000 255 0 0
-0.078690 -0.107374 2.197000 255 0 0
-0.072469 -0.107083 2.191000 255 0 0
-0.066311 -0.106840 2.186000 255 0 0
-0.060209 -0.106646 2.182000 255 0 0
-0.054053 -0.106306 2.175000 255 0 0
-0.048001 -0.106111 2.171000 255 0 0
-0.041817 -0.105526 2.159000 255 0 0
-0.035798 -0.105234 2.153000 255 0 0
-0.029797 -0.104892 2.146000 255 0 0
-0.023935 -0.104991 2.148000 255 0 0
-0.018063 -0.105089 2.150000 255 0 0
-0.012196 -0.105334 2.155000 255 0 0
-0.006301 -0.105578 2.160000 255 0 0
-0.000379 -0.105725 2.163000 255 0 0
0.005555 -0.105774 2.164000 255 0 0
0.011515 -0.106018 2.169000 255 0 0
0.017510 -0.106311 2.175000 255 0 0
0.023496 -0.106408 2.177000 255 0 0
0.029465 -0.106408 2.177000 255 0 0
0.035499 -0.106602 2.181000 255 0 0
0.041593 -0.106895 2.187000 255 0 0
0.047545 -0.106796 2.185000 255 0 0
0.053609 -0.106941 2.188000 255 0 0
0.059989 -0.107624 2.202000 255 0 0
-0.132991 -0.515794 2.534034 255 255 0
-0.114982 -0.512267 2.532256 255 255 0
-0.085701 -0.507720 2.524695 255 255 0
-0.069437 -0.504790 2.522086 255 255 0
-0.053201 -0.501847 2.519555 255 255 0
-0.039000 -0.502972 2.502773 255 255 0
-0.044298 -0.508343 2.486232 255 255 0
-0.039678 -0.509868 2.476213 255 255 0
-0.030116 -0.509460 2.469504 255 255 0
-0.023859 -0.510335 2.460619 255 255 0
-0.029942 -0.516048 2.443416 255 255 0
-0.038467 -0.522741 2.424480 255 255 0
-0.177481 -0.556348 2.496988 0 255 0
-0.165214 -0.558256 2.501632 0 255 0
-0.166310 -0.554199 2.514836 0 255 0
-0.165740 -0.550891 2.526957 0 255 0
-0.352923 -0.108806 2.113000 255 0 0
-0.345690 -0.108351 2.104000 255 0 0
-0.338504 -0.107895 2.095000 255 0 0
-0.332003 -0.107645 2.090000 255 0 0
-0.326308 -0.107652 2.090000 255 0 0
-0.321685 -0.108020 2.097000 255 0 0
-0.317627 -0.108595 2.108000 255 0 0
-0.313951 -0.109323 2.122000 255 0 0
-0.310343 -0.110103 2.137000 255 0 0
-0.287340 -0.114939 2.230000 255 0 0
-0.280873 -0.114791 2.227000 255 0 0
-0.275285 -0.115004 2.231000 255 0 0
-0.269313 -0.115062 2.232000 255 0 0
-0.263570 -0.115223 2.235000 255 0 0
-0.257464 -0.115230 2.235000 255 0 0
-0.251244 -0.115185 2.234000 255 0 0
-0.244700 -0.114984 2.230000 255 0 0
-0.238819 -0.115094 2.232000 255 0 0
-0.232509 -0.114996 2.230000 255 0 0
-0.226513 -0.115054 2.231000 255 0 0
-0.220018 -0.114853 2.227000 255 0 0
-0.214023 -0.114910 2.228000 255 0 0
-0.207742 -0.114812 2.226000 255 0 0
-0.201381 -0.114663 2.223000 255 0 0
-0.194860 -0.114410 2.218000 255 0 0
-0.189046 -0.114570 2.221000 255 0 0
-0.183874 -0.115142 2.232000 255 0 0
-0.178323 -0.115508 2.239000 255 0 0
-0.172502 -0.115719 2.243000 255 0 0
-0.166584 -0.115878 2.246000 255 0 0
-0.160435 -0.115882 2.246000 255 0 0
-0.153941 -0.115628 2.241000 255 0 0
-0.147738 -0.115581 2.240000 255 0 0
-0.141793 -0.115739 2.243000 255 0 0
-0.136073 -0.116104 2.250000 255 0 0
-0.130083 -0.116262 2.253000 255 0 0
-0.124241 -0.116575 2.259000 255 0 0
-0.118365 -0.116888 2.265000 255 0 0
-0.111714 -0.116427 2.256000 255 0 0
-0.105205 -0.116068 2.249000 255 0 0
-0.098205 -0.115091 2.230000 255 0 0
-0.091474 -0.114319 2.215000 255 0 0
-0.085018 -0.113805 2.205000 255 0 0
-0.078652 -0.113343 2.196000 255 0 0
-0.072368 -0.112932 2.188000 255 0 0
-0.066128 -0.112521 2.180000 255 0 0
-0.060124 -0.112471 2.179000 255 0 0
-0.053977 -0.112111 2.172000 255 0 0
-0.047978 -0.112009 2.170000 255 0 0
-0.041854 -0.111546 2.161000 255 0 0
-0.035830 -0.111237 2.155000 255 0 0
-0.029852 -0.110980 2.150000 255 0 0
-0.023968 -0.111032 2.151000 255 0 0
-0.018121 -0.111343 2.157000 255 0 0
-0.012224 -0.111498 2.160000 255 0 0
-0.006324 -0.111911 2.168000 255 0 0
-0.000379 -0.111756 2.165000 255 0 0
0.005557 -0.111756 2.165000 255 0 0
0.011498 -0.111808 2.166000 255 0 0
0.017486 -0.112117 2.172000 255 0 0
0.023495 -0.112375 2.177000 255 0 0
0.029477 -0.112426 2.178000 255 0 0
0.035482 -0.112528 2.180000 255 0 0
0.041554 -0.112785 2.185000 255 0 0
0.047500 -0.112681 2.183000 255 0 0
0.053510 -0.112731 2.184000 255 0 0
0.059633 -0.112987 2.189000 255 0 0
-0.163290 -0.535983 2.529708 255 255 0
-0.135250 -0.528593 2.534087 255 255 0
-0.095947 -0.520155 2.532690 255 255 0
-0.091286 -0.521696 2.522553 255 255 0
-0.057612 -0.511971 2.531145 255 255 0
-0.038910 -0.508016 2.530245 255 255 0
-0.030167 -0.507918 2.522958 255 255 0
-0.030523 -0.511368 2.509737 255 255 0
-0.028396 -0.513851 2.498127 255 255 0
-0.026602 -0.519797 2.473229 255 255 0
-0.032688 -0.525536 2.456061 255 255 0
-0.032179 -0.528683 2.443272 255 255 0
-0.027559 -0.530204 2.433252 255 255 0
-0.025401 -0.532703 2.421558 255 255 0
-0.188040 -0.563246 2.505243 0 255 0
-0.183301 -0.561812 2.514670 0 255 0
-0.161009 -0.568244 2.512960 0 255 0
-0.169632 -0.560808 2.530913 0 255 0
-0.344475 -0.115630 2.132000 255 0 0
-0.334378 -0.114174 2.105000 255 0 0
-0.327861 -0.113910 2.100000 255 0 0
-0.322445 -0.114027 2.102000 255 0 0
-0.316866 -0.114089 2.103000 255 0 0
-0.312760 -0.114693 2.114000 255 0 0
-0.309609 -0.115678 2.132000 255 0 0
-0.283514 -0.122025 2.248000 255 0 0
-0.276142 -0.121490 2.238000 255 0 0
-0.270151 -0.121551 2.239000 255 0 0
-0.264153 -0.121612 2.240000 255 0 0
-0.257688 -0.121456 2.237000 255 0 0
-0.251350 -0.121354 2.235000 255 0 0
-0.244913 -0.121198 2.232000 255 0 0
-0.238813 -0.121204 2.232000 255 0 0
-0.232294 -0.120993 2.228000 255 0 0
-0.225898 -0.120836 2.225000 255 0 0
-0.219913 -0.120896 2.226000 255 0 0
-0.214402 -0.121228 2.232000 255 0 0
-0.208390 -0.121288 2.233000 255 0 0
-0.202010 -0.121131 2.230000 255 0 0
-0.195382 -0.120810 2.224000 255 0 0
-0.189467 -0.120924 2.226000 255 0 0
-0.184281 -0.121527 2.237000 255 0 0
-0.178477 -0.121749 2.241000 255 0 0
-0.172728 -0.122025 2.246000 255 0 0
-0.166802 -0.122193 2.249000 255 0 0
-0.160787 -0.122306 2.251000 255 0 0
-0.154624 -0.122310 2.251000 255 0 0
-0.148328 -0.122206 2.249000 255 0 0
-0.142358 -0.122373 2.252000 255 0 0
-0.136190 -0.122377 2.252000 255 0 0
-0.130253 -0.122598 2.256000 255 0 0
-0.124347 -0.122873 2.261000 255 0 0
-0.118467 -0.123203 2.267000 255 0 0
-0.111562 -0.122445 2.253000 255 0 0
-0.105108 -0.122122 2.247000 255 0 0
-0.098378 -0.121418 2.234000 255 0 0
-0.091719 -0.120714 2.221000 255 0 0
-0.085247 -0.120173 2.211000 255 0 0
-0.078793 -0.119578 2.200000 255 0 0
-0.072399 -0.118982 2.189000 255 0 0
-0.066065 -0.118386 2.178000 255 0 0
-0.060040 -0.118279 2.176000 255 0 0
-0.053851 -0.117791 2.167000 255 0 0
-0.047866 -0.117684 2.165000 255 0 0
-0.041737 -0.117142 2.155000 255 0 0
-0.035812 -0.117088 2.154000 255 0 0
-0.029837 -0.116818 2.149000 255 0 0
-0.023990 -0.117036 2.153000 255 0 0
-0.018137 -0.117363 2.159000 255 0 0
-0.012235 -0.117526 2.162000 255 0 0
-0.006321 -0.117798 2.167000 255 0 0
-0.000379 -0.117581 2.163000 255 0 0
0.005549 -0.117526 2.162000 255 0 0
0.011488 -0.117635 2.164000 255 0 0
0.017461 -0.117906 2.169000 255 0 0
0.023462 -0.118177 2.174000 255 0 0
0.029450 -0.118285 2.176000 255 0 0
0.035464 -0.118448 2.179000 255 0 0
0.041533 -0.118718 2.184000 255 0 0
0.047499 -0.118663 2.183000 255 0 0
0.053557 -0.118824 2.186000 255 0 0
0.059768 -0.119258 2.194000 255 0 0
-0.187263 -0.547051 2.556202 255 255 0
-0.176940 -0.549885 2.535983 255 255 0
-0.165536 -0.548882 2.529799 255 255 0
-0.127520 -0.537545 2.540437 255 255 0
-0.100385 -0.530373 2.544436 255 255 0
-0.087417 -0.528677 2.539580 255 255 0
-0.086080 -0.531506 2.527337 255 255 0
-0.070655 -0.528823 2.524161 255 255 0
-0.047806 -0.523203 2.525889 255 255 0
-0.041534 -0.524070 2.516948 255 255 0
-0.042700 -0.527865 2.503148 255 255 0
-0.032641 -0.530571 2.483662 255 255 0
-0.039552 -0.536665 2.465967 255 255 0
-0.025061 -0.534255 2.462556 255 255 0
-0.014201 -0.536624 2.443682 255 255 0
0.000238 -0.534189 2.440414 255 255 0
-0.196921 -0.570849 2.512414 0 255 0
-0.176334 -0.576603 2.511702 0 255 0
-0.154047 -0.583090 2.510036 0 255 0
-0.158474 -0.577496 2.525370 0 255 0
-0.283003 -0.127949 2.244000 255 0 0
-0.278109 -0.128526 2.254000 255 0 0
-0.271471 -0.128306 2.250000 255 0 0
-0.265325 -0.128313 2.250000 255 0 0
-0.258487 -0.127978 2.244000 255 0 0
-0.251906 -0.127757 2.240000 255 0 0
-0.245455 -0.127593 2.237000 255 0 0
-0.239020 -0.127428 2.234000 255 0 0
-0.232705 -0.127321 2.232000 255 0 0
-0.226197 -0.127099 2.228000 255 0 0
-0.220203 -0.127162 2.229000 255 0 0
-0.214396 -0.127339 2.232000 255 0 0
-0.208571 -0.127516 2.235000 255 0 0
-0.202276 -0.127408 2.233000 255 0 0
-0.196079 -0.127357 2.232000 255 0 0
-0.189972 -0.127362 2.232000 255 0 0
-0.184276 -0.127653 2.237000 255 0 0
-0.178393 -0.127829 2.240000 255 0 0
-0.172646 -0.128119 2.245000 255 0 0
-0.166871 -0.128410 2.250000 255 0 0
-0.160926 -0.128586 2.253000 255 0 0
-0.155169 -0.128933 2.259000 255 0 0
-0.148983 -0.128937 2.259000 255 0 0
-0.142860 -0.128998 2.260000 255 0 0
-0.136307 -0.128660 2.254000 255 0 0
-0.130133 -0.128664 2.254000 255 0 0
-0.124124 -0.128839 2.257000 255 0 0
-0.118202 -0.129128 2.262000 255 0 0
-0.111608 -0.128674 2.254000 255 0 0
-0.105245 -0.128449 2.250000 255 0 0
-0.098508 -0.127710 2.237000 255 0 0
-0.091758 -0.126856 2.222000 255 0 0
-0.085321 -0.126345 2.213000 255 0 0
-0.078862 -0.125720 2.202000 255 0 0
-0.072496 -0.125151 2.192000 255 0 0
-0.066124 -0.124468 2.180000 255 0 0
-0.060066 -0.124298 2.177000 255 0 0
-0.053949 -0.123957 2.171000 255 0 0
-0.047909 -0.123731 2.167000 255 0 0
-0.041813 -0.123275 2.159000 255 0 0
-0.035828 -0.123048 2.155000 255 0 0
-0.029878 -0.122877 2.152000 255 0 0
-0.023989 -0.122935 2.153000 255 0 0
-0.018137 -0.123279 2.159000 255 0 0
-0.012223 -0.123336 2.160000 255 0 0
-0.006312 -0.123565 2.164000 255 0 0
-0.000379 -0.123565 2.164000 255 0 0
0.005559 -0.123679 2.166000 255 0 0
0.011514 -0.123850 2.169000 255 0 0
0.017469 -0.123907 2.170000 255 0 0
0.023472 -0.124192 2.175000 255 0 0
0.029462 -0.124305 2.177000 255 0 0
0.035496 -0.124533 2.181000 255 0 0
0.041532 -0.124703 2.184000 255 0 0
0.047498 -0.124644 2.183000 255 0 0
0.053629 -0.124985 2.189000 255 0 0
0.060256 -0.126297 2.212000 255 0 0
-0.170579 -0.556073 2.554732 255 255 0
-0.173349 -0.560560 2.539729 255 255 0
-0.169444 -0.562456 2.528855 255 255 0
-0.119797 -0.546461 2.546780 255 255 0
-0.096834 -0.540840 2.548147 255 255 0
-0.083872 -0.539113 2.543290 255 255 0
-0.078392 -0.540316 2.533708 255 255 0
-0.067948 -0.539554 2.527340 255 255 0
-0.064963 -0.541733 2.516188 255 255 0
-0.051235 -0.539649 2.512035 255 255 0
-0.060640 -0.546749 2.492791 255 255 0
-0.019723 -0.533806 2.506632 255 255 0
-0.029126 -0.540907 2.487383 255 255 0
-0.025337 -0.542747 2.476834 255 255 0
-0.199960 -0.581077 2.515833 0 255 0
-0.171047 -0.590690 2.509814 0 255 0
-0.165458 -0.589634 2.518776 0 255 0
-0.151511 -0.592369 2.522485 0 255 0
-0.281734 -0.133491 2.234000 255 0 0
-0.277855 -0.134575 2.252000 255 0 0
-0.271463 -0.134463 2.250000 255 0 0
-0.265200 -0.134411 2.249000 255 0 0
-0.258365 -0.134060 2.243000 255 0 0
-0.251899 -0.133888 2.240000 255 0 0
-0.245229 -0.133596 2.235000 255 0 0
-0.238693 -0.133364 2.231000 255 0 0
-0.232698 -0.133430 2.232000 255 0 0
-0.226596 -0.133437 2.232000 255 0 0
-0.220493 -0.133443 2.232000 255 0 0
-0.214294 -0.133390 2.231000 255 0 0
-0.208285 -0.133456 2.232000 255 0 0
-0.202361 -0.133582 2.234000 255 0 0
-0.196337 -0.133647 2.235000 255 0 0
-0.190137 -0.133593 2.234000 255 0 0
-0.184106 -0.133659 2.235000 255 0 0
-0.178388 -0.133963 2.240000 255 0 0
-0.172641 -0.134267 2.245000 255 0 0
-0.167015 -0.134691 2.252000 255 0 0
-0.161064 -0.134875 2.255000 255 0 0
-0.155577 -0.135478 2.265000 255 0 0
-0.149506 -0.135603 2.267000 255 0 0
-0.143551 -0.135846 2.271000 255 0 0
-0.136908 -0.135432 2.264000 255 0 0
-0.130765 -0.135496 2.265000 255 0 0
-0.124615 -0.135559 2.266000 255 0 0
-0.118512 -0.135683 2.268000 255 0 0
-0.105289 -0.134673 2.251000 255 0 0
-0.098549 -0.133898 2.238000 255 0 0
-0.091879 -0.133123 2.225000 255 0 0
-0.085473 -0.132647 2.217000 255 0 0
-0.078967 -0.131932 2.205000 255 0 0
-0.072626 -0.131396 2.196000 255 0 0
-0.066274 -0.130739 2.185000 255 0 0
-0.060257 -0.130682 2.184000 255 0 0
-0.054047 -0.130145 2.175000 255 0 0
-0.047907 -0.129668 2.167000 255 0 0
-0.041773 -0.129071 2.157000 255 0 0
-0.035810 -0.128892 2.154000 255 0 0
-0.029849 -0.128654 2.150000 255 0 0
-0.023977 -0.128775 2.152000 255 0 0
-0.018086 -0.128835 2.153000 255 0 0
-0.012200 -0.129015 2.156000 255 0 0
-0.006298 -0.129195 2.159000 255 0 0
-0.000379 -0.129375 2.162000 255 0 0
0.005562 -0.129674 2.167000 255 0 0
0.011529 -0.129973 2.172000 255 0 0
0.017524 -0.130271 2.177000 255 0 0
0.023515 -0.130390 2.179000 255 0 0
0.029502 -0.130449 2.180000 255 0 0
0.035495 -0.130508 2.181000 255 0 0
0.041512 -0.130627 2.183000 255 0 0
0.047518 -0.130685 2.184000 255 0 0
0.053628 -0.130983 2.189000 255 0 0
0.060282 -0.132417 2.213000 255 0 0
-0.161988 -0.564759 2.561559 255 255 0
-0.159200 -0.570500 2.536768 255 255 0
-0.117899 -0.557634 2.549453 255 255 0
-0.099098 -0.553594 2.548179 255 255 0
-0.082819 -0.550524 2.545413 255 255 0
-0.076511 -0.551392 2.536358 255 255 0
-0.071036 -0.552587 2.526787 255 255 0
-0.062258 -0.552459 2.519369 255 255 0
-0.059272 -0.554640 2.508216 255 255 0
-0.017512 -0.541265 2.522465 255 255 0
-0.013742 -0.543095 2.511966 255 255 0
-0.025612 -0.551231 2.491103 255 255 0
-0.195505 -0.594751 2.514447 0 255 0
-0.187437 -0.594866 2.521752 0 255 0
-0.174355 -0.597269 2.525915 0 255 0
-0.177952 -0.592022 2.540662 0 255 0
-0.277106 -0.140361 2.246000 255 0 0
-0.271093 -0.140432 2.247000 255 0 0
-0.264956 -0.140440 2.247000 255 0 0
-0.258587 -0.140323 2.245000 255 0 0
-0.252341 -0.140268 2.244000 255 0 0
-0.245770 -0.140025 2.240000 255 0 0
-0.239220 -0.139782 2.236000 255 0 0
-0.233109 -0.139790 2.236000 255 0 0
-0.226894 -0.139734 2.235000 255 0 0
-0.220684 -0.139678 2.234000 255 0 0
-0.214287 -0.139497 2.231000 255 0 0
-0.208092 -0.139441 2.230000 255 0 0
-0.202174 -0.139573 2.232000 255 0 0
-0.196331 -0.139766 2.235000 255 0 0
-0.190131 -0.139710 2.234000 255 0 0
-0.184348 -0.139966 2.238000 255 0 0
-0.178701 -0.140347 2.244000 255 0 0
-0.172867 -0.140602 2.248000 255 0 0
-0.167232 -0.141046 2.255000 255 0 0
-0.161345 -0.141301 2.259000 255 0 0
-0.155778 -0.141869 2.268000 255 0 0
-0.149502 -0.141811 2.267000 255 0 0
-0.143610 -0.142128 2.272000 255 0 0
-0.137508 -0.142258 2.274000 255 0 0
-0.131280 -0.142262 2.274000 255 0 0
-0.125106 -0.142329 2.275000 255 0 0
-0.118717 -0.142145 2.272000 255 0 0
-0.111899 -0.141398 2.260000 255 0 0
-0.105005 -0.140463 2.245000 255 0 0
-0.098281 -0.139653 2.232000 255 0 0
-0.091628 -0.138843 2.219000 255 0 0
-0.085278 -0.138407 2.212000 255 0 0
-0.078893 -0.137847 2.203000 255 0 0
-0.072723 -0.137599 2.199000 255 0 0
-0.066454 -0.137101 2.191000 255 0 0
-0.060365 -0.136915 2.188000 255 0 0
-0.054169 -0.136416 2.180000 255 0 0
-0.047972 -0.135792 2.170000 255 0 0
-0.041830 -0.135168 2.160000 255 0 0
-0.035792 -0.134731 2.153000 255 0 0
-0.029807 -0.134357 2.147000 255 0 0
-0.023932 -0.134420 2.148000 255 0 0
-0.018060 -0.134546 2.150000 255 0 0
-0.012188 -0.134797 2.154000 255 0 0
-0.006294 -0.135047 2.158000 255 0 0
-0.000379 -0.135423 2.164000 255 0 0
0.005572 -0.135861 2.171000 255 0 0
0.011545 -0.136111 2.175000 255 0 0
0.017548 -0.136423 2.180000 255 0 0
0.023546 -0.136548 2.182000 255 0 0
0.029569 -0.136735 2.185000 255 0 0
0.035559 -0.136734 2.185000 255 0 0
0.041568 -0.136795 2.186000 255 0 0
0.047517 -0.136668 2.184000 255 0 0
0.053552 -0.136792 2.186000 255 0 0
0.060007 -0.137854 2.203000 255 0 0
-0.170639 -0.576778 2.570998 255 255 0
-0.164240 -0.577682 2.561685 255 255 0
-0.157015 -0.578253 2.552906 255 255 0
-0.144806 -0.576839 2.547268 255 255 0
-0.121817 -0.571120 2.548471 255 255 0
-0.073141 -0.555120 2.566062 255 255 0
-0.071817 -0.557963 2.553867 255 255 0
-0.070489 -0.560808 2.541659 255 255 0
-0.051784 -0.556678 2.540617 255 255 0
-0.056249 -0.561849 2.524689 255 255 0
-0.028505 -0.554034 2.529671 255 255 0
-0.014831 -0.551865 2.525622 255 255 0
0.005411 -0.547014 2.525973 255 255 0
-0.179909 -0.606403 2.530931 0 255 0
-0.284870 -0.147346 2.259000 255 0 0
-0.276111 -0.145984 2.238000 255 0 0
-0.270120 -0.146058 2.239000 255 0 0
-0.264594 -0.146392 2.244000 255 0 0
-0.258580 -0.146466 2.245000 255 0 0
-0.251996 -0.146213 2.241000 255 0 0
-0.245763 -0.146155 2.240000 255 0 0
-0.239427 -0.146032 2.238000 255 0 0
-0.233310 -0.146040 2.238000 255 0 0
-0.226989 -0.145916 2.236000 255 0 0
-0.220480 -0.145662 2.232000 255 0 0
-0.214088 -0.145474 2.229000 255 0 0
-0.208179 -0.145611 2.231000 255 0 0
-0.202439 -0.145879 2.235000 255 0 0
-0.196676 -0.146146 2.239000 255 0 0
-0.190295 -0.145956 2.236000 255 0 0
-0.184589 -0.146289 2.241000 255 0 0
-0.178775 -0.146556 2.245000 255 0 0
-0.173015 -0.146888 2.250000 255 0 0
-0.167227 -0.147220 2.255000 255 0 0
-0.161554 -0.147682 2.262000 255 0 0
-0.155979 -0.148275 2.271000 255 0 0
-0.149695 -0.148215 2.270000 255 0 0
-0.143732 -0.148481 2.274000 255 0 0
-0.137625 -0.148616 2.276000 255 0 0
-0.131622 -0.148882 2.280000 255 0 0
-0.125322 -0.148821 2.279000 255 0 0
-0.118975 -0.148694 2.277000 255 0 0
-0.111747 -0.147392 2.257000 255 0 0
-0.104674 -0.146155 2.238000 255 0 0
-0.098058 -0.145440 2.227000 255 0 0
-0.091625 -0.144920 2.219000 255 0 0
-0.085236 -0.144401 2.211000 255 0 0
-0.078962 -0.144012 2.205000 255 0 0
-0.072787 -0.143753 2.201000 255 0 0
-0.066542 -0.143298 2.194000 255 0 0
-0.060419 -0.143039 2.190000 255 0 0
-0.054242 -0.142584 2.183000 255 0 0
-0.048059 -0.141998 2.174000 255 0 0
-0.041906 -0.141346 2.164000 255 0 0
-0.035824 -0.140760 2.155000 255 0 0
-0.029820 -0.140303 2.148000 255 0 0
-0.023920 -0.140239 2.147000 255 0 0
-0.018051 -0.140370 2.149000 255 0 0
-0.012182 -0.140632 2.153000 255 0 0
-0.006291 -0.140894 2.157000 255 0 0
-0.000379 -0.141155 2.161000 255 0 0
0.005569 -0.141743 2.170000 255 0 0
0.011539 -0.142004 2.174000 255 0 0
0.017539 -0.142330 2.179000 255 0 0
0.023535 -0.142460 2.181000 255 0 0
0.029541 -0.142590 2.183000 255 0 0
0.035525 -0.142589 2.183000 255 0 0
0.041547 -0.142718 2.185000 255 0 0
0.047537 -0.142716 2.185000 255 0 0
0.053624 -0.142976 2.189000 255 0 0
0.060060 -0.144019 2.205000 255 0 0
-0.165918 -0.593850 2.548890 255 255 0
-0.095835 -0.572648 2.566280 255 255 0
-0.067454 -0.568016 2.558094 255 255 0
-0.061161 -0.568860 2.549070 255 255 0
-0.028417 -0.558985 2.557078 255 255 0
-0.027946 -0.562157 2.544428 255 255 0
-0.032418 -0.567347 2.528538 255 255 0
-0.018742 -0.565149 2.524464 255 255 0
-0.018260 -0.568327 2.511782 255 255 0
0.023343 -0.554654 2.526297 255 255 0
-0.176882 -0.623136 2.518005 0 255 0
-0.165466 -0.624817 2.523286 0 255 0
-0.276102 -0.152107 2.238000 255 0 0
-0.271077 -0.152727 2.247000 255 0 0
-0.265058 -0.152804 2.248000 255 0 0
-0.259147 -0.152948 2.250000 255 0 0
-0.252438 -0.152616 2.245000 255 0 0
-0.246084 -0.152489 2.243000 255 0 0
-0.239847 -0.152428 2.242000 255 0 0
-0.233615 -0.152368 2.241000 255 0 0
-0.227083 -0.152104 2.237000 255 0 0
-0.220769 -0.151975 2.235000 255 0 0
-0.214466 -0.151846 2.233000 255 0 0
-0.209012 -0.152329 2.240000 255 0 0
-0.203066 -0.152472 2.242000 255 0 0
-0.197285 -0.152751 2.246000 255 0 0
-0.190715 -0.152417 2.241000 255 0 0
-0.184995 -0.152764 2.246000 255 0 0
-0.178769 -0.152702 2.245000 255 0 0
-0.173009 -0.153048 2.250000 255 0 0
-0.167221 -0.153394 2.255000 255 0 0
-0.161691 -0.154012 2.264000 255 0 0
-0.156180 -0.154697 2.274000 255 0 0
-0.149888 -0.154635 2.273000 255 0 0
-0.143727 -0.154708 2.274000 255 0 0
-0.137560 -0.154780 2.275000 255 0 0
-0.131387 -0.154853 2.276000 255 0 0
-0.125153 -0.154858 2.276000 255 0 0
-0.118605 -0.154453 2.270000 255 0 0
-0.112683 -0.154866 2.276000 255 0 0
-0.104577 -0.152148 2.236000 255 0 0
-0.098011 -0.151471 2.226000 255 0 0
-0.091540 -0.150862 2.217000 255 0 0
-0.085079 -0.150184 2.207000 255 0 0
-0.078888 -0.149915 2.203000 255 0 0
-0.072685 -0.149577 2.198000 255 0 0
-0.066449 -0.149103 2.191000 255 0 0
-0.060334 -0.148833 2.187000 255 0 0
-0.054215 -0.148495 2.182000 255 0 0
-0.048102 -0.148089 2.176000 255 0 0
-0.041963 -0.147478 2.167000 255 0 0
-0.035873 -0.146866 2.158000 255 0 0
-0.029860 -0.146391 2.151000 255 0 0
-0.023941 -0.146256 2.149000 255 0 0
-0.018059 -0.146325 2.150000 255 0 0
-0.012170 -0.146393 2.151000 255 0 0
-0.006282 -0.146598 2.154000 255 0 0
-0.000378 -0.147006 2.160000 255 0 0
0.005566 -0.147619 2.169000 255 0 0
0.011534 -0.147891 2.173000 255 0 0
0.017515 -0.148094 2.176000 255 0 0
0.023512 -0.148298 2.179000 255 0 0
0.029540 -0.148569 2.183000 255 0 0
0.035573 -0.148772 2.186000 255 0 0
0.041546 -0.148703 2.185000 255 0 0
0.047492 -0.148565 2.183000 255 0 0
0.053549 -0.148768 2.186000 255 0 0
0.060003 -0.149922 2.203000 255 0 0
-0.149025 -0.599133 2.560888 255 255 0
-0.145970 -0.601352 2.549545 255 255 0
-0.104737 -0.588127 2.562168 255 255 0
-0.024781 -0.575959 2.534921 255 255 0
-0.002881 -0.570337 2.536243 255 255 0
-0.027917 -0.584035 2.506829 255 255 0
-0.028234 -0.587571 2.493553 255 255 0
-0.012947 -0.584650 2.490629 255 255 0
-0.276093 -0.158228 2.238000 255 0 0
-0.271068 -0.158874 2.247000 255 0 0
-0.265639 -0.159307 2.253000 255 0 0
-0.259599 -0.159386 2.254000 255 0 0
-0.252542 -0.158829 2.246000 255 0 0
-0.245966 -0.158555 2.242000 255 0 0
-0.239625 -0.158422 2.240000 255 0 0
-0.233607 -0.158500 2.241000 255 0 0
-0.227075 -0.158225 2.237000 255 0 0
-0.220762 -0.158091 2.235000 255 0 0
-0.214939 -0.158311 2.238000 255 0 0
-0.209285 -0.158672 2.243000 255 0 0
-0.203331 -0.158821 2.245000 255 0 0
-0.197278 -0.158898 2.246000 255 0 0
-0.190793 -0.158622 2.242000 255 0 0
-0.184906 -0.158841 2.245000 255 0 0
-0.178683 -0.158777 2.244000 255 0 0
-0.173157 -0.159349 2.252000 255 0 0
-0.167364 -0.159709 2.257000 255 0 0
-0.161900 -0.160422 2.267000 255 0 0
-0.156106 -0.160852 2.273000 255 0 0
-0.150080 -0.161070 2.276000 255 0 0
-0.143785 -0.161004 2.275000 255 0 0
-0.137555 -0.161009 2.275000 255 0 0
-0.131325 -0.161014 2.275000 255 0 0
-0.125148 -0.161090 2.276000 255 0 0
-0.118757 -0.160882 2.273000 255 0 0
-0.104667 -0.158412 2.238000 255 0 0
-0.098051 -0.157637 2.227000 255 0 0
-0.091660 -0.157145 2.220000 255 0 0
-0.085269 -0.156582 2.212000 255 0 0
-0.078921 -0.156019 2.204000 255 0 0
-0.072617 -0.155455 2.196000 255 0 0
-0.066386 -0.154962 2.189000 255 0 0
-0.060276 -0.154681 2.185000 255 0 0
-0.054213 -0.154471 2.182000 255 0 0
-0.048100 -0.154048 2.176000 255 0 0
-0.041981 -0.153483 2.168000 255 0 0
-0.035905 -0.152918 2.160000 255 0 0
-0.029929 -0.152636 2.156000 255 0 0
-0.024007 -0.152567 2.155000 255 0 0
-0.018083 -0.152426 2.153000 255 0 0
-0.012164 -0.152214 2.150000 255 0 0
-0.006273 -0.152285 2.151000 255 0 0
-0.000378 -0.152781 2.158000 255 0 0
0.005569 -0.153630 2.170000 255 0 0
0.011560 -0.154196 2.178000 255 0 0
0.017554 -0.154408 2.181000 255 0 0
0.023555 -0.154549 2.183000 255 0 0
0.029539 -0.154548 2.183000 255 0 0
0.035523 -0.154547 2.183000 255 0 0
0.041506 -0.154545 2.183000 255 0 0
0.047490 -0.154544 2.183000 255 0 0
0.053669 -0.155108 2.191000 255 0 0
0.060056 -0.156097 2.205000 255 0 0
-0.152614 -0.619576 2.533612 255 255 0
-0.066884 -0.608556 2.495811 255 255 0
-0.004189 -0.589335 2.510851 255 255 0
-0.013859 -0.600198 2.478337 255 255 0
-0.271421 -0.165240 2.250000 255 0 0
-0.265747 -0.165543 2.254000 255 0 0
-0.259706 -0.165626 2.255000 255 0 0
-0.252871 -0.165194 2.249000 255 0 0
-0.246068 -0.164762 2.243000 255 0 0
-0.239831 -0.164697 2.242000 255 0 0
-0.233599 -0.164632 2.241000 255 0 0
-0.227372 -0.164567 2.240000 255 0 0
-0.221446 -0.164721 2.242000 255 0 0
-0.215507 -0.164876 2.244000 255 0 0
-0.209651 -0.165104 2.247000 255 0 0
-0.203415 -0.165038 2.246000 255 0 0
-0.197359 -0.165119 2.247000 255 0 0
-0.190957 -0.164905 2.244000 255 0 0
-0.184817 -0.164912 2.244000 255 0 0
-0.178677 -0.164919 2.244000 255 0 0
-0.173228 -0.165586 2.253000 255 0 0
-0.167580 -0.166107 2.260000 255 0 0
-0.161965 -0.166701 2.268000 255 0 0
-0.156031 -0.167001 2.272000 255 0 0
-0.150009 -0.167227 2.275000 255 0 0
-0.143843 -0.167306 2.276000 255 0 0
-0.137913 -0.167679 2.281000 255 0 0
-0.131724 -0.167757 2.282000 255 0 0
-0.125639 -0.167983 2.285000 255 0 0
-0.119276 -0.167840 2.283000 255 0 0
-0.098048 -0.163735 2.227000 255 0 0
-0.091698 -0.163298 2.221000 255 0 0
-0.085266 -0.162639 2.212000 255 0 0
-0.078882 -0.161980 2.203000 255 0 0
-0.072482 -0.161174 2.192000 255 0 0
-0.066202 -0.160515 2.183000 255 0 0
-0.060109 -0.160224 2.179000 255 0 0
-0.054037 -0.159932 2.175000 255 0 0
-0.047966 -0.159566 2.170000 255 0 0
-0.041902 -0.159126 2.164000 255 0 0
-0.035920 -0.158907 2.161000 255 0 0
-0.029997 -0.158908 2.161000 255 0 0
-0.024051 -0.158762 2.159000 255 0 0
-0.018116 -0.158616 2.157000 255 0 0
-0.012175 -0.158249 2.152000 255 0 0
-0.006285 -0.158470 2.155000 255 0 0
-0.000379 -0.158911 2.161000 255 0 0
0.005571 -0.159647 2.171000 255 0 0
0.011554 -0.160087 2.177000 255 0 0
0.017554 -0.160381 2.181000 255 0 0
0.023564 -0.160601 2.184000 255 0 0
0.029565 -0.160673 2.185000 255 0 0
0.035586 -0.160819 2.187000 255 0 0
0.041581 -0.160818 2.187000 255 0 0
0.047532 -0.160669 2.185000 255 0 0
0.053618 -0.160961 2.189000 255 0 0
-0.011174 -0.610840 2.481517 255 255 0
-0.271049 -0.171165 2.247000 255 0 0
-0.265502 -0.171556 2.252000 255 0 0
-0.259581 -0.171718 2.254000 255 0 0
-0.253087 -0.171498 2.251000 255 0 0
-0.246498 -0.171203 2.247000 255 0 0
-0.240036 -0.170983 2.244000 255 0 0
-0.233799 -0.170915 2.243000 255 0 0
-0.227364 -0.170695 2.240000 255 0 0
-0.221438 -0.170856 2.242000 255 0 0
-0.215596 -0.171092 2.245000 255 0 0
-0.209550 -0.171176 2.246000 255 0 0
-0.203498 -0.171260 2.247000 255 0 0
-0.197527 -0.171420 2.249000 255 0 0
-0.191375 -0.171427 2.249000 255 0 0
-0.185057 -0.171282 2.247000 255 0 0
-0.178909 -0.171289 2.247000 255 0 0
-0.173529 -0.172058 2.257000 255 0 0
-0.167871 -0.172598 2.264000 255 0 0
-0.162174 -0.173138 2.271000 255 0 0
-0.155957 -0.173144 2.271000 255 0 0
-0.150069 -0.173531 2.276000 255 0 0
-0.144154 -0.173918 2.281000 255 0 0
-0.138331 -0.174457 2.288000 255 0 0
-0.132354 -0.174843 2.293000 255 0 0
-0.126239 -0.175077 2.296000 255 0 0
-0.120264 -0.175539 2.302000 255 0 0
-0.098176 -0.170061 2.230000 255 0 0
-0.091819 -0.169607 2.224000 255 0 0
-0.085417 -0.169000 2.216000 255 0 0
-0.078987 -0.168241 2.206000 255 0 0
-0.072578 -0.167405 2.195000 255 0 0
-0.066320 -0.166798 2.187000 255 0 0
-0.060162 -0.166342 2.181000 255 0 0
-0.054035 -0.165887 2.175000 255 0 0
-0.047919 -0.165355 2.168000 255 0 0
-0.041900 -0.165052 2.164000 255 0 0
-0.035936 -0.164901 2.162000 255 0 0
-0.030024 -0.164978 2.163000 255 0 0
-0.024061 -0.164751 2.160000 255 0 0
