ply
format ascii 1.0
element vertex 1330
property double x
property double y
property double z
property uchar red
property uchar green
property uchar blue
end_header
-0.118852 0.345172 2.063000 255 0 0
-0.112993 0.344511 2.059000 255 0 0
-0.107312 0.344352 2.058000 255 0 0
-0.101685 0.344359 2.058000 255 0 0
-0.096151 0.344701 2.060000 255 0 0
-0.090562 0.344875 2.061000 255 0 0
-0.084926 0.344882 2.061000 255 0 0
-0.079290 0.344888 2.061000 255 0 0
-0.073689 0.345061 2.062000 255 0 0
-0.068115 0.345401 2.064000 255 0 0
-0.062530 0.345740 2.066000 255 0 0
-0.056907 0.345912 2.067000 255 0 0
-0.051278 0.346083 2.068000 255 0 0
-0.045577 0.345752 2.066000 255 0 0
-0.039964 0.346090 2.068000 255 0 0
-0.034340 0.346427 2.070000 255 0 0
-0.028760 0.347434 2.076000 255 0 0
-0.023092 0.347603 2.077000 255 0 0
-0.017460 0.348609 2.083000 255 0 0
-0.011784 0.349279 2.087000 255 0 0
-0.006095 0.350451 2.094000 255 0 0
-0.000367 0.351289 2.099000 255 0 0
0.005396 0.352627 2.107000 255 0 0
0.011187 0.353463 2.112000 255 0 0
0.017005 0.354299 2.117000 255 0 0
0.022958 0.356808 2.132000 255 0 0
0.029182 0.361659 2.161000 255 0 0
0.035678 0.367682 2.197000 255 0 0
0.041916 0.369687 2.209000 255 0 0
0.047872 0.369015 2.205000 255 0 0
0.053659 0.367337 2.195000 255 0 0
0.059555 0.366664 2.191000 255 0 0
0.065428 0.365990 2.187000 255 0 0
0.071345 0.365650 2.185000 255 0 0
0.077038 0.364306 2.177000 255 0 0
0.082725 0.363129 2.170000 255 0 0
0.088618 0.362955 2.169000 255 0 0
0.094637 0.363283 2.171000 255 0 0
0.100573 0.363276 2.171000 255 0 0
0.106313 0.362599 2.167000 255 0 0
0.112238 0.362591 2.167000 255 0 0
0.118599 0.363921 2.175000 255 0 0
0.125003 0.365251 2.183000 255 0 0
-0.101645 0.359201 2.266424 255 255 0
-0.090218 0.358394 2.261571 255 255 0
-0.077099 0.357831 2.257993 255 255 0
-0.061441 0.357635 2.256320 255 255 0
-0.049217 0.356976 2.252240 255 255 0
-0.030201 0.357282 2.253185 255 255 0
0.031515 0.361312 2.272899 255 255 0
0.047013 0.361198 2.271667 255 255 0
0.061638 0.360976 2.269874 255 255 0
0.075393 0.360644 2.267510 255 255 0
0.086589 0.359958 2.263296 255 255 0
0.083407 0.357198 2.248256 255 255 0
-0.015973 0.340411 2.159993 255 255 0
-0.284419 0.254682 2.076648 0 255 0
-0.293428 0.259391 2.096109 0 255 0
-0.293912 0.262225 2.108814 0 255 0
-0.299536 0.266169 2.125486 0 255 0
-0.287195 0.266220 2.128182 0 255 0
-0.275695 0.266468 2.131591 0 255 0
-0.206485 0.273719 2.177838 0 255 0
-0.212646 0.280487 2.207000 0 255 0
-0.211418 0.282968 2.218362 0 255 0
-0.204997 0.284380 2.225934 0 255 0
-0.207237 0.287571 2.239793 0 255 0
-0.210354 0.290933 2.254244 0 255 0
-0.209141 0.293407 2.265547 0 255 0
-0.200111 0.294297 2.271263 0 255 0
-0.178025 0.292568 2.267759 0 255 0
-0.155907 0.290862 2.264365 0 255 0
-0.136370 0.289703 2.262917 0 255 0
-0.124652 0.290128 2.267047 0 255 0
-0.112046 0.290391 2.270618 0 255 0
-0.102919 0.291357 2.276661 0 255 0
-0.092906 0.292159 2.282136 0 255 0
-0.392805 0.352450 2.146000 255 0 0
-0.381022 0.347052 2.113000 255 0 0
-0.374035 0.345924 2.106000 255 0 0
-0.367435 0.345125 2.101000 255 0 0
-0.361033 0.344489 2.097000 255 0 0
-0.354652 0.343853 2.093000 255 0 0
-0.348959 0.343874 2.093000 255 0 0
-0.342281 0.342909 2.087000 255 0 0
-0.336119 0.342436 2.084000 255 0 0
-0.329972 0.341964 2.081000 255 0 0
-0.324308 0.341984 2.081000 255 0 0
-0.318337 0.341675 2.079000 255 0 0
-0.312828 0.341859 2.080000 255 0 0
-0.307459 0.342207 2.082000 255 0 0
-0.302369 0.342884 2.086000 255 0 0
-0.297114 0.343396 2.089000 255 0 0
-0.292399 0.344565 2.096000 255 0 0
-0.287509 0.345570 2.102000 255 0 0
-0.282988 0.347068 2.111000 255 0 0
-0.278811 0.349059 2.123000 255 0 0
-0.276110 0.353023 2.147000 255 0 0
-0.269880 0.352548 2.144000 255 0 0
-0.262433 0.350428 2.131000 255 0 0
-0.254816 0.347978 2.116000 255 0 0
-0.247986 0.346515 2.107000 255 0 0
-0.241664 0.345709 2.102000 255 0 0
-0.235705 0.345396 2.100000 255 0 0
-0.229756 0.345083 2.098000 255 0 0
-0.223711 0.344604 2.095000 255 0 0
-0.217474 0.343797 2.090000 255 0 0
-0.211364 0.343154 2.086000 255 0 0
-0.205177 0.342345 2.081000 255 0 0
-0.198825 0.341208 2.074000 255 0 0
-0.192789 0.340563 2.070000 255 0 0
-0.187137 0.340576 2.070000 255 0 0
-0.181659 0.340918 2.072000 255 0 0
-0.176000 0.340931 2.072000 255 0 0
-0.170258 0.340778 2.071000 255 0 0
-0.164521 0.340625 2.070000 255 0 0
-0.158866 0.340637 2.070000 255 0 0
-0.153210 0.340648 2.070000 255 0 0
-0.147625 0.340823 2.071000 255 0 0
-0.142034 0.340998 2.072000 255 0 0
-0.136305 0.340843 2.071000 255 0 0
-0.130455 0.340359 2.068000 255 0 0
-0.124561 0.339710 2.064000 255 0 0
-0.118688 0.339060 2.060000 255 0 0
-0.112946 0.338739 2.058000 255 0 0
-0.107267 0.338583 2.057000 255 0 0
-0.101692 0.338755 2.058000 255 0 0
-0.096205 0.339256 2.061000 255 0 0
-0.090613 0.339427 2.062000 255 0 0
-0.084973 0.339433 2.062000 255 0 0
-0.079372 0.339604 2.063000 255 0 0
-0.073730 0.339610 2.063000 255 0 0
-0.068153 0.339944 2.065000 255 0 0
-0.062596 0.340443 2.068000 255 0 0
-0.056966 0.340611 2.069000 255 0 0
-0.051331 0.340780 2.070000 255 0 0
-0.045624 0.340454 2.068000 255 0 0
-0.040005 0.340787 2.070000 255 0 0
-0.034375 0.341119 2.072000 255 0 0
-0.028762 0.341780 2.076000 255 0 0
-0.023083 0.341782 2.076000 255 0 0
-0.017445 0.342606 2.081000 255 0 0
-0.011785 0.343595 2.087000 255 0 0
-0.006095 0.344748 2.094000 255 0 0
-0.000367 0.345901 2.101000 255 0 0
0.005407 0.347547 2.111000 255 0 0
0.011214 0.348534 2.117000 255 0 0
0.017111 0.350673 2.130000 255 0 0
0.023218 0.354953 2.156000 255 0 0
0.029738 0.362524 2.202000 255 0 0
0.036168 0.366637 2.227000 255 0 0
0.042166 0.365811 2.222000 255 0 0
0.047963 0.363668 2.209000 255 0 0
0.053761 0.362018 2.199000 255 0 0
0.059668 0.361355 2.195000 255 0 0
0.065523 0.360527 2.190000 255 0 0
0.071350 0.359699 2.185000 255 0 0
0.077043 0.358377 2.177000 255 0 0
0.082769 0.357383 2.171000 255 0 0
0.088706 0.357377 2.171000 255 0 0
0.094774 0.357864 2.174000 255 0 0
0.100720 0.357857 2.174000 255 0 0
0.106566 0.357520 2.172000 255 0 0
0.112505 0.357513 2.172000 255 0 0
0.118826 0.358656 2.179000 255 0 0
0.125126 0.359635 2.185000 255 0 0
0.131460 0.360614 2.191000 255 0 0
-0.096376 0.348905 2.271379 255 255 0
-0.084956 0.348124 2.266532 255 255 0
-0.075259 0.347110 2.260502 255 255 0
-0.063018 0.346466 2.256356 255 255 0
-0.049943 0.345953 2.252879 255 255 0
-0.025829 0.347036 2.257534 255 255 0
0.012689 0.350224 2.272913 255 255 0
0.035852 0.351236 2.277225 255 255 0
0.049645 0.350914 2.274735 255 255 0
0.059181 0.349984 2.269149 255 255 0
0.074627 0.349930 2.268034 255 255 0
0.079059 0.348269 2.258716 255 255 0
-0.295046 0.246480 2.086118 0 255 0
-0.304909 0.251408 2.106211 0 255 0
-0.304546 0.254059 2.118216 0 255 0
-0.295638 0.254828 2.123553 0 255 0
-0.285865 0.255417 2.128260 0 255 0
-0.277793 0.256389 2.134323 0 255 0
-0.212926 0.264419 2.183791 0 255 0
-0.216865 0.268004 2.199009 0 255 0
-0.210449 0.269402 2.206575 0 255 0
-0.206621 0.271349 2.216053 0 255 0
-0.200196 0.272755 2.223646 0 255 0
-0.203294 0.276146 2.238147 0 255 0
-0.202935 0.278812 2.250114 0 255 0
-0.201713 0.281297 2.261443 0 255 0
-0.197889 0.283245 2.270903 0 255 0
-0.180158 0.282350 2.270507 0 255 0
-0.161531 0.281297 2.269582 0 255 0
-0.140266 0.279734 2.266913 0 255 0
-0.129426 0.280308 2.271652 0 255 0
-0.113341 0.279839 2.272799 0 255 0
-0.101598 0.280262 2.277038 0 255 0
-0.090713 0.280871 2.281927 0 255 0
0.052256 0.275390 2.286065 0 255 0
-0.388801 0.343059 2.124000 255 0 0
-0.380503 0.340820 2.110000 255 0 0
-0.373701 0.339872 2.104000 255 0 0
-0.367107 0.339086 2.099000 255 0 0
-0.361054 0.338784 2.097000 255 0 0
-0.354673 0.338159 2.093000 255 0 0
-0.348647 0.337856 2.091000 255 0 0
-0.342630 0.337554 2.089000 255 0 0
-0.336462 0.337089 2.086000 255 0 0
-0.330468 0.336786 2.084000 255 0 0
-0.324484 0.336483 2.082000 255 0 0
-0.318510 0.336179 2.080000 255 0 0
-0.312847 0.336199 2.080000 255 0 0
-0.307183 0.336218 2.080000 255 0 0
-0.302243 0.337045 2.085000 255 0 0
-0.297133 0.337710 2.089000 255 0 0
-0.292418 0.338861 2.096000 255 0 0
-0.287801 0.340172 2.104000 255 0 0
-0.283542 0.341969 2.115000 255 0 0
-0.279748 0.344413 2.130000 255 0 0
-0.277029 0.348311 2.154000 255 0 0
-0.270401 0.347359 2.148000 255 0 0
-0.263189 0.345597 2.137000 255 0 0
-0.255916 0.343673 2.125000 255 0 0
-0.248944 0.342073 2.115000 255 0 0
-0.242599 0.341280 2.110000 255 0 0
-0.236506 0.340811 2.107000 255 0 0
-0.230429 0.340341 2.104000 255 0 0
-0.224260 0.339709 2.100000 255 0 0
-0.218113 0.339077 2.096000 255 0 0
-0.211784 0.338121 2.090000 255 0 0
-0.205388 0.337003 2.083000 255 0 0
-0.199030 0.335884 2.076000 255 0 0
-0.193175 0.335574 2.074000 255 0 0
-0.187421 0.335425 2.073000 255 0 0
-0.181847 0.335599 2.074000 255 0 0
-0.176267 0.335774 2.075000 255 0 0
-0.170517 0.335624 2.074000 255 0 0
-0.164771 0.335474 2.073000 255 0 0
-0.158954 0.335161 2.071000 255 0 0
-0.153369 0.335334 2.072000 255 0 0
-0.147707 0.335344 2.072000 255 0 0
-0.142112 0.335516 2.073000 255 0 0
-0.136249 0.335041 2.070000 255 0 0
-0.130275 0.334241 2.065000 255 0 0
-0.124389 0.333602 2.061000 255 0 0
-0.118639 0.333287 2.059000 255 0 0
-0.112954 0.333134 2.058000 255 0 0
-0.107379 0.333303 2.059000 255 0 0
-0.101798 0.333473 2.060000 255 0 0
-0.096305 0.333965 2.063000 255 0 0
-0.090707 0.334134 2.064000 255 0 0
-0.085103 0.334302 2.065000 255 0 0
-0.079455 0.334308 2.065000 255 0 0
-0.073807 0.334314 2.065000 255 0 0
-0.068158 0.334319 2.065000 255 0 0
-0.062570 0.334647 2.067000 255 0 0
-0.056943 0.334814 2.068000 255 0 0
-0.051310 0.334979 2.069000 255 0 0
-0.045650 0.334983 2.069000 255 0 0
-0.040028 0.335310 2.071000 255 0 0
-0.034378 0.335474 2.072000 255 0 0
-0.028764 0.336124 2.076000 255 0 0
-0.023095 0.336288 2.077000 255 0 0
-0.017446 0.336937 2.081000 255 0 0
-0.011791 0.338072 2.088000 255 0 0
-0.006102 0.339368 2.096000 255 0 0
-0.000368 0.340663 2.104000 255 0 0
0.005412 0.342120 2.113000 255 0 0
0.011252 0.343901 2.124000 255 0 0
0.017248 0.347623 2.147000 255 0 0
0.023618 0.355070 2.193000 255 0 0
0.030159 0.361544 2.233000 255 0 0
0.036431 0.363161 2.243000 255 0 0
0.042359 0.361377 2.232000 255 0 0
0.048096 0.358622 2.215000 255 0 0
0.053936 0.357161 2.206000 255 0 0
0.059808 0.356185 2.200000 255 0 0
0.065647 0.355209 2.194000 255 0 0
0.071453 0.354233 2.188000 255 0 0
0.077120 0.352770 2.179000 255 0 0
0.082851 0.351793 2.173000 255 0 0
0.088795 0.351787 2.173000 255 0 0
0.094868 0.352266 2.176000 255 0 0
0.100820 0.352259 2.176000 255 0 0
0.106770 0.352252 2.176000 255 0 0
0.112824 0.352568 2.178000 255 0 0
0.119216 0.353854 2.186000 255 0 0
0.125364 0.354331 2.189000 255 0 0
0.131709 0.355293 2.195000 255 0 0
-0.098803 0.337529 2.270857 255 255 0
-0.089944 0.336401 2.264161 255 255 0
-0.075979 0.336018 2.261172 255 255 0
-0.066296 0.335027 2.255166 255 255 0
-0.048114 0.335286 2.255377 255 255 0
-0.024010 0.336432 2.260018 255 255 0
0.018736 0.340352 2.278489 255 255 0
0.041884 0.341427 2.282799 255 255 0
0.049734 0.340256 2.275918 255 255 0
0.055035 0.338712 2.267169 255 255 0
0.067944 0.338311 2.264129 255 255 0
-0.303959 0.237944 2.094229 0 255 0
-0.311754 0.245180 2.124937 0 255 0
-0.300291 0.245356 2.128270 0 255 0
-0.279408 0.243454 2.124375 0 255 0
-0.263629 0.242710 2.124536 0 255 0
-0.211991 0.250792 2.171931 0 255 0
-0.213328 0.253849 2.185268 0 255 0
-0.214674 0.256902 2.198576 0 255 0
-0.214300 0.259581 2.210590 0 255 0
-0.214796 0.262442 2.223216 0 255 0
-0.206649 0.263468 2.229536 0 255 0
-0.201956 0.265232 2.238388 0 255 0
-0.198993 0.267362 2.248493 0 255 0
-0.199500 0.270218 2.261078 0 255 0
-0.196541 0.272348 2.271168 0 255 0
-0.180553 0.271772 2.272024 0 255 0
-0.164543 0.271213 2.272954 0 255 0
-0.144160 0.269775 2.270907 0 255 0
-0.133327 0.270325 2.275646 0 255 0
-0.117251 0.269816 2.276796 0 255 0
-0.102898 0.269679 2.279228 0 255 0
-0.092891 0.270442 2.284725 0 255 0
-0.084620 0.271568 2.291457 0 255 0
-0.387358 0.336010 2.116000 255 0 0
-0.379984 0.334603 2.107000 255 0 0
-0.373190 0.333671 2.101000 255 0 0
-0.367128 0.333375 2.099000 255 0 0
-0.360903 0.332919 2.096000 255 0 0
-0.354355 0.332146 2.091000 255 0 0
-0.348167 0.331690 2.088000 255 0 0
-0.342158 0.331392 2.086000 255 0 0
-0.336482 0.331412 2.086000 255 0 0
-0.330647 0.331273 2.085000 255 0 0
-0.324504 0.330816 2.082000 255 0 0
-0.318530 0.330518 2.080000 255 0 0
-0.312716 0.330378 2.079000 255 0 0
-0.307350 0.330715 2.081000 255 0 0
-0.302407 0.331529 2.086000 255 0 0
-0.297578 0.332501 2.092000 255 0 0
-0.292855 0.333632 2.099000 255 0 0
-0.288367 0.335081 2.108000 255 0 0
-0.284365 0.337165 2.121000 255 0 0
-0.280554 0.339568 2.136000 255 0 0
-0.276661 0.341970 2.151000 255 0 0
-0.269915 0.340875 2.144000 255 0 0
-0.263206 0.339779 2.137000 255 0 0
-0.256294 0.338365 2.128000 255 0 0
-0.249195 0.336632 2.117000 255 0 0
-0.242730 0.335694 2.111000 255 0 0
-0.236522 0.335074 2.107000 255 0 0
-0.230444 0.334612 2.104000 255 0 0
-0.224382 0.334150 2.101000 255 0 0
-0.218231 0.333528 2.097000 255 0 0
-0.211798 0.332429 2.090000 255 0 0
-0.205501 0.331489 2.084000 255 0 0
-0.199235 0.330548 2.078000 255 0 0
-0.193468 0.330402 2.077000 255 0 0
-0.187615 0.330097 2.075000 255 0 0
-0.181860 0.329951 2.074000 255 0 0
-0.176279 0.330122 2.075000 255 0 0
-0.170446 0.329816 2.073000 255 0 0
-0.164862 0.329986 2.074000 255 0 0
-0.159042 0.329679 2.072000 255 0 0
-0.153454 0.329849 2.073000 255 0 0
-0.147646 0.329541 2.071000 255 0 0
-0.141985 0.329551 2.071000 255 0 0
-0.136127 0.329084 2.068000 255 0 0
-0.130221 0.328456 2.064000 255 0 0
-0.124397 0.327988 2.061000 255 0 0
-0.118762 0.327996 2.061000 255 0 0
-0.113182 0.328164 2.062000 255 0 0
-0.107491 0.328012 2.061000 255 0 0
-0.101954 0.328338 2.063000 255 0 0
-0.096359 0.328504 2.064000 255 0 0
-0.090757 0.328670 2.065000 255 0 0
-0.085192 0.328995 2.067000 255 0 0
-0.079538 0.329000 2.067000 255 0 0
-0.073848 0.328847 2.066000 255 0 0
-0.068163 0.328693 2.065000 255 0 0
-0.062544 0.328856 2.066000 255 0 0
-0.056919 0.329020 2.067000 255 0 0
-0.051289 0.329183 2.068000 255 0 0
-0.045631 0.329186 2.068000 255 0 0
-0.040031 0.329667 2.071000 255 0 0
-0.034430 0.330306 2.075000 255 0 0
-0.028808 0.330945 2.079000 255 0 0
-0.023153 0.331425 2.082000 255 0 0
-0.017472 0.331745 2.084000 255 0 0
-0.011798 0.332542 2.089000 255 0 0
-0.006105 0.333816 2.097000 255 0 0
-0.000368 0.335249 2.106000 255 0 0
0.005425 0.337159 2.118000 255 0 0
0.011316 0.340024 2.136000 255 0 0
0.017426 0.345276 2.169000 255 0 0
0.023825 0.352119 2.212000 255 0 0
0.030269 0.356734 2.241000 255 0 0
0.036498 0.357686 2.247000 255 0 0
0.042419 0.355773 2.235000 255 0 0
0.048230 0.353542 2.221000 255 0 0
0.054062 0.351946 2.211000 255 0 0
0.059867 0.350509 2.202000 255 0 0
0.065712 0.349550 2.196000 255 0 0
0.071523 0.348590 2.190000 255 0 0
0.077196 0.347152 2.181000 255 0 0
0.083009 0.346510 2.177000 255 0 0
0.088923 0.346344 2.176000 255 0 0
0.095006 0.346815 2.179000 255 0 0
0.101012 0.346968 2.180000 255 0 0
0.107023 0.347119 2.181000 255 0 0
0.113091 0.347430 2.183000 255 0 0
0.119333 0.348217 2.188000 255 0 0
0.125545 0.348845 2.192000 255 0 0
0.131898 0.349791 2.198000 255 0 0
-0.102080 0.326001 2.269735 255 255 0
-0.097486 0.324259 2.259969 255 255 0
-0.081811 0.324154 2.258172 255 255 0
-0.070420 0.323431 2.253369 255 255 0
-0.048836 0.324238 2.256023 255 255 0
-0.023041 0.325700 2.261881 255 255 0
0.017138 0.329356 2.278454 255 255 0
0.040279 0.330490 2.282742 255 255 0
0.053213 0.330102 2.279613 255 255 0
0.055972 0.328177 2.268979 255 255 0
0.064650 0.327157 2.262767 255 255 0
-0.312012 0.229256 2.101656 0 255 0
-0.309085 0.231342 2.111661 0 255 0
-0.316396 0.235752 2.129651 0 255 0
-0.299819 0.234742 2.129003 0 255 0
-0.248630 0.228742 2.114116 0 255 0
-0.196866 0.219944 2.086874 0 255 0
-0.217564 0.241327 2.177251 0 255 0
-0.218901 0.244395 2.190573 0 255 0
-0.215936 0.246522 2.200691 0 255 0
-0.210384 0.248090 2.208908 0 255 0
-0.215190 0.251895 2.224698 0 255 0
-0.208774 0.253279 2.232282 0 255 0
-0.201487 0.254482 2.239258 0 255 0
-0.197657 0.256429 2.248748 0 255 0
-0.193825 0.258378 2.258240 0 255 0
-0.191728 0.260696 2.268969 0 255 0
-0.178346 0.260635 2.271698 0 255 0
-0.166685 0.260952 2.275712 0 255 0
-0.144573 0.259098 2.272458 0 255 0
-0.133744 0.259626 2.277207 0 255 0
-0.118546 0.259260 2.278978 0 255 0
-0.107687 0.259812 2.283828 0 255 0
-0.095942 0.260193 2.288123 0 255 0
-0.085929 0.260945 2.293662 0 255 0
-0.080274 0.262599 2.302211 0 255 0
-0.388112 0.330877 2.120000 255 0 0
-0.380185 0.329026 2.108000 255 0 0
-0.373211 0.327954 2.101000 255 0 0
-0.366974 0.327507 2.098000 255 0 0
-0.360580 0.326903 2.094000 255 0 0
-0.354545 0.326611 2.092000 255 0 0
-0.348354 0.326163 2.089000 255 0 0
-0.342506 0.326027 2.088000 255 0 0
-0.336663 0.325891 2.087000 255 0 0
-0.330666 0.325598 2.085000 255 0 0
-0.324679 0.325305 2.083000 255 0 0
-0.318702 0.325012 2.081000 255 0 0
-0.313186 0.325188 2.082000 255 0 0
-0.307812 0.325519 2.084000 255 0 0
-0.302570 0.326006 2.087000 255 0 0
-0.297596 0.326805 2.092000 255 0 0
-0.293013 0.328073 2.100000 255 0 0
-0.289069 0.330122 2.113000 255 0 0
-0.285455 0.332640 2.129000 255 0 0
-0.281623 0.335002 2.144000 255 0 0
-0.276935 0.336426 2.153000 255 0 0
-0.270561 0.335818 2.149000 255 0 0
-0.263962 0.334897 2.143000 255 0 0
-0.257154 0.333664 2.135000 255 0 0
-0.249800 0.331648 2.122000 255 0 0
-0.243091 0.330414 2.114000 255 0 0
-0.236874 0.329804 2.110000 255 0 0
-0.231007 0.329663 2.109000 255 0 0
-0.224717 0.328896 2.104000 255 0 0
-0.218454 0.328130 2.099000 255 0 0
-0.211711 0.326580 2.089000 255 0 0
-0.205514 0.325812 2.084000 255 0 0
-0.199344 0.325044 2.079000 255 0 0
-0.193574 0.324901 2.078000 255 0 0
-0.187718 0.324601 2.076000 255 0 0
-0.182047 0.324614 2.076000 255 0 0
-0.176376 0.324626 2.076000 255 0 0
-0.170622 0.324481 2.075000 255 0 0
-0.165032 0.324649 2.076000 255 0 0
-0.159283 0.324503 2.075000 255 0 0
-0.153612 0.324514 2.075000 255 0 0
-0.147727 0.324055 2.072000 255 0 0
-0.141926 0.323752 2.070000 255 0 0
-0.136136 0.323449 2.068000 255 0 0
-0.130356 0.323146 2.066000 255 0 0
-0.124587 0.322842 2.064000 255 0 0
-0.118944 0.322850 2.064000 255 0 0
-0.113300 0.322858 2.064000 255 0 0
-0.107655 0.322866 2.064000 255 0 0
-0.102060 0.323030 2.065000 255 0 0
-0.096459 0.323193 2.066000 255 0 0
-0.090808 0.323199 2.066000 255 0 0
-0.085198 0.323362 2.067000 255 0 0
-0.079543 0.323368 2.067000 255 0 0
-0.073889 0.323373 2.067000 255 0 0
-0.068234 0.323378 2.067000 255 0 0
-0.062579 0.323383 2.067000 255 0 0
-0.056951 0.323544 2.068000 255 0 0
-0.051293 0.323547 2.068000 255 0 0
-0.045678 0.323864 2.070000 255 0 0
-0.040072 0.324336 2.073000 255 0 0
-0.034483 0.325121 2.078000 255 0 0
-0.028879 0.326062 2.084000 255 0 0
-0.023210 0.326533 2.087000 255 0 0
-0.017515 0.326848 2.089000 255 0 0
-0.011827 0.327631 2.094000 255 0 0
-0.006114 0.328570 2.100000 255 0 0
-0.000369 0.329822 2.108000 255 0 0
0.005431 0.331700 2.120000 255 0 0
0.011370 0.335767 2.146000 255 0 0
0.017500 0.340773 2.178000 255 0 0
0.023859 0.346560 2.215000 255 0 0
0.030258 0.350470 2.240000 255 0 0
0.036501 0.351563 2.247000 255 0 0
0.042441 0.349839 2.236000 255 0 0
0.048320 0.348115 2.225000 255 0 0
0.054164 0.346547 2.215000 255 0 0
0.060007 0.345291 2.207000 255 0 0
0.065776 0.343878 2.198000 255 0 0
0.071561 0.342778 2.191000 255 0 0
0.077272 0.341522 2.183000 255 0 0
0.083130 0.341047 2.180000 255 0 0
0.089011 0.340728 2.178000 255 0 0
0.095013 0.340878 2.179000 255 0 0
0.100927 0.340714 2.178000 255 0 0
0.106982 0.341020 2.180000 255 0 0
0.113099 0.341482 2.183000 255 0 0
0.119287 0.342099 2.187000 255 0 0
0.125554 0.342873 2.192000 255 0 0
0.131908 0.343802 2.198000 255 0 0
-0.105678 0.316819 2.281427 255 255 0
-0.099374 0.315333 2.272868 255 255 0
-0.096487 0.313339 2.261886 255 255 0
-0.079966 0.313399 2.260689 255 255 0
-0.070282 0.312442 2.254653 255 255 0
-0.048706 0.313303 2.257289 255 255 0
-0.016976 0.315741 2.267464 255 255 0
0.017241 0.318600 2.279670 255 255 0
0.037830 0.319401 2.282065 255 255 0
0.055844 0.319827 2.282680 255 255 0
0.064523 0.318821 2.276455 255 255 0
-0.313248 0.219025 2.103712 0 255 0
-0.307765 0.220522 2.111714 0 255 0
-0.315068 0.224965 2.129704 0 255 0
-0.304469 0.225286 2.133714 0 255 0
-0.268235 0.219763 2.117964 0 255 0
-0.218444 0.233629 2.191414 0 255 0
-0.215477 0.235758 2.201538 0 255 0
-0.210787 0.237509 2.210396 0 255 0
-0.193357 0.247611 2.259129 0 255 0
-0.187789 0.249189 2.267398 0 255 0
-0.178747 0.250028 2.273223 0 255 0
-0.167958 0.250506 2.277860 0 255 0
-0.144120 0.248227 2.273404 0 255 0
-0.132424 0.248549 2.277560 0 255 0
-0.123325 0.249433 2.283576 0 255 0
-0.118572 0.251239 2.292634 0 255 0
-0.107712 0.251772 2.297508 0 255 0
-0.095093 0.251951 2.301234 0 255 0
-0.082458 0.252143 2.305015 0 255 0
-0.381830 0.324669 2.117000 255 0 0
-0.373943 0.322849 2.105000 255 0 0
-0.367169 0.321950 2.099000 255 0 0
-0.360600 0.321204 2.094000 255 0 0
-0.354227 0.320610 2.090000 255 0 0
-0.348374 0.320477 2.089000 255 0 0
-0.342526 0.320343 2.088000 255 0 0
-0.336683 0.320210 2.087000 255 0 0
-0.330686 0.319922 2.085000 255 0 0
-0.324854 0.319788 2.084000 255 0 0
-0.318874 0.319500 2.082000 255 0 0
-0.313506 0.319826 2.084000 255 0 0
-0.308126 0.320152 2.086000 255 0 0
-0.302879 0.320630 2.089000 255 0 0
-0.297899 0.321416 2.094000 255 0 0
-0.293589 0.322969 2.104000 255 0 0
-0.289908 0.325290 2.119000 255 0 0
-0.286144 0.327610 2.134000 255 0 0
-0.281903 0.329470 2.146000 255 0 0
-0.276953 0.330562 2.153000 255 0 0
-0.270579 0.329965 2.149000 255 0 0
-0.264349 0.329521 2.146000 255 0 0
-0.257773 0.328616 2.140000 255 0 0
-0.250758 0.327097 2.130000 255 0 0
-0.243682 0.325424 2.119000 255 0 0
-0.237451 0.324825 2.115000 255 0 0
-0.231241 0.324225 2.111000 255 0 0
-0.224946 0.323472 2.106000 255 0 0
-0.218156 0.321951 2.096000 255 0 0
-0.211421 0.320429 2.086000 255 0 0
-0.205232 0.319674 2.081000 255 0 0
-0.199454 0.319534 2.080000 255 0 0
-0.193680 0.319393 2.079000 255 0 0
-0.187911 0.319252 2.078000 255 0 0
-0.182060 0.318957 2.076000 255 0 0
-0.176388 0.318969 2.076000 255 0 0
-0.170634 0.318827 2.075000 255 0 0
-0.165123 0.319146 2.077000 255 0 0
-0.159217 0.318696 2.074000 255 0 0
-0.153475 0.318553 2.073000 255 0 0
-0.147595 0.318102 2.070000 255 0 0
-0.141799 0.317804 2.068000 255 0 0
-0.136146 0.317814 2.068000 255 0 0
-0.130428 0.317669 2.067000 255 0 0
-0.124777 0.317678 2.067000 255 0 0
-0.119067 0.317532 2.066000 255 0 0
-0.113417 0.317540 2.066000 255 0 0
-0.107767 0.317548 2.066000 255 0 0
-0.102166 0.317709 2.067000 255 0 0
-0.096559 0.317870 2.068000 255 0 0
-0.090814 0.317569 2.066000 255 0 0
-0.085162 0.317575 2.066000 255 0 0
-0.079472 0.317427 2.065000 255 0 0
-0.073858 0.317586 2.066000 255 0 0
-0.068272 0.317898 2.068000 255 0 0
-0.062674 0.318210 2.070000 255 0 0
-0.057065 0.318522 2.072000 255 0 0
-0.051420 0.318679 2.073000 255 0 0
-0.045748 0.318683 2.073000 255 0 0
-0.040133 0.319147 2.076000 255 0 0
-0.034518 0.319765 2.080000 255 0 0
-0.028909 0.320689 2.086000 255 0 0
-0.023234 0.321152 2.089000 255 0 0
-0.017542 0.321615 2.092000 255 0 0
-0.011839 0.322231 2.096000 255 0 0
-0.006123 0.323308 2.103000 255 0 0
-0.000370 0.324999 2.114000 255 0 0
0.005459 0.327612 2.131000 255 0 0
0.011429 0.331609 2.157000 255 0 0
0.017557 0.335912 2.185000 255 0 0
0.023893 0.340984 2.218000 255 0 0
0.030287 0.344672 2.242000 255 0 0
0.036569 0.346053 2.251000 255 0 0
0.042520 0.344359 2.240000 255 0 0
0.048432 0.342819 2.230000 255 0 0
0.054266 0.341124 2.219000 255 0 0
0.060120 0.339890 2.211000 255 0 0
0.065841 0.338195 2.200000 255 0 0
0.071599 0.336960 2.192000 255 0 0
0.077313 0.335725 2.184000 255 0 0
0.083250 0.335566 2.183000 255 0 0
0.089059 0.334945 2.179000 255 0 0
0.094976 0.334785 2.178000 255 0 0
0.100841 0.334471 2.176000 255 0 0
0.106842 0.334618 2.177000 255 0 0
0.113003 0.335225 2.181000 255 0 0
0.119186 0.335832 2.185000 255 0 0
0.125448 0.336592 2.190000 255 0 0
0.131737 0.337351 2.195000 255 0 0
-0.105533 0.305758 2.282747 255 255 0
-0.100936 0.304020 2.272968 255 255 0
-0.092078 0.302935 2.266239 255 255 0
-0.081528 0.302118 2.260762 255 255 0
-0.068440 0.301704 2.257167 255 255 0
-0.046874 0.302620 2.259791 255 255 0
-0.002424 0.307131 2.279228 255 255 0
0.023282 0.308763 2.285237 255 255 0
0.041316 0.309218 2.285761 255 255 0
0.054242 0.308887 2.282613 255 255 0
0.068839 0.308835 2.280778 255 255 0
-0.313635 0.208590 2.105098 0 255 0
-0.314963 0.211674 2.118442 0 255 0
-0.310336 0.213363 2.127105 0 255 0
-0.298030 0.213269 2.129816 0 255 0
-0.273760 0.210419 2.123348 0 255 0
-0.221260 0.201089 2.095330 0 255 0
-0.201190 0.216268 2.167430 0 255 0
-0.214549 0.222076 2.189712 0 255 0
-0.214161 0.224786 2.201755 0 255 0
-0.208607 0.226342 2.209991 0 255 0
-0.198951 0.238152 2.264351 0 255 0
-0.195120 0.240097 2.273843 0 255 0
-0.181751 0.239975 2.276590 0 255 0
-0.171836 0.240616 2.281840 0 255 0
-0.148013 0.238275 2.277395 0 255 0
-0.137193 0.238757 2.282157 0 255 0
-0.128101 0.239621 2.288171 0 255 0
-0.125092 0.241790 2.298422 0 255 0
-0.112498 0.241928 2.302093 0 255 0
-0.105121 0.243183 2.309391 0 255 0
-0.091626 0.243158 2.312563 0 255 0
-0.078986 0.243330 2.316384 0 255 0
-0.367890 0.316839 2.103000 255 0 0
-0.360793 0.315654 2.095000 255 0 0
-0.354586 0.315222 2.092000 255 0 0
-0.348894 0.315242 2.092000 255 0 0
-0.343038 0.315111 2.091000 255 0 0
-0.337025 0.314829 2.089000 255 0 0
-0.330864 0.314396 2.086000 255 0 0
-0.325029 0.314264 2.085000 255 0 0
-0.319046 0.313982 2.083000 255 0 0
-0.313675 0.314302 2.085000 255 0 0
-0.308144 0.314471 2.086000 255 0 0
-0.303187 0.315243 2.091000 255 0 0
-0.298344 0.316166 2.097000 255 0 0
-0.294305 0.317993 2.109000 255 0 0
-0.290336 0.319971 2.122000 255 0 0
-0.286161 0.321798 2.134000 255 0 0
-0.281789 0.323474 2.145000 255 0 0
-0.277485 0.325301 2.157000 255 0 0
-0.270847 0.324413 2.151000 255 0 0
-0.264612 0.323977 2.148000 255 0 0
-0.258030 0.323089 2.142000 255 0 0
-0.251245 0.321898 2.134000 255 0 0
-0.244272 0.320405 2.124000 255 0 0
-0.238028 0.319817 2.120000 255 0 0
-0.231913 0.319379 2.117000 255 0 0
-0.225387 0.318338 2.110000 255 0 0
-0.218378 0.316542 2.098000 255 0 0
-0.211434 0.314745 2.086000 255 0 0
-0.205245 0.314004 2.081000 255 0 0
-0.199563 0.314017 2.081000 255 0 0
-0.193972 0.314181 2.082000 255 0 0
-0.188104 0.313891 2.080000 255 0 0
-0.182159 0.313451 2.077000 255 0 0
-0.176400 0.313312 2.076000 255 0 0
-0.170645 0.313172 2.075000 255 0 0
-0.165055 0.313334 2.076000 255 0 0
-0.159227 0.313043 2.074000 255 0 0
-0.153411 0.312752 2.072000 255 0 0
-0.147533 0.312309 2.069000 255 0 0
-0.141877 0.312319 2.069000 255 0 0
-0.136221 0.312328 2.069000 255 0 0
-0.130564 0.312337 2.069000 255 0 0
-0.124906 0.312346 2.069000 255 0 0
-0.119133 0.312052 2.067000 255 0 0
-0.113480 0.312060 2.067000 255 0 0
-0.107774 0.311916 2.066000 255 0 0
-0.102173 0.312075 2.067000 255 0 0
-0.096565 0.312232 2.068000 255 0 0
-0.090864 0.312088 2.067000 255 0 0
-0.085251 0.312245 2.068000 255 0 0
-0.079593 0.312250 2.068000 255 0 0
-0.073935 0.312256 2.068000 255 0 0
-0.068309 0.312412 2.069000 255 0 0
-0.062678 0.312567 2.070000 255 0 0
-0.057124 0.313175 2.074000 255 0 0
-0.051498 0.313481 2.076000 255 0 0
-0.045861 0.313786 2.078000 255 0 0
-0.040174 0.313789 2.078000 255 0 0
-0.034537 0.314245 2.081000 255 0 0
-0.028897 0.314851 2.085000 255 0 0
-0.023235 0.315457 2.089000 255 0 0
-0.017551 0.316063 2.093000 255 0 0
-0.011857 0.316970 2.099000 255 0 0
-0.006141 0.318480 2.109000 255 0 0
-0.000372 0.320897 2.125000 255 0 0
0.005488 0.323464 2.142000 255 0 0
0.011462 0.326634 2.163000 255 0 0
0.017575 0.330258 2.187000 255 0 0
0.023905 0.335088 2.219000 255 0 0
0.030302 0.338711 2.243000 255 0 0
0.036620 0.340369 2.254000 255 0 0
0.042618 0.339008 2.245000 255 0 0
0.048544 0.337494 2.235000 255 0 0
0.054441 0.336132 2.226000 255 0 0
0.060287 0.334769 2.217000 255 0 0
0.065935 0.332651 2.203000 255 0 0
0.071636 0.331136 2.193000 255 0 0
0.077354 0.329923 2.185000 255 0 0
0.083256 0.329615 2.183000 255 0 0
0.089024 0.328854 2.178000 255 0 0
0.094895 0.328546 2.176000 255 0 0
0.100801 0.328388 2.175000 255 0 0
0.106751 0.328381 2.175000 255 0 0
0.112907 0.328978 2.179000 255 0 0
0.119140 0.329725 2.184000 255 0 0
0.125457 0.330622 2.190000 255 0 0
0.131566 0.330916 2.192000 255 0 0
-0.111364 0.293760 2.279849 255 255 0
-0.105907 0.292153 2.270652 255 255 0
-0.091932 0.291880 2.267548 255 255 0
-0.081384 0.291084 2.262062 255 255 0
-0.068299 0.290698 2.258456 255 255 0
-0.042494 0.292341 2.264141 255 255 0
0.004478 0.297384 2.285411 255 255 0
0.032709 0.299493 2.293282 255 255 0
0.049034 0.299725 2.292572 255 255 0
0.056874 0.298608 2.285681 255 255 0
0.069774 0.298317 2.282583 255 255 0
-0.309775 0.197132 2.103142 0 255 0
-0.316200 0.201445 2.120497 0 255 0
-0.309869 0.202726 2.127834 0 255 0
-0.295864 0.202204 2.129237 0 255 0
-0.211522 0.210682 2.188656 0 255 0
-0.217151 0.214768 2.205142 0 255 0
-0.216767 0.217482 2.217160 0 255 0
-0.205405 0.228906 2.270186 0 255 0
-0.198982 0.230272 2.277819 0 255 0
-0.189088 0.230880 2.283019 0 255 0
-0.175712 0.230737 2.285817 0 255 0
-0.158847 0.229849 2.286244 0 255 0
-0.147172 0.230113 2.290382 0 255 0
-0.138959 0.231143 2.296978 0 255 0
-0.134218 0.232931 2.306003 0 255 0
-0.121636 0.233036 2.309660 0 255 0
-0.111653 0.233713 2.315157 0 255 0
-0.100785 0.234213 2.320100 0 255 0
-0.085538 0.233795 2.322139 0 255 0
-0.370884 0.313629 2.120000 255 0 0
-0.360985 0.310098 2.096000 255 0 0
-0.354266 0.309230 2.090000 255 0 0
-0.349081 0.309694 2.093000 255 0 0
-0.343386 0.309713 2.093000 255 0 0
-0.337529 0.309584 2.092000 255 0 0
-0.331200 0.309012 2.088000 255 0 0
-0.325360 0.308882 2.087000 255 0 0
-0.319371 0.308605 2.085000 255 0 0
-0.313844 0.308771 2.086000 255 0 0
-0.308310 0.308938 2.087000 255 0 0
-0.303495 0.309844 2.093000 255 0 0
-0.298646 0.310750 2.099000 255 0 0
-0.294322 0.312248 2.109000 255 0 0
-0.290080 0.313894 2.120000 255 0 0
-0.285910 0.315688 2.132000 255 0 0
-0.281543 0.317334 2.143000 255 0 0
-0.278273 0.320313 2.163000 255 0 0
-0.270108 0.317664 2.145000 255 0 0
-0.264135 0.317533 2.144000 255 0 0
-0.257926 0.317104 2.141000 255 0 0
-0.251496 0.316380 2.136000 255 0 0
-0.244633 0.315062 2.127000 255 0 0
-0.238267 0.314336 2.122000 255 0 0
-0.231928 0.313611 2.117000 255 0 0
-0.225081 0.312144 2.107000 255 0 0
-0.218080 0.310380 2.095000 255 0 0
-0.211346 0.308912 2.085000 255 0 0
-0.205357 0.308481 2.082000 255 0 0
-0.199671 0.308494 2.082000 255 0 0
-0.194078 0.308655 2.083000 255 0 0
-0.188207 0.308371 2.081000 255 0 0
-0.182259 0.307938 2.078000 255 0 0
-0.176411 0.307653 2.076000 255 0 0
-0.170739 0.307665 2.076000 255 0 0
-0.164986 0.307527 2.075000 255 0 0
-0.159084 0.307093 2.072000 255 0 0
-0.153273 0.306807 2.070000 255 0 0
-0.147543 0.306669 2.069000 255 0 0
-0.141955 0.306827 2.070000 255 0 0
-0.136296 0.306836 2.070000 255 0 0
-0.130572 0.306697 2.069000 255 0 0
-0.124975 0.306853 2.070000 255 0 0
-0.119256 0.306713 2.069000 255 0 0
-0.113652 0.306869 2.070000 255 0 0
-0.107834 0.306432 2.067000 255 0 0
-0.102180 0.306439 2.067000 255 0 0
-0.096525 0.306446 2.067000 255 0 0
-0.090958 0.306749 2.069000 255 0 0
-0.085380 0.307051 2.071000 255 0 0
-0.079714 0.307057 2.071000 255 0 0
-0.074047 0.307062 2.071000 255 0 0
-0.068380 0.307067 2.071000 255 0 0
-0.062773 0.307368 2.073000 255 0 0
-0.057211 0.307965 2.077000 255 0 0
-0.051551 0.308117 2.078000 255 0 0
-0.045886 0.308269 2.079000 255 0 0
-0.040216 0.308420 2.080000 255 0 0
-0.034556 0.308719 2.082000 255 0 0
-0.028927 0.309463 2.087000 255 0 0
-0.023259 0.310057 2.091000 255 0 0
-0.017578 0.310800 2.096000 255 0 0
-0.011880 0.311839 2.103000 255 0 0
-0.006162 0.313768 2.116000 255 0 0
-0.000373 0.316289 2.133000 255 0 0
0.005509 0.318809 2.150000 255 0 0
0.011489 0.321478 2.168000 255 0 0
0.017608 0.324887 2.191000 255 0 0
0.023874 0.328593 2.216000 255 0 0
0.030278 0.332298 2.241000 255 0 0
0.036671 0.334668 2.257000 255 0 0
0.042754 0.333924 2.252000 255 0 0
0.048722 0.332587 2.243000 255 0 0
0.054591 0.330952 2.232000 255 0 0
0.060373 0.329169 2.220000 255 0 0
0.065969 0.326792 2.204000 255 0 0
0.071707 0.325453 2.195000 255 0 0
0.077430 0.324262 2.187000 255 0 0
0.083300 0.323812 2.184000 255 0 0
0.089071 0.323064 2.179000 255 0 0
0.095032 0.323058 2.179000 255 0 0
0.100947 0.322903 2.178000 255 0 0
0.106856 0.322748 2.177000 255 0 0
0.112967 0.323185 2.180000 255 0 0
0.119257 0.324067 2.186000 255 0 0
0.125694 0.325245 2.194000 255 0 0
0.132115 0.326274 2.201000 255 0 0
-0.117530 0.284130 2.289791 255 255 0
-0.111214 0.282659 2.281178 255 255 0
-0.101492 0.281733 2.275002 255 255 0
-0.090932 0.280950 2.269468 255 255 0
-0.086342 0.279221 2.259704 255 255 0
-0.070706 0.279270 2.257909 255 255 0
-0.040663 0.281666 2.266642 255 255 0
0.002045 0.286153 2.284793 255 255 0
0.070709 0.287793 2.284391 255 255 0
-0.309319 0.186458 2.103868 0 255 0
-0.311485 0.189779 2.117893 0 255 0
-0.300896 0.190035 2.121937 0 255 0
-0.284333 0.188877 2.121398 0 255 0
-0.213656 0.200446 2.191418 0 255 0
-0.227020 0.206335 2.213587 0 255 0
-0.227502 0.209249 2.226209 0 255 0
-0.209261 0.219102 2.274163 0 255 0
-0.202842 0.220456 2.281792 0 255 0
-0.193819 0.221236 2.287604 0 255 0
-0.183053 0.221639 2.292230 0 255 0
-0.164467 0.220322 2.291439 0 255 0
-0.151931 0.220367 2.294967 0 255 0
-0.143724 0.221379 2.301559 0 255 0
-0.137248 0.222779 2.309379 0 255 0
-0.125543 0.223045 2.313637 0 255 0
-0.117308 0.224079 2.320321 0 255 0
-0.103832 0.223987 2.323484 0 255 0
-0.092958 0.224474 2.328476 0 255 0
-0.358938 0.302648 2.084000 255 0 0
-0.354795 0.303975 2.093000 255 0 0
-0.349601 0.304430 2.096000 255 0 0
-0.343733 0.304304 2.095000 255 0 0
-0.337870 0.304178 2.094000 255 0 0
-0.331536 0.303615 2.090000 255 0 0
-0.325690 0.303489 2.089000 255 0 0
-0.319696 0.303217 2.087000 255 0 0
-0.314313 0.303525 2.089000 255 0 0
-0.309067 0.303979 2.092000 255 0 0
-0.304093 0.304724 2.097000 255 0 0
-0.299233 0.305613 2.103000 255 0 0
-0.294898 0.307084 2.113000 255 0 0
-0.290371 0.308409 2.122000 255 0 0
-0.286464 0.310461 2.136000 255 0 0
-0.282874 0.312949 2.153000 255 0 0
-0.277904 0.313983 2.160000 255 0 0
-0.269369 0.310947 2.139000 255 0 0
-0.263535 0.310963 2.139000 255 0 0
-0.257700 0.310979 2.139000 255 0 0
-0.251394 0.310413 2.135000 255 0 0
-0.244763 0.309411 2.128000 255 0 0
-0.238282 0.308553 2.122000 255 0 0
-0.231942 0.307841 2.117000 255 0 0
-0.224882 0.306110 2.105000 255 0 0
-0.218094 0.304670 2.095000 255 0 0
-0.211563 0.303520 2.087000 255 0 0
-0.205666 0.303242 2.085000 255 0 0
-0.199876 0.303109 2.084000 255 0 0
-0.194090 0.302977 2.083000 255 0 0
-0.188219 0.302698 2.081000 255 0 0
-0.182358 0.302419 2.079000 255 0 0
-0.176508 0.302139 2.077000 255 0 0
-0.170668 0.301860 2.075000 255 0 0
-0.164917 0.301725 2.074000 255 0 0
-0.159172 0.301590 2.073000 255 0 0
-0.153431 0.301455 2.072000 255 0 0
-0.147767 0.301464 2.072000 255 0 0
-0.142170 0.301619 2.073000 255 0 0
-0.136502 0.301629 2.073000 255 0 0
-0.130707 0.301346 2.071000 255 0 0
-0.125043 0.301355 2.071000 255 0 0
-0.119437 0.301508 2.072000 255 0 0
-0.113770 0.301516 2.072000 255 0 0
-0.107893 0.300941 2.068000 255 0 0
-0.102137 0.300657 2.066000 255 0 0
-0.096485 0.300664 2.066000 255 0 0
-0.090921 0.300961 2.068000 255 0 0
-0.085386 0.301404 2.071000 255 0 0
-0.079719 0.301409 2.071000 255 0 0
-0.074124 0.301705 2.073000 255 0 0
-0.068451 0.301710 2.073000 255 0 0
-0.062838 0.302006 2.075000 255 0 0
-0.057215 0.302301 2.077000 255 0 0
-0.051604 0.302741 2.080000 255 0 0
-0.045934 0.302890 2.081000 255 0 0
-0.040276 0.303184 2.083000 255 0 0
-0.034625 0.303623 2.086000 255 0 0
-0.028971 0.304207 2.090000 255 0 0
-0.023283 0.304646 2.093000 255 0 0
-0.017613 0.305666 2.100000 255 0 0
-0.011926 0.307268 2.111000 255 0 0
-0.006183 0.309016 2.123000 255 0 0
-0.000374 0.310908 2.136000 255 0 0
0.005512 0.313091 2.151000 255 0 0
0.011506 0.316002 2.171000 255 0 0
0.017609 0.318912 2.191000 255 0 0
0.023844 0.322113 2.213000 255 0 0
0.030199 0.325313 2.235000 255 0 0
0.036674 0.328513 2.257000 255 0 0
0.042851 0.328510 2.257000 255 0 0
0.048833 0.327197 2.248000 255 0 0
0.054693 0.325447 2.236000 255 0 0
0.060432 0.323406 2.222000 255 0 0
0.066094 0.321364 2.208000 255 0 0
0.071842 0.320049 2.199000 255 0 0
0.077506 0.318589 2.189000 255 0 0
0.083267 0.317710 2.183000 255 0 0
0.089118 0.317268 2.180000 255 0 0
0.095170 0.317553 2.182000 255 0 0
0.101232 0.317837 2.184000 255 0 0
0.107256 0.317976 2.185000 255 0 0
0.113337 0.318259 2.187000 255 0 0
0.119647 0.319125 2.193000 255 0 0
0.127364 0.323482 2.223000 255 0 0
-0.113108 0.273695 2.294127 255 255 0
-0.105089 0.272509 2.286725 255 255 0
-0.093672 0.271880 2.281765 255 255 0
-0.090783 0.269876 2.270782 255 255 0
-0.087892 0.267870 2.259794 255 255 0
-0.074807 0.267537 2.256145 255 255 0
-0.041378 0.270569 2.267299 255 255 0
-0.003774 0.274335 2.281713 255 255 0
0.031217 0.277715 2.294470 255 255 0
-0.313961 0.177015 2.108602 0 255 0
-0.311028 0.179108 2.118624 0 255 0
-0.298741 0.178929 2.121355 0 255 0
-0.285588 0.178556 2.123479 0 255 0
-0.204476 0.207339 2.271972 0 255 0
-0.201512 0.209473 2.282079 0 255 0
-0.196817 0.211216 2.290962 0 255 0
-0.188655 0.212180 2.297417 0 255 0
-0.172683 0.211399 2.298445 0 255 0
-0.158423 0.211023 2.300756 0 255 0
-0.148486 0.211630 2.306136 0 255 0
-0.142014 0.213018 2.313950 0 255 0
-0.130317 0.213256 2.318207 0 255 0
-0.119476 0.213697 2.323106 0 255 0
-0.110365 0.214532 2.329232 0 255 0
-0.096882 0.214419 2.332451 0 255 0
-0.360163 0.297970 2.091000 255 0 0
-0.355662 0.298987 2.098000 255 0 0
-0.350287 0.299291 2.100000 255 0 0
-0.344573 0.299310 2.100000 255 0 0
-0.338535 0.299044 2.098000 255 0 0
-0.332506 0.298777 2.096000 255 0 0
-0.326644 0.298653 2.095000 255 0 0
-0.320633 0.298387 2.093000 255 0 0
-0.315385 0.298832 2.096000 255 0 0
-0.310119 0.299278 2.099000 255 0 0
-0.305270 0.300151 2.105000 255 0 0
-0.300246 0.300881 2.110000 255 0 0
-0.295613 0.302039 2.118000 255 0 0
-0.291756 0.304053 2.132000 255 0 0
-0.278436 0.308668 2.164000 255 0 0
-0.268630 0.304262 2.133000 255 0 0
-0.263058 0.304563 2.135000 255 0 0
-0.257475 0.304864 2.137000 255 0 0
-0.251291 0.304452 2.134000 255 0 0
-0.244663 0.303468 2.127000 255 0 0
-0.237623 0.301913 2.116000 255 0 0
-0.231080 0.300929 2.109000 255 0 0
-0.224255 0.299516 2.099000 255 0 0
-0.217795 0.298531 2.092000 255 0 0
-0.211779 0.298116 2.089000 255 0 0
-0.205975 0.297986 2.088000 255 0 0
-0.200080 0.297713 2.086000 255 0 0
-0.194196 0.297440 2.084000 255 0 0
-0.188322 0.297167 2.082000 255 0 0
-0.182545 0.297036 2.081000 255 0 0
-0.176689 0.296762 2.079000 255 0 0
-0.170843 0.296487 2.077000 255 0 0
-0.165087 0.296355 2.076000 255 0 0
-0.159259 0.296080 2.074000 255 0 0
-0.153515 0.295947 2.073000 255 0 0
-0.147776 0.295814 2.072000 255 0 0
-0.142248 0.296109 2.074000 255 0 0
-0.136511 0.295975 2.073000 255 0 0
-0.130716 0.295698 2.071000 255 0 0
-0.125052 0.295707 2.071000 255 0 0
-0.119445 0.295858 2.072000 255 0 0
-0.113832 0.296008 2.073000 255 0 0
-0.108005 0.295587 2.070000 255 0 0
-0.102243 0.295308 2.068000 255 0 0
-0.096538 0.295172 2.067000 255 0 0
-0.090883 0.295178 2.067000 255 0 0
-0.085392 0.295755 2.071000 255 0 0
-0.079725 0.295760 2.071000 255 0 0
-0.074129 0.296051 2.073000 255 0 0
-0.068488 0.296199 2.074000 255 0 0
-0.062903 0.296631 2.077000 255 0 0
-0.057273 0.296921 2.079000 255 0 0
-0.051608 0.297068 2.080000 255 0 0
-0.045915 0.297071 2.080000 255 0 0
-0.040299 0.297645 2.084000 255 0 0
-0.034660 0.298219 2.088000 255 0 0
-0.029014 0.298935 2.093000 255 0 0
-0.023307 0.299222 2.095000 255 0 0
-0.017656 0.300652 2.105000 255 0 0
-0.011950 0.302081 2.115000 255 0 0
-0.006189 0.303510 2.125000 255 0 0
-0.000373 0.304939 2.135000 255 0 0
0.005510 0.307081 2.150000 255 0 0
0.011496 0.309794 2.169000 255 0 0
0.017602 0.312792 2.190000 255 0 0
0.023813 0.315648 2.210000 255 0 0
0.030160 0.318788 2.232000 255 0 0
0.036644 0.322071 2.255000 255 0 0
0.042949 0.323068 2.262000 255 0 0
0.048967 0.321922 2.254000 255 0 0
0.054843 0.320205 2.242000 255 0 0
0.060680 0.318630 2.231000 255 0 0
0.066397 0.316769 2.218000 255 0 0
0.072108 0.315194 2.207000 255 0 0
0.077830 0.313903 2.198000 255 0 0
0.083692 0.313327 2.194000 255 0 0
0.089655 0.313178 2.193000 255 0 0
0.095787 0.313601 2.196000 255 0 0
0.101981 0.314165 2.200000 255 0 0
0.108147 0.314587 2.203000 255 0 0
0.114226 0.314722 2.204000 255 0 0
-0.107834 0.263415 2.299059 255 255 0
-0.093854 0.263225 2.295874 255 255 0
-0.085005 0.262204 2.289125 255 255 0
-0.086378 0.259495 2.275131 255 255 0
-0.086039 0.257065 2.262325 255 255 0
-0.072110 0.256902 2.259281 255 255 0
-0.044634 0.259030 2.266119 255 255 0
-0.011279 0.262183 2.277413 255 255 0
0.072362 0.269096 2.300493 255 255 0
-0.320297 0.168008 2.114665 0 255 0
-0.302932 0.166534 2.113381 0 255 0
-0.293192 0.166961 2.118134 0 255 0
-0.209196 0.197729 2.276566 0 255 0
-0.204506 0.199463 2.285438 0 255 0
-0.198949 0.201002 2.293707 0 255 0
-0.191657 0.202149 2.300775 0 255 0
-0.177425 0.201723 2.303021 0 255 0
-0.167510 0.202296 2.308346 0 255 0
-0.155849 0.202485 2.312510 0 255 0
-0.145909 0.203077 2.317919 0 255 0
-0.135958 0.203678 2.323368 0 255 0
-0.126865 0.204483 2.329448 0 255 0
-0.114279 0.204519 2.333202 0 255 0
-0.100805 0.204375 2.336423 0 255 0
-0.361905 0.293672 2.101000 255 0 0
-0.355850 0.293412 2.099000 255 0 0
-0.350306 0.293571 2.100000 255 0 0
-0.344263 0.293310 2.098000 255 0 0
-0.338230 0.293049 2.096000 255 0 0
-0.332525 0.293067 2.096000 255 0 0
-0.327130 0.293365 2.098000 255 0 0
-0.321724 0.293663 2.100000 255 0 0
-0.316456 0.294100 2.103000 255 0 0
-0.311318 0.294677 2.107000 255 0 0
-0.306448 0.295534 2.113000 255 0 0
-0.301687 0.296530 2.120000 255 0 0
-0.297584 0.298226 2.132000 255 0 0
-0.278581 0.302909 2.165000 255 0 0
-0.267890 0.297608 2.127000 255 0 0
-0.262951 0.298604 2.134000 255 0 0
-0.257611 0.299179 2.138000 255 0 0
-0.251424 0.298774 2.135000 255 0 0
-0.244563 0.297529 2.126000 255 0 0
-0.237188 0.295585 2.112000 255 0 0
-0.230656 0.294619 2.105000 255 0 0
-0.224268 0.293793 2.099000 255 0 0
-0.217913 0.292967 2.093000 255 0 0
-0.212096 0.292840 2.092000 255 0 0
-0.206382 0.292853 2.092000 255 0 0
-0.200476 0.292585 2.090000 255 0 0
-0.194394 0.292038 2.086000 255 0 0
-0.188424 0.291629 2.083000 255 0 0
-0.182732 0.291641 2.083000 255 0 0
-0.176785 0.291232 2.080000 255 0 0
-0.170772 0.290683 2.076000 255 0 0
-0.165177 0.290834 2.077000 255 0 0
-0.159422 0.290704 2.076000 255 0 0
-0.153673 0.290574 2.075000 255 0 0
-0.147857 0.290303 2.073000 255 0 0
-0.142326 0.290592 2.075000 255 0 0
-0.136586 0.290461 2.074000 255 0 0
-0.130724 0.290050 2.071000 255 0 0
-0.125060 0.290058 2.071000 255 0 0
-0.119453 0.290206 2.072000 255 0 0
-0.113894 0.290493 2.074000 255 0 0
-0.108116 0.290220 2.072000 255 0 0
-0.102398 0.290087 2.071000 255 0 0
-0.096685 0.289953 2.070000 255 0 0
-0.090933 0.289679 2.068000 255 0 0
-0.085356 0.289965 2.070000 255 0 0
-0.079730 0.290111 2.071000 255 0 0
-0.074169 0.290536 2.074000 255 0 0
-0.068526 0.290681 2.075000 255 0 0
-0.062937 0.291105 2.078000 255 0 0
-0.057332 0.291529 2.081000 255 0 0
-0.051686 0.291813 2.083000 255 0 0
-0.046006 0.291956 2.084000 255 0 0
-0.040359 0.292380 2.087000 255 0 0
-0.034663 0.292522 2.088000 255 0 0
-0.029002 0.293085 2.092000 255 0 0
-0.023320 0.293647 2.096000 255 0 0
-0.017665 0.295049 2.106000 255 0 0
-0.011956 0.296451 2.116000 255 0 0
-0.006189 0.297713 2.125000 255 0 0
-0.000373 0.298974 2.134000 255 0 0
0.005505 0.300935 2.148000 255 0 0
0.011481 0.303456 2.166000 255 0 0
0.017579 0.306397 2.187000 255 0 0
0.023815 0.309618 2.210000 255 0 0
0.030162 0.312699 2.232000 255 0 0
0.036630 0.315779 2.254000 255 0 0
0.043047 0.317597 2.267000 255 0 0
0.049101 0.316613 2.260000 255 0 0
0.055091 0.315489 2.252000 255 0 0
0.061038 0.314365 2.244000 255 0 0
0.066881 0.312960 2.234000 255 0 0
0.072701 0.311694 2.225000 255 0 0
0.078543 0.310709 2.218000 255 0 0
0.084537 0.310423 2.216000 255 0 0
0.090642 0.310558 2.217000 255 0 0
0.096796 0.310832 2.219000 255 0 0
0.103193 0.311806 2.226000 255 0 0
0.109480 0.312359 2.230000 255 0 0
0.115581 0.312352 2.230000 255 0 0
-0.116558 0.253322 2.307231 255 255 0
-0.104271 0.252870 2.302791 255 255 0
-0.085185 0.253570 2.303207 255 255 0
-0.078900 0.252138 2.294666 255 255 0
-0.080274 0.249417 2.280688 255 255 0
-0.075692 0.247699 2.270939 255 255 0
-0.060929 0.247718 2.268524 255 255 0
-0.038561 0.249054 2.271693 255 255 0
-0.006073 0.252156 2.282363 255 255 0
0.054494 0.257721 2.301109 255 255 0
0.068234 0.257684 2.298565 255 255 0
-0.318149 0.156899 2.114059 0 255 0
-0.305881 0.156658 2.116780 0 255 0
-0.285104 0.154312 2.112942 0 255 0
-0.213913 0.188134 2.281155 0 255 0
-0.213545 0.190869 2.293083 0 255 0
-0.207996 0.192396 2.301333 0 255 0
-0.198981 0.193124 2.307168 0 255 0
-0.184762 0.192662 2.309406 0 255 0
-0.173124 0.192812 2.313517 0 255 0
-0.159736 0.192575 2.316477 0 255 0
-0.152407 0.193740 2.323678 0 255 0
-0.142464 0.194318 2.329118 0 255 0
-0.135118 0.195496 2.336375 0 255 0
-0.125153 0.196090 2.341886 0 255 0
-0.109951 0.195517 2.343915 0 255 0
-0.097343 0.195546 2.347767 0 255 0
-0.361407 0.287538 2.098000 255 0 0
-0.356208 0.287968 2.101000 255 0 0
-0.350492 0.287986 2.101000 255 0 0
-0.344446 0.287731 2.099000 255 0 0
-0.338249 0.287338 2.096000 255 0 0
-0.332702 0.287493 2.097000 255 0 0
-0.327460 0.287922 2.100000 255 0 0
-0.322048 0.288214 2.102000 255 0 0
-0.316925 0.288780 2.106000 255 0 0
-0.311779 0.289346 2.110000 255 0 0
-0.306901 0.290186 2.116000 255 0 0
-0.301989 0.291026 2.122000 255 0 0
-0.298020 0.292826 2.135000 255 0 0
-0.267528 0.291398 2.124000 255 0 0
-0.263089 0.292923 2.135000 255 0 0
-0.257747 0.293487 2.139000 255 0 0
-0.251557 0.293090 2.136000 255 0 0
-0.244347 0.291458 2.124000 255 0 0
-0.237090 0.289689 2.111000 255 0 0
-0.230451 0.288605 2.103000 255 0 0
-0.224389 0.288207 2.100000 255 0 0
-0.218238 0.287671 2.096000 255 0 0
-0.212514 0.287684 2.096000 255 0 0
-0.206691 0.287559 2.095000 255 0 0
-0.200585 0.287023 2.091000 255 0 0
-0.194593 0.286623 2.088000 255 0 0
-0.188616 0.286223 2.085000 255 0 0
-0.182919 0.286234 2.085000 255 0 0
-0.176881 0.285696 2.081000 255 0 0
-0.170947 0.285295 2.078000 255 0 0
-0.165187 0.285168 2.077000 255 0 0
-0.159509 0.285178 2.077000 255 0 0
-0.153831 0.285188 2.077000 255 0 0
-0.148009 0.284923 2.075000 255 0 0
-0.142335 0.284932 2.075000 255 0 0
-0.136463 0.284529 2.072000 255 0 0
-0.130669 0.284262 2.070000 255 0 0
-0.125007 0.284271 2.070000 255 0 0
-0.119518 0.284690 2.073000 255 0 0
-0.113957 0.284972 2.075000 255 0 0
-0.108175 0.284705 2.073000 255 0 0
-0.102454 0.284574 2.072000 255 0 0
-0.096738 0.284443 2.071000 255 0 0
-0.091114 0.284586 2.072000 255 0 0
-0.085526 0.284867 2.074000 255 0 0
-0.079927 0.285147 2.076000 255 0 0
-0.074281 0.285289 2.077000 255 0 0
-0.068629 0.285431 2.078000 255 0 0
-0.062942 0.285435 2.078000 255 0 0
-0.057364 0.285989 2.082000 255 0 0
-0.051714 0.286267 2.084000 255 0 0
-0.046053 0.286545 2.086000 255 0 0
-0.040401 0.286960 2.089000 255 0 0
-0.034715 0.287237 2.091000 255 0 0
-0.029032 0.287651 2.094000 255 0 0
-0.023354 0.288339 2.099000 255 0 0
-0.017683 0.289577 2.108000 255 0 0
-0.011957 0.290677 2.116000 255 0 0
-0.006181 0.291502 2.122000 255 0 0
-0.000372 0.292326 2.128000 255 0 0
0.005492 0.294387 2.143000 255 0 0
0.011450 0.296721 2.160000 255 0 0
0.017557 0.300017 2.184000 255 0 0
0.023795 0.303313 2.208000 255 0 0
0.030205 0.307020 2.235000 255 0 0
0.036648 0.309765 2.255000 255 0 0
0.043126 0.311961 2.271000 255 0 0
0.049256 0.311408 2.267000 255 0 0
0.055364 0.310855 2.263000 255 0 0
0.061450 0.310302 2.259000 255 0 0
0.067364 0.309062 2.250000 255 0 0
0.073327 0.308233 2.244000 255 0 0
0.079469 0.308228 2.244000 255 0 0
0.085649 0.308360 2.245000 255 0 0
0.091875 0.308629 2.247000 255 0 0
0.097937 0.308349 2.245000 255 0 0
0.104173 0.308617 2.247000 255 0 0
0.110272 0.308473 2.246000 255 0 0
0.116262 0.308053 2.243000 255 0 0
-0.113327 0.245210 2.323750 255 255 0
-0.105308 0.244060 2.316318 255 255 0
-0.097299 0.242915 2.308911 255 255 0
