ply
format ascii 1.0
element vertex 1309
property double x
property double y
property double z
property uchar red
property uchar green
property uchar blue
end_header
-0.117721 0.042092 2.140000 255 0 0
-0.111700 0.042034 2.137000 255 0 0
-0.105893 0.042055 2.138000 255 0 0
-0.100127 0.042095 2.140000 255 0 0
-0.094306 0.042116 2.141000 255 0 0
-0.088354 0.042078 2.139000 255 0 0
-0.082452 0.042059 2.138000 255 0 0
-0.076663 0.042099 2.140000 255 0 0
-0.070862 0.042139 2.142000 255 0 0
-0.064959 0.042120 2.141000 255 0 0
-0.059061 0.042101 2.140000 255 0 0
-0.053193 0.042102 2.140000 255 0 0
-0.047391 0.042161 2.143000 255 0 0
-0.041573 0.042221 2.146000 255 0 0
-0.035721 0.042261 2.148000 255 0 0
-0.029858 0.042300 2.150000 255 0 0
-0.023951 0.042281 2.149000 255 0 0
-0.018066 0.042301 2.150000 255 0 0
-0.012181 0.042340 2.152000 255 0 0
-0.006285 0.042380 2.154000 255 0 0
-0.000378 0.042380 2.154000 255 0 0
0.005535 0.042419 2.156000 255 0 0
0.011469 0.042498 2.160000 255 0 0
0.017425 0.042576 2.164000 255 0 0
0.023425 0.042694 2.170000 255 0 0
0.029430 0.042772 2.174000 255 0 0
0.035440 0.042831 2.177000 255 0 0
0.041448 0.042870 2.179000 255 0 0
0.047489 0.042929 2.182000 255 0 0
0.053521 0.042968 2.184000 255 0 0
0.059537 0.042987 2.185000 255 0 0
0.065618 0.043045 2.188000 255 0 0
0.072010 0.043280 2.200000 255 0 0
0.106390 0.045066 2.291000 255 0 0
0.112374 0.044947 2.285000 255 0 0
0.118480 0.044887 2.282000 255 0 0
0.124624 0.044846 2.280000 255 0 0
0.130872 0.044845 2.280000 255 0 0
0.137179 0.044863 2.281000 255 0 0
0.143302 0.044822 2.279000 255 0 0
0.148560 0.044526 2.264000 255 0 0
0.153121 0.044052 2.240000 255 0 0
-0.170278 -0.244803 2.421086 255 255 0
-0.101002 -0.248180 2.361340 255 255 0
-0.082193 -0.245420 2.361034 255 255 0
-0.058429 -0.241095 2.364276 255 255 0
-0.038860 -0.238042 2.364748 255 255 0
-0.027180 -0.240449 2.346715 255 255 0
-0.025073 -0.242819 2.335082 255 255 0
-0.013865 -0.242325 2.329914 255 255 0
0.008892 -0.238172 2.333069 255 255 0
0.027482 -0.235304 2.333372 255 255 0
-0.262087 -0.271082 2.394951 0 255 0
-0.286871 -0.258594 2.424179 0 255 0
-0.241800 -0.272128 2.405564 0 255 0
-0.237118 -0.270606 2.414651 0 255 0
-0.229901 -0.270018 2.422039 0 255 0
-0.199033 -0.278146 2.413582 0 255 0
-0.213756 -0.269448 2.435761 0 255 0
-0.199749 -0.271326 2.438734 0 255 0
-0.180642 -0.275050 2.438418 0 255 0
-0.164897 -0.277517 2.440425 0 255 0
-0.168638 -0.272864 2.455251 0 255 0
-0.183426 -0.264212 2.477205 0 255 0
-0.144718 -0.274971 2.464468 0 255 0
-0.105947 -0.285686 2.451943 0 255 0
-0.360102 0.035822 2.121000 255 0 0
-0.348479 0.035234 2.086000 255 0 0
-0.343455 0.035304 2.090000 255 0 0
-0.338085 0.035340 2.092000 255 0 0
-0.331908 0.035292 2.089000 255 0 0
-0.325434 0.035210 2.084000 255 0 0
-0.319754 0.035213 2.084000 255 0 0
-0.314374 0.035249 2.086000 255 0 0
-0.309869 0.035387 2.094000 255 0 0
-0.306918 0.035710 2.113000 255 0 0
-0.288172 0.037803 2.236000 255 0 0
-0.279291 0.037434 2.214000 255 0 0
-0.272751 0.037368 2.210000 255 0 0
-0.266231 0.037303 2.206000 255 0 0
-0.259496 0.037204 2.200000 255 0 0
-0.252909 0.037121 2.195000 255 0 0
-0.246685 0.037089 2.193000 255 0 0
-0.240581 0.037074 2.192000 255 0 0
-0.234482 0.037060 2.191000 255 0 0
-0.227865 0.036960 2.185000 255 0 0
-0.221281 0.036860 2.179000 255 0 0
-0.215025 0.036811 2.176000 255 0 0
-0.209073 0.036813 2.176000 255 0 0
-0.202840 0.036764 2.173000 255 0 0
-0.196623 0.036715 2.170000 255 0 0
-0.190157 0.036615 2.164000 255 0 0
-0.183979 0.036566 2.161000 255 0 0
-0.177817 0.036517 2.158000 255 0 0
-0.171830 0.036502 2.157000 255 0 0
-0.165617 0.036435 2.153000 255 0 0
-0.159499 0.036386 2.150000 255 0 0
-0.153397 0.036337 2.147000 255 0 0
-0.147517 0.036338 2.147000 255 0 0
-0.141504 0.036305 2.145000 255 0 0
-0.135439 0.036256 2.142000 255 0 0
-0.129449 0.036223 2.140000 255 0 0
-0.123586 0.036224 2.140000 255 0 0
-0.117612 0.036191 2.138000 255 0 0
-0.111649 0.036158 2.136000 255 0 0
-0.105746 0.036142 2.135000 255 0 0
-0.099941 0.036160 2.136000 255 0 0
-0.094131 0.036178 2.137000 255 0 0
-0.088231 0.036162 2.136000 255 0 0
-0.082376 0.036163 2.136000 255 0 0
-0.076556 0.036180 2.137000 255 0 0
-0.070796 0.036232 2.140000 255 0 0
-0.064929 0.036232 2.140000 255 0 0
-0.059061 0.036233 2.140000 255 0 0
-0.053169 0.036217 2.139000 255 0 0
-0.047392 0.036285 2.143000 255 0 0
-0.041593 0.036353 2.147000 255 0 0
-0.035771 0.036421 2.151000 255 0 0
-0.029873 0.036421 2.151000 255 0 0
-0.023940 0.036371 2.148000 255 0 0
-0.018049 0.036371 2.148000 255 0 0
-0.012175 0.036422 2.151000 255 0 0
-0.006288 0.036490 2.155000 255 0 0
-0.000378 0.036507 2.156000 255 0 0
0.005545 0.036574 2.160000 255 0 0
0.011485 0.036625 2.163000 255 0 0
0.017417 0.036625 2.163000 255 0 0
0.023371 0.036659 2.165000 255 0 0
0.029389 0.036760 2.171000 255 0 0
0.035392 0.036810 2.174000 255 0 0
0.041392 0.036844 2.176000 255 0 0
0.047381 0.036860 2.177000 255 0 0
0.053571 0.037012 2.186000 255 0 0
0.059592 0.037029 2.187000 255 0 0
0.065709 0.037096 2.191000 255 0 0
0.071912 0.037197 2.197000 255 0 0
0.106159 0.038700 2.286000 255 0 0
0.112178 0.038614 2.281000 255 0 0
0.118325 0.038579 2.279000 255 0 0
0.124516 0.038561 2.278000 255 0 0
0.130758 0.038560 2.278000 255 0 0
0.137180 0.038610 2.281000 255 0 0
0.143177 0.038541 2.277000 255 0 0
0.148234 0.038235 2.259000 255 0 0
0.153533 0.038014 2.246000 255 0 0
-0.171725 -0.257048 2.421542 255 255 0
-0.097443 -0.258751 2.365109 255 255 0
-0.070325 -0.253339 2.370528 255 255 0
-0.045751 -0.248684 2.374360 255 255 0
-0.046128 -0.251845 2.360979 255 255 0
-0.043179 -0.253963 2.349895 255 255 0
-0.047685 -0.258441 2.333560 255 255 0
-0.034795 -0.257414 2.329471 255 255 0
-0.012833 -0.253483 2.331908 255 255 0
0.013217 -0.248215 2.337409 255 255 0
-0.239389 -0.287487 2.392948 0 255 0
-0.235544 -0.285651 2.402629 0 255 0
-0.227485 -0.285389 2.409458 0 255 0
-0.234595 -0.279459 2.426551 0 255 0
-0.233284 -0.276682 2.437922 0 255 0
-0.226907 -0.275789 2.445901 0 255 0
-0.206999 -0.279900 2.444924 0 255 0
-0.189600 -0.283052 2.445723 0 255 0
-0.189960 -0.279635 2.458283 0 255 0
-0.198802 -0.273108 2.476354 0 255 0
-0.183911 -0.275300 2.478932 0 255 0
-0.162206 -0.279961 2.477194 0 255 0
-0.347814 0.029471 2.082000 255 0 0
-0.342965 0.029543 2.087000 255 0 0
-0.337602 0.029574 2.089000 255 0 0
-0.331593 0.029548 2.087000 255 0 0
-0.325124 0.029479 2.082000 255 0 0
-0.319449 0.029481 2.082000 255 0 0
-0.314225 0.029526 2.085000 255 0 0
-0.309872 0.029655 2.094000 255 0 0
-0.306485 0.029884 2.110000 255 0 0
-0.280050 0.031456 2.220000 255 0 0
-0.273617 0.031415 2.217000 255 0 0
-0.267319 0.031389 2.215000 255 0 0
-0.260206 0.031263 2.206000 255 0 0
-0.253372 0.031166 2.199000 255 0 0
-0.247137 0.031139 2.197000 255 0 0
-0.241022 0.031126 2.196000 255 0 0
-0.234805 0.031100 2.194000 255 0 0
-0.228076 0.031002 2.187000 255 0 0
-0.221384 0.030905 2.180000 255 0 0
-0.215126 0.030864 2.177000 255 0 0
-0.209267 0.030879 2.178000 255 0 0
-0.203122 0.030852 2.176000 255 0 0
-0.196805 0.030797 2.172000 255 0 0
-0.190247 0.030699 2.165000 255 0 0
-0.184151 0.030672 2.163000 255 0 0
-0.177983 0.030631 2.160000 255 0 0
-0.172070 0.030632 2.160000 255 0 0
-0.165772 0.030562 2.155000 255 0 0
-0.159723 0.030535 2.153000 255 0 0
-0.153612 0.030494 2.150000 255 0 0
-0.147655 0.030481 2.149000 255 0 0
-0.141505 0.030425 2.145000 255 0 0
-0.135566 0.030412 2.144000 255 0 0
-0.129511 0.030370 2.141000 255 0 0
-0.123645 0.030371 2.141000 255 0 0
-0.117668 0.030344 2.139000 255 0 0
-0.111754 0.030330 2.138000 255 0 0
-0.105846 0.030317 2.137000 255 0 0
-0.100082 0.030346 2.139000 255 0 0
-0.094175 0.030333 2.138000 255 0 0
-0.088273 0.030319 2.137000 255 0 0
-0.082377 0.030306 2.136000 255 0 0
-0.076664 0.030363 2.140000 255 0 0
-0.070863 0.030392 2.142000 255 0 0
-0.064990 0.030392 2.142000 255 0 0
-0.059062 0.030365 2.140000 255 0 0
-0.053194 0.030365 2.140000 255 0 0
-0.047392 0.030408 2.143000 255 0 0
-0.041593 0.030465 2.147000 255 0 0
-0.035772 0.030522 2.151000 255 0 0
-0.029873 0.030522 2.151000 255 0 0
-0.023952 0.030494 2.149000 255 0 0
-0.018041 0.030466 2.147000 255 0 0
-0.012176 0.030523 2.151000 255 0 0
-0.006285 0.030565 2.154000 255 0 0
-0.000378 0.030594 2.156000 255 0 0
0.005538 0.030608 2.157000 255 0 0
0.011475 0.030665 2.161000 255 0 0
0.017377 0.030622 2.158000 255 0 0
0.023339 0.030679 2.162000 255 0 0
0.029336 0.030749 2.167000 255 0 0
0.035360 0.030820 2.172000 255 0 0
0.041373 0.030862 2.175000 255 0 0
0.047359 0.030876 2.176000 255 0 0
0.053547 0.031004 2.185000 255 0 0
0.059647 0.031060 2.189000 255 0 0
0.065859 0.031159 2.196000 255 0 0
0.072011 0.031215 2.200000 255 0 0
0.078397 0.031356 2.210000 255 0 0
0.099937 0.032447 2.287000 255 0 0
0.105927 0.032361 2.281000 255 0 0
0.112031 0.032318 2.278000 255 0 0
0.118171 0.032288 2.276000 255 0 0
0.124462 0.032302 2.277000 255 0 0
0.130759 0.032315 2.278000 255 0 0
0.137301 0.032385 2.283000 255 0 0
0.143241 0.032313 2.278000 255 0 0
0.148497 0.032099 2.263000 255 0 0
-0.163740 -0.257156 2.467904 255 255 0
-0.176714 -0.264213 2.446289 255 255 0
-0.180724 -0.271644 2.417057 255 255 0
-0.088892 -0.267737 2.372297 255 255 0
-0.065120 -0.263299 2.375428 255 255 0
-0.044714 -0.259893 2.376380 255 255 0
-0.043429 -0.262539 2.364154 255 255 0
-0.038823 -0.264130 2.354233 255 255 0
-0.035048 -0.265984 2.343735 255 255 0
-0.020521 -0.264391 2.340843 255 255 0
-0.000235 -0.260926 2.342128 255 255 0
0.035696 -0.252387 2.354724 255 255 0
0.047648 -0.251544 2.350334 255 255 0
-0.242394 -0.297557 2.396332 0 255 0
-0.238550 -0.295724 2.406011 0 255 0
-0.222433 -0.295229 2.419702 0 255 0
-0.233758 -0.287689 2.439595 0 255 0
-0.211345 -0.292811 2.436888 0 255 0
-0.221002 -0.285917 2.455589 0 255 0
-0.222225 -0.282190 2.468634 0 255 0
-0.218379 -0.280355 2.478323 0 255 0
-0.211142 -0.279775 2.485806 0 255 0
-0.195420 -0.282325 2.487813 0 255 0
-0.149470 -0.292686 2.482789 0 255 0
-0.348150 0.023798 2.084000 255 0 0
-0.342802 0.023822 2.086000 255 0 0
-0.337119 0.023824 2.086000 255 0 0
-0.331277 0.023814 2.085000 255 0 0
-0.324970 0.023770 2.081000 255 0 0
-0.319758 0.023806 2.084000 255 0 0
-0.314227 0.023819 2.085000 255 0 0
-0.309725 0.023912 2.093000 255 0 0
-0.305470 0.024028 2.103000 255 0 0
-0.303866 0.024361 2.132000 255 0 0
-0.280809 0.025445 2.226000 255 0 0
-0.273248 0.025309 2.214000 255 0 0
-0.267079 0.025299 2.213000 255 0 0
-0.260444 0.025244 2.208000 255 0 0
-0.254065 0.025211 2.205000 255 0 0
-0.247701 0.025178 2.202000 255 0 0
-0.241572 0.025168 2.201000 255 0 0
-0.235020 0.025112 2.196000 255 0 0
-0.228286 0.025033 2.189000 255 0 0
-0.221792 0.024977 2.184000 255 0 0
-0.215621 0.024956 2.182000 255 0 0
-0.209652 0.024957 2.182000 255 0 0
-0.203310 0.024912 2.178000 255 0 0
-0.196807 0.024845 2.172000 255 0 0
-0.190160 0.024755 2.164000 255 0 0
-0.184152 0.024744 2.163000 255 0 0
-0.178067 0.024722 2.161000 255 0 0
-0.171992 0.024700 2.159000 255 0 0
-0.165696 0.024644 2.154000 255 0 0
-0.159798 0.024645 2.154000 255 0 0
-0.153899 0.024646 2.154000 255 0 0
-0.147931 0.024636 2.153000 255 0 0
-0.141836 0.024602 2.150000 255 0 0
-0.135757 0.024569 2.147000 255 0 0
-0.129693 0.024535 2.144000 255 0 0
-0.123703 0.024513 2.142000 255 0 0
-0.117724 0.024491 2.140000 255 0 0
-0.111808 0.024480 2.139000 255 0 0
-0.105945 0.024481 2.139000 255 0 0
-0.100130 0.024493 2.140000 255 0 0
-0.094176 0.024470 2.138000 255 0 0
-0.088274 0.024459 2.137000 255 0 0
-0.082454 0.024471 2.138000 255 0 0
-0.076700 0.024506 2.141000 255 0 0
-0.070831 0.024507 2.141000 255 0 0
-0.065021 0.024530 2.143000 255 0 0
-0.059145 0.024530 2.143000 255 0 0
-0.053294 0.024542 2.144000 255 0 0
-0.047481 0.024577 2.147000 255 0 0
-0.041671 0.024623 2.151000 255 0 0
-0.035789 0.024635 2.152000 255 0 0
-0.029818 0.024578 2.147000 255 0 0
-0.023863 0.024509 2.141000 255 0 0
-0.017966 0.024475 2.138000 255 0 0
-0.012130 0.024532 2.143000 255 0 0
-0.006273 0.024612 2.150000 255 0 0
-0.000377 0.024635 2.152000 255 0 0
0.005527 0.024647 2.153000 255 0 0
0.011448 0.024681 2.156000 255 0 0
0.017385 0.024715 2.159000 255 0 0
0.023339 0.024749 2.162000 255 0 0
0.029336 0.024806 2.167000 255 0 0
0.035360 0.024864 2.172000 255 0 0
0.041354 0.024886 2.174000 255 0 0
0.047338 0.024897 2.175000 255 0 0
0.053474 0.024977 2.182000 255 0 0
0.059566 0.025023 2.186000 255 0 0
0.065710 0.025080 2.191000 255 0 0
0.071815 0.025113 2.194000 255 0 0
0.078185 0.025227 2.204000 255 0 0
0.085374 0.025570 2.234000 255 0 0
0.093259 0.026062 2.277000 255 0 0
0.099676 0.026107 2.281000 255 0 0
0.105789 0.026072 2.278000 255 0 0
0.112032 0.026072 2.278000 255 0 0
0.118171 0.026048 2.276000 255 0 0
0.124463 0.026059 2.277000 255 0 0
0.130760 0.026069 2.278000 255 0 0
0.137242 0.026114 2.282000 255 0 0
0.143305 0.026079 2.279000 255 0 0
0.149089 0.025998 2.272000 255 0 0
-0.191141 -0.268090 2.491506 255 255 0
-0.193827 -0.278225 2.449971 255 255 0
-0.197507 -0.282482 2.434258 255 255 0
-0.202011 -0.287007 2.417955 255 255 0
-0.077853 -0.275885 2.381182 255 255 0
-0.065737 -0.275097 2.376321 255 255 0
-0.050318 -0.273236 2.373808 255 255 0
-0.044048 -0.274294 2.365022 255 255 0
-0.026186 -0.271611 2.364361 255 255 0
-0.016630 -0.271587 2.357969 255 255 0
0.001180 -0.268879 2.357456 255 255 0
0.010701 -0.268838 2.351160 255 255 0
0.035882 -0.263685 2.356097 255 255 0
0.033001 -0.267660 2.341043 255 255 0
-0.221883 -0.316619 2.383620 0 255 0
-0.199851 -0.318376 2.393434 0 255 0
-0.227131 -0.304691 2.424221 0 255 0
-0.217379 -0.305090 2.429978 0 255 0
-0.207615 -0.305480 2.435775 0 255 0
-0.220636 -0.297272 2.456720 0 255 0
-0.229002 -0.287575 2.486677 0 255 0
-0.211617 -0.290813 2.487514 0 255 0
-0.189970 -0.295613 2.485691 0 255 0
-0.169139 -0.300073 2.484526 0 255 0
-0.149974 -0.303882 2.484556 0 255 0
-0.134179 -0.306412 2.486850 0 255 0
-0.347316 0.018053 2.079000 255 0 0
-0.342311 0.018089 2.083000 255 0 0
-0.336959 0.018108 2.085000 255 0 0
-0.331119 0.018100 2.084000 255 0 0
-0.325128 0.018084 2.082000 255 0 0
-0.319452 0.018085 2.082000 255 0 0
-0.313927 0.018095 2.083000 255 0 0
-0.308987 0.018140 2.088000 255 0 0
-0.304745 0.018228 2.098000 255 0 0
-0.301872 0.018403 2.118000 255 0 0
-0.280936 0.019358 2.227000 255 0 0
-0.273249 0.019246 2.214000 255 0 0
-0.266477 0.019195 2.208000 255 0 0
-0.260209 0.019179 2.206000 255 0 0
-0.253605 0.019136 2.201000 255 0 0
-0.247365 0.019120 2.199000 255 0 0
-0.241464 0.019130 2.200000 255 0 0
-0.234914 0.019087 2.195000 255 0 0
-0.228391 0.019045 2.190000 255 0 0
-0.222199 0.019028 2.188000 255 0 0
-0.216610 0.019064 2.192000 255 0 0
-0.210518 0.019056 2.191000 255 0 0
-0.204057 0.019014 2.186000 255 0 0
-0.196989 0.018910 2.174000 255 0 0
-0.190688 0.018876 2.170000 255 0 0
-0.184494 0.018851 2.167000 255 0 0
-0.178480 0.018843 2.166000 255 0 0
-0.172152 0.018800 2.161000 255 0 0
-0.165928 0.018766 2.157000 255 0 0
-0.159947 0.018758 2.156000 255 0 0
-0.154043 0.018759 2.156000 255 0 0
-0.147863 0.018725 2.152000 255 0 0
-0.141837 0.018708 2.150000 255 0 0
-0.135694 0.018674 2.146000 255 0 0
-0.129754 0.018666 2.145000 255 0 0
-0.123877 0.018666 2.145000 255 0 0
-0.117945 0.018658 2.144000 255 0 0
-0.112017 0.018650 2.143000 255 0 0
-0.106095 0.018642 2.142000 255 0 0
-0.100317 0.018660 2.144000 255 0 0
-0.094353 0.018643 2.142000 255 0 0
-0.088440 0.018634 2.141000 255 0 0
-0.082609 0.018644 2.142000 255 0 0
-0.076952 0.018696 2.148000 255 0 0
-0.071029 0.018688 2.147000 255 0 0
-0.065203 0.018705 2.149000 255 0 0
-0.059228 0.018680 2.146000 255 0 0
-0.053443 0.018715 2.150000 255 0 0
-0.047570 0.018724 2.151000 255 0 0
-0.041652 0.018715 2.150000 255 0 0
-0.035722 0.018698 2.148000 255 0 0
-0.029748 0.018646 2.142000 255 0 0
-0.023840 0.018620 2.139000 255 0 0
-0.017949 0.018594 2.136000 255 0 0
-0.012113 0.018629 2.140000 255 0 0
-0.006262 0.018681 2.146000 255 0 0
-0.000377 0.018725 2.151000 255 0 0
0.005533 0.018759 2.155000 255 0 0
0.011454 0.018777 2.157000 255 0 0
0.017393 0.018803 2.160000 255 0 0
0.023361 0.018838 2.164000 255 0 0
0.029349 0.018872 2.168000 255 0 0
0.035344 0.018898 2.171000 255 0 0
0.041298 0.018898 2.171000 255 0 0
0.047273 0.018906 2.172000 255 0 0
0.053376 0.018958 2.178000 255 0 0
0.059539 0.019019 2.185000 255 0 0
0.065680 0.019062 2.190000 255 0 0
0.071750 0.019079 2.192000 255 0 0
0.078008 0.019140 2.199000 255 0 0
0.085642 0.019505 2.241000 255 0 0
0.092441 0.019644 2.257000 255 0 0
0.099807 0.019879 2.284000 255 0 0
0.105975 0.019861 2.282000 255 0 0
0.112180 0.019852 2.281000 255 0 0
0.118276 0.019825 2.278000 255 0 0
0.124464 0.019816 2.277000 255 0 0
0.130761 0.019824 2.278000 255 0 0
0.137183 0.019849 2.281000 255 0 0
0.143369 0.019840 2.280000 255 0 0
0.149024 0.019761 2.271000 255 0 0
-0.169326 -0.276249 2.493578 255 255 0
-0.191062 -0.289239 2.453187 255 255 0
-0.092602 -0.292277 2.372427 255 255 0
-0.082965 -0.292276 2.365796 255 255 0
-0.068362 -0.290656 2.362642 255 255 0
-0.052954 -0.288755 2.360132 255 255 0
-0.021841 -0.281720 2.368687 255 255 0
0.003424 -0.276546 2.373340 255 255 0
0.017902 -0.274864 2.370537 255 255 0
0.007597 -0.281297 2.350213 255 255 0
0.022879 -0.279334 2.348054 255 255 0
0.038958 -0.277087 2.346558 255 255 0
-0.204756 -0.334525 2.373241 0 255 0
-0.209277 -0.329438 2.388765 0 255 0
-0.201200 -0.329204 2.395706 0 255 0
-0.220395 -0.315202 2.433363 0 255 0
-0.215695 -0.313687 2.442532 0 255 0
-0.223648 -0.307359 2.460093 0 255 0
-0.219798 -0.305527 2.469800 0 255 0
-0.219328 -0.302416 2.481726 0 255 0
-0.188406 -0.310796 2.473791 0 255 0
-0.181143 -0.310221 2.481387 0 255 0
-0.170484 -0.310913 2.486825 0 255 0
-0.161507 -0.310960 2.493394 0 255 0
-0.147426 -0.312902 2.496752 0 255 0
-0.346482 0.012335 2.074000 255 0 0
-0.341819 0.012372 2.080000 255 0 0
-0.336799 0.012397 2.084000 255 0 0
-0.330962 0.012392 2.083000 255 0 0
-0.324816 0.012375 2.080000 255 0 0
-0.319300 0.012382 2.081000 255 0 0
-0.313627 0.012382 2.081000 255 0 0
-0.308840 0.012419 2.087000 255 0 0
-0.304165 0.012461 2.094000 255 0 0
-0.300448 0.012546 2.108000 255 0 0
-0.298611 0.012713 2.136000 255 0 0
-0.280180 0.013223 2.221000 255 0 0
-0.272386 0.013141 2.207000 255 0 0
-0.265633 0.013106 2.201000 255 0 0
-0.259502 0.013100 2.200000 255 0 0
-0.252684 0.013060 2.193000 255 0 0
-0.246691 0.013060 2.193000 255 0 0
-0.240806 0.013067 2.194000 255 0 0
-0.234701 0.013062 2.193000 255 0 0
-0.228288 0.013039 2.189000 255 0 0
-0.221997 0.013021 2.186000 255 0 0
-0.216216 0.013034 2.188000 255 0 0
-0.210039 0.013023 2.186000 255 0 0
-0.203871 0.013011 2.184000 255 0 0
-0.197171 0.012964 2.176000 255 0 0
-0.190952 0.012947 2.173000 255 0 0
-0.184494 0.012912 2.167000 255 0 0
-0.178480 0.012906 2.166000 255 0 0
-0.172073 0.012871 2.160000 255 0 0
-0.165928 0.012854 2.157000 255 0 0
-0.159873 0.012842 2.155000 255 0 0
-0.154115 0.012855 2.157000 255 0 0
-0.147795 0.012819 2.151000 255 0 0
-0.141837 0.012814 2.150000 255 0 0
-0.135821 0.012802 2.148000 255 0 0
-0.130118 0.012821 2.151000 255 0 0
-0.124167 0.012815 2.150000 255 0 0
-0.118220 0.012810 2.149000 255 0 0
-0.112122 0.012786 2.145000 255 0 0
-0.106095 0.012769 2.142000 255 0 0
-0.100177 0.012763 2.141000 255 0 0
-0.094309 0.012763 2.141000 255 0 0
-0.088399 0.012758 2.140000 255 0 0
-0.082532 0.012758 2.140000 255 0 0
-0.076737 0.012770 2.142000 255 0 0
-0.070897 0.012776 2.143000 255 0 0
-0.065143 0.012800 2.147000 255 0 0
-0.059256 0.012800 2.147000 255 0 0
-0.053394 0.012807 2.148000 255 0 0
-0.047526 0.012813 2.149000 255 0 0
-0.041632 0.012813 2.149000 255 0 0
-0.035689 0.012795 2.146000 255 0 0
-0.029734 0.012765 2.141000 255 0 0
-0.023829 0.012748 2.138000 255 0 0
-0.017949 0.012736 2.136000 255 0 0
-0.012108 0.012754 2.139000 255 0 0
-0.006265 0.012801 2.147000 255 0 0
-0.000377 0.012825 2.151000 255 0 0
0.005533 0.012849 2.155000 255 0 0
0.011459 0.012867 2.158000 255 0 0
0.017410 0.012891 2.162000 255 0 0
0.023371 0.012909 2.165000 255 0 0
0.029322 0.012914 2.166000 255 0 0
0.035295 0.012926 2.168000 255 0 0
0.041279 0.012938 2.170000 255 0 0
0.047295 0.012956 2.173000 255 0 0
0.053376 0.012985 2.178000 255 0 0
0.059539 0.013027 2.185000 255 0 0
0.065590 0.013039 2.187000 255 0 0
0.071652 0.013050 2.189000 255 0 0
0.077831 0.013080 2.194000 255 0 0
0.085719 0.013372 2.243000 255 0 0
0.093506 0.013610 2.283000 255 0 0
0.099720 0.013604 2.282000 255 0 0
0.105929 0.013598 2.281000 255 0 0
0.112230 0.013603 2.282000 255 0 0
0.118328 0.013585 2.279000 255 0 0
0.124410 0.013567 2.276000 255 0 0
0.130589 0.013560 2.275000 255 0 0
0.137063 0.013584 2.279000 255 0 0
0.143306 0.013583 2.279000 255 0 0
0.148828 0.013517 2.268000 255 0 0
0.155777 0.013057 2.191000 255 0 0
-0.169104 -0.287963 2.495162 255 255 0
-0.165245 -0.289857 2.484428 255 255 0
-0.097862 -0.302570 2.383428 255 255 0
-0.089880 -0.303095 2.375627 255 255 0
-0.085228 -0.304699 2.365570 255 255 0
-0.062334 -0.300334 2.368126 255 255 0
-0.046937 -0.298394 2.365619 255 255 0
-0.036530 -0.298074 2.359715 255 255 0
-0.011259 -0.292839 2.364301 255 255 0
0.012313 -0.288128 2.367853 255 255 0
0.008623 -0.292421 2.352201 255 255 0
0.023075 -0.290695 2.349444 255 255 0
0.038326 -0.288682 2.347342 255 255 0
-0.280650 -0.303253 2.475049 0 255 0
-0.244829 -0.313762 2.463298 0 255 0
-0.230875 -0.315824 2.466257 0 255 0
-0.221123 -0.316258 2.472059 0 255 0
-0.197842 -0.321840 2.469051 0 255 0
-0.195664 -0.319353 2.479930 0 255 0
-0.179946 -0.322006 2.482034 0 255 0
-0.187075 -0.315986 2.498943 0 255 0
-0.146237 -0.324757 2.497451 0 255 0
-0.343475 0.006604 2.056000 255 0 0
-0.340669 0.006659 2.073000 255 0 0
-0.336153 0.006682 2.080000 255 0 0
-0.330644 0.006685 2.081000 255 0 0
-0.324505 0.006676 2.078000 255 0 0
-0.318840 0.006677 2.078000 255 0 0
-0.313326 0.006680 2.079000 255 0 0
-0.308397 0.006697 2.084000 255 0 0
-0.303439 0.006713 2.089000 255 0 0
-0.298881 0.006740 2.097000 255 0 0
-0.295117 0.006785 2.111000 255 0 0
-0.272881 0.007109 2.211000 255 0 0
-0.266117 0.007090 2.205000 255 0 0
-0.260093 0.007091 2.205000 255 0 0
-0.253146 0.007065 2.197000 255 0 0
-0.247029 0.007062 2.196000 255 0 0
-0.241026 0.007063 2.196000 255 0 0
-0.234916 0.007060 2.195000 255 0 0
-0.228393 0.007044 2.190000 255 0 0
-0.222201 0.007038 2.188000 255 0 0
-0.216315 0.007042 2.189000 255 0 0
-0.209847 0.007026 2.184000 255 0 0
-0.203779 0.007023 2.183000 255 0 0
-0.197171 0.007001 2.176000 255 0 0
-0.191480 0.007011 2.179000 255 0 0
-0.184750 0.006982 2.170000 255 0 0
-0.178810 0.006983 2.170000 255 0 0
-0.172312 0.006960 2.163000 255 0 0
-0.166236 0.006954 2.161000 255 0 0
-0.160022 0.006942 2.157000 255 0 0
-0.153972 0.006935 2.155000 255 0 0
-0.147589 0.006913 2.148000 255 0 0
-0.141640 0.006910 2.147000 255 0 0
-0.135695 0.006907 2.146000 255 0 0
-0.129997 0.006917 2.149000 255 0 0
-0.124109 0.006917 2.149000 255 0 0
-0.118056 0.006908 2.146000 255 0 0
-0.112018 0.006898 2.143000 255 0 0
-0.106046 0.006892 2.141000 255 0 0
-0.100224 0.006895 2.142000 255 0 0
-0.094441 0.006902 2.144000 255 0 0
-0.088482 0.006896 2.142000 255 0 0
-0.082571 0.006893 2.141000 255 0 0
-0.076701 0.006893 2.141000 255 0 0
-0.070865 0.006896 2.142000 255 0 0
-0.065083 0.006906 2.145000 255 0 0
-0.059201 0.006906 2.145000 255 0 0
-0.053369 0.006913 2.147000 255 0 0
-0.047437 0.006906 2.145000 255 0 0
-0.041574 0.006910 2.146000 255 0 0
-0.035639 0.006900 2.143000 255 0 0
-0.029735 0.006894 2.141000 255 0 0
-0.023818 0.006881 2.137000 255 0 0
-0.017957 0.006881 2.137000 255 0 0
-0.012125 0.006897 2.142000 255 0 0
-0.006273 0.006923 2.150000 255 0 0
-0.000378 0.006936 2.154000 255 0 0
0.005538 0.006945 2.157000 255 0 0
0.011459 0.006948 2.158000 255 0 0
0.017418 0.006964 2.163000 255 0 0
0.023371 0.006971 2.165000 255 0 0
0.029309 0.006971 2.165000 255 0 0
0.035263 0.006974 2.166000 255 0 0
0.041279 0.006987 2.170000 255 0 0
0.047338 0.007003 2.175000 255 0 0
0.053499 0.007028 2.183000 255 0 0
0.059648 0.007048 2.189000 255 0 0
0.065890 0.007073 2.197000 255 0 0
0.072078 0.007089 2.202000 255 0 0
0.078328 0.007109 2.208000 255 0 0
0.093260 0.007330 2.277000 255 0 0
0.099590 0.007337 2.279000 255 0 0
0.105883 0.007340 2.280000 255 0 0
0.112132 0.007340 2.280000 255 0 0
0.118277 0.007333 2.278000 255 0 0
0.124355 0.007323 2.275000 255 0 0
0.130474 0.007316 2.273000 255 0 0
0.137003 0.007332 2.278000 255 0 0
0.143433 0.007342 2.281000 255 0 0
0.149222 0.007319 2.274000 255 0 0
0.152511 0.007180 2.231000 255 0 0
-0.182019 -0.300728 2.501634 255 255 0
-0.179832 -0.303162 2.489796 255 255 0
-0.163337 -0.301045 2.487084 255 255 0
-0.102942 -0.319096 2.368044 255 255 0
-0.061764 -0.308672 2.383019 255 255 0
-0.032645 -0.305262 2.376850 255 255 0
-0.047894 -0.313432 2.353078 255 255 0
-0.030056 -0.310613 2.352388 255 255 0
0.005906 -0.301714 2.364599 255 255 0
0.006351 -0.304654 2.351853 255 255 0
-0.000965 -0.313313 2.320402 255 255 0
-0.255867 -0.323969 2.459821 0 255 0
-0.252423 -0.318718 2.481889 0 255 0
-0.227509 -0.325042 2.477650 0 255 0
-0.209311 -0.328739 2.477961 0 255 0
-0.189395 -0.333067 2.477263 0 255 0
-0.192284 -0.328631 2.491446 0 255 0
-0.189258 -0.326466 2.501779 0 255 0
-0.159970 -0.334304 2.495301 0 255 0
-0.144202 -0.336955 2.497616 0 255 0
-0.136051 -0.336695 2.504843 0 255 0
-0.136384 -0.333218 2.517446 0 255 0
-0.341304 0.000973 2.043000 255 0 0
-0.339848 0.000984 2.068000 255 0 0
-0.335345 0.000988 2.075000 255 0 0
-0.330168 0.000989 2.078000 255 0 0
-0.324036 0.000988 2.075000 255 0 0
-0.318841 0.000990 2.078000 255 0 0
-0.313326 0.000990 2.079000 255 0 0
-0.308101 0.000992 2.082000 255 0 0
-0.302713 0.000993 2.084000 255 0 0
-0.297599 0.000995 2.088000 255 0 0
-0.293300 0.000999 2.098000 255 0 0
-0.290316 0.001009 2.118000 255 0 0
-0.266962 0.001054 2.212000 255 0 0
-0.260683 0.001053 2.210000 255 0 0
-0.254413 0.001052 2.208000 255 0 0
-0.248041 0.001051 2.205000 255 0 0
-0.241465 0.001049 2.200000 255 0 0
-0.234809 0.001046 2.194000 255 0 0
-0.228393 0.001044 2.190000 255 0 0
-0.222302 0.001044 2.189000 255 0 0
-0.216217 0.001043 2.188000 255 0 0
-0.209655 0.001040 2.182000 255 0 0
-0.203685 0.001040 2.182000 255 0 0
-0.197353 0.001039 2.178000 255 0 0
-0.191480 0.001039 2.179000 255 0 0
-0.184750 0.001035 2.170000 255 0 0
-0.178563 0.001033 2.167000 255 0 0
-0.172392 0.001032 2.164000 255 0 0
-0.166467 0.001032 2.164000 255 0 0
-0.160393 0.001031 2.162000 255 0 0
-0.154187 0.001029 2.158000 255 0 0
-0.148002 0.001027 2.154000 255 0 0
-0.142036 0.001027 2.153000 255 0 0
-0.136074 0.001027 2.152000 255 0 0
-0.130118 0.001026 2.151000 255 0 0
-0.124052 0.001025 2.148000 255 0 0
-0.118001 0.001023 2.145000 255 0 0
-0.111966 0.001022 2.142000 255 0 0
-0.106095 0.001022 2.142000 255 0 0
-0.100365 0.001023 2.145000 255 0 0
-0.094530 0.001024 2.146000 255 0 0
-0.088647 0.001024 2.146000 255 0 0
-0.082687 0.001023 2.144000 255 0 0
-0.076773 0.001023 2.143000 255 0 0
-0.070865 0.001022 2.142000 255 0 0
-0.065022 0.001023 2.143000 255 0 0
-0.059229 0.001024 2.146000 255 0 0
-0.053319 0.001024 2.145000 255 0 0
-0.047415 0.001023 2.144000 255 0 0
-0.041536 0.001023 2.144000 255 0 0
-0.035639 0.001023 2.143000 255 0 0
-0.029707 0.001021 2.139000 255 0 0
-0.023807 0.001019 2.136000 255 0 0
-0.017957 0.001020 2.137000 255 0 0
-0.012136 0.001023 2.144000 255 0 0
-0.006273 0.001026 2.150000 255 0 0
-0.000378 0.001029 2.156000 255 0 0
0.005540 0.001030 2.158000 255 0 0
0.011470 0.001031 2.160000 255 0 0
0.017410 0.001032 2.162000 255 0 0
0.023361 0.001033 2.164000 255 0 0
0.029295 0.001033 2.164000 255 0 0
0.035279 0.001034 2.167000 255 0 0
0.041336 0.001037 2.173000 255 0 0
0.047491 0.001041 2.182000 255 0 0
0.053597 0.001044 2.187000 255 0 0
0.059785 0.001047 2.194000 255 0 0
0.066100 0.001052 2.204000 255 0 0
0.072700 0.001060 2.221000 255 0 0
0.079215 0.001065 2.233000 255 0 0
0.085490 0.001067 2.237000 255 0 0
0.093015 0.001084 2.271000 255 0 0
0.099459 0.001086 2.276000 255 0 0
0.105604 0.001085 2.274000 255 0 0
0.111886 0.001085 2.275000 255 0 0
0.118121 0.001085 2.275000 255 0 0
0.124410 0.001086 2.276000 255 0 0
0.130589 0.001085 2.275000 255 0 0
0.137063 0.001087 2.279000 255 0 0
0.143621 0.001090 2.284000 255 0 0
0.149616 0.001088 2.280000 255 0 0
-0.200336 -0.318420 2.491539 255 255 0
-0.189706 -0.318169 2.484983 255 255 0
-0.181615 -0.318722 2.476860 255 255 0
-0.069496 -0.319754 2.392226 255 255 0
-0.059058 -0.319410 2.386204 255 255 0
-0.013400 -0.310390 2.391510 255 255 0
-0.022047 -0.316391 2.372418 255 255 0
-0.008740 -0.318136 2.355540 255 255 0
-0.000860 -0.318585 2.348005 255 255 0
-0.020972 -0.328522 2.320543 255 255 0
-0.012259 -0.328697 2.313564 255 255 0
-0.245048 -0.342713 2.441695 0 255 0
-0.252135 -0.336612 2.458684 0 255 0
-0.253351 -0.332827 2.471697 0 255 0
-0.272260 -0.322150 2.496377 0 255 0
-0.241476 -0.330848 2.488223 0 255 0
-0.212330 -0.338857 2.481339 0 255 0
-0.205092 -0.338334 2.488891 0 255 0
-0.195312 -0.338785 2.494827 0 255 0
-0.194825 -0.335643 2.506790 0 255 0
-0.196036 -0.331854 2.519821 0 255 0
-0.149800 -0.346256 2.502640 0 255 0
-0.141655 -0.346014 2.509861 0 255 0
-0.145385 -0.341235 2.524588 0 255 0
-0.341805 -0.004624 2.046000 255 0 0
-0.339683 -0.004671 2.067000 255 0 0
-0.335022 -0.004685 2.073000 255 0 0
-0.329691 -0.004690 2.075000 255 0 0
-0.324036 -0.004690 2.075000 255 0 0
-0.318534 -0.004693 2.076000 255 0 0
-0.313025 -0.004696 2.077000 255 0 0
-0.307509 -0.004698 2.078000 255 0 0
-0.301987 -0.004701 2.079000 255 0 0
-0.296886 -0.004710 2.083000 255 0 0
-0.292042 -0.004724 2.089000 255 0 0
-0.288397 -0.004758 2.104000 255 0 0
-0.288431 -0.004856 2.147000 255 0 0
-0.267445 -0.005013 2.216000 255 0 0
-0.261272 -0.005011 2.215000 255 0 0
-0.255335 -0.005014 2.216000 255 0 0
-0.248829 -0.005005 2.212000 255 0 0
-0.241795 -0.004985 2.203000 255 0 0
-0.235023 -0.004970 2.196000 255 0 0
-0.228497 -0.004958 2.191000 255 0 0
-0.222302 -0.004954 2.189000 255 0 0
-0.216216 -0.004952 2.188000 255 0 0
-0.209847 -0.004943 2.184000 255 0 0
-0.203965 -0.004946 2.185000 255 0 0
-0.197715 -0.004939 2.182000 255 0 0
-0.191568 -0.004935 2.180000 255 0 0
-0.185091 -0.004922 2.174000 255 0 0
-0.178810 -0.004913 2.170000 255 0 0
-0.172790 -0.004911 2.169000 255 0 0
-0.166775 -0.004909 2.168000 255 0 0
-0.160393 -0.004895 2.162000 255 0 0
-0.154187 -0.004886 2.158000 255 0 0
-0.148002 -0.004878 2.154000 255 0 0
-0.142167 -0.004880 2.155000 255 0 0
-0.136074 -0.004873 2.152000 255 0 0
-0.129997 -0.004867 2.149000 255 0 0
-0.123936 -0.004860 2.146000 255 0 0
-0.117946 -0.004856 2.144000 255 0 0
-0.111809 -0.004844 2.139000 255 0 0
-0.105996 -0.004847 2.140000 255 0 0
-0.100412 -0.004861 2.146000 255 0 0
-0.094750 -0.004872 2.151000 255 0 0
-0.088936 -0.004877 2.153000 255 0 0
-0.082957 -0.004872 2.151000 255 0 0
-0.076952 -0.004866 2.148000 255 0 0
-0.070898 -0.004854 2.143000 255 0 0
-0.065022 -0.004854 2.143000 255 0 0
-0.059173 -0.004857 2.144000 255 0 0
-0.053294 -0.004857 2.144000 255 0 0
-0.047393 -0.004855 2.143000 255 0 0
-0.041555 -0.004859 2.145000 255 0 0
-0.035639 -0.004855 2.143000 255 0 0
-0.029679 -0.004841 2.137000 255 0 0
-0.023785 -0.004834 2.134000 255 0 0
-0.017957 -0.004841 2.137000 255 0 0
-0.012136 -0.004857 2.144000 255 0 0
-0.006265 -0.004864 2.147000 255 0 0
-0.000377 -0.004877 2.153000 255 0 0
0.005538 -0.004887 2.157000 255 0 0
0.011470 -0.004893 2.160000 255 0 0
0.017418 -0.004900 2.163000 255 0 0
0.023404 -0.004911 2.168000 255 0 0
0.029390 -0.004918 2.171000 255 0 0
0.035377 -0.004923 2.173000 255 0 0
0.041374 -0.004927 2.175000 255 0 0
0.047491 -0.004943 2.182000 255 0 0
0.053646 -0.004959 2.189000 255 0 0
0.059975 -0.004986 2.201000 255 0 0
0.066730 -0.005040 2.225000 255 0 0
0.094448 -0.005223 2.306000 255 0 0
0.099546 -0.005160 2.278000 255 0 0
0.105558 -0.005148 2.273000 255 0 0
0.111788 -0.005148 2.273000 255 0 0
0.118121 -0.005153 2.275000 255 0 0
0.124574 -0.005161 2.279000 255 0 0
0.130704 -0.005157 2.277000 255 0 0
0.137123 -0.005163 2.280000 255 0 0
0.143621 -0.005172 2.284000 255 0 0
0.149812 -0.005170 2.283000 255 0 0
0.155177 -0.005140 2.270000 255 0 0
-0.196726 -0.329163 2.495282 255 255 0
-0.194518 -0.331614 2.483391 255 255 0
-0.179698 -0.329973 2.479533 255 255 0
-0.096012 -0.333995 2.401978 255 255 0
-0.077234 -0.330869 2.401481 255 255 0
-0.081722 -0.335518 2.385222 255 255 0
-0.053866 -0.329307 2.391094 255 255 0
-0.009063 -0.320441 2.395818 255 255 0
-0.012748 -0.324799 2.380200 255 255 0
-0.016418 -0.329165 2.364538 255 255 0
0.003012 -0.325673 2.365106 255 255 0
0.012525 -0.325540 2.358765 255 255 0
0.007220 -0.330473 2.341908 255 255 0
-0.010392 -0.339650 2.316165 255 255 0
-0.235116 -0.361241 2.424064 0 255 0
-0.247211 -0.353098 2.444505 0 255 0
-0.250091 -0.348627 2.458681 0 255 0
-0.242051 -0.348474 2.465558 0 255 0
-0.234002 -0.348315 2.472465 0 255 0
-0.237737 -0.343523 2.487152 0 255 0
-0.222093 -0.346329 2.489124 0 255 0
-0.199675 -0.351754 2.486784 0 255 0
-0.189893 -0.352221 2.492749 0 255 0
-0.202924 -0.343814 2.513428 0 255 0
-0.199060 -0.341984 2.523192 0 255 0
-0.166402 -0.351281 2.514658 0 255 0
-0.148102 -0.354986 2.515411 0 255 0
-0.147589 -0.351821 2.527452 0 255 0
-0.152176 -0.346704 2.542664 0 255 0
-0.341637 -0.010216 2.045000 255 0 0
-0.339518 -0.010322 2.066000 255 0 0
-0.335021 -0.010357 2.073000 255 0 0
-0.329850 -0.010373 2.076000 255 0 0
-0.324192 -0.010374 2.076000 255 0 0
-0.318533 -0.010375 2.076000 255 0 0
-0.312421 -0.010360 2.073000 255 0 0
-0.306917 -0.010366 2.074000 255 0 0
-0.301260 -0.010367 2.074000 255 0 0
-0.296315 -0.010392 2.079000 255 0 0
-0.291342 -0.010418 2.084000 255 0 0
-0.287711 -0.010494 2.099000 255 0 0
-0.285207 -0.010614 2.123000 255 0 0
-0.267685 -0.011093 2.218000 255 0 0
-0.260682 -0.011053 2.210000 255 0 0
-0.254874 -0.011064 2.212000 255 0 0
-0.248378 -0.011045 2.208000 255 0 0
-0.241904 -0.011025 2.204000 255 0 0
-0.235022 -0.010986 2.196000 255 0 0
-0.228705 -0.010971 2.193000 255 0 0
-0.222403 -0.010957 2.190000 255 0 0
-0.216414 -0.010958 2.190000 255 0 0
-0.210135 -0.010943 2.187000 255 0 0
-0.204338 -0.010954 2.189000 255 0 0
-0.198258 -0.010949 2.188000 255 0 0
-0.191743 -0.010920 2.182000 255 0 0
-0.185346 -0.010895 2.177000 255 0 0
-0.178892 -0.010865 2.171000 255 0 0
-0.172870 -0.010861 2.170000 255 0 0
-0.166774 -0.010851 2.168000 255 0 0
-0.160616 -0.010837 2.165000 255 0 0
-0.154472 -0.010822 2.162000 255 0 0
-0.148414 -0.010813 2.160000 255 0 0
-0.142431 -0.010808 2.159000 255 0 0
-0.136327 -0.010793 2.156000 255 0 0
-0.130360 -0.010789 2.155000 255 0 0
-0.124398 -0.010784 2.154000 255 0 0
-0.118330 -0.010769 2.151000 255 0 0
-0.112070 -0.010734 2.144000 255 0 0
-0.106095 -0.010725 2.142000 255 0 0
-0.100458 -0.010750 2.147000 255 0 0
-0.094750 -0.010770 2.151000 255 0 0
-0.089060 -0.010796 2.156000 255 0 0
-0.083072 -0.010786 2.154000 255 0 0
-0.077131 -0.010781 2.153000 255 0 0
-0.071096 -0.010761 2.149000 255 0 0
-0.065204 -0.010761 2.149000 255 0 0
-0.059256 -0.010751 2.147000 255 0 0
-0.053269 -0.010732 2.143000 255 0 0
-0.047415 -0.010737 2.144000 255 0 0
-0.041574 -0.010747 2.146000 255 0 0
-0.035689 -0.010747 2.146000 255 0 0
-0.029707 -0.010712 2.139000 255 0 0
-0.023818 -0.010702 2.137000 255 0 0
-0.017957 -0.010702 2.137000 255 0 0
-0.012125 -0.010727 2.142000 255 0 0
-0.006247 -0.010722 2.141000 255 0 0
-0.000377 -0.010767 2.150000 255 0 0
0.005535 -0.010797 2.156000 255 0 0
0.011480 -0.010827 2.162000 255 0 0
0.017418 -0.010832 2.163000 255 0 0
0.023404 -0.010857 2.168000 255 0 0
0.029431 -0.010887 2.174000 255 0 0
0.035442 -0.010902 2.177000 255 0 0
0.041450 -0.010912 2.179000 255 0 0
0.047469 -0.010922 2.181000 255 0 0
0.053646 -0.010962 2.189000 255 0 0
0.060139 -0.011052 2.207000 255 0 0
0.067150 -0.011212 2.239000 255 0 0
0.094653 -0.011572 2.311000 255 0 0
0.099546 -0.011406 2.278000 255 0 0
0.105604 -0.011386 2.274000 255 0 0
0.111935 -0.011396 2.276000 255 0 0
0.118484 -0.011425 2.282000 255 0 0
0.125066 -0.011455 2.288000 255 0 0
0.131220 -0.011445 2.286000 255 0 0
0.137303 -0.011429 2.283000 255 0 0
0.143621 -0.011434 2.284000 255 0 0
0.149878 -0.011434 2.284000 255 0 0
0.155519 -0.011388 2.275000 255 0 0
0.160328 -0.011288 2.255000 255 0 0
0.164805 -0.011172 2.232000 255 0 0
-0.195646 -0.340719 2.497433 255 255 0
-0.200164 -0.345376 2.481277 255 255 0
-0.099108 -0.346775 2.401252 255 255 0
-0.077841 -0.342762 2.402418 255 255 0
-0.064076 -0.341259 2.398600 255 255 0
-0.050334 -0.339745 2.394844 255 255 0
-0.017955 -0.334991 2.390954 255 255 0
-0.015019 -0.337116 2.379913 255 255 0
-0.014555 -0.340091 2.367135 255 255 0
0.004042 -0.336832 2.367110 255 255 0
0.020137 -0.334409 2.365427 255 255 0
0.015651 -0.339083 2.349179 255 255 0
-0.250937 -0.356184 2.472832 0 255 0
-0.244579 -0.355378 2.480834 0 255 0
-0.241583 -0.353236 2.491067 0 255 0
-0.223420 -0.357080 2.491394 0 255 0
-0.192581 -0.365884 2.483595 0 255 0
-0.192924 -0.362389 2.496137 0 255 0
-0.204255 -0.354596 2.515714 0 255 0
-0.202083 -0.352108 2.526563 0 255 0
-0.176216 -0.358858 2.522352 0 255 0
-0.164708 -0.359980 2.527374 0 255 0
-0.150642 -0.362077 2.530851 0 255 0
-0.150133 -0.358909 2.542873 0 255 0
-0.340634 -0.015764 2.039000 255 0 0
-0.339189 -0.015959 2.064000 255 0 0
-0.334859 -0.016022 2.072000 255 0 0
-0.329690 -0.016046 2.075000 255 0 0
-0.324035 -0.016047 2.075000 255 0 0
-0.318225 -0.016041 2.074000 255 0 0
-0.312119 -0.016019 2.071000 255 0 0
-0.306768 -0.016035 2.073000 255 0 0
-0.300969 -0.016029 2.072000 255 0 0
-0.295887 -0.016061 2.076000 255 0 0
-0.290642 -0.016085 2.079000 255 0 0
-0.286614 -0.016179 2.091000 255 0 0
-0.283191 -0.016311 2.108000 255 0 0
-0.267926 -0.017183 2.220000 255 0 0
-0.260327 -0.017084 2.207000 255 0 0
-0.253951 -0.017061 2.204000 255 0 0
-0.248265 -0.017086 2.207000 255 0 0
-0.242123 -0.017079 2.206000 255 0 0
-0.235664 -0.017049 2.202000 255 0 0
-0.229017 -0.017003 2.196000 255 0 0
-0.222809 -0.016988 2.194000 255 0 0
-0.216611 -0.016974 2.192000 255 0 0
-0.210230 -0.016944 2.188000 255 0 0
-0.204151 -0.016937 2.187000 255 0 0
-0.198167 -0.016938 2.187000 255 0 0
-0.191831 -0.016907 2.183000 255 0 0
-0.185601 -0.016885 2.180000 255 0 0
-0.179057 -0.016831 2.173000 255 0 0
-0.173188 -0.016840 2.174000 255 0 0
-0.167005 -0.016817 2.171000 255 0 0
-0.160912 -0.016802 2.169000 255 0 0
-0.154615 -0.016764 2.164000 255 0 0
-0.148413 -0.016734 2.160000 255 0 0
-0.142563 -0.016742 2.161000 255 0 0
-0.136453 -0.016720 2.158000 255 0 0
-0.130420 -0.016705 2.156000 255 0 0
-0.124455 -0.016697 2.155000 255 0 0
-0.118495 -0.016690 2.154000 255 0 0
-0.112383 -0.016660 2.150000 255 0 0
-0.106342 -0.016637 2.147000 255 0 0
-0.100598 -0.016660 2.150000 255 0 0
-0.094969 -0.016707 2.156000 255 0 0
-0.089266 -0.016746 2.161000 255 0 0
-0.083226 -0.016724 2.158000 255 0 0
-0.077203 -0.016701 2.155000 255 0 0
-0.071195 -0.016678 2.152000 255 0 0
-0.065325 -0.016686 2.153000 255 0 0
-0.059339 -0.016663 2.150000 255 0 0
-0.053394 -0.016647 2.148000 255 0 0
-0.047481 -0.016640 2.147000 255 0 0
-0.041632 -0.016656 2.149000 255 0 0
-0.035672 -0.016625 2.145000 255 0 0
-0.029721 -0.016586 2.140000 255 0 0
-0.023829 -0.016571 2.138000 255 0 0
-0.017983 -0.016586 2.140000 255 0 0
-0.012142 -0.016625 2.145000 255 0 0
-0.006265 -0.016641 2.147000 255 0 0
-0.000378 -0.016695 2.154000 255 0 0
0.005543 -0.016734 2.159000 255 0 0
0.011480 -0.016757 2.162000 255 0 0
0.017426 -0.016772 2.164000 255 0 0
0.023393 -0.016795 2.167000 255 0 0
0.029417 -0.016842 2.173000 255 0 0
0.035458 -0.016880 2.178000 255 0 0
0.041488 -0.016904 2.181000 255 0 0
0.047556 -0.016934 2.185000 255 0 0
0.053768 -0.017004 2.194000 255 0 0
0.060465 -0.017197 2.219000 255 0 0
0.067600 -0.017468 2.254000 255 0 0
0.099458 -0.017637 2.276000 255 0 0
0.105697 -0.017637 2.276000 255 0 0
0.112279 -0.017691 2.283000 255 0 0
0.119159 -0.017783 2.295000 255 0 0
0.125885 -0.017845 2.303000 255 0 0
0.131622 -0.017767 2.293000 255 0 0
0.137363 -0.017696 2.284000 255 0 0
0.143432 -0.017673 2.281000 255 0 0
0.149746 -0.017680 2.282000 255 0 0
0.155518 -0.017625 2.275000 255 0 0
0.160683 -0.017508 2.260000 255 0 0
0.166872 -0.017507 2.260000 255 0 0
-0.180767 -0.344560 2.521489 255 255 0
-0.181100 -0.347844 2.508062 255 255 0
-0.187309 -0.353075 2.490885 255 255 0
-0.075127 -0.353539 2.405609 255 255 0
-0.052250 -0.348885 2.408001 255 255 0
-0.029416 -0.344210 2.410509 255 255 0
-0.016549 -0.342927 2.406294 255 255 0
0.002908 -0.339355 2.406715 255 255 0
-0.001604 -0.344039 2.390558 255 255 0
0.005443 -0.344732 2.382436 255 255 0
0.019071 -0.343133 2.378975 255 255 0
0.017871 -0.346681 2.365091 255 255 0
0.023255 -0.347938 2.355857 255 255 0
-0.239307 -0.375431 2.454217 0 255 0
-0.247216 -0.368904 2.471737 0 255 0
-0.238334 -0.369113 2.478096 0 255 0
-0.240378 -0.364952 2.491667 0 255 0
-0.190556 -0.378064 2.483704 0 255 0
-0.189206 -0.375224 2.495168 0 255 0
-0.224163 -0.358046 2.529927 0 255 0
-0.202089 -0.360071 2.540235 0 255 0
-0.173180 -0.364707 2.546481 0 255 0
-0.156575 -0.367830 2.548383 0 255 0
-0.139099 -0.371267 2.549841 0 255 0
-0.341468 -0.021395 2.044000 255 0 0
-0.338530 -0.021564 2.060000 255 0 0
-0.334534 -0.021670 2.070000 255 0 0
-0.329688 -0.021724 2.075000 255 0 0
-0.323721 -0.021705 2.073000 255 0 0
-0.317917 -0.021696 2.072000 255 0 0
-0.311816 -0.021666 2.069000 255 0 0
-0.306470 -0.021688 2.071000 255 0 0
-0.300677 -0.021679 2.070000 255 0 0
-0.295600 -0.021723 2.074000 255 0 0
-0.290501 -0.021766 2.078000 255 0 0
-0.286064 -0.021862 2.087000 255 0 0
-0.282115 -0.021999 2.100000 255 0 0
-0.267563 -0.023232 2.217000 255 0 0
-0.260326 -0.023129 2.207000 255 0 0
-0.253835 -0.023088 2.203000 255 0 0
-0.248376 -0.023142 2.208000 255 0 0
-0.242670 -0.023174 2.211000 255 0 0
-0.236198 -0.023134 2.207000 255 0 0
-0.229538 -0.023072 2.201000 255 0 0
-0.223214 -0.023042 2.198000 255 0 0
-0.216807 -0.023001 2.194000 255 0 0
-0.210229 -0.022939 2.188000 255 0 0
-0.204057 -0.022919 2.186000 255 0 0
-0.198076 -0.022920 2.186000 255 0 0
-0.192006 -0.022911 2.185000 255 0 0
-0.185770 -0.022880 2.182000 255 0 0
-0.179550 -0.022850 2.179000 255 0 0
-0.173506 -0.022840 2.178000 255 0 0
-0.167235 -0.022799 2.174000 255 0 0
-0.161208 -0.022790 2.173000 255 0 0
-0.154900 -0.022738 2.168000 255 0 0
-0.149099 -0.022760 2.170000 255 0 0
-0.143156 -0.022761 2.170000 255 0 0
-0.136958 -0.022720 2.166000 255 0 0
-0.130540 -0.022636 2.158000 255 0 0
-0.124281 -0.022574 2.152000 255 0 0
-0.118385 -0.022575 2.152000 255 0 0
-0.112540 -0.022586 2.153000 255 0 0
-0.106689 -0.022597 2.154000 255 0 0
-0.100832 -0.022608 2.155000 255 0 0
-0.094969 -0.022619 2.156000 255 0 0
-0.089142 -0.022641 2.158000 255 0 0
-0.083264 -0.022652 2.159000 255 0 0
-0.077345 -0.022652 2.159000 255 0 0
-0.071426 -0.022652 2.159000 255 0 0
-0.065507 -0.022653 2.159000 255 0 0
-0.059476 -0.022611 2.155000 255 0 0
-0.053443 -0.022559 2.150000 255 0 0
-0.047525 -0.022549 2.149000 255 0 0
-0.041593 -0.022528 2.147000 255 0 0
-0.035656 -0.022497 2.144000 255 0 0
-0.029679 -0.022424 2.137000 255 0 0
-0.023840 -0.022445 2.139000 255 0 0
-0.017999 -0.022476 2.142000 255 0 0
-0.012176 -0.022571 2.151000 255 0 0
-0.006276 -0.022571 2.151000 255 0 0
-0.000378 -0.022644 2.158000 255 0 0
0.005545 -0.022665 2.160000 255 0 0
0.011491 -0.022707 2.164000 255 0 0
0.017426 -0.022707 2.164000 255 0 0
0.023382 -0.022728 2.166000 255 0 0
0.029390 -0.022780 2.171000 255 0 0
0.035441 -0.022843 2.177000 255 0 0
0.041545 -0.022916 2.184000 255 0 0
0.047751 -0.023021 2.194000 255 0 0
0.054111 -0.023168 2.208000 255 0 0
0.060710 -0.023377 2.228000 255 0 0
0.094734 -0.024267 2.313000 255 0 0
0.099545 -0.023899 2.278000 255 0 0
0.105789 -0.023899 2.278000 255 0 0
0.112573 -0.024013 2.289000 255 0 0
0.119781 -0.024202 2.307000 255 0 0
0.126814 -0.024337 2.320000 255 0 0
0.132367 -0.024190 2.306000 255 0 0
0.137663 -0.024011 2.289000 255 0 0
0.143557 -0.023947 2.283000 255 0 0
0.149680 -0.023925 2.281000 255 0 0
0.155654 -0.023882 2.277000 255 0 0
0.161393 -0.023808 2.270000 255 0 0
-0.187786 -0.355571 2.531796 255 255 0
-0.176328 -0.354954 2.525740 255 255 0
-0.193791 -0.367154 2.488249 255 255 0
-0.098321 -0.366846 2.417754 255 255 0
-0.090338 -0.367295 2.409893 255 255 0
-0.065779 -0.362025 2.413294 255 255 0
-0.049549 -0.359595 2.411180 255 255 0
-0.030036 -0.356004 2.411409 255 255 0
-0.010558 -0.352397 2.411734 255 255 0
0.013014 -0.347336 2.415014 255 255 0
0.032418 -0.343693 2.415544 255 255 0
0.014333 -0.356279 2.376917 255 255 0
0.030408 -0.353773 2.375235 255 255 0
0.034957 -0.355308 2.365448 255 255 0
-0.226717 -0.388444 2.459521 0 255 0
-0.232099 -0.382900 2.475371 0 255 0
-0.225726 -0.382101 2.483450 0 255 0
-0.213455 -0.383662 2.487705 0 255 0
-0.199484 -0.385886 2.490924 0 255 0
-0.214999 -0.376314 2.513243 0 255 0
-0.214516 -0.373151 2.525165 0 255 0
-0.188206 -0.376886 2.532877 0 255 0
-0.187713 -0.373718 2.544828 0 255 0
-0.182145 -0.372556 2.553579 0 255 0
-0.162165 -0.377059 2.553359 0 255 0
-0.122647 -0.389198 2.541141 0 255 0
-0.341466 -0.026987 2.044000 255 0 0
-0.338200 -0.027174 2.058000 255 0 0
-0.334371 -0.027321 2.069000 255 0 0
-0.329210 -0.027362 2.072000 255 0 0
-0.323095 -0.027325 2.069000 255 0 0
-0.317302 -0.027313 2.068000 255 0 0
-0.311513 -0.027302 2.067000 255 0 0
-0.306173 -0.027330 2.069000 255 0 0
-0.300530 -0.027332 2.069000 255 0 0
-0.295171 -0.027361 2.071000 255 0 0
-0.290080 -0.027415 2.075000 255 0 0
-0.285103 -0.027483 2.080000 255 0 0
-0.281038 -0.027643 2.092000 255 0 0
-0.279276 -0.028042 2.122000 255 0 0
-0.267561 -0.029304 2.217000 255 0 0
-0.261268 -0.029279 2.215000 255 0 0
-0.254640 -0.029215 2.210000 255 0 0
-0.248937 -0.029256 2.213000 255 0 0
-0.242888 -0.029258 2.213000 255 0 0
-0.236303 -0.029193 2.208000 255 0 0
-0.229745 -0.029129 2.203000 255 0 0
-0.223314 -0.029077 2.199000 255 0 0
-0.216905 -0.029026 2.195000 255 0 0
-0.210324 -0.028948 2.189000 255 0 0
-0.203962 -0.028896 2.185000 255 0 0
-0.198074 -0.028911 2.186000 255 0 0
-0.192532 -0.028978 2.191000 255 0 0
-0.186195 -0.028927 2.187000 255 0 0
-0.179961 -0.028888 2.184000 255 0 0
-0.173504 -0.028810 2.178000 255 0 0
-0.167311 -0.028772 2.175000 255 0 0
-0.161355 -0.028773 2.175000 255 0 0
-0.155185 -0.028734 2.172000 255 0 0
-0.149236 -0.028735 2.172000 255 0 0
-0.143221 -0.028723 2.171000 255 0 0
-0.136957 -0.028658 2.166000 255 0 0
-0.130419 -0.028526 2.156000 255 0 0
-0.124107 -0.028435 2.149000 255 0 0
-0.118329 -0.028462 2.151000 255 0 0
-0.112748 -0.028542 2.157000 255 0 0
-0.107035 -0.028596 2.161000 255 0 0
-0.101065 -0.028583 2.160000 255 0 0
-0.095101 -0.028571 2.159000 255 0 0
-0.089182 -0.028571 2.159000 255 0 0
-0.083264 -0.028572 2.159000 255 0 0
-0.077345 -0.028572 2.159000 255 0 0
-0.071426 -0.028573 2.159000 255 0 0
-0.065476 -0.028560 2.158000 255 0 0
-0.059448 -0.028508 2.154000 255 0 0
-0.053418 -0.028442 2.149000 255 0 0
-0.047503 -0.028429 2.148000 255 0 0
-0.041554 -0.028390 2.145000 255 0 0
-0.035639 -0.028363 2.143000 255 0 0
-0.029706 -0.028311 2.139000 255 0 0
-0.023885 -0.028364 2.143000 255 0 0
-0.018033 -0.028404 2.146000 255 0 0
-0.012193 -0.028510 2.154000 255 0 0
-0.006291 -0.028536 2.156000 255 0 0
-0.000379 -0.028589 2.160000 255 0 0
0.005548 -0.028602 2.161000 255 0 0
0.011480 -0.028616 2.162000 255 0 0
0.017425 -0.028642 2.164000 255 0 0
0.023393 -0.028682 2.167000 255 0 0
0.029390 -0.028734 2.171000 255 0 0
0.035457 -0.028827 2.178000 255 0 0
0.041582 -0.028932 2.186000 255 0 0
0.047925 -0.029144 2.202000 255 0 0
0.054282 -0.029315 2.215000 255 0 0
0.060819 -0.029540 2.232000 255 0 0
0.099806 -0.030225 2.284000 255 0 0
0.106067 -0.030224 2.284000 255 0 0
0.112868 -0.030369 2.295000 255 0 0
0.120040 -0.030593 2.312000 255 0 0
0.127141 -0.030778 2.326000 255 0 0
0.132768 -0.030605 2.313000 255 0 0
0.137963 -0.030352 2.294000 255 0 0
0.143619 -0.030219 2.284000 255 0 0
0.149744 -0.030192 2.282000 255 0 0
0.155995 -0.030190 2.282000 255 0 0
0.162672 -0.030269 2.288000 255 0 0
-0.189751 -0.364922 2.545269 255 255 0
-0.176603 -0.363722 2.540230 255 255 0
-0.174416 -0.366179 2.528410 255 255 0
-0.180949 -0.374776 2.497841 255 255 0
-0.094766 -0.377385 2.421510 255 255 0
-0.062724 -0.369472 2.429852 255 255 0
-0.058097 -0.371041 2.419848 255 255 0
-0.051816 -0.372031 2.410976 255 255 0
