ply
format ascii 1.0
element vertex 1322
property double x
property double y
property double z
property uchar red
property uchar green
property uchar blue
end_header
-0.240619 -0.158375 2.315363 0 255 0
-0.201293 -0.168475 2.299980 0 255 0
-0.195729 -0.167155 2.308527 0 255 0
-0.200319 -0.162427 2.324173 0 255 0
-0.198992 -0.159691 2.335657 0 255 0
-0.172231 -0.165440 2.329572 0 255 0
-0.059418 -0.173579 2.366646 0 255 0
-0.037488 -0.177444 2.364949 0 255 0
-0.336149 0.107058 2.153000 255 0 0
-0.332122 0.107662 2.165000 255 0 0
-0.326973 0.107918 2.170000 255 0 0
-0.321501 0.108075 2.173000 255 0 0
-0.316011 0.108231 2.176000 255 0 0
-0.310219 0.108288 2.177000 255 0 0
-0.304979 0.108544 2.182000 255 0 0
-0.299437 0.108700 2.185000 255 0 0
-0.295086 0.109304 2.197000 255 0 0
-0.291326 0.110157 2.214000 255 0 0
-0.260744 0.110040 2.211000 255 0 0
-0.254357 0.109897 2.208000 255 0 0
-0.247874 0.109704 2.204000 255 0 0
-0.240973 0.109311 2.196000 255 0 0
-0.233794 0.108770 2.185000 255 0 0
-0.227091 0.108427 2.178000 255 0 0
-0.220831 0.108283 2.175000 255 0 0
-0.214587 0.108139 2.172000 255 0 0
-0.208455 0.108044 2.170000 255 0 0
-0.202613 0.108099 2.171000 255 0 0
-0.196764 0.108154 2.172000 255 0 0
-0.190646 0.108059 2.170000 255 0 0
-0.184368 0.107865 2.166000 255 0 0
-0.178193 0.107720 2.163000 255 0 0
-0.172034 0.107575 2.160000 255 0 0
-0.165660 0.107280 2.154000 255 0 0
-0.159540 0.107135 2.151000 255 0 0
-0.153437 0.106989 2.148000 255 0 0
-0.147280 0.106794 2.144000 255 0 0
-0.141079 0.106549 2.139000 255 0 0
-0.134715 0.106154 2.131000 255 0 0
-0.128818 0.106107 2.130000 255 0 0
-0.122925 0.106060 2.129000 255 0 0
-0.117148 0.106113 2.130000 255 0 0
-0.111156 0.105967 2.127000 255 0 0
-0.105130 0.105770 2.123000 255 0 0
-0.099312 0.105773 2.123000 255 0 0
-0.093538 0.105825 2.124000 255 0 0
-0.087800 0.105927 2.126000 255 0 0
-0.081973 0.105929 2.126000 255 0 0
-0.076146 0.105931 2.126000 255 0 0
-0.070418 0.106083 2.129000 255 0 0
-0.064612 0.106134 2.130000 255 0 0
-0.058801 0.106186 2.131000 255 0 0
-0.052984 0.106237 2.132000 255 0 0
-0.047161 0.106288 2.133000 255 0 0
-0.041390 0.106489 2.137000 255 0 0
-0.035564 0.106589 2.139000 255 0 0
-0.029769 0.106839 2.144000 255 0 0
-0.023935 0.107039 2.148000 255 0 0
-0.018088 0.107289 2.153000 255 0 0
-0.012201 0.107439 2.156000 255 0 0
-0.006295 0.107539 2.158000 255 0 0
-0.000378 0.107539 2.158000 255 0 0
0.005539 0.107539 2.158000 255 0 0
0.011472 0.107688 2.161000 255 0 0
0.017422 0.107837 2.164000 255 0 0
0.023409 0.108086 2.169000 255 0 0
0.029397 0.108235 2.172000 255 0 0
0.035401 0.108383 2.175000 255 0 0
0.041440 0.108582 2.179000 255 0 0
0.047480 0.108730 2.182000 255 0 0
0.053584 0.108978 2.187000 255 0 0
0.059743 0.109275 2.193000 255 0 0
0.065845 0.109423 2.196000 255 0 0
0.072028 0.109671 2.201000 255 0 0
0.078061 0.109669 2.201000 255 0 0
0.084553 0.110265 2.213000 255 0 0
0.138747 0.109940 2.207000 255 0 0
0.144398 0.109637 2.201000 255 0 0
0.149674 0.109086 2.190000 255 0 0
0.155173 0.108733 2.183000 255 0 0
0.160633 0.108381 2.176000 255 0 0
0.166514 0.108327 2.175000 255 0 0
0.172388 0.108273 2.174000 255 0 0
0.178011 0.108069 2.170000 255 0 0
0.181237 0.106471 2.138000 255 0 0
-0.185131 -0.131546 2.342648 255 255 0
-0.092095 -0.115168 2.366137 255 255 0
-0.051420 -0.106983 2.381036 255 255 0
-0.036784 -0.105859 2.378162 255 255 0
-0.030537 -0.107017 2.369525 255 255 0
-0.024295 -0.108172 2.360905 255 255 0
-0.003035 -0.105178 2.362883 255 255 0
0.008182 -0.104934 2.357881 255 255 0
0.010221 -0.107226 2.346403 255 255 0
0.046373 -0.100020 2.359330 255 255 0
0.070820 -0.096030 2.364081 255 255 0
0.046243 -0.105738 2.333529 255 255 0
0.035823 -0.111515 2.313057 255 255 0
0.051114 -0.110069 2.311273 255 255 0
0.040728 -0.115862 2.290709 255 255 0
-0.244189 -0.177771 2.282043 0 255 0
-0.240345 -0.175906 2.291687 0 255 0
-0.239027 -0.173174 2.303135 0 255 0
-0.213248 -0.178797 2.297249 0 255 0
-0.193339 -0.182378 2.295663 0 255 0
-0.206362 -0.174748 2.317271 0 255 0
-0.188962 -0.177448 2.317554 0 255 0
-0.177462 -0.178129 2.322032 0 255 0
-0.170185 -0.177373 2.329482 0 255 0
-0.012361 -0.187369 2.388304 0 255 0
-0.337717 0.101640 2.163000 255 0 0
-0.332896 0.101976 2.170000 255 0 0
-0.327131 0.102030 2.171000 255 0 0
-0.321804 0.102225 2.175000 255 0 0
-0.315873 0.102231 2.175000 255 0 0
-0.310226 0.102332 2.177000 255 0 0
-0.304846 0.102527 2.181000 255 0 0
-0.299580 0.102769 2.186000 255 0 0
-0.295227 0.103339 2.198000 255 0 0
-0.259570 0.103517 2.201000 255 0 0
-0.253903 0.103664 2.204000 255 0 0
-0.247768 0.103623 2.203000 255 0 0
-0.241308 0.103440 2.199000 255 0 0
-0.234334 0.103022 2.190000 255 0 0
-0.227617 0.102698 2.183000 255 0 0
-0.221040 0.102421 2.177000 255 0 0
-0.214592 0.102191 2.172000 255 0 0
-0.208460 0.102102 2.170000 255 0 0
-0.202524 0.102107 2.170000 255 0 0
-0.196588 0.102111 2.170000 255 0 0
-0.190387 0.101975 2.167000 255 0 0
-0.184117 0.101791 2.163000 255 0 0
-0.177868 0.101607 2.159000 255 0 0
-0.171799 0.101517 2.157000 255 0 0
-0.165587 0.101333 2.153000 255 0 0
-0.159470 0.101195 2.150000 255 0 0
-0.153369 0.101058 2.147000 255 0 0
-0.147215 0.100873 2.143000 255 0 0
-0.141149 0.100735 2.140000 255 0 0
-0.134908 0.100456 2.134000 255 0 0
-0.128942 0.100365 2.132000 255 0 0
-0.122986 0.100274 2.130000 255 0 0
-0.117041 0.100183 2.128000 255 0 0
-0.111158 0.100139 2.127000 255 0 0
-0.105182 0.100000 2.124000 255 0 0
-0.099408 0.100050 2.125000 255 0 0
-0.093629 0.100099 2.126000 255 0 0
-0.087885 0.100195 2.128000 255 0 0
-0.082052 0.100197 2.128000 255 0 0
-0.076255 0.100246 2.129000 255 0 0
-0.070486 0.100342 2.131000 255 0 0
-0.064705 0.100438 2.133000 255 0 0
-0.058885 0.100487 2.134000 255 0 0
-0.053134 0.100677 2.138000 255 0 0
-0.047317 0.100772 2.140000 255 0 0
-0.041546 0.101009 2.145000 255 0 0
-0.035698 0.101104 2.147000 255 0 0
-0.029881 0.101340 2.152000 255 0 0
-0.024014 0.101482 2.155000 255 0 0
-0.018113 0.101530 2.156000 255 0 0
-0.012213 0.101624 2.158000 255 0 0
-0.006298 0.101671 2.159000 255 0 0
-0.000378 0.101719 2.160000 255 0 0
0.005544 0.101719 2.160000 255 0 0
0.011472 0.101765 2.161000 255 0 0
0.017422 0.101906 2.164000 255 0 0
0.023388 0.102047 2.167000 255 0 0
0.029370 0.102188 2.170000 255 0 0
0.035320 0.102187 2.170000 255 0 0
0.041346 0.102374 2.174000 255 0 0
0.047394 0.102562 2.178000 255 0 0
0.053512 0.102843 2.184000 255 0 0
0.059636 0.103077 2.189000 255 0 0
0.065697 0.103170 2.191000 255 0 0
0.071801 0.103309 2.194000 255 0 0
0.077850 0.103354 2.195000 255 0 0
0.084096 0.103635 2.201000 255 0 0
0.132104 0.103426 2.197000 255 0 0
0.138939 0.104034 2.210000 255 0 0
0.144598 0.103748 2.204000 255 0 0
0.149814 0.103180 2.192000 255 0 0
0.155177 0.102753 2.183000 255 0 0
0.160711 0.102467 2.177000 255 0 0
0.166595 0.102416 2.176000 255 0 0
0.172313 0.102270 2.173000 255 0 0
0.177687 0.101937 2.166000 255 0 0
0.178528 0.099109 2.106000 255 0 0
-0.194990 -0.146000 2.337359 255 255 0
-0.063806 -0.121784 2.373787 255 255 0
-0.023216 -0.113452 2.388838 255 255 0
-0.010294 -0.112738 2.384893 255 255 0
-0.016600 -0.117362 2.367553 255 255 0
-0.008703 -0.118036 2.360138 255 255 0
0.001684 -0.118006 2.354518 255 255 0
0.022877 -0.114928 2.356640 255 255 0
0.038212 -0.113471 2.354704 255 255 0
0.051861 -0.112471 2.351645 255 255 0
0.065488 -0.111460 2.348645 255 255 0
0.046769 -0.119628 2.322213 255 255 0
0.038034 -0.124986 2.302905 255 255 0
0.032634 -0.129412 2.285951 255 255 0
-0.259434 -0.186776 2.281871 0 255 0
-0.243827 -0.189012 2.283027 0 255 0
-0.227356 -0.191522 2.283655 0 255 0
-0.228552 -0.187903 2.296944 0 255 0
-0.236501 -0.181965 2.314979 0 255 0
-0.224217 -0.183001 2.318688 0 255 0
-0.196714 -0.189237 2.311806 0 255 0
-0.178466 -0.192263 2.311547 0 255 0
-0.169500 -0.192097 2.317829 0 255 0
-0.165604 -0.190196 2.327649 0 255 0
-0.341159 0.096697 2.185000 255 0 0
-0.332596 0.095951 2.168000 255 0 0
-0.327138 0.096091 2.171000 255 0 0
-0.321367 0.096141 2.172000 255 0 0
-0.315444 0.096148 2.172000 255 0 0
-0.309805 0.096243 2.174000 255 0 0
-0.304573 0.096470 2.179000 255 0 0
-0.299587 0.096787 2.186000 255 0 0
-0.295099 0.097280 2.197000 255 0 0
-0.259576 0.097492 2.201000 255 0 0
-0.253563 0.097497 2.201000 255 0 0
-0.247436 0.097458 2.200000 255 0 0
-0.241423 0.097464 2.200000 255 0 0
-0.234767 0.097203 2.194000 255 0 0
-0.228144 0.096942 2.188000 255 0 0
-0.221552 0.096681 2.182000 255 0 0
-0.215190 0.096509 2.178000 255 0 0
-0.209137 0.096469 2.177000 255 0 0
-0.202902 0.096341 2.174000 255 0 0
-0.196683 0.096212 2.171000 255 0 0
-0.190304 0.095995 2.166000 255 0 0
-0.184036 0.095822 2.162000 255 0 0
-0.177625 0.095560 2.156000 255 0 0
-0.171405 0.095386 2.152000 255 0 0
-0.165206 0.095213 2.148000 255 0 0
-0.159029 0.095039 2.144000 255 0 0
-0.152944 0.094910 2.141000 255 0 0
-0.146875 0.094780 2.138000 255 0 0
-0.140822 0.094650 2.135000 255 0 0
-0.134785 0.094521 2.132000 255 0 0
-0.128945 0.094523 2.132000 255 0 0
-0.123105 0.094526 2.132000 255 0 0
-0.117264 0.094529 2.132000 255 0 0
-0.111318 0.094443 2.130000 255 0 0
-0.105382 0.094357 2.128000 255 0 0
-0.099504 0.094315 2.127000 255 0 0
-0.093719 0.094361 2.128000 255 0 0
-0.087970 0.094452 2.130000 255 0 0
-0.082209 0.094543 2.132000 255 0 0
-0.076401 0.094589 2.133000 255 0 0
-0.070620 0.094679 2.135000 255 0 0
-0.064858 0.094814 2.138000 255 0 0
-0.059080 0.094948 2.141000 255 0 0
-0.053334 0.095172 2.146000 255 0 0
-0.047517 0.095306 2.149000 255 0 0
-0.041683 0.095440 2.152000 255 0 0
-0.035782 0.095441 2.152000 255 0 0
-0.029937 0.095619 2.156000 255 0 0
-0.024037 0.095664 2.157000 255 0 0
-0.018122 0.095664 2.157000 255 0 0
-0.012202 0.095620 2.156000 255 0 0
-0.006293 0.095665 2.157000 255 0 0
-0.000378 0.095665 2.157000 255 0 0
0.005539 0.095709 2.158000 255 0 0
0.011462 0.095753 2.159000 255 0 0
0.017414 0.095930 2.163000 255 0 0
0.023345 0.095930 2.163000 255 0 0
0.029303 0.096018 2.165000 255 0 0
0.035256 0.096062 2.166000 255 0 0
0.041290 0.096283 2.171000 255 0 0
0.047351 0.096503 2.176000 255 0 0
0.053440 0.096724 2.181000 255 0 0
0.059528 0.096900 2.185000 255 0 0
0.065578 0.096987 2.187000 255 0 0
0.071704 0.097163 2.191000 255 0 0
0.077817 0.097294 2.194000 255 0 0
0.083984 0.097470 2.198000 255 0 0
0.090950 0.098488 2.221000 255 0 0
0.139320 0.098245 2.216000 255 0 0
0.144602 0.097710 2.204000 255 0 0
0.149818 0.097174 2.192000 255 0 0
0.155109 0.096728 2.182000 255 0 0
0.160789 0.096547 2.178000 255 0 0
0.166675 0.096499 2.177000 255 0 0
0.172317 0.096318 2.173000 255 0 0
0.177527 0.095915 2.164000 255 0 0
-0.207057 -0.158137 2.344067 255 255 0
-0.197267 -0.158439 2.337190 255 255 0
-0.176569 -0.155713 2.337749 255 255 0
-0.090855 -0.137840 2.369602 255 255 0
-0.071990 -0.135504 2.369444 255 255 0
-0.045628 -0.131043 2.374591 255 255 0
-0.024330 -0.127966 2.376384 255 255 0
-0.006409 -0.125811 2.375946 255 255 0
-0.010196 -0.129765 2.360339 255 255 0
-0.003974 -0.130894 2.351758 255 255 0
0.028867 -0.124454 2.362129 255 255 0
0.039205 -0.124379 2.356631 255 255 0
0.049528 -0.124297 2.351174 255 255 0
0.057705 -0.127684 2.331356 255 255 0
0.039864 -0.135701 2.305437 255 255 0
0.034469 -0.140155 2.288490 255 255 0
-0.243118 -0.203605 2.271328 0 255 0
-0.243468 -0.200268 2.284016 0 255 0
-0.228686 -0.202230 2.285865 0 255 0
-0.218935 -0.202416 2.291374 0 255 0
-0.253829 -0.187056 2.328502 0 255 0
-0.223854 -0.194276 2.319714 0 255 0
-0.196365 -0.200585 2.312859 0 255 0
-0.170522 -0.206280 2.307326 0 255 0
-0.166624 -0.204380 2.317157 0 255 0
-0.158493 -0.203932 2.324077 0 255 0
-0.055361 -0.206219 2.380951 0 255 0
-0.049678 -0.204832 2.389926 0 255 0
-0.338355 0.089973 2.167000 255 0 0
-0.333063 0.090145 2.171000 255 0 0
-0.327295 0.090193 2.172000 255 0 0
-0.321669 0.090282 2.174000 255 0 0
-0.315595 0.090247 2.173000 255 0 0
-0.309811 0.090294 2.174000 255 0 0
-0.304439 0.090466 2.178000 255 0 0
-0.299593 0.090804 2.186000 255 0 0
-0.295239 0.091309 2.198000 255 0 0
-0.257694 0.090801 2.185000 255 0 0
-0.253453 0.091430 2.200000 255 0 0
-0.247441 0.091435 2.200000 255 0 0
-0.241428 0.091440 2.200000 255 0 0
-0.234986 0.091278 2.196000 255 0 0
-0.228357 0.091034 2.190000 255 0 0
-0.221963 0.090872 2.186000 255 0 0
-0.215590 0.090710 2.182000 255 0 0
-0.209526 0.090673 2.181000 255 0 0
-0.203093 0.090469 2.176000 255 0 0
-0.196687 0.090266 2.171000 255 0 0
-0.190483 0.090145 2.168000 255 0 0
-0.184380 0.090066 2.166000 255 0 0
-0.178040 0.089861 2.161000 255 0 0
-0.171807 0.089699 2.157000 255 0 0
-0.165594 0.089536 2.153000 255 0 0
-0.159329 0.089331 2.148000 255 0 0
-0.153162 0.089168 2.144000 255 0 0
-0.147085 0.089047 2.141000 255 0 0
-0.141023 0.088925 2.138000 255 0 0
-0.135041 0.088845 2.136000 255 0 0
-0.129129 0.088806 2.135000 255 0 0
-0.123223 0.088767 2.134000 255 0 0
-0.117376 0.088770 2.134000 255 0 0
-0.111372 0.088647 2.131000 255 0 0
-0.105533 0.088650 2.131000 255 0 0
-0.099647 0.088610 2.130000 255 0 0
-0.093941 0.088737 2.133000 255 0 0
-0.088219 0.088864 2.136000 255 0 0
-0.082403 0.088907 2.137000 255 0 0
-0.076617 0.088992 2.139000 255 0 0
-0.070721 0.088952 2.138000 255 0 0
-0.064950 0.089079 2.141000 255 0 0
-0.059136 0.089163 2.143000 255 0 0
-0.053410 0.089414 2.149000 255 0 0
-0.047584 0.089540 2.152000 255 0 0
-0.041722 0.089624 2.154000 255 0 0
-0.035833 0.089667 2.155000 255 0 0
-0.029924 0.089667 2.155000 255 0 0
-0.024015 0.089668 2.155000 255 0 0
-0.018106 0.089668 2.155000 255 0 0
-0.012202 0.089710 2.156000 255 0 0
-0.006290 0.089711 2.156000 255 0 0
-0.000378 0.089669 2.155000 255 0 0
0.005534 0.089711 2.156000 255 0 0
0.011457 0.089794 2.158000 255 0 0
0.017399 0.089918 2.161000 255 0 0
0.023346 0.090001 2.163000 255 0 0
0.029318 0.090125 2.166000 255 0 0
0.035322 0.090291 2.170000 255 0 0
0.041367 0.090498 2.175000 255 0 0
0.047461 0.090747 2.181000 255 0 0
0.053514 0.090871 2.184000 255 0 0
0.059529 0.090911 2.185000 255 0 0
0.065610 0.091034 2.188000 255 0 0
0.071706 0.091158 2.191000 255 0 0
0.077783 0.091239 2.193000 255 0 0
0.083756 0.091196 2.192000 255 0 0
0.090583 0.092026 2.212000 255 0 0
0.139826 0.092506 2.224000 255 0 0
0.144736 0.091754 2.206000 255 0 0
0.149958 0.091252 2.194000 255 0 0
0.155255 0.090832 2.184000 255 0 0
0.161014 0.090704 2.181000 255 0 0
0.166908 0.090659 2.180000 255 0 0
0.172559 0.090489 2.176000 255 0 0
0.177613 0.090028 2.165000 255 0 0
-0.085626 -0.147890 2.374494 255 255 0
-0.079326 -0.149050 2.365694 255 255 0
-0.064671 -0.147839 2.362696 255 255 0
-0.047536 -0.145904 2.361507 255 255 0
-0.022921 -0.141815 2.365652 255 255 0
-0.006685 -0.140085 2.364062 255 255 0
0.005362 -0.139534 2.359605 255 255 0
0.009906 -0.141127 2.349879 255 255 0
0.046012 -0.133616 2.362716 255 255 0
0.023137 -0.143108 2.333423 255 255 0
0.035131 -0.142531 2.329114 255 255 0
0.045450 -0.142426 2.323653 255 255 0
0.059889 -0.141108 2.321250 255 255 0
-0.262064 -0.208038 2.286240 0 255 0
-0.233875 -0.214810 2.278379 0 255 0
-0.229176 -0.213240 2.287476 0 255 0
-0.218587 -0.213742 2.292397 0 255 0
-0.214721 -0.211868 2.302124 0 255 0
-0.192645 -0.213127 2.311556 0 255 0
-0.187918 -0.211536 2.320748 0 255 0
-0.165444 -0.216107 2.317665 0 255 0
-0.154776 -0.216552 2.322851 0 255 0
-0.065846 -0.217523 2.376576 0 255 0
-0.340860 0.084665 2.183000 255 0 0
-0.332915 0.084167 2.170000 255 0 0
-0.327150 0.084212 2.171000 255 0 0
-0.321527 0.084295 2.173000 255 0 0
-0.315456 0.084262 2.172000 255 0 0
-0.309816 0.084345 2.174000 255 0 0
-0.304445 0.084506 2.178000 255 0 0
-0.299598 0.084822 2.186000 255 0 0
-0.295916 0.085487 2.203000 255 0 0
-0.259351 0.085362 2.199000 255 0 0
-0.253573 0.085445 2.201000 255 0 0
-0.247446 0.085411 2.200000 255 0 0
-0.241323 0.085376 2.199000 255 0 0
-0.234884 0.085226 2.195000 255 0 0
-0.228466 0.085075 2.191000 255 0 0
-0.221967 0.084885 2.186000 255 0 0
-0.215594 0.084734 2.182000 255 0 0
-0.209242 0.084583 2.178000 255 0 0
-0.202817 0.084392 2.173000 255 0 0
-0.196601 0.084280 2.170000 255 0 0
-0.190487 0.084206 2.168000 255 0 0
-0.184554 0.084209 2.168000 255 0 0
-0.178374 0.084096 2.165000 255 0 0
-0.172129 0.083944 2.161000 255 0 0
-0.165829 0.083754 2.156000 255 0 0
-0.159629 0.083601 2.152000 255 0 0
-0.153451 0.083449 2.148000 255 0 0
-0.147431 0.083374 2.146000 255 0 0
-0.141356 0.083261 2.143000 255 0 0
-0.135297 0.083147 2.140000 255 0 0
-0.129434 0.083150 2.140000 255 0 0
-0.123630 0.083191 2.141000 255 0 0
-0.117874 0.083271 2.143000 255 0 0
-0.111793 0.083118 2.139000 255 0 0
-0.105833 0.083042 2.137000 255 0 0
-0.099929 0.083006 2.136000 255 0 0
-0.094164 0.083085 2.138000 255 0 0
-0.088345 0.083126 2.139000 255 0 0
-0.082482 0.083128 2.139000 255 0 0
-0.076655 0.083168 2.140000 255 0 0
-0.070788 0.083170 2.140000 255 0 0
-0.064982 0.083249 2.142000 255 0 0
-0.059137 0.083289 2.143000 255 0 0
-0.053336 0.083407 2.146000 255 0 0
-0.047475 0.083447 2.147000 255 0 0
-0.041627 0.083525 2.149000 255 0 0
-0.035767 0.083604 2.151000 255 0 0
-0.029883 0.083643 2.152000 255 0 0
-0.023993 0.083683 2.153000 255 0 0
-0.018098 0.083722 2.154000 255 0 0
-0.012185 0.083683 2.153000 255 0 0
-0.006278 0.083645 2.152000 255 0 0
-0.000377 0.083606 2.151000 255 0 0
0.005527 0.083684 2.153000 255 0 0
0.011452 0.083839 2.157000 255 0 0
0.017399 0.083994 2.161000 255 0 0
0.023390 0.084227 2.167000 255 0 0
0.029372 0.084343 2.170000 255 0 0
0.035388 0.084498 2.174000 255 0 0
0.041425 0.084652 2.178000 255 0 0
0.047506 0.084846 2.183000 255 0 0
0.053589 0.085000 2.187000 255 0 0
0.059612 0.085038 2.188000 255 0 0
0.065671 0.085115 2.190000 255 0 0
0.071740 0.085191 2.192000 255 0 0
0.077749 0.085189 2.192000 255 0 0
0.083720 0.085149 2.191000 255 0 0
0.090258 0.085652 2.204000 255 0 0
0.139640 0.086294 2.221000 255 0 0
0.144542 0.085592 2.203000 255 0 0
0.149824 0.085162 2.192000 255 0 0
0.155258 0.084848 2.184000 255 0 0
0.160943 0.084690 2.180000 255 0 0
0.166912 0.084686 2.180000 255 0 0
0.172562 0.084528 2.176000 255 0 0
0.177698 0.084136 2.166000 255 0 0
0.181083 0.082967 2.136000 255 0 0
-0.078287 -0.160265 2.367712 255 255 0
-0.061131 -0.158301 2.366437 255 255 0
-0.052351 -0.158721 2.359439 255 255 0
-0.018570 -0.151925 2.369961 255 255 0
-0.001510 -0.149913 2.368955 255 255 0
0.007200 -0.150299 2.362150 255 255 0
0.011744 -0.151888 2.352422 255 255 0
0.020437 -0.152265 2.345666 255 255 0
0.033265 -0.151423 2.341918 255 255 0
0.019564 -0.158349 2.319088 255 255 0
0.037346 -0.156040 2.318974 255 255 0
-0.239568 -0.230455 2.258769 0 255 0
-0.255834 -0.221381 2.282986 0 255 0
-0.241921 -0.223127 2.285407 0 255 0
-0.222109 -0.226954 2.283695 0 255 0
-0.214879 -0.226278 2.291039 0 255 0
-0.203435 -0.227089 2.295433 0 255 0
-0.190292 -0.228484 2.298693 0 255 0
-0.193148 -0.224219 2.313210 0 255 0
-0.181671 -0.225006 2.317715 0 255 0
-0.165113 -0.227559 2.318762 0 255 0
-0.140079 -0.233051 2.314071 0 255 0
-0.064127 -0.226355 2.389553 0 255 0
-0.048211 -0.228465 2.391874 0 255 0
-0.332307 0.078086 2.166000 255 0 0
-0.327156 0.078272 2.171000 255 0 0
-0.321976 0.078457 2.176000 255 0 0
-0.315897 0.078427 2.175000 255 0 0
-0.310107 0.078468 2.176000 255 0 0
-0.304869 0.078653 2.181000 255 0 0
-0.299878 0.078911 2.188000 255 0 0
-0.296727 0.079673 2.209000 255 0 0
-0.260299 0.079630 2.207000 255 0 0
-0.253808 0.079490 2.203000 255 0 0
-0.247675 0.079458 2.202000 255 0 0
-0.241437 0.079391 2.200000 255 0 0
-0.234995 0.079250 2.196000 255 0 0
-0.228679 0.079146 2.193000 255 0 0
-0.222175 0.078970 2.188000 255 0 0
-0.215598 0.078757 2.182000 255 0 0
-0.208958 0.078508 2.175000 255 0 0
-0.202541 0.078331 2.170000 255 0 0
-0.196332 0.078227 2.167000 255 0 0
-0.190403 0.078230 2.167000 255 0 0
-0.184473 0.078234 2.167000 255 0 0
-0.178459 0.078201 2.166000 255 0 0
-0.172371 0.078132 2.164000 255 0 0
-0.166139 0.077991 2.160000 255 0 0
-0.160151 0.077957 2.159000 255 0 0
-0.154025 0.077852 2.156000 255 0 0
-0.147984 0.077783 2.154000 255 0 0
-0.141754 0.077605 2.149000 255 0 0
-0.135678 0.077499 2.146000 255 0 0
-0.129739 0.077465 2.145000 255 0 0
-0.123805 0.077431 2.144000 255 0 0
-0.117876 0.077398 2.143000 255 0 0
-0.111847 0.077291 2.140000 255 0 0
-0.105983 0.077293 2.140000 255 0 0
-0.100165 0.077332 2.141000 255 0 0
-0.094342 0.077369 2.142000 255 0 0
-0.088429 0.077335 2.141000 255 0 0
-0.082599 0.077373 2.142000 255 0 0
-0.076728 0.077374 2.142000 255 0 0
-0.070922 0.077448 2.144000 255 0 0
-0.065074 0.077485 2.145000 255 0 0
-0.059221 0.077523 2.146000 255 0 0
-0.053337 0.077524 2.146000 255 0 0
-0.047453 0.077525 2.146000 255 0 0
-0.041589 0.077562 2.147000 255 0 0
-0.035735 0.077635 2.149000 255 0 0
-0.029856 0.077671 2.150000 255 0 0
-0.023960 0.077672 2.150000 255 0 0
-0.018073 0.077708 2.151000 255 0 0
-0.012186 0.077781 2.153000 255 0 0
-0.006281 0.077781 2.153000 255 0 0
-0.000378 0.077890 2.156000 255 0 0
0.005540 0.077962 2.158000 255 0 0
0.011473 0.078070 2.161000 255 0 0
0.017416 0.078142 2.163000 255 0 0
0.023423 0.078394 2.170000 255 0 0
0.029427 0.078538 2.174000 255 0 0
0.035454 0.078682 2.178000 255 0 0
0.041445 0.078718 2.179000 255 0 0
0.047550 0.078934 2.185000 255 0 0
0.053590 0.079005 2.187000 255 0 0
0.059641 0.079076 2.189000 255 0 0
0.065702 0.079147 2.191000 255 0 0
0.071742 0.079182 2.192000 255 0 0
0.077822 0.079253 2.194000 255 0 0
0.083760 0.079179 2.192000 255 0 0
0.090341 0.079683 2.206000 255 0 0
0.140397 0.080641 2.233000 255 0 0
0.144414 0.079483 2.201000 255 0 0
0.149690 0.079083 2.190000 255 0 0
0.155048 0.078755 2.181000 255 0 0
0.160798 0.078644 2.178000 255 0 0
0.166762 0.078641 2.178000 255 0 0
0.172486 0.078529 2.175000 255 0 0
0.177373 0.078057 2.162000 255 0 0
-0.088568 -0.171788 2.375108 255 255 0
-0.074740 -0.170760 2.371458 255 255 0
-0.055923 -0.168268 2.371332 255 255 0
-0.038807 -0.166245 2.370139 255 255 0
-0.005888 -0.159591 2.380091 255 255 0
0.006990 -0.158747 2.376183 255 255 0
0.009039 -0.161064 2.364695 255 255 0
0.016074 -0.161916 2.356737 255 255 0
0.038866 -0.158115 2.360054 255 255 0
0.032608 -0.162874 2.342667 255 255 0
0.020576 -0.169363 2.321037 255 255 0
0.018502 -0.172917 2.306512 255 255 0
-0.205447 -0.257334 2.222648 0 255 0
-0.226670 -0.246342 2.250667 0 255 0
-0.216933 -0.246591 2.256190 0 255 0
-0.230669 -0.238364 2.278592 0 255 0
-0.209177 -0.242838 2.275737 0 255 0
-0.210338 -0.239152 2.289093 0 255 0
-0.210667 -0.235773 2.301827 0 255 0
-0.202585 -0.235401 2.308628 0 255 0
-0.197865 -0.233823 2.317811 0 255 0
-0.177964 -0.237630 2.316453 0 255 0
-0.134695 -0.246373 2.311713 0 255 0
-0.053313 -0.244947 2.371225 0 255 0
-0.042515 -0.245336 2.376901 0 255 0
-0.038527 -0.243378 2.387047 0 255 0
-0.030269 -0.242877 2.394446 0 255 0
-0.332439 0.070922 2.129000 255 0 0
-0.331545 0.071993 2.161000 255 0 0
-0.326860 0.072265 2.169000 255 0 0
-0.321685 0.072436 2.174000 255 0 0
-0.315757 0.072441 2.174000 255 0 0
-0.309969 0.072479 2.175000 255 0 0
-0.304874 0.072684 2.181000 255 0 0
-0.300020 0.072956 2.189000 255 0 0
-0.260657 0.073687 2.210000 255 0 0
-0.254042 0.073524 2.205000 255 0 0
-0.247679 0.073428 2.202000 255 0 0
-0.241441 0.073365 2.200000 255 0 0
-0.234892 0.073203 2.195000 255 0 0
-0.228683 0.073140 2.193000 255 0 0
-0.222280 0.073010 2.189000 255 0 0
-0.215799 0.072847 2.184000 255 0 0
-0.209057 0.072584 2.176000 255 0 0
-0.202545 0.072387 2.170000 255 0 0
-0.196336 0.072290 2.167000 255 0 0
-0.190231 0.072227 2.165000 255 0 0
-0.184306 0.072230 2.165000 255 0 0
-0.178298 0.072199 2.164000 255 0 0
-0.172135 0.072102 2.161000 255 0 0
-0.166065 0.072038 2.159000 255 0 0
-0.160154 0.072041 2.159000 255 0 0
-0.154171 0.072010 2.158000 255 0 0
-0.148192 0.071980 2.157000 255 0 0
-0.141889 0.071782 2.151000 255 0 0
-0.135871 0.071718 2.149000 255 0 0
-0.129923 0.071686 2.148000 255 0 0
-0.124096 0.071722 2.149000 255 0 0
-0.118208 0.071724 2.149000 255 0 0
-0.112267 0.071693 2.148000 255 0 0
-0.106431 0.071728 2.149000 255 0 0
-0.100448 0.071663 2.147000 255 0 0
-0.094519 0.071631 2.146000 255 0 0
-0.088514 0.071533 2.143000 255 0 0
-0.082678 0.071568 2.144000 255 0 0
-0.076837 0.071602 2.145000 255 0 0
-0.071022 0.071671 2.147000 255 0 0
-0.065136 0.071672 2.147000 255 0 0
-0.059222 0.071639 2.146000 255 0 0
-0.053314 0.071607 2.145000 255 0 0
-0.047476 0.071675 2.147000 255 0 0
-0.041589 0.071675 2.147000 255 0 0
-0.035735 0.071743 2.149000 255 0 0
-0.029842 0.071744 2.149000 255 0 0
-0.023972 0.071811 2.151000 255 0 0
-0.018082 0.071844 2.152000 255 0 0
-0.012186 0.071878 2.153000 255 0 0
-0.006287 0.071945 2.155000 255 0 0
-0.000378 0.072012 2.157000 255 0 0
0.005542 0.072079 2.159000 255 0 0
0.011484 0.072212 2.163000 255 0 0
0.017440 0.072312 2.166000 255 0 0
0.023434 0.072478 2.171000 255 0 0
0.029414 0.072545 2.173000 255 0 0
0.035422 0.072644 2.176000 255 0 0
0.041408 0.072677 2.177000 255 0 0
0.047507 0.072877 2.183000 255 0 0
0.053567 0.072976 2.186000 255 0 0
0.059615 0.073042 2.188000 255 0 0
0.065643 0.073074 2.189000 255 0 0
0.071710 0.073140 2.191000 255 0 0
0.077894 0.073305 2.196000 255 0 0
0.083990 0.073370 2.198000 255 0 0
0.090671 0.073903 2.214000 255 0 0
0.144154 0.073317 2.197000 255 0 0
0.149488 0.072981 2.187000 255 0 0
0.154979 0.072745 2.180000 255 0 0
0.160580 0.072575 2.175000 255 0 0
0.166382 0.072506 2.173000 255 0 0
0.172014 0.072370 2.169000 255 0 0
0.177048 0.072000 2.158000 255 0 0
0.178462 0.070228 2.105000 255 0 0
-0.082507 -0.181575 2.380569 255 255 0
-0.070360 -0.181000 2.375775 255 255 0
-0.051553 -0.178459 2.375646 255 255 0
-0.019440 -0.171979 2.384877 255 255 0
0.011324 -0.168770 2.380481 255 255 0
0.011708 -0.171582 2.367828 255 255 0
0.021231 -0.171682 2.361637 255 255 0
0.045208 -0.170376 2.352930 255 255 0
0.034000 -0.176660 2.331941 255 255 0
-0.234709 -0.254668 2.257736 0 255 0
-0.240056 -0.249442 2.274106 0 255 0
-0.209375 -0.257344 2.264591 0 255 0
-0.195425 -0.259120 2.267206 0 255 0
-0.201608 -0.253588 2.284180 0 255 0
-0.200244 -0.250798 2.295759 0 255 0
-0.203930 -0.246193 2.310869 0 255 0
-0.199211 -0.244621 2.320057 0 255 0
-0.181005 -0.247875 2.319886 0 255 0
-0.146748 -0.256836 2.308729 0 255 0
-0.127632 -0.260343 2.308206 0 255 0
-0.028598 -0.261803 2.369285 0 255 0
-0.040790 -0.254234 2.389976 0 255 0
-0.336191 0.065831 2.153000 255 0 0
-0.331704 0.066111 2.162000 255 0 0
-0.326865 0.066330 2.169000 255 0 0
-0.321838 0.066518 2.175000 255 0 0
-0.316197 0.066584 2.177000 255 0 0
-0.310259 0.066588 2.177000 255 0 0
-0.305019 0.066745 2.182000 255 0 0
-0.300298 0.067025 2.191000 255 0 0
-0.259953 0.067451 2.204000 255 0 0
-0.253701 0.067394 2.202000 255 0 0
-0.247571 0.067367 2.201000 255 0 0
-0.241445 0.067340 2.200000 255 0 0
-0.235003 0.067221 2.196000 255 0 0
-0.228791 0.067163 2.194000 255 0 0
-0.222487 0.067075 2.191000 255 0 0
-0.216099 0.066956 2.187000 255 0 0
-0.209349 0.066714 2.179000 255 0 0
-0.202735 0.066503 2.172000 255 0 0
-0.196520 0.066414 2.169000 255 0 0
-0.190409 0.066356 2.167000 255 0 0
-0.184479 0.066359 2.167000 255 0 0
-0.178383 0.066300 2.165000 255 0 0
-0.172297 0.066242 2.163000 255 0 0
-0.166299 0.066214 2.162000 255 0 0
-0.160305 0.066186 2.161000 255 0 0
-0.154245 0.066127 2.159000 255 0 0
-0.148057 0.066007 2.155000 255 0 0
-0.141891 0.065887 2.151000 255 0 0
-0.136062 0.065920 2.152000 255 0 0
-0.130107 0.065891 2.151000 255 0 0
-0.124214 0.065893 2.151000 255 0 0
-0.118155 0.065803 2.148000 255 0 0
-0.112269 0.065805 2.148000 255 0 0
-0.106433 0.065837 2.149000 255 0 0
-0.100543 0.065839 2.149000 255 0 0
-0.094653 0.065840 2.149000 255 0 0
-0.088680 0.065781 2.147000 255 0 0
-0.082872 0.065843 2.149000 255 0 0
-0.077053 0.065906 2.151000 255 0 0
-0.071255 0.065999 2.154000 255 0 0
-0.065319 0.065969 2.153000 255 0 0
-0.059334 0.065878 2.150000 255 0 0
-0.053364 0.065787 2.147000 255 0 0
-0.047499 0.065819 2.148000 255 0 0
-0.041629 0.065850 2.149000 255 0 0
-0.035753 0.065882 2.150000 255 0 0
-0.029871 0.065913 2.151000 255 0 0
-0.023983 0.065944 2.152000 255 0 0
-0.018090 0.065975 2.153000 255 0 0
-0.012197 0.066036 2.155000 255 0 0
-0.006296 0.066128 2.158000 255 0 0
-0.000379 0.066190 2.160000 255 0 0
0.005548 0.066220 2.161000 255 0 0
0.011484 0.066281 2.163000 255 0 0
0.017440 0.066373 2.166000 255 0 0
0.023434 0.066526 2.171000 255 0 0
0.029415 0.066587 2.173000 255 0 0
0.035422 0.066678 2.176000 255 0 0
0.041408 0.066708 2.177000 255 0 0
0.047487 0.066861 2.182000 255 0 0
0.053543 0.066952 2.185000 255 0 0
0.059561 0.066982 2.186000 255 0 0
0.065615 0.067042 2.188000 255 0 0
0.071711 0.067133 2.191000 255 0 0
0.077931 0.067315 2.197000 255 0 0
0.084145 0.067467 2.202000 255 0 0
0.140213 0.068309 2.230000 255 0 0
0.144025 0.067235 2.195000 255 0 0
0.149354 0.066926 2.185000 255 0 0
0.154911 0.066740 2.179000 255 0 0
0.160435 0.066554 2.173000 255 0 0
0.166231 0.066490 2.171000 255 0 0
0.171937 0.066395 2.168000 255 0 0
0.177215 0.066148 2.160000 255 0 0
0.178210 0.064369 2.102000 255 0 0
0.188951 0.066111 2.159000 255 0 0
-0.087318 -0.194538 2.378601 255 255 0
-0.070158 -0.192459 2.377222 255 255 0
-0.054695 -0.190860 2.374773 255 255 0
-0.023424 -0.184541 2.383388 255 255 0
-0.003868 -0.181667 2.384034 255 255 0
0.011497 -0.180020 2.381858 255 255 0
0.021851 -0.179854 2.376235 255 255 0
0.027214 -0.181178 2.367123 255 255 0
0.036716 -0.181250 2.360976 255 255 0
0.043721 -0.182067 2.353084 255 255 0
0.047411 -0.183884 2.342828 255 255 0
-0.245764 -0.265125 2.254474 0 255 0
-0.256955 -0.257711 2.275083 0 255 0
-0.232185 -0.263566 2.269691 0 255 0
-0.209890 -0.268470 2.266230 0 255 0
-0.203492 -0.267515 2.274237 0 255 0
-0.202121 -0.264718 2.285831 0 255 0
-0.219233 -0.255190 2.310446 0 255 0
-0.204436 -0.257296 2.312523 0 255 0
-0.206447 -0.253289 2.326416 0 255 0
-0.184887 -0.257812 2.323903 0 255 0
-0.129017 -0.271336 2.310513 0 255 0
-0.041934 -0.268831 2.379432 0 255 0
-0.042202 -0.265388 2.392354 0 255 0
-0.331861 0.060223 2.163000 255 0 0
-0.327170 0.060450 2.171000 255 0 0
-0.321842 0.060566 2.175000 255 0 0
-0.316056 0.060598 2.176000 255 0 0
-0.309978 0.060574 2.175000 255 0 0
-0.304743 0.060717 2.180000 255 0 0
-0.300165 0.061000 2.190000 255 0 0
-0.259603 0.061332 2.201000 255 0 0
-0.253359 0.061280 2.199000 255 0 0
-0.247237 0.061255 2.198000 255 0 0
-0.241229 0.061259 2.198000 255 0 0
-0.234792 0.061151 2.194000 255 0 0
-0.228585 0.061098 2.192000 255 0 0
-0.222084 0.060962 2.187000 255 0 0
-0.215806 0.060881 2.184000 255 0 0
-0.209352 0.060745 2.179000 255 0 0
-0.202737 0.060552 2.172000 255 0 0
-0.196523 0.060472 2.169000 255 0 0
-0.190236 0.060363 2.165000 255 0 0
-0.184397 0.060393 2.166000 255 0 0
-0.178386 0.060368 2.165000 255 0 0
-0.172300 0.060315 2.163000 255 0 0
-0.166224 0.060261 2.161000 255 0 0
-0.160159 0.060208 2.159000 255 0 0
-0.154247 0.060210 2.159000 255 0 0
-0.148197 0.060156 2.157000 255 0 0
-0.142157 0.060103 2.155000 255 0 0
-0.136317 0.060133 2.156000 255 0 0
-0.130351 0.060107 2.155000 255 0 0
-0.124447 0.060108 2.155000 255 0 0
-0.118377 0.060027 2.152000 255 0 0
-0.112585 0.060084 2.154000 255 0 0
-0.106632 0.060058 2.153000 255 0 0
-0.100779 0.060087 2.154000 255 0 0
-0.094787 0.060033 2.152000 255 0 0
-0.088806 0.059978 2.150000 255 0 0
-0.082912 0.059980 2.150000 255 0 0
-0.077090 0.060037 2.152000 255 0 0
-0.071256 0.060093 2.154000 255 0 0
-0.065260 0.060011 2.151000 255 0 0
-0.059279 0.059928 2.148000 255 0 0
-0.053315 0.059845 2.145000 255 0 0
-0.047478 0.059902 2.147000 255 0 0
-0.041629 0.059958 2.149000 255 0 0
-0.035770 0.060014 2.151000 255 0 0
-0.029871 0.060015 2.151000 255 0 0
-0.023995 0.060071 2.153000 255 0 0
-0.018099 0.060099 2.154000 255 0 0
-0.012209 0.060183 2.157000 255 0 0
-0.006299 0.060239 2.159000 255 0 0
-0.000378 0.060239 2.159000 255 0 0
0.005543 0.060239 2.159000 255 0 0
0.011479 0.060323 2.162000 255 0 0
0.017441 0.060434 2.166000 255 0 0
0.023435 0.060573 2.171000 255 0 0
0.029415 0.060629 2.173000 255 0 0
0.035390 0.060656 2.174000 255 0 0
0.041390 0.060711 2.176000 255 0 0
0.047444 0.060822 2.180000 255 0 0
0.053544 0.060961 2.185000 255 0 0
0.059589 0.061016 2.187000 255 0 0
0.065646 0.061071 2.189000 255 0 0
0.071713 0.061126 2.191000 255 0 0
0.077861 0.061236 2.195000 255 0 0
0.084222 0.061486 2.204000 255 0 0
0.134347 0.062310 2.234000 255 0 0
0.140341 0.062253 2.232000 255 0 0
0.144290 0.061330 2.199000 255 0 0
0.149424 0.060965 2.186000 255 0 0
0.154913 0.060768 2.179000 255 0 0
0.160437 0.060599 2.173000 255 0 0
0.166234 0.060540 2.171000 255 0 0
0.172019 0.060482 2.169000 255 0 0
0.177464 0.060312 2.163000 255 0 0
0.178552 0.058721 2.106000 255 0 0
0.184928 0.058913 2.113000 255 0 0
-0.064946 -0.202432 2.382110 255 255 0
-0.051161 -0.201294 2.378510 255 255 0
-0.034066 -0.199143 2.377285 255 255 0
0.018320 -0.189270 2.387902 255 255 0
0.026175 -0.189835 2.380534 255 255 0
0.029875 -0.191656 2.370251 255 255 0
0.037716 -0.192214 2.362921 255 255 0
0.054650 -0.189983 2.362140 255 255 0
0.050064 -0.194329 2.345956 255 255 0
-0.244079 -0.273703 2.267010 0 255 0
-0.235201 -0.273712 2.273118 0 255 0
-0.217105 -0.277125 2.272667 0 255 0
-0.209037 -0.276804 2.279468 0 255 0
-0.221925 -0.268749 2.301152 0 255 0
-0.241557 -0.258245 2.327473 0 255 0
-0.254510 -0.250235 2.348940 0 255 0
-0.221245 -0.259159 2.338047 0 255 0
-0.178669 -0.271421 2.320909 0 255 0
-0.157081 -0.275972 2.318546 0 255 0
-0.162439 -0.270710 2.334823 0 255 0
-0.041649 -0.280601 2.380705 0 255 0
-0.040210 -0.277748 2.392529 0 255 0
-0.043885 -0.273099 2.407634 0 255 0
-0.332172 0.054355 2.165000 255 0 0
-0.327476 0.054560 2.173000 255 0 0
-0.321698 0.054588 2.174000 255 0 0
-0.315769 0.054592 2.174000 255 0 0
-0.309554 0.054545 2.172000 255 0 0
-0.304467 0.054700 2.178000 255 0 0
-0.300169 0.055005 2.190000 255 0 0
-0.297954 0.055712 2.218000 255 0 0
-0.268878 0.055980 2.228000 255 0 0
-0.259606 0.055305 2.201000 255 0 0
-0.253132 0.055207 2.197000 255 0 0
-0.247015 0.055185 2.196000 255 0 0
-0.240793 0.055138 2.194000 255 0 0
-0.234474 0.055065 2.191000 255 0 0
-0.228067 0.054968 2.187000 255 0 0
-0.221680 0.054870 2.183000 255 0 0
-0.215512 0.054822 2.181000 255 0 0
-0.209259 0.054750 2.178000 255 0 0
-0.202834 0.054627 2.173000 255 0 0
-0.196526 0.054529 2.169000 255 0 0
-0.190239 0.054430 2.165000 255 0 0
-0.184399 0.054458 2.166000 255 0 0
-0.178306 0.054410 2.164000 255 0 0
-0.172223 0.054362 2.162000 255 0 0
-0.166150 0.054314 2.160000 255 0 0
-0.160161 0.054291 2.159000 255 0 0
-0.154249 0.054293 2.159000 255 0 0
-0.148199 0.054244 2.157000 255 0 0
-0.142225 0.054221 2.156000 255 0 0
-0.136319 0.054223 2.156000 255 0 0
-0.130352 0.054200 2.155000 255 0 0
-0.124333 0.054151 2.153000 255 0 0
-0.118324 0.054102 2.151000 255 0 0
-0.112482 0.054129 2.152000 255 0 0
-0.106535 0.054105 2.151000 255 0 0
-0.100733 0.054157 2.153000 255 0 0
-0.094788 0.054133 2.152000 255 0 0
-0.088889 0.054134 2.152000 255 0 0
-0.082990 0.054135 2.152000 255 0 0
-0.077127 0.054161 2.153000 255 0 0
-0.071224 0.054162 2.153000 255 0 0
-0.065261 0.054113 2.151000 255 0 0
-0.059280 0.054038 2.148000 255 0 0
-0.053341 0.053989 2.146000 255 0 0
-0.047479 0.054015 2.147000 255 0 0
-0.041630 0.054066 2.149000 255 0 0
-0.035804 0.054167 2.153000 255 0 0
-0.029899 0.054167 2.153000 255 0 0
-0.024017 0.054218 2.155000 255 0 0
-0.018116 0.054243 2.156000 255 0 0
-0.012215 0.054294 2.158000 255 0 0
-0.006299 0.054319 2.159000 255 0 0
-0.000378 0.054319 2.159000 255 0 0
0.005548 0.054369 2.161000 255 0 0
0.011490 0.054445 2.164000 255 0 0
0.017449 0.054520 2.167000 255 0 0
0.023424 0.054595 2.170000 255 0 0
0.029402 0.054645 2.172000 255 0 0
0.035391 0.054695 2.174000 255 0 0
0.041390 0.054745 2.176000 255 0 0
0.047444 0.054845 2.180000 255 0 0
0.053545 0.054970 2.185000 255 0 0
0.059590 0.055020 2.187000 255 0 0
0.065647 0.055069 2.189000 255 0 0
0.071714 0.055119 2.191000 255 0 0
0.077827 0.055193 2.194000 255 0 0
0.084147 0.055393 2.202000 255 0 0
0.140469 0.056185 2.234000 255 0 0
0.144357 0.055328 2.200000 255 0 0
0.149563 0.055024 2.188000 255 0 0
0.154986 0.054821 2.180000 255 0 0
0.160587 0.054693 2.175000 255 0 0
0.166466 0.054666 2.174000 255 0 0
0.172259 0.054614 2.172000 255 0 0
0.177795 0.054486 2.167000 255 0 0
0.181098 0.053704 2.136000 255 0 0
0.190007 0.054582 2.171000 255 0 0
-0.091909 -0.219082 2.378116 255 255 0
-0.056401 -0.211376 2.389284 255 255 0
-0.058462 -0.215000 2.374774 255 255 0
-0.039700 -0.212305 2.374666 255 255 0
-0.001845 -0.203765 2.387985 255 255 0
0.015170 -0.201536 2.386951 255 255 0
0.018879 -0.203361 2.376640 255 255 0
0.018444 -0.206460 2.363392 255 255 0
0.032920 -0.204969 2.360738 255 255 0
0.047374 -0.203467 2.358150 255 255 0
-0.223476 -0.286062 2.278498 0 255 0
-0.219602 -0.284198 2.288270 0 255 0
-0.235840 -0.274853 2.312290 0 255 0
-0.242886 -0.268956 2.329691 0 255 0
-0.240715 -0.266488 2.340556 0 255 0
-0.247790 -0.260610 2.357859 0 255 0
-0.167713 -0.283504 2.327224 0 255 0
-0.173916 -0.277914 2.344046 0 255 0
-0.181822 -0.271720 2.361963 0 255 0
-0.162740 -0.275377 2.361471 0 255 0
-0.132648 -0.283004 2.353654 0 255 0
-0.110117 -0.287839 2.351112 0 255 0
-0.338546 0.048494 2.168000 255 0 0
-0.333096 0.048565 2.171000 255 0 0
-0.327931 0.048680 2.176000 255 0 0
-0.321406 0.048594 2.172000 255 0 0
-0.315192 0.048552 2.170000 255 0 0
-0.309130 0.048533 2.169000 255 0 0
-0.304051 0.048671 2.175000 255 0 0
-0.299761 0.048942 2.187000 255 0 0
-0.297285 0.049527 2.213000 255 0 0
-0.267312 0.049587 2.215000 255 0 0
-0.260199 0.049389 2.206000 255 0 0
-0.253365 0.049235 2.199000 255 0 0
-0.247018 0.049170 2.196000 255 0 0
-0.240796 0.049128 2.194000 255 0 0
-0.234370 0.049041 2.190000 255 0 0
-0.227757 0.048909 2.184000 255 0 0
-0.221074 0.048755 2.177000 255 0 0
-0.214922 0.048713 2.175000 255 0 0
-0.208781 0.048670 2.173000 255 0 0
-0.202649 0.048628 2.171000 255 0 0
-0.196437 0.048563 2.168000 255 0 0
-0.190241 0.048498 2.165000 255 0 0
-0.184231 0.048478 2.164000 255 0 0
-0.178143 0.048435 2.162000 255 0 0
-0.172145 0.048414 2.161000 255 0 0
-0.166152 0.048394 2.160000 255 0 0
-0.160089 0.048351 2.158000 255 0 0
-0.154180 0.048353 2.158000 255 0 0
-0.148201 0.048332 2.157000 255 0 0
-0.142227 0.048311 2.156000 255 0 0
-0.136258 0.048291 2.155000 255 0 0
-0.130233 0.048247 2.153000 255 0 0
-0.124219 0.048204 2.151000 255 0 0
-0.118270 0.048183 2.150000 255 0 0
-0.112431 0.048207 2.151000 255 0 0
-0.106487 0.048186 2.150000 255 0 0
-0.100594 0.048187 2.150000 255 0 0
-0.094657 0.048166 2.149000 255 0 0
-0.088684 0.048122 2.147000 255 0 0
-0.082837 0.048145 2.148000 255 0 0
-0.077020 0.048191 2.150000 255 0 0
-0.071093 0.048169 2.149000 255 0 0
-0.065201 0.048170 2.149000 255 0 0
-0.059253 0.048126 2.147000 255 0 0
-0.053366 0.048127 2.147000 255 0 0
-0.047501 0.048150 2.148000 255 0 0
-0.041650 0.048195 2.150000 255 0 0
-0.035837 0.048308 2.155000 255 0 0
-0.029928 0.048308 2.155000 255 0 0
-0.024018 0.048308 2.155000 255 0 0
-0.018108 0.048309 2.155000 255 0 0
-0.012203 0.048331 2.156000 255 0 0
-0.006294 0.048354 2.157000 255 0 0
-0.000378 0.048376 2.158000 255 0 0
0.005550 0.048466 2.162000 255 0 0
0.011496 0.048533 2.165000 255 0 0
0.017457 0.048600 2.168000 255 0 0
0.023435 0.048667 2.171000 255 0 0
0.029402 0.048689 2.172000 255 0 0
0.035391 0.048734 2.174000 255 0 0
0.041391 0.048778 2.176000 255 0 0
0.047489 0.048912 2.182000 255 0 0
0.053594 0.049024 2.187000 255 0 0
0.059618 0.049045 2.188000 255 0 0
0.065737 0.049134 2.192000 255 0 0
0.071813 0.049178 2.194000 255 0 0
0.077934 0.049245 2.197000 255 0 0
0.084072 0.049311 2.200000 255 0 0
0.090881 0.049736 2.219000 255 0 0
0.136936 0.051026 2.277000 255 0 0
0.140785 0.050173 2.239000 255 0 0
0.144228 0.049253 2.198000 255 0 0
0.149701 0.049072 2.190000 255 0 0
0.155059 0.048868 2.181000 255 0 0
0.160737 0.048777 2.177000 255 0 0
0.166468 0.048708 2.174000 255 0 0
0.172420 0.048706 2.174000 255 0 0
0.177797 0.048547 2.167000 255 0 0
0.182117 0.048119 2.148000 255 0 0
0.188784 0.048319 2.157000 255 0 0
-0.076670 -0.226053 2.389838 255 255 0
-0.057035 -0.223079 2.390160 255 255 0
-0.053261 -0.224936 2.379665 255 255 0
-0.044494 -0.225259 2.372634 255 255 0
-0.019948 -0.220711 2.376640 255 255 0
-0.000428 -0.217680 2.377282 255 255 0
-0.000847 -0.220799 2.363995 255 255 0
0.002886 -0.222634 2.353620 255 255 0
0.014066 -0.222149 2.348548 255 255 0
0.023576 -0.222173 2.342339 255 255 0
-0.217913 -0.292828 2.300881 0 255 0
-0.211839 -0.288475 2.321618 0 255 0
-0.207123 -0.286925 2.330814 0 255 0
-0.202404 -0.285373 2.340018 0 255 0
-0.185064 -0.288492 2.340529 0 255 0
-0.184539 -0.285373 2.352677 0 255 0
-0.189918 -0.280083 2.368835 0 255 0
-0.180972 -0.280073 2.375207 0 255 0
-0.149223 -0.288412 2.366225 0 255 0
-0.114888 -0.297641 2.355712 0 255 0
-0.339642 0.042699 2.175000 255 0 0
-0.334020 0.042742 2.177000 255 0 0
-0.328085 0.042745 2.177000 255 0 0
-0.321409 0.042649 2.172000 255 0 0
-0.315195 0.042613 2.170000 255 0 0
-0.309276 0.042616 2.170000 255 0 0
-0.304054 0.042717 2.175000 255 0 0
-0.299216 0.042877 2.183000 255 0 0
-0.296213 0.043312 2.205000 255 0 0
-0.276944 0.044088 2.244000 255 0 0
-0.267194 0.043502 2.214000 255 0 0
-0.260202 0.043347 2.206000 255 0 0
-0.253483 0.043231 2.200000 255 0 0
-0.247020 0.043155 2.196000 255 0 0
-0.240908 0.043138 2.195000 255 0 0
-0.234480 0.043062 2.191000 255 0 0
-0.227759 0.042926 2.184000 255 0 0
-0.221279 0.042830 2.179000 255 0 0
-0.215122 0.042793 2.177000 255 0 0
-0.208975 0.042756 2.175000 255 0 0
-0.202745 0.042699 2.172000 255 0 0
-0.196440 0.042622 2.168000 255 0 0
-0.190419 0.042604 2.167000 255 0 0
-0.184148 0.042528 2.163000 255 0 0
-0.178145 0.042510 2.162000 255 0 0
-0.171988 0.042453 2.159000 255 0 0
-0.166077 0.042454 2.159000 255 0 0
-0.160017 0.042417 2.157000 255 0 0
-0.154110 0.042418 2.157000 255 0 0
-0.148065 0.042380 2.155000 255 0 0
-0.142162 0.042382 2.155000 255 0 0
-0.136133 0.042344 2.153000 255 0 0
-0.130114 0.042306 2.151000 255 0 0
-0.124105 0.042268 2.149000 255 0 0
-0.118161 0.042249 2.148000 255 0 0
-0.112275 0.042251 2.148000 255 0 0
-0.106389 0.042252 2.148000 255 0 0
-0.100455 0.042233 2.147000 255 0 0
-0.094570 0.042234 2.147000 255 0 0
-0.088644 0.042215 2.146000 255 0 0
-0.082761 0.042216 2.146000 255 0 0
-0.076949 0.042256 2.148000 255 0 0
-0.071027 0.042238 2.147000 255 0 0
-0.065202 0.042278 2.149000 255 0 0
-0.059282 0.042259 2.148000 255 0 0
-0.053417 0.042279 2.149000 255 0 0
-0.047524 0.042279 2.149000 255 0 0
-0.041650 0.042300 2.150000 255 0 0
-0.035804 0.042359 2.153000 255 0 0
-0.029914 0.042379 2.154000 255 0 0
-0.024029 0.042419 2.156000 255 0 0
-0.018116 0.042419 2.156000 255 0 0
-0.012204 0.042419 2.156000 255 0 0
-0.006294 0.042439 2.157000 255 0 0
-0.000379 0.042498 2.160000 255 0 0
0.005556 0.042576 2.164000 255 0 0
0.011512 0.042655 2.168000 255 0 0
0.017473 0.042694 2.170000 255 0 0
0.023457 0.042753 2.173000 255 0 0
0.029416 0.042753 2.173000 255 0 0
0.035408 0.042792 2.175000 255 0 0
0.041429 0.042850 2.178000 255 0 0
0.047511 0.042948 2.183000 255 0 0
0.053619 0.043046 2.188000 255 0 0
0.059646 0.043065 2.189000 255 0 0
0.065768 0.043143 2.193000 255 0 0
0.071879 0.043202 2.196000 255 0 0
0.078112 0.043319 2.202000 255 0 0
0.084302 0.043397 2.206000 255 0 0
0.091045 0.043730 2.223000 255 0 0
0.136276 0.044568 2.266000 255 0 0
0.139718 0.043701 2.222000 255 0 0
0.144230 0.043228 2.198000 255 0 0
0.149771 0.043089 2.191000 255 0 0
0.155132 0.042910 2.182000 255 0 0
0.160812 0.042830 2.178000 255 0 0
0.166546 0.042769 2.175000 255 0 0
0.172580 0.042787 2.176000 255 0 0
0.178209 0.042707 2.172000 255 0 0
0.182458 0.042312 2.152000 255 0 0
0.189574 0.042585 2.166000 255 0 0
-0.075627 -0.237308 2.391875 255 255 0
-0.054334 -0.233769 2.393324 255 255 0
-0.050560 -0.235625 2.382833 255 255 0
-0.041797 -0.235931 2.375800 255 255 0
-0.035538 -0.237007 2.367062 255 255 0
0.001000 -0.231624 2.366560 255 255 0
0.006389 -0.232939 2.357357 255 255 0
0.007638 -0.235554 2.345220 255 255 0
0.013849 -0.236606 2.336617 255 255 0
-0.216752 -0.304589 2.301348 0 255 0
-0.214549 -0.302095 2.312317 0 255 0
-0.203126 -0.303075 2.316823 0 255 0
-0.193366 -0.303415 2.322545 0 255 0
-0.202914 -0.296508 2.341693 0 255 0
-0.207440 -0.291503 2.357286 0 255 0
-0.205248 -0.289016 2.368218 0 255 0
-0.203058 -0.286530 2.379143 0 255 0
-0.190755 -0.287797 2.383201 0 255 0
-0.144688 -0.301533 2.364541 0 255 0
-0.128945 -0.304001 2.366543 0 255 0
-0.004982 -0.318745 2.399928 0 255 0
-0.008870 -0.310531 2.428041 0 255 0
-0.340113 0.036798 2.178000 255 0 0
-0.333870 0.036767 2.176000 255 0 0
-0.327937 0.036770 2.176000 255 0 0
-0.321708 0.036738 2.174000 255 0 0
-0.315343 0.036690 2.171000 255 0 0
-0.309421 0.036693 2.171000 255 0 0
-0.303917 0.036746 2.174000 255 0 0
-0.298807 0.036850 2.180000 255 0 0
-0.295007 0.037122 2.196000 255 0 0
-0.274355 0.037588 2.223000 255 0 0
-0.267076 0.037421 2.213000 255 0 0
-0.259968 0.037271 2.204000 255 0 0
-0.253370 0.037189 2.199000 255 0 0
-0.247023 0.037140 2.196000 255 0 0
-0.241130 0.037159 2.197000 255 0 0
-0.234803 0.037110 2.194000 255 0 0
-0.227970 0.036977 2.186000 255 0 0
-0.221383 0.036877 2.180000 255 0 0
-0.215124 0.036828 2.177000 255 0 0
-0.208881 0.036779 2.174000 255 0 0
-0.202653 0.036730 2.171000 255 0 0
-0.196532 0.036698 2.169000 255 0 0
-0.190597 0.036700 2.169000 255 0 0
-0.184235 0.036617 2.164000 255 0 0
-0.178229 0.036602 2.163000 255 0 0
-0.172069 0.036552 2.160000 255 0 0
-0.166078 0.036537 2.159000 255 0 0
-0.159944 0.036487 2.156000 255 0 0
-0.153968 0.036472 2.155000 255 0 0
-0.147860 0.036422 2.152000 255 0 0
-0.141966 0.036424 2.152000 255 0 0
-0.136008 0.036408 2.151000 255 0 0
-0.130054 0.036392 2.150000 255 0 0
-0.124048 0.036359 2.148000 255 0 0
-0.118107 0.036344 2.147000 255 0 0
-0.112119 0.036311 2.145000 255 0 0
-0.106241 0.036312 2.145000 255 0 0
-0.100315 0.036296 2.144000 255 0 0
-0.094439 0.036297 2.144000 255 0 0
-0.088521 0.036280 2.143000 255 0 0
-0.082646 0.036281 2.143000 255 0 0
-0.076843 0.036316 2.145000 255 0 0
-0.070995 0.036333 2.146000 255 0 0
-0.065141 0.036351 2.147000 255 0 0
-0.059310 0.036385 2.149000 255 0 0
-0.053467 0.036420 2.151000 255 0 0
-0.047613 0.036454 2.153000 255 0 0
-0.041690 0.036438 2.152000 255 0 0
-0.035805 0.036455 2.153000 255 0 0
-0.029928 0.036489 2.155000 255 0 0
-0.024029 0.036506 2.156000 255 0 0
-0.018133 0.036540 2.158000 255 0 0
-0.012209 0.036523 2.157000 255 0 0
-0.006300 0.036557 2.159000 255 0 0
-0.000379 0.036591 2.161000 255 0 0
0.005558 0.036659 2.165000 255 0 0
0.011517 0.036727 2.169000 255 0 0
0.017506 0.036811 2.174000 255 0 0
0.023522 0.036896 2.179000 255 0 0
0.029498 0.036895 2.179000 255 0 0
0.035473 0.036895 2.179000 255 0 0
0.041487 0.036929 2.181000 255 0 0
0.047555 0.036996 2.185000 255 0 0
0.053669 0.037080 2.190000 255 0 0
0.059728 0.037113 2.192000 255 0 0
0.065829 0.037164 2.195000 255 0 0
0.071945 0.037214 2.198000 255 0 0
0.078113 0.037281 2.202000 255 0 0
0.084379 0.037382 2.208000 255 0 0
0.090964 0.037601 2.221000 255 0 0
0.138398 0.037254 2.201000 255 0 0
0.143968 0.037135 2.194000 255 0 0
0.149705 0.037066 2.190000 255 0 0
0.154991 0.036895 2.180000 255 0 0
0.160814 0.036860 2.178000 255 0 0
0.166624 0.036825 2.176000 255 0 0
0.172820 0.036874 2.179000 255 0 0
0.178293 0.036771 2.173000 255 0 0
0.182715 0.036465 2.155000 255 0 0
0.187125 0.036176 2.138000 255 0 0
-0.072083 -0.247790 2.395617 255 255 0
-0.059130 -0.246794 2.391353 255 255 0
-0.045365 -0.245527 2.387719 255 255 0
-0.041595 -0.247380 2.377238 255 255 0
-0.024542 -0.245051 2.376009 255 255 0
-0.006690 -0.242447 2.375439 255 255 0
0.016931 -0.237993 2.379038 255 255 0
0.015682 -0.241395 2.365191 255 255 0
0.019404 -0.243224 2.354843 255 255 0
-0.220087 -0.311321 2.317512 0 255 0
-0.207833 -0.312649 2.321426 0 255 0
-0.204790 -0.310468 2.331818 0 255 0
-0.195030 -0.310827 2.337558 0 255 0
-0.212986 -0.300724 2.362436 0 255 0
-0.209116 -0.298870 2.372205 0 255 0
-0.192618 -0.301750 2.373371 0 255 0
-0.198843 -0.296104 2.390039 0 255 0
-0.179789 -0.299909 2.389592 0 255 0
-0.166615 -0.301494 2.393204 0 255 0
-0.024531 -0.320045 2.426694 0 255 0
-0.338866 0.030725 2.170000 255 0 0
-0.333412 0.030770 2.173000 255 0 0
-0.327789 0.030800 2.175000 255 0 0
-0.322154 0.030831 2.177000 255 0 0
-0.315926 0.030804 2.175000 255 0 0
-0.309851 0.030792 2.174000 255 0 0
-0.304199 0.030823 2.176000 255 0 0
