ply
format ascii 1.0
element vertex 1297
property double x
property double y
property double z
property uchar red
property uchar green
property uchar blue
end_header
-0.038403 -0.264887 2.312000 255 0 0
-0.031959 -0.263972 2.304000 255 0 0
-0.025581 -0.263286 2.298000 255 0 0
-0.019287 -0.263288 2.298000 255 0 0
-0.013003 -0.263518 2.300000 255 0 0
-0.006712 -0.263862 2.303000 255 0 0
-0.000402 -0.263404 2.299000 255 0 0
0.005882 -0.262831 2.294000 255 0 0
0.012145 -0.262372 2.290000 255 0 0
0.018442 -0.262715 2.293000 255 0 0
0.024755 -0.263057 2.296000 255 0 0
0.031058 -0.263170 2.297000 255 0 0
0.037399 -0.263512 2.300000 255 0 0
0.043812 -0.264197 2.306000 255 0 0
-0.256071 -0.260711 2.225000 255 0 0
-0.246738 -0.257326 2.196000 255 0 0
-0.239755 -0.256284 2.187000 255 0 0
-0.233461 -0.255945 2.184000 255 0 0
-0.227287 -0.255723 2.182000 255 0 0
-0.221022 -0.255383 2.179000 255 0 0
-0.214378 -0.254574 2.172000 255 0 0
-0.208059 -0.254117 2.168000 255 0 0
-0.201575 -0.253425 2.162000 255 0 0
-0.195484 -0.253201 2.160000 255 0 0
-0.189404 -0.252977 2.158000 255 0 0
-0.183590 -0.253104 2.159000 255 0 0
-0.177851 -0.253349 2.161000 255 0 0
-0.172180 -0.253710 2.164000 255 0 0
-0.166416 -0.253954 2.166000 255 0 0
-0.160640 -0.254197 2.168000 255 0 0
-0.154852 -0.254440 2.170000 255 0 0
-0.149259 -0.255035 2.175000 255 0 0
-0.143967 -0.256216 2.185000 255 0 0
-0.138431 -0.257044 2.192000 255 0 0
-0.133400 -0.258928 2.208000 255 0 0
-0.128338 -0.260929 2.225000 255 0 0
-0.123457 -0.263516 2.247000 255 0 0
-0.118821 -0.266924 2.276000 255 0 0
-0.078804 -0.279747 2.385000 255 0 0
-0.071515 -0.276819 2.360000 255 0 0
-0.064942 -0.276354 2.356000 255 0 0
-0.058217 -0.275067 2.345000 255 0 0
-0.051640 -0.274249 2.338000 255 0 0
-0.044985 -0.272727 2.325000 255 0 0
-0.038401 -0.271205 2.312000 255 0 0
-0.031985 -0.270503 2.306000 255 0 0
-0.025602 -0.269801 2.300000 255 0 0
-0.019294 -0.269685 2.299000 255 0 0
-0.012991 -0.269568 2.298000 255 0 0
-0.006703 -0.269803 2.300000 255 0 0
-0.000402 -0.269686 2.299000 255 0 0
0.005882 -0.269100 2.294000 255 0 0
0.012144 -0.268630 2.290000 255 0 0
0.018425 -0.268746 2.291000 255 0 0
0.024743 -0.269214 2.295000 255 0 0
0.031056 -0.269447 2.297000 255 0 0
0.037364 -0.269563 2.298000 255 0 0
0.043753 -0.270147 2.303000 255 0 0
-0.246388 -0.262961 2.193000 255 0 0
-0.239523 -0.262015 2.185000 255 0 0
-0.233449 -0.261907 2.184000 255 0 0
-0.227275 -0.261680 2.182000 255 0 0
-0.221112 -0.261452 2.180000 255 0 0
-0.214465 -0.260625 2.173000 255 0 0
-0.208048 -0.260036 2.168000 255 0 0
-0.201657 -0.259448 2.163000 255 0 0
-0.195564 -0.259219 2.161000 255 0 0
-0.189569 -0.259110 2.160000 255 0 0
-0.183749 -0.259240 2.161000 255 0 0
-0.177841 -0.259250 2.161000 255 0 0
-0.172012 -0.259380 2.162000 255 0 0
-0.166176 -0.259509 2.163000 255 0 0
-0.160557 -0.259998 2.167000 255 0 0
-0.155058 -0.260727 2.173000 255 0 0
-0.149663 -0.261695 2.181000 255 0 0
-0.144355 -0.262904 2.191000 255 0 0
-0.138865 -0.263872 2.199000 255 0 0
-0.133452 -0.265079 2.209000 255 0 0
-0.128215 -0.266767 2.223000 255 0 0
-0.123120 -0.268934 2.241000 255 0 0
-0.119023 -0.273621 2.280000 255 0 0
-0.071996 -0.285187 2.376000 255 0 0
-0.065076 -0.283391 2.361000 255 0 0
-0.058288 -0.281834 2.348000 255 0 0
-0.051615 -0.280517 2.337000 255 0 0
-0.045002 -0.279199 2.326000 255 0 0
-0.038465 -0.278001 2.316000 255 0 0
-0.032053 -0.277403 2.311000 255 0 0
-0.025634 -0.276445 2.303000 255 0 0
-0.019301 -0.276086 2.300000 255 0 0
-0.012974 -0.275487 2.295000 255 0 0
-0.006693 -0.275727 2.297000 255 0 0
-0.000402 -0.275607 2.296000 255 0 0
0.005887 -0.275607 2.296000 255 0 0
0.012144 -0.274887 2.290000 255 0 0
0.018424 -0.275006 2.291000 255 0 0
0.024742 -0.275485 2.295000 255 0 0
0.031122 -0.276323 2.302000 255 0 0
0.037443 -0.276441 2.303000 255 0 0
0.043636 -0.275719 2.297000 255 0 0
-0.255239 -0.271999 2.218000 255 0 0
-0.246824 -0.269437 2.197000 255 0 0
-0.240058 -0.268592 2.190000 255 0 0
-0.233970 -0.268482 2.189000 255 0 0
-0.227471 -0.267881 2.184000 255 0 0
-0.221302 -0.267649 2.182000 255 0 0
-0.214354 -0.266434 2.172000 255 0 0
-0.208036 -0.265955 2.168000 255 0 0
-0.201459 -0.265108 2.161000 255 0 0
-0.195644 -0.265242 2.162000 255 0 0
-0.189734 -0.265252 2.162000 255 0 0
-0.183909 -0.265386 2.163000 255 0 0
-0.178078 -0.265519 2.164000 255 0 0
-0.172082 -0.265406 2.163000 255 0 0
-0.166244 -0.265538 2.164000 255 0 0
-0.160622 -0.266038 2.168000 255 0 0
-0.155120 -0.266784 2.174000 255 0 0
-0.149585 -0.267529 2.180000 255 0 0
-0.144281 -0.268764 2.190000 255 0 0
-0.138921 -0.270000 2.200000 255 0 0
-0.133686 -0.271603 2.213000 255 0 0
-0.128323 -0.273084 2.225000 255 0 0
-0.123278 -0.275423 2.244000 255 0 0
-0.118285 -0.278130 2.266000 255 0 0
-0.071810 -0.290941 2.370000 255 0 0
-0.065100 -0.289963 2.362000 255 0 0
-0.058408 -0.288862 2.353000 255 0 0
-0.051766 -0.287760 2.344000 255 0 0
-0.045134 -0.286413 2.333000 255 0 0
-0.038546 -0.284942 2.321000 255 0 0
-0.032120 -0.284330 2.316000 255 0 0
-0.025711 -0.283595 2.310000 255 0 0
-0.019376 -0.283474 2.309000 255 0 0
-0.013018 -0.282738 2.303000 255 0 0
-0.006702 -0.282370 2.300000 255 0 0
-0.000402 -0.282125 2.298000 255 0 0
0.005889 -0.282002 2.297000 255 0 0
0.012169 -0.281756 2.295000 255 0 0
0.018455 -0.281755 2.295000 255 0 0
0.024794 -0.282368 2.300000 255 0 0
0.031161 -0.282980 2.305000 255 0 0
0.037425 -0.282610 2.302000 255 0 0
0.043805 -0.283098 2.306000 255 0 0
-0.246136 -0.274680 2.191000 255 0 0
-0.239825 -0.274318 2.188000 255 0 0
-0.233851 -0.274331 2.188000 255 0 0
-0.227146 -0.273466 2.181000 255 0 0
-0.220783 -0.272977 2.177000 255 0 0
-0.214046 -0.271986 2.169000 255 0 0
-0.208024 -0.271873 2.168000 255 0 0
-0.201634 -0.271257 2.163000 255 0 0
-0.195723 -0.271269 2.163000 255 0 0
-0.189899 -0.271405 2.164000 255 0 0
-0.184069 -0.271541 2.165000 255 0 0
-0.178068 -0.271426 2.164000 255 0 0
-0.171833 -0.270935 2.160000 255 0 0
-0.166157 -0.271321 2.163000 255 0 0
-0.160464 -0.271707 2.166000 255 0 0
-0.155183 -0.272845 2.175000 255 0 0
-0.149645 -0.273607 2.181000 255 0 0
-0.144206 -0.274619 2.189000 255 0 0
-0.138976 -0.276133 2.201000 255 0 0
-0.133679 -0.277646 2.213000 255 0 0
-0.128315 -0.279159 2.225000 255 0 0
-0.123216 -0.281425 2.243000 255 0 0
-0.118957 -0.285949 2.279000 255 0 0
-0.071684 -0.296912 2.366000 255 0 0
-0.064903 -0.295536 2.355000 255 0 0
-0.058405 -0.295288 2.353000 255 0 0
-0.051851 -0.294664 2.348000 255 0 0
-0.045248 -0.293538 2.339000 255 0 0
-0.038627 -0.291909 2.326000 255 0 0
-0.032229 -0.291660 2.324000 255 0 0
-0.025787 -0.290783 2.317000 255 0 0
-0.019442 -0.290784 2.317000 255 0 0
-0.013062 -0.290032 2.311000 255 0 0
-0.006719 -0.289405 2.306000 255 0 0
-0.000403 -0.288653 2.300000 255 0 0
0.005896 -0.288652 2.300000 255 0 0
0.012201 -0.288777 2.301000 255 0 0
0.018526 -0.289153 2.304000 255 0 0
0.024857 -0.289403 2.306000 255 0 0
0.031254 -0.290154 2.312000 255 0 0
0.037618 -0.290403 2.314000 255 0 0
0.044030 -0.290902 2.318000 255 0 0
-0.252564 -0.281157 2.195000 255 0 0
-0.246347 -0.280915 2.193000 255 0 0
-0.239812 -0.280288 2.188000 255 0 0
-0.233624 -0.280045 2.186000 255 0 0
-0.226821 -0.279033 2.178000 255 0 0
-0.220466 -0.278534 2.174000 255 0 0
-0.213639 -0.277393 2.165000 255 0 0
-0.207629 -0.277277 2.164000 255 0 0
-0.201250 -0.276648 2.159000 255 0 0
-0.195531 -0.276916 2.161000 255 0 0
-0.189976 -0.277440 2.165000 255 0 0
-0.184398 -0.277963 2.169000 255 0 0
-0.178551 -0.278102 2.170000 255 0 0
-0.172300 -0.277600 2.166000 255 0 0
-0.166532 -0.277866 2.168000 255 0 0
-0.160677 -0.278004 2.169000 255 0 0
-0.155459 -0.279295 2.179000 255 0 0
-0.149911 -0.280073 2.185000 255 0 0
-0.144659 -0.281492 2.196000 255 0 0
-0.139220 -0.282654 2.205000 255 0 0
-0.133912 -0.284201 2.217000 255 0 0
-0.128596 -0.285875 2.230000 255 0 0
-0.123648 -0.288575 2.251000 255 0 0
-0.071165 -0.301193 2.349000 255 0 0
-0.064844 -0.301710 2.353000 255 0 0
-0.058426 -0.301842 2.354000 255 0 0
-0.051959 -0.301717 2.353000 255 0 0
-0.045342 -0.300566 2.344000 255 0 0
-0.038674 -0.298645 2.329000 255 0 0
-0.032241 -0.298134 2.325000 255 0 0
-0.025797 -0.297238 2.318000 255 0 0
-0.019441 -0.297112 2.317000 255 0 0
-0.013073 -0.296600 2.313000 255 0 0
-0.006730 -0.296216 2.310000 255 0 0
-0.000403 -0.295575 2.305000 255 0 0
0.005904 -0.295318 2.303000 255 0 0
0.012232 -0.295830 2.307000 255 0 0
0.018589 -0.296471 2.312000 255 0 0
0.024910 -0.296341 2.311000 255 0 0
0.031279 -0.296724 2.314000 255 0 0
0.037680 -0.297235 2.318000 255 0 0
0.044255 -0.298771 2.330000 255 0 0
-0.253355 -0.288061 2.202000 255 0 0
-0.246670 -0.287290 2.196000 255 0 0
-0.240017 -0.286519 2.190000 255 0 0
-0.233824 -0.286271 2.188000 255 0 0
-0.226808 -0.284976 2.178000 255 0 0
-0.220251 -0.284204 2.172000 255 0 0
-0.213627 -0.283301 2.165000 255 0 0
-0.207521 -0.283051 2.163000 255 0 0
-0.201424 -0.282802 2.161000 255 0 0
-0.195338 -0.282551 2.159000 255 0 0
-0.189701 -0.282955 2.162000 255 0 0
-0.183877 -0.283097 2.163000 255 0 0
-0.178047 -0.283239 2.164000 255 0 0
-0.172051 -0.283119 2.163000 255 0 0
-0.166675 -0.284045 2.170000 255 0 0
-0.161186 -0.284840 2.176000 255 0 0
-0.155878 -0.286028 2.185000 255 0 0
-0.150382 -0.286954 2.192000 255 0 0
-0.144848 -0.287879 2.199000 255 0 0
-0.139401 -0.289066 2.208000 255 0 0
-0.134085 -0.290645 2.220000 255 0 0
-0.129223 -0.293403 2.241000 255 0 0
-0.124849 -0.297600 2.273000 255 0 0
-0.071070 -0.307213 2.346000 255 0 0
-0.064923 -0.308527 2.356000 255 0 0
-0.058547 -0.308924 2.359000 255 0 0
-0.052000 -0.308403 2.355000 255 0 0
-0.045397 -0.307359 2.347000 255 0 0
-0.038722 -0.305397 2.332000 255 0 0
-0.032253 -0.304613 2.326000 255 0 0
-0.025806 -0.303698 2.319000 255 0 0
-0.019464 -0.303831 2.320000 255 0 0
-0.013083 -0.303177 2.315000 255 0 0
-0.006730 -0.302523 2.310000 255 0 0
-0.000403 -0.301475 2.302000 255 0 0
0.005906 -0.301737 2.304000 255 0 0
0.012226 -0.301998 2.306000 255 0 0
0.018604 -0.303045 2.314000 255 0 0
0.024984 -0.303568 2.318000 255 0 0
0.031412 -0.304352 2.324000 255 0 0
0.037889 -0.305266 2.331000 255 0 0
0.044519 -0.306966 2.344000 255 0 0
-0.256447 -0.297673 2.229000 255 0 0
-0.248790 -0.295818 2.215000 255 0 0
-0.241866 -0.294763 2.207000 255 0 0
-0.235200 -0.293976 2.201000 255 0 0
-0.227940 -0.292387 2.189000 255 0 0
-0.220440 -0.290396 2.174000 255 0 0
-0.213516 -0.289074 2.164000 255 0 0
-0.207316 -0.288685 2.161000 255 0 0
-0.201412 -0.288697 2.161000 255 0 0
-0.195417 -0.288576 2.160000 255 0 0
-0.189690 -0.288855 2.162000 255 0 0
-0.183781 -0.288866 2.162000 255 0 0
-0.178365 -0.289678 2.168000 255 0 0
-0.172677 -0.290090 2.171000 255 0 0
-0.167433 -0.291303 2.180000 255 0 0
-0.161769 -0.291847 2.184000 255 0 0
-0.156082 -0.292392 2.188000 255 0 0
-0.150510 -0.293203 2.194000 255 0 0
-0.145102 -0.294415 2.203000 255 0 0
-0.139897 -0.296161 2.216000 255 0 0
-0.134862 -0.298442 2.233000 255 0 0
-0.071580 -0.315890 2.363000 255 0 0
-0.065332 -0.316964 2.371000 255 0 0
-0.058866 -0.317101 2.372000 255 0 0
-0.052283 -0.316570 2.368000 255 0 0
-0.045587 -0.315102 2.357000 255 0 0
-0.038885 -0.313100 2.342000 255 0 0
-0.032306 -0.311498 2.330000 255 0 0
-0.025827 -0.310296 2.321000 255 0 0
-0.019488 -0.310565 2.323000 255 0 0
-0.013122 -0.310432 2.322000 255 0 0
-0.006744 -0.309497 2.315000 255 0 0
-0.000404 -0.308695 2.309000 255 0 0
0.005913 -0.308428 2.307000 255 0 0
0.012251 -0.308962 2.311000 255 0 0
0.018611 -0.309496 2.315000 255 0 0
0.025036 -0.310564 2.323000 255 0 0
0.031491 -0.311498 2.330000 255 0 0
0.038017 -0.312699 2.339000 255 0 0
0.044383 -0.312429 2.337000 255 0 0
-0.250348 -0.303766 2.229000 255 0 0
-0.242948 -0.302146 2.217000 255 0 0
-0.236468 -0.301615 2.213000 255 0 0
-0.228967 -0.299720 2.199000 255 0 0
-0.220934 -0.297008 2.179000 255 0 0
-0.213404 -0.294840 2.163000 255 0 0
-0.207112 -0.294308 2.159000 255 0 0
-0.201400 -0.294593 2.161000 255 0 0
-0.195315 -0.294332 2.159000 255 0 0
-0.189679 -0.294753 2.162000 255 0 0
-0.183940 -0.295037 2.164000 255 0 0
-0.178437 -0.295730 2.169000 255 0 0
-0.172905 -0.296422 2.174000 255 0 0
-0.167500 -0.297387 2.181000 255 0 0
-0.162129 -0.298488 2.189000 255 0 0
-0.156501 -0.299180 2.194000 255 0 0
-0.151187 -0.300553 2.204000 255 0 0
-0.145554 -0.301381 2.210000 255 0 0
-0.140583 -0.303708 2.227000 255 0 0
-0.135579 -0.306171 2.245000 255 0 0
-0.131571 -0.311226 2.282000 255 0 0
-0.072605 -0.326977 2.397000 255 0 0
-0.065796 -0.325754 2.388000 255 0 0
-0.059209 -0.325485 2.386000 255 0 0
-0.052501 -0.324397 2.378000 255 0 0
-0.045817 -0.323173 2.369000 255 0 0
-0.039165 -0.321811 2.359000 255 0 0
-0.032457 -0.319358 2.341000 255 0 0
-0.025959 -0.318268 2.333000 255 0 0
-0.019546 -0.317861 2.330000 255 0 0
-0.013150 -0.317452 2.327000 255 0 0
-0.006764 -0.316771 2.322000 255 0 0
-0.000405 -0.315816 2.315000 255 0 0
0.005921 -0.315134 2.310000 255 0 0
0.012245 -0.315133 2.310000 255 0 0
0.018586 -0.315405 2.312000 255 0 0
0.025034 -0.316904 2.323000 255 0 0
0.031557 -0.318540 2.335000 255 0 0
0.038096 -0.319765 2.344000 255 0 0
0.044608 -0.320445 2.349000 255 0 0
-0.251681 -0.311513 2.241000 255 0 0
-0.244029 -0.309581 2.227000 255 0 0
-0.237095 -0.308484 2.219000 255 0 0
-0.229995 -0.307108 2.209000 255 0 0
-0.221124 -0.303228 2.181000 255 0 0
-0.213194 -0.300461 2.161000 255 0 0
-0.207100 -0.300196 2.159000 255 0 0
-0.201668 -0.300904 2.164000 255 0 0
-0.195846 -0.301055 2.165000 255 0 0
-0.189842 -0.300928 2.164000 255 0 0
-0.184099 -0.301218 2.166000 255 0 0
-0.178755 -0.302202 2.173000 255 0 0
-0.173292 -0.303048 2.179000 255 0 0
-0.167950 -0.304171 2.187000 255 0 0
-0.162490 -0.305155 2.194000 255 0 0
-0.157347 -0.306834 2.206000 255 0 0
-0.152275 -0.308791 2.220000 255 0 0
-0.146599 -0.309636 2.226000 255 0 0
-0.141269 -0.311314 2.238000 255 0 0
-0.136174 -0.313688 2.255000 255 0 0
-0.132023 -0.318565 2.290000 255 0 0
-0.079855 -0.336435 2.418000 255 0 0
-0.072813 -0.334492 2.404000 255 0 0
-0.066205 -0.334357 2.403000 255 0 0
-0.059379 -0.332970 2.393000 255 0 0
-0.052718 -0.332278 2.388000 255 0 0
-0.046065 -0.331446 2.382000 255 0 0
-0.039445 -0.330614 2.376000 255 0 0
-0.032677 -0.327973 2.357000 255 0 0
-0.026035 -0.325609 2.340000 255 0 0
-0.019561 -0.324497 2.332000 255 0 0
-0.013177 -0.324498 2.332000 255 0 0
-0.006784 -0.324081 2.329000 255 0 0
-0.000406 -0.323247 2.323000 255 0 0
0.005933 -0.322133 2.315000 255 0 0
0.012271 -0.322133 2.315000 255 0 0
0.018617 -0.322271 2.316000 255 0 0
0.025011 -0.322965 2.321000 255 0 0
0.031460 -0.323937 2.328000 255 0 0
0.038028 -0.325605 2.340000 255 0 0
-0.245110 -0.317070 2.237000 255 0 0
-0.238042 -0.315810 2.228000 255 0 0
-0.230189 -0.313414 2.211000 255 0 0
-0.221516 -0.309743 2.185000 255 0 0
-0.213575 -0.306921 2.165000 255 0 0
-0.207662 -0.306934 2.165000 255 0 0
-0.201841 -0.307088 2.166000 255 0 0
-0.196195 -0.307526 2.169000 255 0 0
-0.190006 -0.307113 2.166000 255 0 0
-0.184342 -0.307550 2.169000 255 0 0
-0.178826 -0.308271 2.174000 255 0 0
-0.173520 -0.309416 2.182000 255 0 0
-0.168093 -0.310420 2.189000 255 0 0
-0.162924 -0.311990 2.200000 255 0 0
-0.157907 -0.313986 2.214000 255 0 0
-0.152677 -0.315698 2.226000 255 0 0
-0.147051 -0.316700 2.233000 255 0 0
-0.141575 -0.318128 2.243000 255 0 0
-0.136527 -0.320690 2.261000 255 0 0
-0.131900 -0.324528 2.288000 255 0 0
-0.079388 -0.341046 2.404000 255 0 0
-0.072626 -0.340199 2.398000 255 0 0
-0.066063 -0.340204 2.398000 255 0 0
-0.059375 -0.339499 2.393000 255 0 0
-0.052803 -0.339361 2.392000 255 0 0
-0.046178 -0.338796 2.388000 255 0 0
-0.039608 -0.338515 2.386000 255 0 0
-0.032855 -0.336248 2.370000 255 0 0
-0.026155 -0.333554 2.351000 255 0 0
-0.019610 -0.331711 2.338000 255 0 0
-0.013199 -0.331429 2.336000 255 0 0
-0.006801 -0.331287 2.335000 255 0 0
-0.000407 -0.330294 2.328000 255 0 0
0.005948 -0.329301 2.321000 255 0 0
0.012281 -0.328733 2.317000 255 0 0
0.018648 -0.329158 2.320000 255 0 0
0.024956 -0.328589 2.316000 255 0 0
0.031390 -0.329580 2.323000 255 0 0
0.037831 -0.330287 2.328000 255 0 0
-0.246739 -0.325336 2.252000 255 0 0
-0.238668 -0.322750 2.234000 255 0 0
-0.229758 -0.318864 2.207000 255 0 0
-0.221198 -0.315266 2.182000 255 0 0
-0.214253 -0.313835 2.172000 255 0 0
-0.208608 -0.314282 2.175000 255 0 0
-0.202760 -0.314439 2.176000 255 0 0
-0.196726 -0.314307 2.175000 255 0 0
-0.190345 -0.313597 2.170000 255 0 0
-0.184500 -0.313754 2.171000 255 0 0
-0.179143 -0.314777 2.178000 255 0 0
-0.173827 -0.315945 2.186000 255 0 0
-0.168620 -0.317401 2.196000 255 0 0
-0.163431 -0.319002 2.207000 255 0 0
-0.158325 -0.320891 2.220000 255 0 0
-0.152873 -0.322202 2.229000 255 0 0
-0.147436 -0.323657 2.239000 255 0 0
-0.141945 -0.325112 2.249000 255 0 0
-0.136760 -0.327435 2.265000 255 0 0
-0.131833 -0.330624 2.287000 255 0 0
-0.072410 -0.345728 2.391000 255 0 0
-0.065893 -0.345878 2.392000 255 0 0
-0.059247 -0.345303 2.388000 255 0 0
-0.052777 -0.345741 2.391000 255 0 0
-0.046175 -0.345311 2.388000 255 0 0
-0.039655 -0.345458 2.389000 255 0 0
-0.032922 -0.343436 2.375000 255 0 0
-0.026265 -0.341413 2.361000 255 0 0
-0.019701 -0.339680 2.349000 255 0 0
-0.013249 -0.339102 2.345000 255 0 0
-0.006806 -0.337946 2.337000 255 0 0
-0.000407 -0.336645 2.328000 255 0 0
0.005958 -0.336211 2.325000 255 0 0
0.012317 -0.336066 2.324000 255 0 0
0.018687 -0.336209 2.325000 255 0 0
0.024943 -0.334762 2.315000 255 0 0
0.031307 -0.335049 2.317000 255 0 0
0.037698 -0.335481 2.320000 255 0 0
0.044314 -0.337502 2.334000 255 0 0
-0.246395 -0.331032 2.249000 255 0 0
-0.237371 -0.327073 2.222000 255 0 0
-0.228807 -0.323555 2.198000 255 0 0
-0.221386 -0.321508 2.184000 255 0 0
-0.214831 -0.320639 2.178000 255 0 0
-0.208691 -0.320358 2.176000 255 0 0
-0.202654 -0.320224 2.175000 255 0 0
-0.196623 -0.320089 2.174000 255 0 0
-0.190771 -0.320249 2.175000 255 0 0
-0.185253 -0.320998 2.180000 255 0 0
-0.179872 -0.322040 2.187000 255 0 0
-0.174372 -0.322935 2.193000 255 0 0
-0.168762 -0.323683 2.198000 255 0 0
-0.163865 -0.325903 2.213000 255 0 0
-0.158600 -0.327533 2.224000 255 0 0
-0.153480 -0.329605 2.238000 255 0 0
-0.148151 -0.331383 2.250000 255 0 0
-0.142756 -0.333160 2.262000 255 0 0
-0.137355 -0.335084 2.275000 255 0 0
-0.132286 -0.338039 2.295000 255 0 0
-0.078518 -0.350329 2.378000 255 0 0
-0.072405 -0.352249 2.391000 255 0 0
-0.065944 -0.352696 2.394000 255 0 0
-0.059194 -0.351522 2.386000 255 0 0
-0.052686 -0.351673 2.387000 255 0 0
-0.046075 -0.351087 2.383000 255 0 0
-0.039686 -0.352268 2.391000 255 0 0
-0.032989 -0.350650 2.380000 255 0 0
-0.026386 -0.349474 2.372000 255 0 0
-0.019817 -0.348149 2.363000 255 0 0
-0.013327 -0.347561 2.359000 255 0 0
-0.006826 -0.345352 2.344000 255 0 0
-0.000408 -0.344026 2.335000 255 0 0
0.005975 -0.343584 2.332000 255 0 0
0.012343 -0.343141 2.329000 255 0 0
0.018718 -0.343140 2.329000 255 0 0
0.024995 -0.341813 2.320000 255 0 0
0.031413 -0.342547 2.325000 255 0 0
0.037826 -0.342987 2.328000 255 0 0
0.044615 -0.346225 2.350000 255 0 0
-0.244736 -0.334912 2.234000 255 0 0
-0.236181 -0.331479 2.211000 255 0 0
-0.228792 -0.329545 2.198000 255 0 0
-0.221676 -0.327910 2.187000 255 0 0
-0.215409 -0.327475 2.184000 255 0 0
-0.208390 -0.325839 2.173000 255 0 0
-0.202641 -0.326152 2.175000 255 0 0
-0.196610 -0.326015 2.174000 255 0 0
-0.191285 -0.327077 2.181000 255 0 0
-0.185836 -0.327990 2.187000 255 0 0
-0.180518 -0.329202 2.195000 255 0 0
-0.174917 -0.329963 2.200000 255 0 0
-0.169442 -0.331024 2.207000 255 0 0
-0.164447 -0.333135 2.221000 255 0 0
-0.159445 -0.335396 2.236000 255 0 0
-0.154704 -0.338407 2.256000 255 0 0
-0.149194 -0.339917 2.266000 255 0 0
-0.143630 -0.341427 2.276000 255 0 0
-0.137768 -0.342336 2.282000 255 0 0
-0.132565 -0.345046 2.300000 255 0 0
-0.126989 -0.347005 2.313000 255 0 0
-0.079074 -0.359364 2.395000 255 0 0
-0.072733 -0.360420 2.402000 255 0 0
-0.066132 -0.360274 2.401000 255 0 0
-0.059239 -0.358328 2.388000 255 0 0
-0.052638 -0.357882 2.385000 255 0 0
-0.046053 -0.357435 2.382000 255 0 0
-0.039700 -0.358938 2.392000 255 0 0
-0.033042 -0.357741 2.384000 255 0 0
-0.026484 -0.357292 2.381000 255 0 0
-0.019934 -0.356694 2.377000 255 0 0
-0.013405 -0.356095 2.373000 255 0 0
-0.006866 -0.353844 2.358000 255 0 0
-0.000410 -0.351444 2.342000 255 0 0
0.005993 -0.350993 2.339000 255 0 0
0.012368 -0.350242 2.334000 255 0 0
0.018740 -0.349941 2.332000 255 0 0
0.025026 -0.348589 2.323000 255 0 0
0.031452 -0.349337 2.328000 255 0 0
0.037953 -0.350536 2.336000 255 0 0
0.044802 -0.354134 2.360000 255 0 0
-0.239681 -0.333977 2.188000 255 0 0
-0.234991 -0.335824 2.200000 255 0 0
-0.228674 -0.335381 2.197000 255 0 0
-0.221966 -0.334328 2.190000 255 0 0
-0.215888 -0.334189 2.189000 255 0 0
-0.208568 -0.332066 2.175000 255 0 0
-0.202535 -0.331926 2.174000 255 0 0
-0.196868 -0.332398 2.177000 255 0 0
-0.191711 -0.333785 2.186000 255 0 0
-0.186418 -0.335019 2.194000 255 0 0
-0.181000 -0.336100 2.201000 255 0 0
-0.175462 -0.337028 2.207000 255 0 0
-0.169968 -0.338109 2.214000 255 0 0
-0.164806 -0.339953 2.226000 255 0 0
-0.159720 -0.342102 2.240000 255 0 0
-0.154693 -0.344556 2.256000 255 0 0
-0.149250 -0.346246 2.267000 255 0 0
-0.143809 -0.348089 2.279000 255 0 0
-0.138061 -0.349321 2.287000 255 0 0
-0.132268 -0.350552 2.295000 255 0 0
-0.072637 -0.366510 2.399000 255 0 0
-0.066100 -0.366668 2.400000 255 0 0
-0.059285 -0.365144 2.390000 255 0 0
-0.052634 -0.364384 2.385000 255 0 0
-0.046069 -0.364082 2.383000 255 0 0
-0.039747 -0.365918 2.395000 255 0 0
-0.033178 -0.365768 2.394000 255 0 0
-0.026582 -0.365159 2.390000 255 0 0
-0.019991 -0.364244 2.384000 255 0 0
-0.013461 -0.364092 2.383000 255 0 0
-0.006904 -0.362260 2.371000 255 0 0
-0.000412 -0.360274 2.358000 255 0 0
0.006010 -0.358440 2.346000 255 0 0
0.012378 -0.356911 2.336000 255 0 0
0.018739 -0.356299 2.332000 255 0 0
0.025078 -0.355687 2.328000 255 0 0
0.031598 -0.357365 2.339000 255 0 0
0.038178 -0.359043 2.350000 255 0 0
0.044894 -0.361332 2.365000 255 0 0
-0.243828 -0.345842 2.226000 255 0 0
-0.235723 -0.342905 2.207000 255 0 0
-0.228971 -0.341833 2.200000 255 0 0
-0.222357 -0.340916 2.194000 255 0 0
-0.216466 -0.341085 2.195000 255 0 0
-0.209801 -0.340012 2.188000 255 0 0
-0.203546 -0.339559 2.185000 255 0 0
-0.197759 -0.339883 2.187000 255 0 0
-0.192312 -0.340829 2.193000 255 0 0
-0.186831 -0.341774 2.199000 255 0 0
-0.181234 -0.342564 2.204000 255 0 0
-0.175609 -0.343353 2.209000 255 0 0
-0.169957 -0.344142 2.214000 255 0 0
-0.164646 -0.345708 2.224000 255 0 0
-0.159495 -0.347740 2.237000 255 0 0
-0.154477 -0.350238 2.253000 255 0 0
-0.149042 -0.351958 2.264000 255 0 0
-0.143862 -0.354456 2.280000 255 0 0
-0.138232 -0.356020 2.290000 255 0 0
-0.132547 -0.357584 2.300000 255 0 0
-0.078832 -0.371333 2.388000 255 0 0
-0.072450 -0.372116 2.393000 255 0 0
-0.066040 -0.372898 2.398000 255 0 0
-0.059454 -0.372747 2.397000 255 0 0
-0.052851 -0.372440 2.395000 255 0 0
-0.046278 -0.372288 2.394000 255 0 0
-0.039760 -0.372602 2.396000 255 0 0
-0.033190 -0.372449 2.395000 255 0 0
-0.026636 -0.372452 2.395000 255 0 0
-0.020065 -0.372142 2.393000 255 0 0
-0.013494 -0.371521 2.389000 255 0 0
-0.006935 -0.370433 2.382000 255 0 0
-0.000414 -0.368568 2.370000 255 0 0
0.006036 -0.366390 2.356000 255 0 0
0.012430 -0.364834 2.346000 255 0 0
0.018802 -0.363900 2.340000 255 0 0
0.025195 -0.363743 2.339000 255 0 0
0.031623 -0.364052 2.341000 255 0 0
0.038110 -0.364827 2.346000 255 0 0
0.044644 -0.365757 2.352000 255 0 0
0.050993 -0.365132 2.348000 255 0 0
-0.236135 -0.349549 2.211000 255 0 0
-0.229060 -0.347984 2.201000 255 0 0
-0.222545 -0.347208 2.196000 255 0 0
-0.216550 -0.347223 2.196000 255 0 0
-0.210458 -0.347079 2.195000 255 0 0
-0.204464 -0.347093 2.195000 255 0 0
-0.198560 -0.347265 2.196000 255 0 0
-0.192913 -0.347910 2.200000 255 0 0
-0.187073 -0.348240 2.202000 255 0 0
-0.181468 -0.349043 2.207000 255 0 0
-0.175756 -0.349688 2.211000 255 0 0
-0.170022 -0.350332 2.215000 255 0 0
-0.164635 -0.351767 2.224000 255 0 0
-0.159270 -0.353360 2.234000 255 0 0
-0.154192 -0.355744 2.249000 255 0 0
-0.148900 -0.357811 2.262000 255 0 0
-0.143789 -0.360510 2.279000 255 0 0
-0.138283 -0.362418 2.291000 255 0 0
-0.132595 -0.364009 2.301000 255 0 0
-0.078959 -0.378474 2.392000 255 0 0
-0.072627 -0.379587 2.399000 255 0 0
-0.066091 -0.379750 2.400000 255 0 0
-0.059624 -0.380388 2.404000 255 0 0
-0.053002 -0.380075 2.402000 255 0 0
-0.046410 -0.379920 2.401000 255 0 0
-0.039824 -0.379765 2.400000 255 0 0
-0.033257 -0.379768 2.400000 255 0 0
-0.026690 -0.379770 2.400000 255 0 0
-0.020097 -0.379297 2.397000 255 0 0
-0.013526 -0.378982 2.395000 255 0 0
-0.006949 -0.377716 2.387000 255 0 0
-0.000416 -0.376609 2.380000 255 0 0
0.006061 -0.374394 2.366000 255 0 0
0.012482 -0.372811 2.356000 255 0 0
0.018881 -0.371860 2.350000 255 0 0
0.025312 -0.371858 2.350000 255 0 0
0.031756 -0.372015 2.351000 255 0 0
0.038189 -0.372012 2.351000 255 0 0
0.044451 -0.370585 2.342000 255 0 0
-0.236440 -0.356053 2.214000 255 0 0
-0.229669 -0.354943 2.207000 255 0 0
-0.223239 -0.354315 2.203000 255 0 0
-0.216831 -0.353686 2.199000 255 0 0
-0.210731 -0.353540 2.198000 255 0 0
-0.204823 -0.353715 2.199000 255 0 0
-0.198998 -0.354050 2.201000 255 0 0
-0.193250 -0.354546 2.204000 255 0 0
-0.187400 -0.354881 2.206000 255 0 0
-0.181785 -0.355698 2.211000 255 0 0
-0.175983 -0.356193 2.214000 255 0 0
-0.170240 -0.356849 2.218000 255 0 0
-0.164698 -0.357987 2.225000 255 0 0
-0.159045 -0.358963 2.231000 255 0 0
-0.154044 -0.361549 2.247000 255 0 0
-0.148758 -0.363651 2.260000 255 0 0
-0.143779 -0.366719 2.279000 255 0 0
-0.138273 -0.368659 2.291000 255 0 0
-0.133047 -0.371566 2.309000 255 0 0
-0.086426 -0.389170 2.418000 255 0 0
-0.079580 -0.388050 2.411000 255 0 0
-0.072924 -0.387733 2.409000 255 0 0
-0.066334 -0.387738 2.409000 255 0 0
-0.059892 -0.388708 2.415000 255 0 0
-0.053241 -0.388391 2.413000 255 0 0
-0.046523 -0.387428 2.407000 255 0 0
-0.039838 -0.386466 2.401000 255 0 0
-0.033254 -0.386308 2.400000 255 0 0
-0.026699 -0.386471 2.401000 255 0 0
-0.020096 -0.385828 2.397000 255 0 0
-0.013525 -0.385508 2.395000 255 0 0
-0.006952 -0.384382 2.388000 255 0 0
-0.000417 -0.383738 2.384000 255 0 0
0.006083 -0.382289 2.375000 255 0 0
0.012545 -0.381162 2.368000 255 0 0
0.018960 -0.379873 2.360000 255 0 0
0.025385 -0.379389 2.357000 255 0 0
0.031780 -0.378743 2.353000 255 0 0
0.038121 -0.377774 2.347000 255 0 0
-0.235249 -0.360282 2.203000 255 0 0
-0.229029 -0.359971 2.201000 255 0 0
-0.223326 -0.360477 2.204000 255 0 0
-0.217211 -0.360328 2.203000 255 0 0
-0.211196 -0.360343 2.203000 255 0 0
-0.205554 -0.361012 2.207000 255 0 0
-0.199437 -0.360862 2.206000 255 0 0
-0.193851 -0.361694 2.211000 255 0 0
-0.187642 -0.361380 2.209000 255 0 0
-0.181772 -0.361720 2.211000 255 0 0
-0.175812 -0.361896 2.212000 255 0 0
-0.170229 -0.362889 2.218000 255 0 0
-0.164686 -0.364047 2.225000 255 0 0
-0.158963 -0.364876 2.230000 255 0 0
-0.153691 -0.366851 2.242000 255 0 0
-0.148353 -0.368825 2.254000 255 0 0
-0.143328 -0.371781 2.272000 255 0 0
-0.138143 -0.374573 2.289000 255 0 0
-0.132980 -0.377691 2.308000 255 0 0
-0.086205 -0.394775 2.412000 255 0 0
-0.079674 -0.395109 2.414000 255 0 0
-0.073040 -0.394951 2.413000 255 0 0
-0.066439 -0.394956 2.413000 255 0 0
-0.059888 -0.395288 2.415000 255 0 0
-0.053215 -0.394801 2.412000 255 0 0
-0.046500 -0.393822 2.406000 255 0 0
-0.039901 -0.393662 2.405000 255 0 0
-0.033266 -0.393010 2.401000 255 0 0
-0.026686 -0.392848 2.400000 255 0 0
-0.020069 -0.391868 2.394000 255 0 0
-0.013508 -0.391542 2.392000 255 0 0
-0.006943 -0.390397 2.385000 255 0 0
-0.000416 -0.389742 2.381000 255 0 0
0.006088 -0.389087 2.377000 255 0 0
0.012555 -0.387941 2.370000 255 0 0
0.018999 -0.387121 2.365000 255 0 0
0.025437 -0.386628 2.362000 255 0 0
0.031900 -0.386626 2.362000 255 0 0
0.038248 -0.385478 2.355000 255 0 0
-0.239273 -0.363271 2.185000 255 0 0
-0.234913 -0.365781 2.200000 255 0 0
-0.229222 -0.366295 2.203000 255 0 0
-0.223412 -0.366643 2.205000 255 0 0
-0.217689 -0.367157 2.208000 255 0 0
-0.211949 -0.367671 2.211000 255 0 0
-0.206098 -0.368018 2.213000 255 0 0
-0.199785 -0.367534 2.210000 255 0 0
-0.193837 -0.367714 2.211000 255 0 0
-0.187799 -0.367727 2.211000 255 0 0
-0.181924 -0.368073 2.213000 255 0 0
-0.175879 -0.368085 2.213000 255 0 0
-0.170370 -0.369262 2.220000 255 0 0
-0.164823 -0.370438 2.227000 255 0 0
-0.159522 -0.372279 2.238000 255 0 0
-0.154160 -0.374120 2.249000 255 0 0
-0.148935 -0.376460 2.263000 255 0 0
-0.143948 -0.379632 2.282000 255 0 0
-0.138857 -0.382803 2.301000 255 0 0
-0.133546 -0.385641 2.318000 255 0 0
-0.091487 -0.395681 2.378000 255 0 0
-0.085770 -0.399348 2.400000 255 0 0
-0.079437 -0.400519 2.407000 255 0 0
-0.072974 -0.401190 2.411000 255 0 0
-0.066407 -0.401362 2.412000 255 0 0
-0.059809 -0.401366 2.412000 255 0 0
-0.053189 -0.401204 2.411000 255 0 0
-0.046535 -0.400708 2.408000 255 0 0
-0.039998 -0.401211 2.411000 255 0 0
-0.033305 -0.400049 2.404000 255 0 0
-0.026684 -0.399385 2.400000 255 0 0
-0.020051 -0.398056 2.392000 255 0 0
-0.013484 -0.397391 2.388000 255 0 0
-0.006933 -0.396394 2.382000 255 0 0
-0.000416 -0.396227 2.381000 255 0 0
0.006103 -0.396560 2.383000 255 0 0
0.012580 -0.395228 2.375000 255 0 0
0.019054 -0.394728 2.372000 255 0 0
0.025511 -0.394227 2.369000 255 0 0
0.032032 -0.394724 2.372000 255 0 0
0.038375 -0.393224 2.363000 255 0 0
0.044802 -0.392888 2.361000 255 0 0
-0.235751 -0.373121 2.208000 255 0 0
-0.229622 -0.372968 2.207000 255 0 0
-0.223700 -0.373152 2.208000 255 0 0
-0.217969 -0.373675 2.211000 255 0 0
-0.212413 -0.374535 2.216000 255 0 0
-0.206736 -0.375226 2.220000 255 0 0
-0.200403 -0.374733 2.217000 255 0 0
-0.194086 -0.374240 2.214000 255 0 0
-0.187785 -0.373746 2.211000 255 0 0
-0.181664 -0.373590 2.210000 255 0 0
-0.175866 -0.374110 2.213000 255 0 0
-0.170511 -0.375644 2.222000 255 0 0
-0.164959 -0.376839 2.229000 255 0 0
-0.159653 -0.378711 2.240000 255 0 0
-0.154217 -0.380413 2.250000 255 0 0
-0.149253 -0.383467 2.268000 255 0 0
-0.144127 -0.386352 2.285000 255 0 0
-0.138968 -0.389406 2.303000 255 0 0
-0.133767 -0.392629 2.322000 255 0 0
-0.085478 -0.404531 2.392000 255 0 0
-0.079497 -0.407412 2.409000 255 0 0
-0.073029 -0.408094 2.413000 255 0 0
-0.066374 -0.407761 2.411000 255 0 0
-0.059705 -0.407258 2.408000 255 0 0
-0.053053 -0.406755 2.405000 255 0 0
-0.046551 -0.407435 2.409000 255 0 0
-0.040011 -0.407946 2.412000 255 0 0
-0.033344 -0.407103 2.407000 255 0 0
-0.026693 -0.406090 2.401000 255 0 0
-0.020066 -0.404908 2.394000 255 0 0
-0.013500 -0.404402 2.391000 255 0 0
-0.006944 -0.403557 2.386000 255 0 0
-0.000417 -0.403219 2.384000 255 0 0
0.006110 -0.403557 2.386000 255 0 0
0.012606 -0.402542 2.380000 255 0 0
0.019108 -0.402371 2.379000 255 0 0
0.025552 -0.401355 2.373000 255 0 0
0.032057 -0.401522 2.374000 255 0 0
0.038307 -0.398982 2.359000 255 0 0
-0.237016 -0.381190 2.220000 255 0 0
-0.230854 -0.381034 2.219000 255 0 0
-0.224090 -0.379848 2.212000 255 0 0
-0.218151 -0.380036 2.213000 255 0 0
-0.212302 -0.380394 2.215000 255 0 0
-0.206721 -0.381268 2.220000 255 0 0
-0.200660 -0.381282 2.220000 255 0 0
-0.194423 -0.380953 2.218000 255 0 0
-0.188281 -0.380795 2.217000 255 0 0
-0.182227 -0.380808 2.217000 255 0 0
-0.176728 -0.382023 2.224000 255 0 0
-0.171266 -0.383410 2.232000 255 0 0
-0.165687 -0.384625 2.239000 255 0 0
-0.160069 -0.385839 2.246000 255 0 0
-0.154754 -0.387912 2.258000 255 0 0
-0.150032 -0.391703 2.280000 255 0 0
-0.144684 -0.394119 2.294000 255 0 0
-0.139320 -0.396706 2.309000 255 0 0
-0.133642 -0.398606 2.320000 255 0 0
-0.128398 -0.402052 2.340000 255 0 0
-0.091282 -0.407772 2.373000 255 0 0
-0.086293 -0.414995 2.415000 255 0 0
-0.079623 -0.414658 2.413000 255 0 0
-0.073205 -0.415695 2.419000 255 0 0
-0.066452 -0.414841 2.414000 255 0 0
-0.059800 -0.414502 2.412000 255 0 0
-0.053137 -0.413990 2.409000 255 0 0
-0.046586 -0.414338 2.411000 255 0 0
-0.040042 -0.414857 2.414000 255 0 0
-0.033397 -0.414344 2.411000 255 0 0
-0.026735 -0.413315 2.405000 255 0 0
-0.020090 -0.411942 2.397000 255 0 0
-0.013493 -0.410740 2.390000 255 0 0
-0.006941 -0.409882 2.385000 255 0 0
-0.000416 -0.409023 2.380000 255 0 0
0.006105 -0.409710 2.384000 255 0 0
0.012621 -0.409537 2.383000 255 0 0
0.019155 -0.409880 2.385000 255 0 0
0.025625 -0.409019 2.380000 255 0 0
0.032149 -0.409189 2.381000 255 0 0
0.038613 -0.408670 2.378000 255 0 0
-0.237853 -0.388626 2.228000 255 0 0
-0.231879 -0.388817 2.229000 255 0 0
-0.225188 -0.387786 2.223000 255 0 0
-0.219121 -0.387802 2.223000 255 0 0
-0.212766 -0.387294 2.220000 255 0 0
-0.206893 -0.387658 2.222000 255 0 0
-0.200736 -0.387498 2.221000 255 0 0
-0.194848 -0.387861 2.223000 255 0 0
-0.188862 -0.388049 2.224000 255 0 0
-0.182789 -0.388063 2.224000 255 0 0
-0.177033 -0.388774 2.228000 255 0 0
-0.171638 -0.390357 2.237000 255 0 0
-0.165823 -0.391067 2.241000 255 0 0
-0.160271 -0.392475 2.249000 255 0 0
-0.154743 -0.394058 2.258000 255 0 0
-0.149758 -0.397210 2.276000 255 0 0
-0.144484 -0.399839 2.291000 255 0 0
-0.139189 -0.402642 2.307000 255 0 0
-0.133863 -0.405619 2.324000 255 0 0
-0.094121 -0.427148 2.447000 255 0 0
-0.086394 -0.422093 2.418000 255 0 0
-0.079881 -0.422623 2.421000 255 0 0
-0.073260 -0.422629 2.421000 255 0 0
-0.066530 -0.421936 2.417000 255 0 0
-0.059870 -0.421591 2.415000 255 0 0
-0.053177 -0.420897 2.411000 255 0 0
-0.046602 -0.421076 2.412000 255 0 0
-0.039972 -0.420730 2.410000 255 0 0
-0.033339 -0.420209 2.407000 255 0 0
-0.026733 -0.419862 2.405000 255 0 0
-0.020088 -0.418467 2.397000 255 0 0
-0.013509 -0.417770 2.393000 255 0 0
-0.006946 -0.416723 2.387000 255 0 0
-0.000417 -0.416200 2.384000 255 0 0
0.006104 -0.416200 2.384000 255 0 0
0.012620 -0.416024 2.383000 255 0 0
0.019162 -0.416547 2.386000 255 0 0
0.025699 -0.416720 2.387000 255 0 0
0.032322 -0.417940 2.394000 255 0 0
-0.237517 -0.394155 2.225000 255 0 0
-0.232486 -0.395943 2.235000 255 0 0
-0.225679 -0.394720 2.228000 255 0 0
-0.219697 -0.394913 2.229000 255 0 0
-0.213039 -0.393865 2.223000 255 0 0
-0.206785 -0.393526 2.221000 255 0 0
-0.200541 -0.393186 2.219000 255 0 0
-0.195009 -0.394264 2.225000 255 0 0
-0.189358 -0.395164 2.230000 255 0 0
-0.183351 -0.395355 2.231000 255 0 0
-0.177496 -0.395900 2.234000 255 0 0
-0.172085 -0.397507 2.243000 255 0 0
-0.166403 -0.398583 2.249000 255 0 0
-0.160972 -0.400368 2.259000 255 0 0
-0.155348 -0.401797 2.267000 255 0 0
-0.150075 -0.404290 2.281000 255 0 0
-0.144726 -0.406782 2.295000 255 0 0
-0.139902 -0.411047 2.319000 255 0 0
-0.134256 -0.413184 2.331000 255 0 0
-0.129257 -0.417626 2.356000 255 0 0
-0.092999 -0.428667 2.418000 255 0 0
-0.086745 -0.430447 2.428000 255 0 0
-0.080106 -0.430453 2.428000 255 0 0
-0.073315 -0.429572 2.423000 255 0 0
-0.066552 -0.428691 2.418000 255 0 0
-0.059816 -0.427810 2.413000 255 0 0
-0.053217 -0.427814 2.413000 255 0 0
-0.046599 -0.427640 2.412000 255 0 0
-0.039969 -0.427289 2.410000 255 0 0
-0.033323 -0.426583 2.406000 255 0 0
-0.026709 -0.426053 2.403000 255 0 0
-0.020061 -0.424459 2.394000 255 0 0
-0.013491 -0.423751 2.390000 255 0 0
-0.006940 -0.422866 2.385000 255 0 0
-0.000418 -0.423575 2.389000 255 0 0
0.006109 -0.423043 2.386000 255 0 0
0.012640 -0.423219 2.387000 255 0 0
0.019184 -0.423573 2.389000 255 0 0
0.025815 -0.425167 2.398000 255 0 0
0.032522 -0.427115 2.409000 255 0 0
-0.236325 -0.398228 2.214000 255 0 0
-0.232470 -0.402023 2.235000 255 0 0
-0.226372 -0.402039 2.235000 255 0 0
-0.220273 -0.402055 2.235000 255 0 0
-0.213311 -0.400452 2.226000 255 0 0
-0.206956 -0.399927 2.223000 255 0 0
-0.200436 -0.399043 2.218000 255 0 0
-0.195170 -0.400676 2.227000 255 0 0
-0.189429 -0.401410 2.231000 255 0 0
-0.183995 -0.402863 2.239000 255 0 0
-0.178039 -0.403237 2.241000 255 0 0
-0.172686 -0.405049 2.251000 255 0 0
-0.167056 -0.406321 2.258000 255 0 0
-0.161530 -0.407953 2.267000 255 0 0
-0.155679 -0.408865 2.272000 255 0 0
-0.149867 -0.409956 2.278000 255 0 0
-0.144526 -0.412486 2.292000 255 0 0
-0.139831 -0.417176 2.318000 255 0 0
-0.134591 -0.420606 2.337000 255 0 0
-0.098407 -0.430019 2.389000 255 0 0
-0.093107 -0.435786 2.421000 255 0 0
-0.086595 -0.436333 2.424000 255 0 0
-0.080166 -0.437420 2.430000 255 0 0
-0.073340 -0.436345 2.424000 255 0 0
-0.066630 -0.435811 2.421000 255 0 0
-0.059910 -0.435096 2.417000 255 0 0
-0.053279 -0.434920 2.416000 255 0 0
-0.046634 -0.434564 2.414000 255 0 0
-0.039933 -0.433487 2.408000 255 0 0
-0.033265 -0.432410 2.402000 255 0 0
-0.026651 -0.431692 2.398000 255 0 0
-0.020026 -0.430254 2.390000 255 0 0
-0.013485 -0.430075 2.389000 255 0 0
-0.006948 -0.429896 2.388000 255 0 0
-0.000418 -0.430976 2.394000 255 0 0
0.006121 -0.430436 2.391000 255 0 0
0.012644 -0.429895 2.388000 255 0 0
0.019167 -0.429714 2.387000 255 0 0
0.025802 -0.431512 2.397000 255 0 0
0.032506 -0.433490 2.408000 255 0 0
-0.235988 -0.403702 2.211000 255 0 0
-0.231413 -0.406275 2.225000 255 0 0
-0.226355 -0.408117 2.235000 255 0 0
-0.220257 -0.408133 2.235000 255 0 0
-0.213487 -0.406871 2.228000 255 0 0
-0.207406 -0.406886 2.228000 255 0 0
-0.201144 -0.406536 2.226000 255 0 0
-0.195681 -0.407829 2.233000 255 0 0
-0.189840 -0.408391 2.236000 255 0 0
-0.184474 -0.410049 2.245000 255 0 0
-0.178582 -0.410610 2.248000 255 0 0
-0.172980 -0.411902 2.255000 255 0 0
-0.167192 -0.412828 2.260000 255 0 0
-0.161375 -0.413754 2.265000 255 0 0
-0.155531 -0.414679 2.270000 255 0 0
-0.149921 -0.416335 2.279000 255 0 0
-0.144578 -0.418904 2.293000 255 0 0
-0.139640 -0.422934 2.315000 255 0 0
-0.134005 -0.425137 2.327000 255 0 0
-0.128743 -0.428801 2.347000 255 0 0
-0.099347 -0.440721 2.412000 255 0 0
-0.093100 -0.442372 2.421000 255 0 0
-0.086803 -0.444024 2.430000 255 0 0
-0.080127 -0.443848 2.429000 255 0 0
-0.073334 -0.442940 2.424000 255 0 0
-0.066624 -0.442397 2.421000 255 0 0
-0.060005 -0.442402 2.421000 255 0 0
-0.053297 -0.441676 2.417000 255 0 0
-0.046650 -0.441314 2.415000 255 0 0
-0.039963 -0.440404 2.410000 255 0 0
-0.033304 -0.439493 2.405000 255 0 0
-0.026638 -0.438033 2.397000 255 0 0
-0.020033 -0.436939 2.391000 255 0 0
-0.013489 -0.436757 2.390000 255 0 0
-0.006939 -0.435844 2.385000 255 0 0
-0.000418 -0.436758 2.390000 255 0 0
0.006116 -0.436575 2.389000 255 0 0
0.012659 -0.436940 2.391000 255 0 0
0.019190 -0.436756 2.390000 255 0 0
0.025844 -0.438764 2.401000 255 0 0
-0.230044 -0.409915 2.212000 255 0 0
-0.227048 -0.415491 2.242000 255 0 0
-0.220733 -0.415137 2.240000 255 0 0
-0.213950 -0.413856 2.233000 255 0 0
-0.207577 -0.413315 2.230000 255 0 0
-0.201491 -0.413330 2.230000 255 0 0
-0.196192 -0.415013 2.239000 255 0 0
-0.190335 -0.415584 2.242000 255 0 0
-0.185200 -0.417822 2.254000 255 0 0
-0.179204 -0.418207 2.256000 255 0 0
-0.173658 -0.419703 2.264000 255 0 0
-0.167845 -0.420643 2.269000 255 0 0
-0.161933 -0.421397 2.273000 255 0 0
-0.155998 -0.422151 2.277000 255 0 0
-0.150239 -0.423460 2.284000 255 0 0
-0.144756 -0.425696 2.296000 255 0 0
-0.139750 -0.429601 2.317000 255 0 0
-0.134398 -0.432763 2.334000 255 0 0
-0.130215 -0.440190 2.374000 255 0 0
-0.099587 -0.448394 2.418000 255 0 0
-0.093400 -0.450441 2.429000 255 0 0
-0.086796 -0.450633 2.430000 255 0 0
-0.079988 -0.449713 2.425000 255 0 0
-0.073329 -0.449533 2.424000 255 0 0
-0.066729 -0.449724 2.425000 255 0 0
-0.060149 -0.450100 2.427000 255 0 0
-0.053315 -0.448435 2.418000 255 0 0
-0.046627 -0.447697 2.414000 255 0 0
-0.039960 -0.446959 2.410000 255 0 0
-0.033315 -0.446220 2.406000 255 0 0
-0.026658 -0.444924 2.399000 255 0 0
-0.020065 -0.444184 2.395000 255 0 0
-0.013488 -0.443258 2.390000 255 0 0
-0.006947 -0.442888 2.388000 255 0 0
-0.000417 -0.443074 2.389000 255 0 0
0.006128 -0.444001 2.394000 255 0 0
0.012679 -0.444186 2.395000 255 0 0
0.019236 -0.444370 2.396000 255 0 0
0.025852 -0.445481 2.402000 255 0 0
-0.233563 -0.422322 2.246000 255 0 0
-0.227537 -0.422527 2.247000 255 0 0
-0.221111 -0.421979 2.244000 255 0 0
-0.214414 -0.420867 2.238000 255 0 0
-0.207934 -0.420130 2.234000 255 0 0
-0.202018 -0.420522 2.236000 255 0 0
-0.196791 -0.422417 2.246000 255 0 0
-0.191170 -0.423560 2.252000 255 0 0
-0.185761 -0.425267 2.261000 255 0 0
-0.179747 -0.425657 2.263000 255 0 0
-0.174181 -0.427176 2.271000 255 0 0
-0.168128 -0.427565 2.273000 255 0 0
-0.162205 -0.428330 2.277000 255 0 0
-0.156329 -0.429282 2.282000 255 0 0
-0.150885 -0.431552 2.294000 255 0 0
-0.145186 -0.433256 2.303000 255 0 0
-0.140101 -0.437030 2.323000 255 0 0
-0.135251 -0.441932 2.349000 255 0 0
-0.131411 -0.450785 2.396000 255 0 0
-0.100567 -0.459485 2.442000 255 0 0
-0.093662 -0.458364 2.436000 255 0 0
-0.087039 -0.458559 2.437000 255 0 0
-0.080114 -0.457060 2.429000 255 0 0
-0.073595 -0.457819 2.433000 255 0 0
-0.066889 -0.457448 2.431000 255 0 0
-0.060268 -0.457641 2.432000 255 0 0
-0.053355 -0.455388 2.420000 255 0 0
-0.046642 -0.454451 2.415000 255 0 0
-0.039940 -0.453325 2.409000 255 0 0
-0.033312 -0.452763 2.406000 255 0 0
-0.026678 -0.451825 2.401000 255 0 0
-0.020097 -0.451450 2.399000 255 0 0
-0.013538 -0.451452 2.399000 255 0 0
-0.006967 -0.450700 2.395000 255 0 0
-0.000418 -0.450512 2.394000 255 0 0
0.006135 -0.451076 2.397000 255 0 0
0.012715 -0.452016 2.402000 255 0 0
0.019299 -0.452391 2.404000 255 0 0
0.025926 -0.453330 2.409000 255 0 0
-0.227419 -0.428443 2.246000 255 0 0
-0.221391 -0.428651 2.247000 255 0 0
-0.215068 -0.428285 2.245000 255 0 0
-0.208570 -0.427538 2.241000 255 0 0
-0.202816 -0.428317 2.245000 255 0 0
-0.197390 -0.429858 2.253000 255 0 0
-0.191580 -0.430636 2.257000 255 0 0
-0.185829 -0.431604 2.262000 255 0 0
-0.179972 -0.432382 2.266000 255 0 0
-0.174705 -0.434685 2.278000 255 0 0
-0.169077 -0.436225 2.286000 255 0 0
-0.163190 -0.437191 2.291000 255 0 0
-0.156865 -0.437013 2.290000 255 0 0
-0.150939 -0.437979 2.295000 255 0 0
-0.145238 -0.439708 2.304000 255 0 0
-0.140150 -0.443536 2.324000 255 0 0
-0.135126 -0.447936 2.347000 255 0 0
-0.131785 -0.458635 2.403000 255 0 0
-0.100930 -0.467842 2.451000 255 0 0
-0.093808 -0.465750 2.440000 255 0 0
-0.087140 -0.465757 2.440000 255 0 0
-0.080273 -0.464619 2.434000 255 0 0
-0.073892 -0.466343 2.443000 255 0 0
-0.067186 -0.466157 2.442000 255 0 0
-0.060462 -0.465781 2.440000 255 0 0
-0.053439 -0.462731 2.424000 255 0 0
-0.046696 -0.461590 2.418000 255 0 0
-0.039970 -0.460257 2.411000 255 0 0
-0.033296 -0.459114 2.405000 255 0 0
-0.026665 -0.458162 2.400000 255 0 0
-0.020095 -0.457973 2.399000 255 0 0
-0.013554 -0.458547 2.402000 255 0 0
-0.006981 -0.458166 2.400000 255 0 0
-0.000419 -0.457785 2.398000 255 0 0
0.006145 -0.458357 2.401000 255 0 0
0.012714 -0.458547 2.402000 255 0 0
0.019321 -0.459501 2.407000 255 0 0
0.026053 -0.462171 2.421000 255 0 0
-0.226795 -0.433386 2.240000 255 0 0
-0.221768 -0.435531 2.251000 255 0 0
-0.215723 -0.435741 2.252000 255 0 0
-0.209392 -0.435370 2.250000 255 0 0
-0.203252 -0.435386 2.250000 255 0 0
-0.197638 -0.436562 2.256000 255 0 0
-0.191989 -0.437738 2.262000 255 0 0
-0.186390 -0.439107 2.269000 255 0 0
-0.180673 -0.440282 2.275000 255 0 0
-0.175382 -0.442618 2.287000 255 0 0
-0.169359 -0.443212 2.290000 255 0 0
-0.163320 -0.443805 2.293000 255 0 0
-0.156990 -0.443624 2.292000 255 0 0
-0.151125 -0.444798 2.298000 255 0 0
-0.145290 -0.446164 2.305000 255 0 0
-0.140019 -0.449466 2.322000 255 0 0
-0.134424 -0.451993 2.335000 255 0 0
-0.129800 -0.458198 2.367000 255 0 0
-0.100840 -0.474118 2.449000 255 0 0
-0.093955 -0.473157 2.444000 255 0 0
-0.087311 -0.473358 2.445000 255 0 0
-0.080530 -0.472784 2.442000 255 0 0
-0.074067 -0.474145 2.449000 255 0 0
-0.067319 -0.473764 2.447000 255 0 0
-0.060506 -0.472801 2.442000 255 0 0
-0.053501 -0.469901 2.427000 255 0 0
-0.046751 -0.468744 2.421000 255 0 0
-0.040033 -0.467585 2.415000 255 0 0
-0.033348 -0.466427 2.409000 255 0 0
-0.026708 -0.465461 2.404000 255 0 0
-0.020127 -0.465269 2.403000 255 0 0
-0.013586 -0.466239 2.408000 255 0 0
-0.006995 -0.465659 2.405000 255 0 0
-0.000420 -0.465465 2.404000 255 0 0
0.006149 -0.465271 2.403000 255 0 0
0.012708 -0.464883 2.401000 255 0 0
0.019320 -0.466044 2.407000 255 0 0
-0.228297 -0.442415 2.255000 255 0 0
-0.222441 -0.443021 2.258000 255 0 0
-0.216377 -0.443233 2.259000 255 0 0
-0.209935 -0.442661 2.256000 255 0 0
-0.203959 -0.443069 2.258000 255 0 0
-0.198236 -0.444066 2.263000 255 0 0
-0.192654 -0.445454 2.270000 255 0 0
-0.186786 -0.446254 2.274000 255 0 0
-0.181135 -0.447642 2.281000 255 0 0
-0.175828 -0.450010 2.293000 255 0 0
-0.169938 -0.451005 2.298000 255 0 0
-0.163948 -0.451803 2.302000 255 0 0
-0.157457 -0.451227 2.299000 255 0 0
-0.151442 -0.452024 2.303000 255 0 0
-0.145341 -0.452624 2.306000 255 0 0
-0.139706 -0.454795 2.317000 255 0 0
-0.134414 -0.458339 2.335000 255 0 0
-0.129187 -0.462471 2.356000 255 0 0
-0.100543 -0.479399 2.442000 255 0 0
-0.093986 -0.479996 2.445000 255 0 0
-0.087340 -0.480200 2.446000 255 0 0
-0.080491 -0.479225 2.441000 255 0 0
-0.073850 -0.479427 2.442000 255 0 0
-0.067258 -0.480022 2.445000 255 0 0
-0.060427 -0.478849 2.439000 255 0 0
-0.053518 -0.476694 2.428000 255 0 0
-0.046805 -0.475913 2.424000 255 0 0
-0.040113 -0.475131 2.420000 255 0 0
-0.033443 -0.474348 2.416000 255 0 0
-0.026750 -0.472780 2.408000 255 0 0
-0.020142 -0.472193 2.405000 255 0 0
-0.013568 -0.472194 2.405000 255 0 0
-0.006991 -0.471999 2.404000 255 0 0
-0.000420 -0.472196 2.405000 255 0 0
0.006154 -0.472195 2.405000 255 0 0
0.012723 -0.471998 2.404000 255 0 0
0.019342 -0.473175 2.410000 255 0 0
-0.222621 -0.449553 2.260000 255 0 0
-0.216169 -0.448973 2.257000 255 0 0
-0.210012 -0.448989 2.257000 255 0 0
-0.204486 -0.450397 2.264000 255 0 0
-0.199184 -0.452402 2.274000 255 0 0
-0.193572 -0.453810 2.281000 255 0 0
-0.187840 -0.455018 2.287000 255 0 0
-0.182074 -0.456226 2.293000 255 0 0
-0.176428 -0.457832 2.301000 255 0 0
-0.170220 -0.458044 2.302000 255 0 0
-0.164007 -0.458257 2.303000 255 0 0
-0.157856 -0.458667 2.305000 255 0 0
-0.151759 -0.459276 2.308000 255 0 0
-0.145834 -0.460482 2.314000 255 0 0
-0.140178 -0.462682 2.325000 255 0 0
-0.135036 -0.466872 2.346000 255 0 0
-0.129780 -0.471062 2.367000 255 0 0
-0.105759 -0.479459 2.409000 255 0 0
-0.100494 -0.485836 2.441000 255 0 0
-0.093978 -0.486640 2.445000 255 0 0
-0.087369 -0.487045 2.447000 255 0 0
-0.080583 -0.486455 2.444000 255 0 0
-0.073814 -0.485864 2.441000 255 0 0
-0.067143 -0.485870 2.441000 255 0 0
-0.060323 -0.484680 2.435000 255 0 0
-0.053536 -0.483491 2.429000 255 0 0
-0.046840 -0.482898 2.426000 255 0 0
-0.040209 -0.482901 2.426000 255 0 0
-0.033551 -0.482506 2.424000 255 0 0
-0.026859 -0.481314 2.418000 255 0 0
-0.020208 -0.480321 2.413000 255 0 0
-0.013590 -0.479526 2.409000 255 0 0
-0.006994 -0.478731 2.405000 255 0 0
-0.000421 -0.479328 2.408000 255 0 0
0.006164 -0.479527 2.409000 255 0 0
0.012769 -0.480322 2.413000 255 0 0
0.019357 -0.480122 2.412000 255 0 0
-0.223786 -0.458111 2.272000 255 0 0
-0.216631 -0.456111 2.262000 255 0 0
-0.210647 -0.456531 2.264000 255 0 0
-0.205373 -0.458563 2.274000 255 0 0
-0.200045 -0.460595 2.284000 255 0 0
-0.194067 -0.461216 2.287000 255 0 0
-0.188236 -0.462239 2.292000 255 0 0
-0.182219 -0.462858 2.295000 255 0 0
-0.176261 -0.463679 2.299000 255 0 0
-0.170059 -0.463894 2.300000 255 0 0
-0.164136 -0.464916 2.305000 255 0 0
-0.158186 -0.465937 2.310000 255 0 0
-0.152075 -0.466555 2.313000 255 0 0
-0.146138 -0.467777 2.319000 255 0 0
-0.140589 -0.470410 2.332000 255 0 0
-0.135256 -0.474052 2.350000 255 0 0
-0.130098 -0.478703 2.373000 255 0 0
-0.125284 -0.485168 2.405000 255 0 0
-0.107682 -0.494880 2.453000 255 0 0
-0.100774 -0.493880 2.448000 255 0 0
-0.094201 -0.494493 2.451000 255 0 0
-0.087469 -0.494298 2.450000 255 0 0
-0.080774 -0.494305 2.450000 255 0 0
-0.073808 -0.492496 2.441000 255 0 0
-0.067192 -0.492905 2.443000 255 0 0
-0.060343 -0.491498 2.436000 255 0 0
-0.053576 -0.490493 2.431000 255 0 0
-0.046913 -0.490296 2.430000 255 0 0
-0.040272 -0.490299 2.430000 255 0 0
-0.033659 -0.490706 2.432000 255 0 0
-0.026912 -0.488892 2.423000 255 0 0
-0.020231 -0.487482 2.416000 255 0 0
-0.013600 -0.486474 2.411000 255 0 0
-0.006996 -0.485466 2.406000 255 0 0
-0.000421 -0.486476 2.411000 255 0 0
0.006176 -0.487081 2.414000 255 0 0
0.012795 -0.487887 2.418000 255 0 0
-0.216998 -0.463071 2.266000 255 0 0
-0.211003 -0.463497 2.268000 255 0 0
-0.205087 -0.464126 2.271000 255 0 0
-0.199854 -0.466389 2.282000 255 0 0
-0.194052 -0.467427 2.287000 255 0 0
-0.188468 -0.469077 2.295000 255 0 0
-0.182601 -0.470113 2.300000 255 0 0
