ply
format ascii 1.0
element vertex 1318
property double x
property double y
property double z
property uchar red
property uchar green
property uchar blue
end_header
-0.041881 0.060321 2.162000 255 0 0
-0.035936 0.060293 2.161000 255 0 0
-0.030010 0.060294 2.161000 255 0 0
-0.024084 0.060294 2.161000 255 0 0
-0.018183 0.060378 2.164000 255 0 0
-0.012265 0.060462 2.167000 255 0 0
-0.006328 0.060518 2.169000 255 0 0
-0.000381 0.060602 2.172000 255 0 0
0.005584 0.060686 2.175000 255 0 0
0.011575 0.060825 2.180000 255 0 0
0.017569 0.060881 2.182000 255 0 0
0.023607 0.061020 2.187000 255 0 0
0.029632 0.061075 2.189000 255 0 0
0.035651 0.061103 2.190000 255 0 0
0.041656 0.061102 2.190000 255 0 0
0.047748 0.061213 2.194000 255 0 0
0.053862 0.061324 2.198000 255 0 0
0.059916 0.061351 2.199000 255 0 0
0.065916 0.061322 2.198000 255 0 0
0.072007 0.061377 2.200000 255 0 0
0.078145 0.061459 2.203000 255 0 0
0.084261 0.061514 2.205000 255 0 0
0.090796 0.061848 2.217000 255 0 0
0.156746 0.059204 2.123000 255 0 0
0.160415 0.058421 2.095000 255 0 0
0.164881 0.057973 2.079000 255 0 0
0.169670 0.057664 2.068000 255 0 0
0.174821 0.057494 2.062000 255 0 0
0.180465 0.057491 2.062000 255 0 0
0.185746 0.057377 2.058000 255 0 0
0.190819 0.057207 2.052000 255 0 0
0.192891 0.056173 2.015000 255 0 0
0.200667 0.056812 2.038000 255 0 0
-0.054081 -0.187308 2.441596 255 255 0
-0.022694 -0.180967 2.449824 255 255 0
-0.008932 -0.179817 2.446292 255 255 0
-0.002714 -0.180897 2.437686 255 255 0
-0.014029 -0.187214 2.417063 255 255 0
-0.015307 -0.190547 2.403258 255 255 0
0.010910 -0.185623 2.408497 255 255 0
0.012951 -0.187948 2.397038 255 255 0
0.019151 -0.189019 2.388485 255 255 0
0.026175 -0.189835 2.380534 255 255 0
0.003337 -0.199725 2.351433 255 255 0
-0.231659 -0.268443 2.295581 0 255 0
-0.216055 -0.270912 2.296993 0 255 0
-0.200744 -0.269950 2.311234 0 255 0
-0.180043 -0.274227 2.309302 0 255 0
-0.166887 -0.275718 2.312732 0 255 0
-0.165504 -0.272907 2.324362 0 255 0
-0.149794 -0.275299 2.326138 0 255 0
-0.034203 -0.259778 2.464871 0 255 0
-0.028504 -0.258421 2.473951 0 255 0
-0.335016 0.056848 2.264000 255 0 0
-0.329713 0.057003 2.270000 255 0 0
-0.323521 0.057007 2.270000 255 0 0
-0.317608 0.057061 2.272000 255 0 0
-0.311271 0.057039 2.271000 255 0 0
-0.305342 0.057093 2.273000 255 0 0
-0.299927 0.057247 2.279000 255 0 0
-0.273222 0.056884 2.264000 255 0 0
-0.262673 0.055958 2.227000 255 0 0
-0.255551 0.055735 2.218000 255 0 0
-0.248365 0.055487 2.208000 255 0 0
-0.241781 0.055364 2.203000 255 0 0
-0.235010 0.055191 2.196000 255 0 0
-0.228484 0.055068 2.191000 255 0 0
-0.222087 0.054970 2.187000 255 0 0
-0.215611 0.054848 2.182000 255 0 0
-0.209259 0.054750 2.178000 255 0 0
-0.202834 0.054627 2.173000 255 0 0
-0.196707 0.054579 2.171000 255 0 0
-0.190590 0.054531 2.169000 255 0 0
-0.184569 0.054508 2.168000 255 0 0
-0.178635 0.054511 2.168000 255 0 0
-0.172780 0.054538 2.169000 255 0 0
-0.166611 0.054465 2.166000 255 0 0
-0.160458 0.054391 2.163000 255 0 0
-0.154321 0.054318 2.160000 255 0 0
-0.148542 0.054370 2.162000 255 0 0
-0.142687 0.054397 2.163000 255 0 0
-0.136699 0.054374 2.162000 255 0 0
-0.130655 0.054325 2.160000 255 0 0
-0.124795 0.054352 2.161000 255 0 0
-0.118929 0.054379 2.162000 255 0 0
-0.112952 0.054355 2.161000 255 0 0
-0.106931 0.054306 2.159000 255 0 0
-0.101061 0.054333 2.160000 255 0 0
-0.095229 0.054384 2.162000 255 0 0
-0.089302 0.054386 2.162000 255 0 0
-0.083337 0.054362 2.161000 255 0 0
-0.077413 0.054363 2.161000 255 0 0
-0.071489 0.054364 2.161000 255 0 0
-0.065534 0.054339 2.160000 255 0 0
-0.059584 0.054315 2.159000 255 0 0
-0.053689 0.054341 2.160000 255 0 0
-0.047744 0.054317 2.159000 255 0 0
-0.041862 0.054367 2.161000 255 0 0
-0.035953 0.054393 2.162000 255 0 0
-0.030052 0.054444 2.164000 255 0 0
-0.024118 0.054444 2.164000 255 0 0
-0.018208 0.054520 2.167000 255 0 0
-0.012288 0.054621 2.171000 255 0 0
-0.006340 0.054671 2.173000 255 0 0
-0.000381 0.054671 2.173000 255 0 0
0.005584 0.054722 2.175000 255 0 0
0.011575 0.054847 2.180000 255 0 0
0.017578 0.054923 2.183000 255 0 0
0.023629 0.055073 2.189000 255 0 0
0.029646 0.055098 2.190000 255 0 0
0.035651 0.055098 2.190000 255 0 0
0.041638 0.055072 2.189000 255 0 0
0.047727 0.055172 2.193000 255 0 0
0.053839 0.055272 2.197000 255 0 0
0.059917 0.055322 2.199000 255 0 0
0.065946 0.055321 2.199000 255 0 0
0.072106 0.055420 2.203000 255 0 0
0.078288 0.055520 2.207000 255 0 0
0.084529 0.055645 2.212000 255 0 0
0.091125 0.055971 2.225000 255 0 0
0.155129 0.054871 2.182000 255 0 0
0.156083 0.053159 2.114000 255 0 0
0.160110 0.052579 2.091000 255 0 0
0.164646 0.052200 2.076000 255 0 0
0.169590 0.051971 2.067000 255 0 0
0.174824 0.051843 2.062000 255 0 0
0.180292 0.051791 2.060000 255 0 0
0.185478 0.051663 2.055000 255 0 0
0.190636 0.051535 2.050000 255 0 0
0.194712 0.051130 2.034000 255 0 0
0.199783 0.051002 2.029000 255 0 0
-0.060602 -0.200694 2.438549 255 255 0
-0.037590 -0.196778 2.441082 255 255 0
-0.016291 -0.193343 2.442598 255 255 0
-0.004218 -0.192658 2.437953 255 255 0
-0.004677 -0.195745 2.424772 255 255 0
0.002373 -0.196564 2.416741 255 255 0
0.016906 -0.195102 2.413929 255 255 0
0.022270 -0.196416 2.404802 255 255 0
0.028460 -0.197474 2.396270 255 255 0
0.003944 -0.207939 2.366111 255 255 0
-0.236861 -0.281058 2.288076 0 255 0
-0.253932 -0.271397 2.312710 0 255 0
-0.245059 -0.271425 2.318820 0 255 0
-0.223593 -0.276112 2.316098 0 255 0
-0.202935 -0.280466 2.314075 0 255 0
-0.175524 -0.287277 2.307470 0 255 0
-0.178347 -0.282915 2.322012 0 255 0
-0.162662 -0.285358 2.323739 0 255 0
-0.036463 -0.270616 2.467796 0 255 0
-0.334576 0.050585 2.261000 255 0 0
-0.329717 0.050790 2.270000 255 0 0
-0.323952 0.050860 2.273000 255 0 0
-0.317891 0.050886 2.274000 255 0 0
-0.311823 0.050912 2.275000 255 0 0
-0.305614 0.050915 2.275000 255 0 0
-0.300062 0.051030 2.280000 255 0 0
-0.294997 0.051235 2.289000 255 0 0
-0.271536 0.050371 2.250000 255 0 0
-0.262912 0.049904 2.229000 255 0 0
-0.255324 0.049615 2.216000 255 0 0
-0.247805 0.049327 2.203000 255 0 0
-0.241345 0.049240 2.199000 255 0 0
-0.234905 0.049153 2.195000 255 0 0
-0.228278 0.049021 2.189000 255 0 0
-0.221886 0.048934 2.185000 255 0 0
-0.215515 0.048847 2.181000 255 0 0
-0.209261 0.048782 2.178000 255 0 0
-0.202836 0.048673 2.173000 255 0 0
-0.196800 0.048652 2.172000 255 0 0
-0.190856 0.048655 2.172000 255 0 0
-0.184827 0.048634 2.171000 255 0 0
-0.178802 0.048614 2.170000 255 0 0
-0.172782 0.048594 2.169000 255 0 0
-0.166690 0.048551 2.167000 255 0 0
-0.160460 0.048463 2.163000 255 0 0
-0.154465 0.048442 2.162000 255 0 0
-0.148682 0.048489 2.164000 255 0 0
-0.142755 0.048491 2.164000 255 0 0
-0.136700 0.048447 2.162000 255 0 0
-0.130657 0.048404 2.160000 255 0 0
-0.124681 0.048383 2.159000 255 0 0
-0.118820 0.048407 2.160000 255 0 0
-0.112849 0.048386 2.159000 255 0 0
-0.106883 0.048365 2.158000 255 0 0
-0.100968 0.048366 2.158000 255 0 0
-0.095054 0.048367 2.158000 255 0 0
-0.089097 0.048346 2.157000 255 0 0
-0.083223 0.048369 2.158000 255 0 0
-0.077343 0.048393 2.159000 255 0 0
-0.071490 0.048438 2.161000 255 0 0
-0.065535 0.048417 2.160000 255 0 0
-0.059612 0.048418 2.160000 255 0 0
-0.053690 0.048418 2.160000 255 0 0
-0.047767 0.048419 2.160000 255 0 0
-0.041882 0.048464 2.162000 255 0 0
-0.035987 0.048509 2.164000 255 0 0
-0.030108 0.048600 2.168000 255 0 0
-0.024163 0.048600 2.168000 255 0 0
-0.018242 0.048667 2.171000 255 0 0
-0.012305 0.048735 2.174000 255 0 0
-0.006346 0.048757 2.175000 255 0 0
-0.000381 0.048713 2.173000 255 0 0
0.005581 0.048735 2.174000 255 0 0
0.011570 0.048847 2.179000 255 0 0
0.017578 0.048936 2.183000 255 0 0
0.023608 0.049026 2.187000 255 0 0
0.029633 0.049070 2.189000 255 0 0
0.035635 0.049070 2.189000 255 0 0
0.041638 0.049070 2.189000 255 0 0
0.047706 0.049136 2.192000 255 0 0
0.053790 0.049203 2.195000 255 0 0
0.059918 0.049292 2.199000 255 0 0
0.065947 0.049291 2.199000 255 0 0
0.072205 0.049447 2.206000 255 0 0
0.078395 0.049536 2.210000 255 0 0
0.084721 0.049692 2.217000 255 0 0
0.091372 0.050005 2.231000 255 0 0
0.152927 0.048196 2.151000 255 0 0
0.155421 0.047164 2.105000 255 0 0
0.159806 0.046759 2.087000 255 0 0
0.164330 0.046421 2.072000 255 0 0
0.169428 0.046262 2.065000 255 0 0
0.174572 0.046126 2.059000 255 0 0
0.180207 0.046124 2.059000 255 0 0
0.185570 0.046054 2.056000 255 0 0
0.191010 0.046007 2.054000 255 0 0
0.192608 0.045065 2.012000 255 0 0
-0.087652 -0.217327 2.434814 255 255 0
-0.063764 -0.213121 2.437761 255 255 0
-0.039084 -0.208639 2.441394 255 255 0
-0.001080 -0.200074 2.454222 255 255 0
0.004296 -0.201389 2.445055 255 255 0
0.027179 -0.197353 2.447907 255 255 0
0.022533 -0.201717 2.431924 255 255 0
0.015410 -0.206856 2.414162 255 255 0
0.034904 -0.203812 2.414873 255 255 0
0.031949 -0.207677 2.399971 255 255 0
-0.018262 -0.226194 2.351726 255 255 0
-0.246892 -0.285245 2.308967 0 255 0
-0.241364 -0.284028 2.317481 0 255 0
-0.220744 -0.288455 2.315382 0 255 0
-0.200932 -0.292547 2.313977 0 255 0
-0.195366 -0.291302 2.322620 0 255 0
-0.195680 -0.287870 2.335357 0 255 0
-0.200206 -0.282884 2.350972 0 255 0
-0.178645 -0.287550 2.348634 0 255 0
-0.137667 -0.299335 2.333181 0 255 0
-0.114337 -0.304563 2.329978 0 255 0
-0.024193 -0.286588 2.461636 0 255 0
-0.041581 -0.277100 2.485125 0 255 0
-0.335615 0.044534 2.268000 255 0 0
-0.330882 0.044734 2.278000 255 0 0
-0.324668 0.044737 2.278000 255 0 0
-0.318453 0.044740 2.278000 255 0 0
-0.312100 0.044723 2.277000 255 0 0
-0.305886 0.044726 2.277000 255 0 0
-0.299802 0.044748 2.278000 255 0 0
-0.293969 0.044810 2.281000 255 0 0
-0.289506 0.045088 2.295000 255 0 0
-0.278919 0.044403 2.260000 255 0 0
-0.270211 0.043993 2.239000 255 0 0
-0.262797 0.043779 2.228000 255 0 0
-0.255211 0.043526 2.215000 255 0 0
-0.247808 0.043293 2.203000 255 0 0
-0.241238 0.043197 2.198000 255 0 0
-0.234801 0.043121 2.194000 255 0 0
-0.228176 0.043005 2.188000 255 0 0
-0.221888 0.042948 2.185000 255 0 0
-0.215715 0.042911 2.183000 255 0 0
-0.209455 0.042854 2.180000 255 0 0
-0.203025 0.042758 2.175000 255 0 0
-0.196802 0.042701 2.172000 255 0 0
-0.190858 0.042703 2.172000 255 0 0
-0.184829 0.042685 2.171000 255 0 0
-0.178887 0.042687 2.171000 255 0 0
-0.172784 0.042649 2.169000 255 0 0
-0.166692 0.042612 2.167000 255 0 0
-0.160536 0.042554 2.164000 255 0 0
-0.154467 0.042516 2.162000 255 0 0
-0.148477 0.042498 2.161000 255 0 0
-0.142492 0.042480 2.160000 255 0 0
-0.136512 0.042462 2.159000 255 0 0
-0.130537 0.042444 2.158000 255 0 0
-0.124567 0.042425 2.157000 255 0 0
-0.118601 0.042407 2.156000 255 0 0
-0.112641 0.042388 2.155000 255 0 0
-0.106834 0.042429 2.157000 255 0 0
-0.100969 0.042450 2.158000 255 0 0
-0.095011 0.042431 2.157000 255 0 0
-0.089098 0.042432 2.157000 255 0 0
-0.083224 0.042452 2.158000 255 0 0
-0.077308 0.042453 2.158000 255 0 0
-0.071424 0.042474 2.159000 255 0 0
-0.065475 0.042455 2.158000 255 0 0
-0.059613 0.042495 2.160000 255 0 0
-0.053690 0.042495 2.160000 255 0 0
-0.047789 0.042515 2.161000 255 0 0
-0.041883 0.042536 2.162000 255 0 0
-0.036004 0.042595 2.165000 255 0 0
-0.030136 0.042694 2.170000 255 0 0
-0.024196 0.042714 2.171000 255 0 0
-0.018259 0.042753 2.173000 255 0 0
-0.012317 0.042812 2.176000 255 0 0
-0.006352 0.042832 2.177000 255 0 0
-0.000382 0.042832 2.177000 255 0 0
0.005589 0.042832 2.177000 255 0 0
0.011586 0.042931 2.182000 255 0 0
0.017610 0.043029 2.187000 255 0 0
0.023640 0.043088 2.190000 255 0 0
0.029660 0.043107 2.191000 255 0 0
0.035685 0.043126 2.192000 255 0 0
0.041753 0.043185 2.195000 255 0 0
0.047794 0.043204 2.196000 255 0 0
0.053864 0.043243 2.198000 255 0 0
0.059946 0.043282 2.200000 255 0 0
0.066098 0.043360 2.204000 255 0 0
0.072370 0.043497 2.211000 255 0 0
0.078609 0.043594 2.216000 255 0 0
0.084913 0.043712 2.222000 255 0 0
0.091332 0.043868 2.230000 255 0 0
0.151222 0.041828 2.127000 255 0 0
0.155127 0.041316 2.101000 255 0 0
0.159578 0.040980 2.084000 255 0 0
0.164173 0.040703 2.070000 255 0 0
0.169266 0.040563 2.063000 255 0 0
0.174573 0.040483 2.059000 255 0 0
0.180034 0.040442 2.057000 255 0 0
0.185392 0.040381 2.054000 255 0 0
0.191012 0.040379 2.054000 255 0 0
-0.078236 -0.226019 2.442445 255 255 0
-0.059389 -0.223279 2.442032 255 255 0
-0.033051 -0.218218 2.446785 255 255 0
-0.010937 -0.214415 2.448843 255 255 0
0.017810 -0.208537 2.455562 255 255 0
0.026502 -0.208808 2.448724 255 255 0
0.017701 -0.214487 2.429872 255 255 0
0.027221 -0.214499 2.423621 255 255 0
0.033406 -0.215538 2.415092 255 255 0
0.028798 -0.219943 2.399022 255 255 0
0.026695 -0.223578 2.384654 255 255 0
0.032883 -0.224619 2.376114 255 255 0
-0.241025 -0.295401 2.318521 0 255 0
-0.222927 -0.298932 2.318213 0 255 0
-0.214864 -0.298655 2.325041 0 255 0
-0.201758 -0.300263 2.328390 0 255 0
-0.195354 -0.299341 2.336455 0 255 0
-0.191466 -0.297472 2.346277 0 255 0
-0.185053 -0.296543 2.354373 0 255 0
-0.166844 -0.299994 2.354445 0 255 0
-0.011087 -0.302952 2.454967 0 255 0
-0.030445 -0.289323 2.492366 0 255 0
-0.330885 0.038499 2.278000 255 0 0
-0.324814 0.038518 2.279000 255 0 0
-0.318596 0.038521 2.279000 255 0 0
-0.312240 0.038506 2.278000 255 0 0
-0.306023 0.038509 2.278000 255 0 0
-0.299541 0.038477 2.276000 255 0 0
-0.293456 0.038497 2.277000 255 0 0
-0.287364 0.038516 2.278000 255 0 0
-0.278428 0.038146 2.256000 255 0 0
-0.269610 0.037776 2.234000 255 0 0
-0.262091 0.037576 2.222000 255 0 0
-0.254522 0.037358 2.209000 255 0 0
-0.247023 0.037140 2.196000 255 0 0
-0.240471 0.037058 2.191000 255 0 0
-0.234268 0.037026 2.189000 255 0 0
-0.227970 0.036977 2.186000 255 0 0
-0.221789 0.036945 2.184000 255 0 0
-0.215519 0.036896 2.181000 255 0 0
-0.209553 0.036898 2.181000 255 0 0
-0.203213 0.036832 2.177000 255 0 0
-0.196985 0.036783 2.174000 255 0 0
-0.190948 0.036768 2.173000 255 0 0
-0.184916 0.036752 2.172000 255 0 0
-0.179053 0.036771 2.173000 255 0 0
-0.172865 0.036721 2.170000 255 0 0
-0.166924 0.036723 2.170000 255 0 0
-0.160760 0.036674 2.167000 255 0 0
-0.154683 0.036641 2.165000 255 0 0
-0.148616 0.036609 2.163000 255 0 0
-0.142560 0.036576 2.161000 255 0 0
-0.136577 0.036560 2.160000 255 0 0
-0.130659 0.036561 2.160000 255 0 0
-0.124626 0.036529 2.158000 255 0 0
-0.118548 0.036479 2.155000 255 0 0
-0.112485 0.036429 2.152000 255 0 0
-0.106637 0.036447 2.153000 255 0 0
-0.100830 0.036482 2.155000 255 0 0
-0.094923 0.036483 2.155000 255 0 0
-0.089016 0.036484 2.155000 255 0 0
-0.083109 0.036484 2.155000 255 0 0
-0.077237 0.036502 2.156000 255 0 0
-0.071392 0.036537 2.158000 255 0 0
-0.065506 0.036554 2.159000 255 0 0
-0.059613 0.036572 2.160000 255 0 0
-0.053716 0.036589 2.161000 255 0 0
-0.047790 0.036589 2.161000 255 0 0
-0.041922 0.036641 2.164000 255 0 0
-0.036021 0.036675 2.166000 255 0 0
-0.030136 0.036743 2.170000 255 0 0
-0.024219 0.036794 2.173000 255 0 0
-0.018276 0.036828 2.175000 255 0 0
-0.012328 0.036879 2.178000 255 0 0
-0.006355 0.036879 2.178000 255 0 0
-0.000382 0.036896 2.179000 255 0 0
0.005592 0.036879 2.178000 255 0 0
0.011581 0.036930 2.181000 255 0 0
0.017594 0.036997 2.185000 255 0 0
0.023630 0.037065 2.189000 255 0 0
0.029687 0.037132 2.193000 255 0 0
0.035750 0.037183 2.196000 255 0 0
0.041867 0.037267 2.201000 255 0 0
0.047903 0.037267 2.201000 255 0 0
0.053987 0.037300 2.203000 255 0 0
0.060083 0.037334 2.205000 255 0 0
0.066219 0.037384 2.208000 255 0 0
0.072338 0.037417 2.210000 255 0 0
0.078539 0.037484 2.214000 255 0 0
0.084838 0.037585 2.220000 255 0 0
0.091046 0.037635 2.223000 255 0 0
0.150228 0.035761 2.113000 255 0 0
0.154316 0.035371 2.090000 255 0 0
0.158890 0.035115 2.075000 255 0 0
0.163620 0.034911 2.063000 255 0 0
0.168857 0.034825 2.058000 255 0 0
0.174236 0.034773 2.055000 255 0 0
0.179773 0.034754 2.054000 255 0 0
0.185123 0.034702 2.051000 255 0 0
0.190549 0.034667 2.049000 255 0 0
-0.081823 -0.235640 2.454445 255 255 0
-0.059616 -0.231830 2.456203 255 255 0
-0.043305 -0.229807 2.454148 255 255 0
-0.037885 -0.231132 2.444851 255 255 0
-0.017444 -0.227793 2.445744 255 255 0
0.003794 -0.224175 2.447307 255 255 0
0.019997 -0.222099 2.445553 255 255 0
0.028684 -0.222352 2.438718 255 255 0
0.026556 -0.225991 2.424432 255 255 0
0.026100 -0.229114 2.411269 255 255 0
0.016531 -0.235119 2.391695 255 255 0
0.038469 -0.231177 2.394197 255 255 0
-0.175182 -0.335187 2.260542 0 255 0
-0.224796 -0.312857 2.308328 0 255 0
-0.227622 -0.308451 2.322812 0 255 0
-0.221241 -0.307555 2.330809 0 255 0
-0.186636 -0.313999 2.331745 0 255 0
-0.186101 -0.310860 2.343916 0 255 0
-0.169592 -0.313732 2.345123 0 255 0
-0.175785 -0.308064 2.361898 0 255 0
-0.153353 -0.313122 2.359198 0 255 0
-0.010747 -0.304652 2.494432 0 255 0
-0.324531 0.032251 2.277000 255 0 0
-0.318319 0.032253 2.277000 255 0 0
-0.311968 0.032241 2.276000 255 0 0
-0.305891 0.032257 2.277000 255 0 0
-0.299412 0.032231 2.275000 255 0 0
-0.293329 0.032247 2.276000 255 0 0
-0.287240 0.032263 2.277000 255 0 0
-0.279170 0.032053 2.262000 255 0 0
-0.270216 0.031729 2.239000 255 0 0
-0.261857 0.031461 2.220000 255 0 0
-0.254293 0.031279 2.207000 255 0 0
-0.246800 0.031096 2.194000 255 0 0
-0.240034 0.030999 2.187000 255 0 0
-0.233734 0.030958 2.184000 255 0 0
-0.227346 0.030903 2.180000 255 0 0
-0.221181 0.030876 2.178000 255 0 0
-0.215027 0.030849 2.176000 255 0 0
-0.209267 0.030879 2.178000 255 0 0
-0.203308 0.030881 2.178000 255 0 0
-0.197168 0.030854 2.176000 255 0 0
-0.190949 0.030813 2.173000 255 0 0
-0.184747 0.030771 2.170000 255 0 0
-0.178890 0.030787 2.171000 255 0 0
-0.172707 0.030746 2.168000 255 0 0
-0.166926 0.030775 2.170000 255 0 0
-0.160761 0.030734 2.167000 255 0 0
-0.154684 0.030707 2.165000 255 0 0
-0.148617 0.030679 2.163000 255 0 0
-0.142429 0.030624 2.159000 255 0 0
-0.136578 0.030639 2.160000 255 0 0
-0.130600 0.030626 2.159000 255 0 0
-0.124684 0.030627 2.159000 255 0 0
-0.118549 0.030571 2.155000 255 0 0
-0.112434 0.030515 2.151000 255 0 0
-0.106589 0.030530 2.152000 255 0 0
-0.100878 0.030587 2.156000 255 0 0
-0.095056 0.030617 2.158000 255 0 0
-0.089141 0.030617 2.158000 255 0 0
-0.083148 0.030589 2.156000 255 0 0
-0.077309 0.030618 2.158000 255 0 0
-0.071459 0.030647 2.160000 255 0 0
-0.065597 0.030676 2.162000 255 0 0
-0.059642 0.030663 2.161000 255 0 0
-0.053741 0.030677 2.162000 255 0 0
-0.047834 0.030692 2.163000 255 0 0
-0.041980 0.030749 2.167000 255 0 0
-0.036054 0.030763 2.168000 255 0 0
-0.030151 0.030806 2.171000 255 0 0
-0.024241 0.030863 2.175000 255 0 0
-0.018276 0.030863 2.175000 255 0 0
-0.012328 0.030906 2.178000 255 0 0
-0.006358 0.030920 2.179000 255 0 0
-0.000383 0.030991 2.184000 255 0 0
0.005607 0.030991 2.184000 255 0 0
0.011602 0.031005 2.185000 255 0 0
0.017619 0.031048 2.188000 255 0 0
0.023673 0.031119 2.193000 255 0 0
0.029742 0.031175 2.197000 255 0 0
0.035816 0.031217 2.200000 255 0 0
0.041925 0.031274 2.204000 255 0 0
0.047990 0.031288 2.205000 255 0 0
0.054037 0.031287 2.205000 255 0 0
0.060138 0.031315 2.207000 255 0 0
0.066309 0.031372 2.211000 255 0 0
0.072437 0.031399 2.213000 255 0 0
0.078610 0.031441 2.216000 255 0 0
0.084915 0.031526 2.222000 255 0 0
0.091129 0.031568 2.225000 255 0 0
0.149305 0.029785 2.100000 255 0 0
0.153727 0.029528 2.082000 255 0 0
0.158356 0.029329 2.068000 255 0 0
0.163145 0.029172 2.057000 255 0 0
0.168612 0.029142 2.055000 255 0 0
0.174068 0.029112 2.053000 255 0 0
0.179599 0.029097 2.052000 255 0 0
0.184763 0.029025 2.047000 255 0 0
0.189899 0.028953 2.042000 255 0 0
0.193571 0.028668 2.022000 255 0 0
-0.091284 -0.247088 2.462595 255 255 0
-0.072410 -0.244272 2.462040 255 255 0
-0.047711 -0.239618 2.465478 255 255 0
-0.028074 -0.236507 2.465683 255 255 0
-0.028515 -0.239647 2.452488 255 255 0
-0.023108 -0.240961 2.443223 255 255 0
-0.006038 -0.238602 2.441913 255 255 0
0.020993 -0.233079 2.447523 255 255 0
0.042983 -0.229108 2.449841 255 255 0
0.028384 -0.236710 2.426973 255 255 0
0.030420 -0.239052 2.415545 255 255 0
0.020855 -0.245098 2.395988 255 255 0
0.036157 -0.243213 2.393825 255 255 0
-0.120404 -0.371301 2.209993 0 255 0
-0.181841 -0.340730 2.279261 0 255 0
-0.208659 -0.320349 2.335829 0 255 0
-0.192194 -0.323288 2.336925 0 255 0
-0.181584 -0.323975 2.342146 0 255 0
-0.174322 -0.323378 2.349714 0 255 0
-0.167054 -0.322775 2.357307 0 255 0
-0.169881 -0.318355 2.371770 0 255 0
-0.044932 -0.310799 2.491775 0 255 0
-0.012165 -0.315870 2.496855 0 255 0
-0.324818 0.026041 2.279000 255 0 0
-0.318600 0.026043 2.279000 255 0 0
-0.312107 0.026021 2.277000 255 0 0
-0.306161 0.026046 2.279000 255 0 0
-0.299677 0.026025 2.277000 255 0 0
-0.293460 0.026026 2.277000 255 0 0
-0.287242 0.026028 2.277000 255 0 0
-0.280653 0.025995 2.274000 255 0 0
-0.270941 0.025665 2.245000 255 0 0
-0.262331 0.025427 2.224000 255 0 0
-0.254410 0.025245 2.208000 255 0 0
-0.246689 0.025075 2.193000 255 0 0
-0.239706 0.024973 2.184000 255 0 0
-0.233522 0.024952 2.182000 255 0 0
-0.227139 0.024907 2.178000 255 0 0
-0.220980 0.024886 2.176000 255 0 0
-0.214732 0.024853 2.173000 255 0 0
-0.208980 0.024877 2.175000 255 0 0
-0.202843 0.024855 2.173000 255 0 0
-0.196988 0.024868 2.174000 255 0 0
-0.190687 0.024823 2.170000 255 0 0
-0.184578 0.024801 2.168000 255 0 0
-0.178561 0.024791 2.167000 255 0 0
-0.172629 0.024792 2.167000 255 0 0
-0.166850 0.024816 2.169000 255 0 0
-0.160836 0.024805 2.168000 255 0 0
-0.154971 0.024818 2.169000 255 0 0
-0.149030 0.024819 2.169000 255 0 0
-0.142957 0.024797 2.167000 255 0 0
-0.136958 0.024786 2.166000 255 0 0
-0.130903 0.024764 2.164000 255 0 0
-0.124974 0.024765 2.164000 255 0 0
-0.118824 0.024720 2.160000 255 0 0
-0.112592 0.024652 2.154000 255 0 0
-0.106639 0.024641 2.153000 255 0 0
-0.100972 0.024699 2.158000 255 0 0
-0.095145 0.024722 2.160000 255 0 0
-0.089183 0.024711 2.159000 255 0 0
-0.083226 0.024700 2.158000 255 0 0
-0.077417 0.024735 2.161000 255 0 0
-0.071558 0.024759 2.163000 255 0 0
-0.065719 0.024793 2.166000 255 0 0
-0.059697 0.024759 2.163000 255 0 0
-0.053766 0.024760 2.163000 255 0 0
-0.047879 0.024783 2.165000 255 0 0
-0.042020 0.024829 2.169000 255 0 0
-0.036088 0.024841 2.170000 255 0 0
-0.030137 0.024841 2.170000 255 0 0
-0.024219 0.024875 2.173000 255 0 0
-0.018293 0.024921 2.177000 255 0 0
-0.012351 0.024979 2.182000 255 0 0
-0.006373 0.025002 2.184000 255 0 0
-0.000383 0.025024 2.186000 255 0 0
0.005612 0.025024 2.186000 255 0 0
0.011607 0.025024 2.186000 255 0 0
0.017611 0.025036 2.187000 255 0 0
0.023630 0.025059 2.189000 255 0 0
0.029688 0.025104 2.193000 255 0 0
0.035751 0.025138 2.196000 255 0 0
0.041830 0.025172 2.199000 255 0 0
0.047904 0.025195 2.201000 255 0 0
0.053964 0.025206 2.202000 255 0 0
0.060220 0.025297 2.210000 255 0 0
0.066369 0.025331 2.213000 255 0 0
0.072601 0.025388 2.218000 255 0 0
0.078575 0.025353 2.215000 255 0 0
0.084839 0.025410 2.220000 255 0 0
0.091007 0.025432 2.222000 255 0 0
0.143828 0.024075 2.104000 255 0 0
0.148382 0.023880 2.087000 255 0 0
0.152916 0.023696 2.071000 255 0 0
0.157744 0.023569 2.060000 255 0 0
0.162591 0.023454 2.050000 255 0 0
0.168039 0.023430 2.048000 255 0 0
0.173560 0.023417 2.047000 255 0 0
0.179250 0.023428 2.048000 255 0 0
0.184855 0.023427 2.048000 255 0 0
0.189807 0.023345 2.041000 255 0 0
0.194051 0.023184 2.027000 255 0 0
-0.081025 -0.255463 2.470720 255 255 0
-0.059657 -0.251807 2.471841 255 255 0
-0.039163 -0.248396 2.472512 255 255 0
-0.012021 -0.242859 2.477758 255 255 0
-0.014979 -0.246796 2.462924 255 255 0
-0.005417 -0.246776 2.456514 255 255 0
-0.003363 -0.249132 2.445040 255 255 0
0.008677 -0.248307 2.440388 255 255 0
0.026517 -0.245613 2.439790 255 255 0
0.018589 -0.251153 2.421475 255 255 0
0.014406 -0.258531 2.392747 255 255 0
-0.008354 -0.268913 2.363787 255 255 0
-0.207997 -0.345430 2.286448 0 255 0
-0.218306 -0.338048 2.306327 0 255 0
-0.203556 -0.340405 2.308496 0 255 0
-0.221423 -0.330131 2.333549 0 255 0
-0.204148 -0.333448 2.334012 0 255 0
-0.200262 -0.331588 2.343838 0 255 0
-0.187984 -0.332947 2.347893 0 255 0
-0.180729 -0.332366 2.355453 0 255 0
-0.186076 -0.326967 2.371621 0 255 0
-0.151895 -0.336632 2.360959 0 255 0
-0.047189 -0.321630 2.494701 0 255 0
-0.325104 0.019819 2.281000 255 0 0
-0.319021 0.019829 2.282000 255 0 0
-0.312383 0.019805 2.279000 255 0 0
-0.306297 0.019815 2.280000 255 0 0
-0.299547 0.019781 2.276000 255 0 0
-0.293333 0.019782 2.276000 255 0 0
-0.286991 0.019775 2.275000 255 0 0
-0.280778 0.019776 2.275000 255 0 0
-0.272150 0.019603 2.255000 255 0 0
-0.263630 0.019431 2.235000 255 0 0
-0.255333 0.019267 2.216000 255 0 0
-0.247252 0.019111 2.198000 255 0 0
-0.240037 0.019017 2.187000 255 0 0
-0.233416 0.018965 2.181000 255 0 0
-0.226827 0.018914 2.175000 255 0 0
-0.220778 0.018906 2.174000 255 0 0
-0.215029 0.018925 2.176000 255 0 0
-0.209173 0.018934 2.177000 255 0 0
-0.202751 0.018892 2.172000 255 0 0
-0.196717 0.018884 2.171000 255 0 0
-0.190512 0.018859 2.168000 255 0 0
-0.184494 0.018851 2.167000 255 0 0
-0.178480 0.018843 2.166000 255 0 0
-0.172470 0.018835 2.165000 255 0 0
-0.166620 0.018845 2.166000 255 0 0
-0.160615 0.018837 2.165000 255 0 0
-0.154614 0.018829 2.164000 255 0 0
-0.148756 0.018838 2.165000 255 0 0
-0.142760 0.018830 2.164000 255 0 0
-0.136769 0.018822 2.163000 255 0 0
-0.130662 0.018796 2.160000 255 0 0
-0.124801 0.018806 2.161000 255 0 0
-0.118935 0.018815 2.162000 255 0 0
-0.112906 0.018798 2.160000 255 0 0
-0.106937 0.018790 2.159000 255 0 0
-0.101113 0.018808 2.161000 255 0 0
-0.095234 0.018817 2.162000 255 0 0
-0.089307 0.018817 2.162000 255 0 0
-0.083342 0.018809 2.161000 255 0 0
-0.077597 0.018853 2.166000 255 0 0
-0.071691 0.018862 2.167000 255 0 0
-0.065871 0.018897 2.171000 255 0 0
-0.059918 0.018897 2.171000 255 0 0
-0.053965 0.018898 2.171000 255 0 0
-0.047968 0.018880 2.169000 255 0 0
-0.042097 0.018915 2.173000 255 0 0
-0.036138 0.018916 2.173000 255 0 0
-0.030179 0.018916 2.173000 255 0 0
-0.024197 0.018898 2.171000 255 0 0
-0.018285 0.018942 2.176000 255 0 0
-0.012345 0.018986 2.181000 255 0 0
-0.006367 0.018994 2.182000 255 0 0
-0.000383 0.019012 2.184000 255 0 0
0.005612 0.019029 2.186000 255 0 0
0.011629 0.019064 2.190000 255 0 0
0.017659 0.019090 2.193000 255 0 0
0.023663 0.019081 2.192000 255 0 0
0.029688 0.019090 2.193000 255 0 0
0.035702 0.019090 2.193000 255 0 0
0.041868 0.019159 2.201000 255 0 0
0.047991 0.019194 2.205000 255 0 0
0.054185 0.019246 2.211000 255 0 0
0.060302 0.019263 2.213000 255 0 0
0.066430 0.019280 2.215000 255 0 0
0.072601 0.019306 2.218000 255 0 0
0.078611 0.019288 2.216000 255 0 0
0.084687 0.019288 2.216000 255 0 0
0.090884 0.019313 2.219000 255 0 0
0.142940 0.018194 2.091000 255 0 0
0.147600 0.018063 2.076000 255 0 0
0.152326 0.017949 2.063000 255 0 0
0.157285 0.017870 2.054000 255 0 0
0.162354 0.017809 2.047000 255 0 0
0.167712 0.017782 2.044000 255 0 0
0.173222 0.017772 2.043000 255 0 0
0.178988 0.017789 2.045000 255 0 0
0.184675 0.017797 2.046000 255 0 0
0.189808 0.017753 2.041000 255 0 0
0.194339 0.017656 2.030000 255 0 0
-0.064484 -0.258762 2.495910 255 255 0
-0.071614 -0.264050 2.478281 255 255 0
-0.060307 -0.263516 2.472768 255 255 0
-0.034803 -0.258460 2.476756 255 255 0
-0.014357 -0.254976 2.477524 255 255 0
0.004383 -0.252007 2.477271 255 255 0
0.004757 -0.254894 2.464710 255 255 0
0.006802 -0.257249 2.453261 255 255 0
-0.001961 -0.263088 2.434411 255 255 0
0.002594 -0.264648 2.424626 255 255 0
0.010466 -0.265131 2.417142 255 255 0
-0.001564 -0.272070 2.395855 255 255 0
-0.016872 -0.280103 2.372159 255 255 0
-0.201856 -0.359266 2.283384 0 255 0
-0.210479 -0.352493 2.302099 0 255 0
-0.190714 -0.356840 2.300787 0 255 0
-0.201028 -0.349427 2.320611 0 255 0
-0.200484 -0.346263 2.332789 0 255 0
-0.192405 -0.346028 2.339737 0 255 0
-0.183478 -0.346111 2.346138 0 255 0
-0.186291 -0.341651 2.360611 0 255 0
-0.174835 -0.342697 2.365330 0 255 0
-0.150751 -0.348576 2.361563 0 255 0
-0.132522 -0.352172 2.361888 0 255 0
-0.036655 -0.337176 2.489703 0 255 0
-0.325248 0.013581 2.282000 255 0 0
-0.319162 0.013588 2.283000 255 0 0
-0.312658 0.013577 2.281000 255 0 0
-0.306298 0.013572 2.280000 255 0 0
-0.299679 0.013555 2.277000 255 0 0
-0.293334 0.013550 2.276000 255 0 0
-0.286992 0.013545 2.275000 255 0 0
-0.281026 0.013557 2.277000 255 0 0
-0.273478 0.013493 2.266000 255 0 0
-0.265046 0.013380 2.247000 255 0 0
-0.255680 0.013214 2.219000 255 0 0
-0.247591 0.013108 2.201000 255 0 0
-0.240257 0.013037 2.189000 255 0 0
-0.233417 0.012990 2.181000 255 0 0
-0.226723 0.012949 2.174000 255 0 0
-0.220677 0.012944 2.173000 255 0 0
-0.214931 0.012956 2.175000 255 0 0
-0.209270 0.012975 2.178000 255 0 0
-0.202658 0.012934 2.171000 255 0 0
-0.196536 0.012923 2.169000 255 0 0
-0.190513 0.012917 2.168000 255 0 0
-0.184750 0.012930 2.170000 255 0 0
-0.178645 0.012918 2.168000 255 0 0
-0.172551 0.012907 2.166000 255 0 0
-0.166697 0.012913 2.167000 255 0 0
-0.160838 0.012920 2.168000 255 0 0
-0.154758 0.012908 2.166000 255 0 0
-0.148688 0.012897 2.164000 255 0 0
-0.142761 0.012897 2.164000 255 0 0
-0.136833 0.012898 2.164000 255 0 0
-0.130723 0.012880 2.161000 255 0 0
-0.124744 0.012875 2.160000 255 0 0
-0.118825 0.012875 2.160000 255 0 0
-0.112854 0.012870 2.159000 255 0 0
-0.106838 0.012858 2.157000 255 0 0
-0.100879 0.012852 2.156000 255 0 0
-0.094926 0.012847 2.155000 255 0 0
-0.089060 0.012853 2.156000 255 0 0
-0.083226 0.012865 2.158000 255 0 0
-0.077489 0.012895 2.163000 255 0 0
-0.071592 0.012901 2.164000 255 0 0
-0.065841 0.012937 2.170000 255 0 0
-0.059891 0.012938 2.170000 255 0 0
-0.053866 0.012920 2.167000 255 0 0
-0.047835 0.012896 2.163000 255 0 0
-0.041981 0.012920 2.167000 255 0 0
-0.036122 0.012950 2.172000 255 0 0
-0.030193 0.012962 2.174000 255 0 0
-0.024242 0.012968 2.175000 255 0 0
-0.018302 0.012986 2.178000 255 0 0
-0.012334 0.012992 2.179000 255 0 0
-0.006367 0.013010 2.182000 255 0 0
-0.000383 0.013022 2.184000 255 0 0
0.005620 0.013052 2.189000 255 0 0
0.011639 0.013070 2.192000 255 0 0
0.017675 0.013088 2.195000 255 0 0
0.023684 0.013081 2.194000 255 0 0
0.029756 0.013105 2.198000 255 0 0
0.035751 0.013093 2.196000 255 0 0
0.041906 0.013135 2.203000 255 0 0
0.047969 0.013141 2.204000 255 0 0
0.054234 0.013194 2.213000 255 0 0
0.060357 0.013206 2.215000 255 0 0
0.066580 0.013235 2.220000 255 0 0
0.072765 0.013253 2.223000 255 0 0
0.078718 0.013229 2.219000 255 0 0
0.084687 0.013211 2.216000 255 0 0
0.090885 0.013229 2.219000 255 0 0
0.142120 0.012390 2.079000 255 0 0
0.146748 0.012301 2.064000 255 0 0
0.151588 0.012235 2.053000 255 0 0
0.156673 0.012192 2.046000 255 0 0
0.161879 0.012162 2.041000 255 0 0
0.167138 0.012138 2.037000 255 0 0
0.172629 0.012131 2.036000 255 0 0
0.178551 0.012155 2.040000 255 0 0
0.184315 0.012166 2.042000 255 0 0
0.189530 0.012142 2.038000 255 0 0
0.194244 0.012087 2.029000 255 0 0
0.196348 0.011878 1.994000 255 0 0
-0.078122 -0.277669 2.475374 255 255 0
-0.054261 -0.273099 2.478125 255 255 0
-0.048829 -0.274408 2.468777 255 255 0
-0.011681 -0.265506 2.480644 255 255 0
0.013721 -0.260336 2.484867 255 255 0
0.023250 -0.260264 2.478523 255 255 0
0.008637 -0.268014 2.455816 255 255 0
0.000712 -0.273621 2.437543 255 255 0
-0.000135 -0.279987 2.411106 255 255 0
0.030935 -0.272850 2.419722 255 255 0
-0.196299 -0.376345 2.268064 0 255 0
-0.206562 -0.368861 2.288022 0 255 0
-0.194323 -0.370297 2.292002 0 255 0
-0.224960 -0.351444 2.338641 0 255 0
-0.190420 -0.358236 2.339703 0 255 0
-0.196578 -0.352448 2.356489 0 255 0
-0.174235 -0.357773 2.353722 0 255 0
-0.181240 -0.351665 2.371050 0 255 0
-0.163056 -0.355333 2.371267 0 255 0
-0.138118 -0.361582 2.367048 0 255 0
-0.033806 -0.349947 2.489476 0 255 0
-0.038341 -0.344850 2.504930 0 255 0
-0.040328 -0.340711 2.518771 0 255 0
-0.330893 0.007321 2.278000 255 0 0
-0.324964 0.007328 2.280000 255 0 0
-0.318743 0.007328 2.280000 255 0 0
-0.312247 0.007322 2.278000 255 0 0
-0.305896 0.007319 2.277000 255 0 0
-0.299548 0.007317 2.276000 255 0 0
-0.293334 0.007317 2.276000 255 0 0
-0.287119 0.007318 2.276000 255 0 0
-0.281150 0.007324 2.278000 255 0 0
-0.274565 0.007315 2.275000 255 0 0
-0.266226 0.007258 2.257000 255 0 0
-0.256026 0.007146 2.222000 255 0 0
-0.248266 0.007098 2.207000 255 0 0
-0.240807 0.007056 2.194000 255 0 0
-0.234167 0.007037 2.188000 255 0 0
-0.226933 0.006999 2.176000 255 0 0
-0.220677 0.006990 2.173000 255 0 0
-0.214833 0.006994 2.174000 255 0 0
-0.209270 0.007007 2.178000 255 0 0
-0.202845 0.006991 2.173000 255 0 0
-0.196809 0.006988 2.172000 255 0 0
-0.190601 0.006979 2.169000 255 0 0
-0.184835 0.006985 2.171000 255 0 0
-0.178646 0.006976 2.168000 255 0 0
-0.172711 0.006976 2.168000 255 0 0
-0.166852 0.006980 2.169000 255 0 0
-0.160987 0.006983 2.170000 255 0 0
-0.154758 0.006971 2.166000 255 0 0
-0.148620 0.006961 2.163000 255 0 0
-0.142761 0.006965 2.164000 255 0 0
-0.136770 0.006962 2.163000 255 0 0
-0.130784 0.006959 2.162000 255 0 0
-0.124918 0.006962 2.163000 255 0 0
-0.118991 0.006962 2.163000 255 0 0
-0.113116 0.006966 2.164000 255 0 0
-0.107036 0.006956 2.161000 255 0 0
-0.101067 0.006953 2.160000 255 0 0
-0.094926 0.006937 2.155000 255 0 0
-0.089101 0.006944 2.157000 255 0 0
-0.083188 0.006944 2.157000 255 0 0
-0.077490 0.006964 2.163000 255 0 0
-0.071592 0.006967 2.164000 255 0 0
-0.065780 0.006980 2.168000 255 0 0
-0.059836 0.006980 2.168000 255 0 0
-0.053891 0.006980 2.168000 255 0 0
-0.047902 0.006974 2.166000 255 0 0
-0.042059 0.006990 2.171000 255 0 0
-0.036138 0.006997 2.173000 255 0 0
-0.030179 0.006997 2.173000 255 0 0
-0.024220 0.006997 2.173000 255 0 0
-0.018294 0.007010 2.177000 255 0 0
-0.012323 0.007010 2.177000 255 0 0
-0.006367 0.007026 2.182000 255 0 0
-0.000383 0.007039 2.186000 255 0 0
0.005628 0.007058 2.192000 255 0 0
0.011650 0.007064 2.194000 255 0 0
0.017692 0.007074 2.197000 255 0 0
0.023749 0.007084 2.200000 255 0 0
0.029783 0.007084 2.200000 255 0 0
0.035784 0.007077 2.198000 255 0 0
0.041907 0.007093 2.203000 255 0 0
0.048057 0.007109 2.208000 255 0 0
0.054332 0.007138 2.217000 255 0 0
0.060411 0.007138 2.217000 255 0 0
0.066610 0.007151 2.221000 255 0 0
0.072765 0.007157 2.223000 255 0 0
0.078931 0.007163 2.225000 255 0 0
0.084878 0.007150 2.221000 255 0 0
0.091499 0.007192 2.234000 255 0 0
0.133623 0.006840 2.125000 255 0 0
0.137673 0.006752 2.098000 255 0 0
0.141505 0.006662 2.070000 255 0 0
0.146108 0.006614 2.055000 255 0 0
0.150997 0.006581 2.045000 255 0 0
0.156138 0.006562 2.039000 255 0 0
0.161403 0.006548 2.035000 255 0 0
0.166728 0.006539 2.032000 255 0 0
0.172121 0.006532 2.030000 255 0 0
0.177939 0.006541 2.033000 255 0 0
0.183593 0.006544 2.034000 255 0 0
0.189158 0.006544 2.034000 255 0 0
0.193957 0.006518 2.026000 255 0 0
0.196939 0.006434 2.000000 255 0 0
0.204737 0.006507 2.023000 255 0 0
-0.047385 -0.282385 2.484028 255 255 0
-0.031102 -0.280164 2.481907 255 255 0
-0.024857 -0.281185 2.473174 255 255 0
0.007216 -0.273781 2.481814 255 255 0
-0.007391 -0.281586 2.459131 255 255 0
0.007978 -0.279597 2.456676 255 255 0
0.004215 -0.283876 2.441242 255 255 0
0.000469 -0.288162 2.425763 255 255 0
0.007513 -0.288895 2.417682 255 255 0
-0.179134 -0.398179 2.244355 0 255 0
-0.205170 -0.384297 2.275681 0 255 0
-0.223760 -0.373449 2.301513 0 255 0
-0.224047 -0.369939 2.314274 0 255 0
-0.193463 -0.378707 2.305353 0 255 0
-0.197076 -0.373861 2.320496 0 255 0
-0.214914 -0.363403 2.345463 0 255 0
-0.199319 -0.366177 2.347189 0 255 0
-0.205477 -0.360366 2.363946 0 255 0
-0.218358 -0.351934 2.385230 0 255 0
-0.141496 -0.378677 2.345404 0 255 0
-0.143438 -0.374493 2.359385 0 255 0
-0.159677 -0.364749 2.382939 0 255 0
-0.048575 -0.359559 2.487518 0 255 0
-0.040332 -0.359234 2.495055 0 255 0
-0.031228 -0.359221 2.502099 0 255 0
-0.025525 -0.357927 2.511266 0 255 0
-0.027503 -0.353769 2.525124 0 255 0
-0.338882 0.001091 2.290000 255 0 0
-0.330748 0.001085 2.277000 255 0 0
-0.324821 0.001086 2.279000 255 0 0
-0.318464 0.001085 2.278000 255 0 0
-0.311836 0.001084 2.275000 255 0 0
-0.305762 0.001084 2.276000 255 0 0
-0.299549 0.001084 2.276000 255 0 0
-0.293206 0.001084 2.275000 255 0 0
-0.286993 0.001084 2.275000 255 0 0
-0.281027 0.001085 2.277000 255 0 0
-0.275048 0.001086 2.279000 255 0 0
-0.267288 0.001080 2.266000 255 0 0
-0.256257 0.001060 2.224000 255 0 0
-0.248491 0.001053 2.209000 255 0 0
-0.240807 0.001046 2.194000 255 0 0
-0.234274 0.001043 2.189000 255 0 0
-0.227246 0.001039 2.179000 255 0 0
-0.221084 0.001038 2.177000 255 0 0
-0.214635 0.001036 2.172000 255 0 0
-0.208886 0.001037 2.174000 255 0 0
-0.202939 0.001037 2.174000 255 0 0
-0.197081 0.001037 2.175000 255 0 0
-0.190602 0.001034 2.169000 255 0 0
-0.184410 0.001033 2.166000 255 0 0
-0.178151 0.001031 2.162000 255 0 0
-0.172392 0.001032 2.164000 255 0 0
-0.166621 0.001033 2.166000 255 0 0
-0.160838 0.001034 2.168000 255 0 0
-0.154901 0.001034 2.168000 255 0 0
-0.148895 0.001034 2.167000 255 0 0
-0.143025 0.001034 2.168000 255 0 0
-0.137149 0.001035 2.169000 255 0 0
-0.131147 0.001034 2.168000 255 0 0
-0.125207 0.001034 2.168000 255 0 0
-0.119211 0.001034 2.167000 255 0 0
-0.113168 0.001033 2.165000 255 0 0
-0.107185 0.001032 2.164000 255 0 0
-0.101254 0.001032 2.164000 255 0 0
-0.095190 0.001031 2.161000 255 0 0
-0.089143 0.001030 2.158000 255 0 0
-0.083304 0.001031 2.160000 255 0 0
-0.077525 0.001033 2.164000 255 0 0
-0.071626 0.001033 2.165000 255 0 0
-0.065720 0.001034 2.166000 255 0 0
-0.059781 0.001034 2.166000 255 0 0
-0.053841 0.001034 2.166000 255 0 0
-0.047968 0.001035 2.169000 255 0 0
-0.042098 0.001037 2.173000 255 0 0
-0.036188 0.001038 2.176000 255 0 0
-0.030179 0.001037 2.173000 255 0 0
-0.024253 0.001038 2.176000 255 0 0
-0.018310 0.001040 2.179000 255 0 0
-0.012346 0.001041 2.181000 255 0 0
-0.006370 0.001042 2.183000 255 0 0
-0.000383 0.001042 2.184000 255 0 0
0.005620 0.001045 2.189000 255 0 0
0.011639 0.001046 2.192000 255 0 0
0.017675 0.001047 2.195000 255 0 0
0.023760 0.001050 2.201000 255 0 0
0.029796 0.001050 2.201000 255 0 0
0.035833 0.001050 2.201000 255 0 0
0.041888 0.001051 2.202000 255 0 0
0.048035 0.001053 2.207000 255 0 0
0.054259 0.001056 2.214000 255 0 0
0.060411 0.001058 2.217000 255 0 0
0.066670 0.001061 2.223000 255 0 0
0.072864 0.001062 2.226000 255 0 0
0.079038 0.001063 2.228000 255 0 0
0.085451 0.001067 2.236000 255 0 0
0.092646 0.001079 2.262000 255 0 0
0.137016 0.000996 2.088000 255 0 0
0.141164 0.000985 2.065000 255 0 0
0.145682 0.000977 2.049000 255 0 0
0.150628 0.000973 2.040000 255 0 0
0.155908 0.000971 2.036000 255 0 0
0.161324 0.000970 2.034000 255 0 0
0.166564 0.000968 2.030000 255 0 0
0.171866 0.000967 2.027000 255 0 0
0.177502 0.000967 2.028000 255 0 0
0.183232 0.000968 2.030000 255 0 0
0.188694 0.000967 2.029000 255 0 0
0.193862 0.000966 2.025000 255 0 0
0.197826 0.000958 2.009000 255 0 0
0.201397 0.000949 1.990000 255 0 0
-0.094075 -0.302928 2.480719 255 255 0
-0.053885 -0.296007 2.481097 255 255 0
-0.018400 -0.287462 2.491690 255 255 0
0.001173 -0.284086 2.491896 255 255 0
-0.011774 -0.291392 2.470386 255 255 0
-0.005548 -0.292396 2.461699 255 255 0
0.014801 -0.288719 2.462620 255 255 0
0.025151 -0.288331 2.456841 255 255 0
0.028022 -0.290421 2.445981 255 255 0
0.027581 -0.293618 2.432829 255 255 0
-0.222349 -0.388849 2.289211 0 255 0
-0.218462 -0.386999 2.299053 0 255 0
-0.213741 -0.385483 2.308312 0 255 0
-0.204012 -0.385971 2.314070 0 255 0
-0.203456 -0.382780 2.326272 0 255 0
-0.203739 -0.379258 2.339036 0 255 0
-0.203192 -0.376074 2.351201 0 255 0
-0.200976 -0.373558 2.362200 0 255 0
-0.164416 -0.384641 2.349740 0 255 0
-0.136182 -0.392370 2.343177 0 255 0
-0.152380 -0.382547 2.366814 0 255 0
-0.123256 -0.390571 2.359855 0 255 0
-0.017235 -0.365926 2.533118 0 255 0
-0.333850 -0.005101 2.256000 255 0 0
-0.330602 -0.005146 2.276000 255 0 0
-0.324679 -0.005151 2.278000 255 0 0
-0.318184 -0.005147 2.276000 255 0 0
-0.311562 -0.005140 2.273000 255 0 0
-0.305761 -0.005148 2.276000 255 0 0
-0.299548 -0.005148 2.276000 255 0 0
-0.293334 -0.005148 2.276000 255 0 0
-0.286867 -0.005144 2.274000 255 0 0
-0.281026 -0.005151 2.277000 255 0 0
-0.275410 -0.005163 2.282000 255 0 0
-0.267642 -0.005134 2.269000 255 0 0
-0.256602 -0.005039 2.227000 255 0 0
-0.248716 -0.005003 2.211000 255 0 0
-0.240917 -0.004967 2.195000 255 0 0
-0.234060 -0.004949 2.187000 255 0 0
-0.227350 -0.004934 2.180000 255 0 0
-0.221084 -0.004927 2.177000 255 0 0
-0.214635 -0.004916 2.172000 255 0 0
-0.208694 -0.004916 2.172000 255 0 0
-0.202939 -0.004921 2.174000 255 0 0
-0.196899 -0.004919 2.173000 255 0 0
-0.190514 -0.004908 2.168000 255 0 0
-0.184239 -0.004899 2.164000 255 0 0
-0.178398 -0.004901 2.165000 255 0 0
-0.172551 -0.004904 2.166000 255 0 0
-0.166621 -0.004904 2.166000 255 0 0
-0.160616 -0.004902 2.165000 255 0 0
-0.154973 -0.004911 2.169000 255 0 0
-0.149101 -0.004914 2.170000 255 0 0
-0.143223 -0.004916 2.171000 255 0 0
-0.137086 -0.004910 2.168000 255 0 0
-0.131207 -0.004912 2.169000 255 0 0
-0.125264 -0.004912 2.169000 255 0 0
-0.119211 -0.004908 2.167000 255 0 0
-0.113168 -0.004903 2.165000 255 0 0
-0.107135 -0.004899 2.163000 255 0 0
-0.101254 -0.004901 2.164000 255 0 0
-0.095234 -0.004897 2.162000 255 0 0
-0.089266 -0.004895 2.161000 255 0 0
-0.083458 -0.004902 2.164000 255 0 0
-0.077669 -0.004911 2.168000 255 0 0
-0.071758 -0.004913 2.169000 255 0 0
-0.065689 -0.004904 2.165000 255 0 0
-0.059781 -0.004907 2.166000 255 0 0
-0.053866 -0.004909 2.167000 255 0 0
-0.048079 -0.004925 2.174000 255 0 0
-0.042156 -0.004929 2.176000 255 0 0
-0.036238 -0.004936 2.179000 255 0 0
-0.030193 -0.004925 2.174000 255 0 0
-0.024242 -0.004927 2.175000 255 0 0
-0.018302 -0.004934 2.178000 255 0 0
-0.012340 -0.004939 2.180000 255 0 0
-0.006373 -0.004948 2.184000 255 0 0
-0.000383 -0.004952 2.186000 255 0 0
0.005625 -0.004964 2.191000 255 0 0
0.011650 -0.004970 2.194000 255 0 0
0.017692 -0.004977 2.197000 255 0 0
0.023792 -0.004993 2.204000 255 0 0
0.029823 -0.004991 2.203000 255 0 0
0.035865 -0.004991 2.203000 255 0 0
0.041869 -0.004986 2.201000 255 0 0
0.048013 -0.004997 2.206000 255 0 0
0.054234 -0.005013 2.213000 255 0 0
0.060439 -0.005024 2.218000 255 0 0
0.066670 -0.005036 2.223000 255 0 0
0.072733 -0.005033 2.222000 255 0 0
0.079002 -0.005044 2.227000 255 0 0
0.085910 -0.005092 2.248000 255 0 0
0.137345 -0.004740 2.093000 255 0 0
0.140753 -0.004662 2.059000 255 0 0
0.145326 -0.004628 2.044000 255 0 0
0.150259 -0.004608 2.035000 255 0 0
0.155678 -0.004603 2.033000 255 0 0
0.161245 -0.004603 2.033000 255 0 0
0.166646 -0.004598 2.031000 255 0 0
0.171866 -0.004589 2.027000 255 0 0
0.177414 -0.004589 2.027000 255 0 0
0.182961 -0.004588 2.027000 255 0 0
0.188508 -0.004588 2.027000 255 0 0
0.193957 -0.004586 2.026000 255 0 0
0.199106 -0.004577 2.022000 255 0 0
-0.080479 -0.310104 2.490983 255 255 0
-0.065822 -0.308383 2.487579 255 255 0
-0.047848 -0.305547 2.486446 255 255 0
-0.012385 -0.296900 2.497027 255 255 0
0.005508 -0.294024 2.496121 255 255 0
0.015877 -0.293626 2.490274 255 255 0
0.039894 -0.291697 2.480958 255 255 0
0.035654 -0.299207 2.452511 255 255 0
0.036865 -0.301855 2.440523 255 255 0
-0.223716 -0.399739 2.291475 0 255 0
-0.210677 -0.401609 2.294839 0 255 0
-0.204282 -0.400767 2.302957 0 255 0
-0.212885 -0.393857 2.321606 0 255 0
-0.216502 -0.388981 2.336692 0 255 0
-0.205104 -0.390158 2.341315 0 255 0
-0.200377 -0.388643 2.350599 0 255 0
-0.203175 -0.384113 2.365057 0 255 0
-0.175008 -0.391957 2.358338 0 255 0
-0.148473 -0.399102 2.352908 0 255 0
-0.137831 -0.399887 2.358378 0 255 0
-0.001584 -0.383612 2.525247 0 255 0
-0.012942 -0.375875 2.544775 0 255 0
-0.334145 -0.011286 2.258000 255 0 0
-0.329875 -0.011351 2.271000 255 0 0
-0.324536 -0.011382 2.277000 255 0 0
-0.318323 -0.011383 2.277000 255 0 0
-0.311699 -0.011369 2.274000 255 0 0
-0.305761 -0.011379 2.276000 255 0 0
-0.299680 -0.011385 2.277000 255 0 0
-0.293849 -0.011401 2.280000 255 0 0
-0.287371 -0.011392 2.278000 255 0 0
-0.281396 -0.011402 2.280000 255 0 0
-0.275651 -0.011423 2.284000 255 0 0
-0.268113 -0.011369 2.273000 255 0 0
-0.256487 -0.011134 2.226000 255 0 0
-0.248378 -0.011045 2.208000 255 0 0
-0.240587 -0.010965 2.192000 255 0 0
-0.233310 -0.010906 2.180000 255 0 0
-0.227141 -0.010896 2.178000 255 0 0
-0.220779 -0.010877 2.174000 255 0 0
-0.214437 -0.010857 2.170000 255 0 0
-0.208309 -0.010848 2.168000 255 0 0
-0.202658 -0.010864 2.171000 255 0 0
-0.196627 -0.010859 2.170000 255 0 0
-0.190513 -0.010850 2.168000 255 0 0
-0.184154 -0.010825 2.163000 255 0 0
-0.178645 -0.010850 2.168000 255 0 0
-0.172710 -0.010851 2.168000 255 0 0
-0.166851 -0.010856 2.169000 255 0 0
-0.160764 -0.010847 2.167000 255 0 0
-0.155044 -0.010862 2.170000 255 0 0
-0.149307 -0.010878 2.173000 255 0 0
-0.143289 -0.010873 2.172000 255 0 0
-0.137212 -0.010863 2.170000 255 0 0
-0.131086 -0.010849 2.167000 255 0 0
-0.125206 -0.010854 2.168000 255 0 0
-0.119211 -0.010849 2.167000 255 0 0
-0.113220 -0.010845 2.166000 255 0 0
-0.107036 -0.010820 2.161000 255 0 0
-0.101067 -0.010815 2.160000 255 0 0
-0.095234 -0.010825 2.162000 255 0 0
-0.089349 -0.010831 2.163000 255 0 0
-0.083574 -0.010851 2.167000 255 0 0
-0.077633 -0.010851 2.167000 255 0 0
-0.071791 -0.010866 2.170000 255 0 0
-0.065689 -0.010841 2.165000 255 0 0
-0.059836 -0.010857 2.168000 255 0 0
-0.053866 -0.010852 2.167000 255 0 0
-0.048079 -0.010887 2.174000 255 0 0
-0.042097 -0.010882 2.173000 255 0 0
-0.036205 -0.010902 2.177000 255 0 0
-0.030221 -0.010897 2.176000 255 0 0
-0.024297 -0.010917 2.180000 255 0 0
-0.018336 -0.010927 2.182000 255 0 0
-0.012363 -0.010938 2.184000 255 0 0
-0.006376 -0.010943 2.185000 255 0 0
-0.000383 -0.010953 2.187000 255 0 0
0.005625 -0.010973 2.191000 255 0 0
0.011645 -0.010983 2.193000 255 0 0
0.017691 -0.011003 2.197000 255 0 0
0.023792 -0.011038 2.204000 255 0 0
0.029850 -0.011043 2.205000 255 0 0
0.035898 -0.011042 2.205000 255 0 0
0.041906 -0.011032 2.203000 255 0 0
0.048035 -0.011052 2.207000 255 0 0
0.054209 -0.011077 2.212000 255 0 0
0.060466 -0.011112 2.219000 255 0 0
0.066790 -0.011152 2.227000 255 0 0
0.072896 -0.011152 2.227000 255 0 0
0.079037 -0.011157 2.228000 255 0 0
0.086368 -0.011317 2.260000 255 0 0
0.137213 -0.010468 2.091000 255 0 0
0.140411 -0.010282 2.054000 255 0 0
0.145041 -0.010211 2.040000 255 0 0
0.149964 -0.010166 2.031000 255 0 0
0.155525 -0.010166 2.031000 255 0 0
0.161324 -0.010180 2.034000 255 0 0
0.166810 -0.010175 2.033000 255 0 0
0.172120 -0.010159 2.030000 255 0 0
0.177414 -0.010144 2.027000 255 0 0
0.182961 -0.010144 2.027000 255 0 0
0.188414 -0.010138 2.026000 255 0 0
0.193670 -0.010123 2.023000 255 0 0
0.199105 -0.010117 2.022000 255 0 0
0.204534 -0.010112 2.021000 255 0 0
-0.054764 -0.316278 2.496209 255 255 0
-0.042650 -0.315339 2.491241 255 255 0
-0.016380 -0.309655 2.495724 255 255 0
0.009007 -0.304225 2.499789 255 255 0
0.026859 -0.301289 2.498963 255 255 0
0.050498 -0.296377 2.502149 255 255 0
0.048356 -0.300137 2.488001 255 255 0
0.025492 -0.310925 2.459680 255 255 0
0.034995 -0.310769 2.453354 255 255 0
0.028762 -0.315961 2.436224 255 255 0
-0.221761 -0.411999 2.291376 0 255 0
-0.206230 -0.414919 2.292997 0 255 0
-0.207322 -0.411023 2.306411 0 255 0
-0.217864 -0.399860 2.338964 0 255 0
-0.198961 -0.404109 2.338392 0 255 0
-0.214271 -0.394485 2.361521 0 255 0
-0.200358 -0.396692 2.364474 0 255 0
-0.171367 -0.404947 2.357222 0 255 0
-0.154314 -0.404909 2.370897 0 255 0
-0.155420 -0.401025 2.384258 0 255 0
-0.003868 -0.394579 2.528216 0 255 0
-0.012656 -0.387773 2.546196 0 255 0
-0.001811 -0.388434 2.552383 0 255 0
-0.335624 -0.017544 2.268000 255 0 0
-0.330020 -0.017576 2.272000 255 0 0
-0.324392 -0.017608 2.276000 255 0 0
-0.318183 -0.017609 2.276000 255 0 0
-0.311698 -0.017595 2.274000 255 0 0
-0.305760 -0.017611 2.276000 255 0 0
-0.299942 -0.017636 2.279000 255 0 0
-0.294235 -0.017668 2.283000 255 0 0
-0.288001 -0.017669 2.283000 255 0 0
-0.281889 -0.017678 2.284000 255 0 0
-0.276012 -0.017702 2.287000 255 0 0
-0.267641 -0.017564 2.269000 255 0 0
-0.256371 -0.017224 2.225000 255 0 0
-0.248040 -0.017070 2.205000 255 0 0
-0.240476 -0.016963 2.191000 255 0 0
-0.233523 -0.016894 2.182000 255 0 0
-0.227036 -0.016856 2.177000 255 0 0
-0.220067 -0.016779 2.167000 255 0 0
-0.213646 -0.016742 2.162000 255 0 0
-0.208020 -0.016766 2.165000 255 0 0
-0.202377 -0.016790 2.168000 255 0 0
-0.196445 -0.016790 2.168000 255 0 0
-0.190425 -0.016783 2.167000 255 0 0
-0.184494 -0.016784 2.167000 255 0 0
-0.178892 -0.016816 2.171000 255 0 0
-0.173108 -0.016832 2.173000 255 0 0
-0.167312 -0.016848 2.175000 255 0 0
-0.161357 -0.016849 2.175000 255 0 0
