ply
format ascii 1.0
element vertex 1332
property double x
property double y
property double z
property uchar red
property uchar green
property uchar blue
end_header
-0.297284 0.532021 2.095000 255 0 0
-0.290193 0.529503 2.085000 255 0 0
-0.284249 0.529016 2.083000 255 0 0
-0.277913 0.527766 2.078000 255 0 0
-0.271997 0.527278 2.076000 255 0 0
-0.265835 0.526282 2.072000 255 0 0
-0.260322 0.526556 2.073000 255 0 0
-0.255048 0.527337 2.076000 255 0 0
-0.249518 0.527610 2.077000 255 0 0
-0.243863 0.527628 2.077000 255 0 0
-0.238094 0.527393 2.076000 255 0 0
-0.232554 0.527665 2.077000 255 0 0
-0.226898 0.527682 2.077000 255 0 0
-0.220922 0.526937 2.074000 255 0 0
-0.215066 0.526446 2.072000 255 0 0
-0.209423 0.526463 2.072000 255 0 0
-0.203975 0.526987 2.074000 255 0 0
-0.198230 0.526749 2.073000 255 0 0
-0.192303 0.526002 2.070000 255 0 0
-0.186212 0.524746 2.065000 255 0 0
-0.180411 0.524253 2.063000 255 0 0
-0.174619 0.523759 2.061000 255 0 0
-0.168921 0.523518 2.060000 255 0 0
-0.163068 0.522769 2.057000 255 0 0
-0.156849 0.520749 2.049000 255 0 0
-0.150747 0.518983 2.042000 255 0 0
-0.145180 0.518995 2.042000 255 0 0
-0.139887 0.520023 2.046000 255 0 0
-0.134702 0.521559 2.052000 255 0 0
-0.129611 0.523604 2.060000 255 0 0
-0.124475 0.525648 2.068000 255 0 0
-0.118951 0.526166 2.070000 255 0 0
-0.113032 0.524905 2.065000 255 0 0
-0.107296 0.524406 2.063000 255 0 0
-0.101670 0.524414 2.063000 255 0 0
-0.096043 0.524423 2.063000 255 0 0
-0.090284 0.523668 2.060000 255 0 0
-0.084624 0.523421 2.059000 255 0 0
-0.079123 0.524190 2.062000 255 0 0
-0.073533 0.524451 2.063000 255 0 0
-0.067938 0.524711 2.064000 255 0 0
-0.062277 0.524463 2.063000 255 0 0
-0.056676 0.524722 2.064000 255 0 0
-0.050971 0.523964 2.061000 255 0 0
-0.045194 0.522188 2.054000 255 0 0
-0.039416 0.519904 2.045000 255 0 0
-0.033687 0.517619 2.036000 255 0 0
-0.028049 0.516096 2.030000 255 0 0
-0.022532 0.516607 2.032000 255 0 0
-0.017063 0.518896 2.041000 255 0 0
-0.011534 0.520677 2.048000 255 0 0
-0.005951 0.521187 2.050000 255 0 0
-0.000357 0.521187 2.050000 255 0 0
0.005244 0.521949 2.053000 255 0 0
0.010867 0.522966 2.057000 255 0 0
0.016488 0.523219 2.058000 255 0 0
0.022135 0.523980 2.061000 255 0 0
0.027786 0.524486 2.063000 255 0 0
0.033463 0.525246 2.066000 255 0 0
0.039100 0.525243 2.066000 255 0 0
0.044651 0.524223 2.062000 255 0 0
0.050155 0.522947 2.057000 255 0 0
0.055685 0.522180 2.054000 255 0 0
0.061289 0.522175 2.054000 255 0 0
0.066893 0.522170 2.054000 255 0 0
0.072496 0.522164 2.054000 255 0 0
0.078099 0.522158 2.054000 255 0 0
0.083825 0.522913 2.057000 255 0 0
0.089479 0.523160 2.058000 255 0 0
0.095185 0.523661 2.060000 255 0 0
0.100755 0.523399 2.059000 255 0 0
0.106629 0.524661 2.064000 255 0 0
0.112747 0.526940 2.073000 255 0 0
-0.098455 0.598688 2.071652 0 255 0
-0.123655 0.603918 2.102979 0 255 0
-0.126846 0.606711 2.117777 0 255 0
-0.125632 0.609020 2.129275 0 255 0
-0.108511 0.609617 2.129071 0 255 0
-0.095791 0.610705 2.132180 0 255 0
-0.086596 0.612182 2.137918 0 255 0
-0.303726 0.527584 2.100000 255 0 0
-0.296453 0.524841 2.089000 255 0 0
-0.289936 0.523355 2.083000 255 0 0
-0.283860 0.522622 2.080000 255 0 0
-0.277666 0.521637 2.076000 255 0 0
-0.271886 0.521406 2.075000 255 0 0
-0.265983 0.520923 2.073000 255 0 0
-0.260467 0.521194 2.074000 255 0 0
-0.254944 0.521465 2.075000 255 0 0
-0.249536 0.521986 2.077000 255 0 0
-0.243765 0.521754 2.076000 255 0 0
-0.238112 0.521772 2.076000 255 0 0
-0.232460 0.521790 2.076000 255 0 0
-0.226697 0.521556 2.075000 255 0 0
-0.220726 0.520819 2.072000 255 0 0
-0.214875 0.520334 2.070000 255 0 0
-0.209338 0.520602 2.071000 255 0 0
-0.203795 0.520869 2.072000 255 0 0
-0.198054 0.520634 2.071000 255 0 0
-0.192133 0.519895 2.068000 255 0 0
-0.186227 0.519156 2.065000 255 0 0
-0.180338 0.518416 2.062000 255 0 0
-0.174549 0.517928 2.060000 255 0 0
-0.168770 0.517439 2.058000 255 0 0
-0.162764 0.516195 2.053000 255 0 0
-0.156632 0.514448 2.046000 255 0 0
-0.150685 0.513203 2.041000 255 0 0
-0.145121 0.513215 2.041000 255 0 0
-0.139693 0.513730 2.043000 255 0 0
-0.134320 0.514495 2.046000 255 0 0
-0.129244 0.516518 2.054000 255 0 0
-0.124245 0.519043 2.064000 255 0 0
-0.118903 0.520311 2.069000 255 0 0
-0.113260 0.520320 2.069000 255 0 0
-0.107513 0.519827 2.067000 255 0 0
-0.101826 0.519584 2.066000 255 0 0
-0.096097 0.519089 2.064000 255 0 0
-0.090423 0.518845 2.063000 255 0 0
-0.084796 0.518853 2.063000 255 0 0
-0.079244 0.519363 2.065000 255 0 0
-0.073611 0.519369 2.065000 255 0 0
-0.067911 0.518872 2.063000 255 0 0
-0.062282 0.518878 2.063000 255 0 0
-0.056571 0.518128 2.060000 255 0 0
-0.050827 0.516875 2.055000 255 0 0
-0.044999 0.514364 2.045000 255 0 0
-0.039227 0.511852 2.035000 255 0 0
-0.033574 0.510346 2.029000 255 0 0
-0.028010 0.509846 2.027000 255 0 0
-0.022534 0.511106 2.032000 255 0 0
-0.017065 0.513371 2.041000 255 0 0
-0.011546 0.515636 2.050000 255 0 0
-0.005957 0.516140 2.052000 255 0 0
-0.000358 0.515889 2.051000 255 0 0
0.005242 0.516140 2.052000 255 0 0
0.010857 0.516894 2.055000 255 0 0
0.016489 0.517647 2.058000 255 0 0
0.022116 0.517897 2.059000 255 0 0
0.027748 0.518147 2.060000 255 0 0
0.033418 0.518899 2.063000 255 0 0
0.039028 0.518644 2.062000 255 0 0
0.044568 0.517634 2.058000 255 0 0
0.050037 0.516121 2.052000 255 0 0
0.055582 0.515614 2.050000 255 0 0
0.061175 0.515609 2.050000 255 0 0
0.066833 0.516106 2.052000 255 0 0
0.072432 0.516100 2.052000 255 0 0
0.078030 0.516094 2.052000 255 0 0
0.083750 0.516842 2.055000 255 0 0
0.089487 0.517589 2.058000 255 0 0
0.095193 0.518084 2.060000 255 0 0
0.100812 0.518076 2.060000 255 0 0
0.106586 0.518822 2.063000 255 0 0
0.112485 0.520070 2.068000 255 0 0
0.118867 0.523330 2.081000 255 0 0
-0.119969 0.590551 2.088965 0 255 0
-0.141318 0.597863 2.129715 0 255 0
-0.140114 0.600170 2.141174 0 255 0
-0.123013 0.600720 2.140944 0 255 0
-0.117382 0.602550 2.149190 0 255 0
-0.092824 0.604782 2.156105 0 255 0
-0.075647 0.605392 2.156126 0 255 0
-0.314322 0.530076 2.133000 255 0 0
-0.302880 0.520406 2.094000 255 0 0
-0.296475 0.519185 2.089000 255 0 0
-0.290235 0.518211 2.085000 255 0 0
-0.284153 0.517487 2.082000 255 0 0
-0.277686 0.516016 2.076000 255 0 0
-0.271906 0.515787 2.075000 255 0 0
-0.266002 0.515310 2.073000 255 0 0
-0.260737 0.516075 2.076000 255 0 0
-0.254963 0.515846 2.075000 255 0 0
-0.249315 0.515865 2.075000 255 0 0
-0.243431 0.515386 2.073000 255 0 0
-0.237786 0.515405 2.073000 255 0 0
-0.232254 0.515671 2.074000 255 0 0
-0.226605 0.515689 2.074000 255 0 0
-0.220637 0.514960 2.071000 255 0 0
-0.214685 0.514231 2.068000 255 0 0
-0.209051 0.514248 2.068000 255 0 0
-0.203516 0.514513 2.069000 255 0 0
-0.197783 0.514280 2.068000 255 0 0
-0.192055 0.514047 2.067000 255 0 0
-0.186062 0.513067 2.063000 255 0 0
-0.180265 0.512584 2.061000 255 0 0
-0.174393 0.511852 2.058000 255 0 0
-0.168702 0.511617 2.057000 255 0 0
-0.162936 0.511133 2.055000 255 0 0
-0.156875 0.509654 2.049000 255 0 0
-0.150772 0.507925 2.042000 255 0 0
-0.144991 0.507191 2.039000 255 0 0
-0.139431 0.507203 2.039000 255 0 0
-0.134068 0.507961 2.042000 255 0 0
-0.128877 0.509464 2.048000 255 0 0
-0.123894 0.511962 2.058000 255 0 0
-0.118798 0.514211 2.067000 255 0 0
-0.113270 0.514718 2.069000 255 0 0
-0.107626 0.514728 2.069000 255 0 0
-0.101884 0.514239 2.067000 255 0 0
-0.096292 0.514496 2.068000 255 0 0
-0.090562 0.514006 2.066000 255 0 0
-0.084926 0.514013 2.066000 255 0 0
-0.079289 0.514020 2.066000 255 0 0
-0.073617 0.513778 2.065000 255 0 0
-0.067917 0.513286 2.063000 255 0 0
-0.062197 0.512546 2.060000 255 0 0
-0.056411 0.511058 2.054000 255 0 0
-0.050608 0.509072 2.046000 255 0 0
-0.044827 0.506837 2.037000 255 0 0
-0.039134 0.505098 2.030000 255 0 0
-0.033495 0.503609 2.024000 255 0 0
-0.027971 0.503611 2.024000 255 0 0
-0.022492 0.504609 2.028000 255 0 0
-0.017058 0.507596 2.040000 255 0 0
-0.011536 0.509588 2.048000 255 0 0
-0.005955 0.510335 2.051000 255 0 0
-0.000357 0.509838 2.049000 255 0 0
0.005237 0.510086 2.050000 255 0 0
0.010848 0.510832 2.053000 255 0 0
0.016482 0.511826 2.057000 255 0 0
0.022118 0.512322 2.059000 255 0 0
0.027737 0.512320 2.059000 255 0 0
0.033388 0.512815 2.061000 255 0 0
0.038975 0.512314 2.059000 255 0 0
0.044528 0.511565 2.056000 255 0 0
0.050041 0.510565 2.052000 255 0 0
0.055614 0.510312 2.051000 255 0 0
0.061180 0.510058 2.050000 255 0 0
0.066806 0.510302 2.051000 255 0 0
0.072367 0.510047 2.050000 255 0 0
0.078037 0.510538 2.052000 255 0 0
0.083757 0.511278 2.055000 255 0 0
0.089538 0.512266 2.059000 255 0 0
0.095155 0.512258 2.059000 255 0 0
0.100772 0.512249 2.059000 255 0 0
0.106440 0.512490 2.060000 255 0 0
0.112331 0.513724 2.065000 255 0 0
0.118535 0.516203 2.075000 255 0 0
0.124912 0.519178 2.087000 255 0 0
-0.080090 0.653377 2.037979 255 255 0
-0.157854 0.586882 2.130854 0 255 0
-0.136617 0.591795 2.152147 0 255 0
-0.127463 0.593212 2.157778 0 255 0
-0.118300 0.594639 2.163443 0 255 0
-0.106471 0.595778 2.167219 0 255 0
-0.083112 0.595653 2.162752 0 255 0
-0.312134 0.520612 2.118000 255 0 0
-0.302612 0.514243 2.092000 255 0 0
-0.296070 0.512789 2.086000 255 0 0
-0.290117 0.512319 2.084000 255 0 0
-0.283901 0.511356 2.080000 255 0 0
-0.277706 0.510393 2.076000 255 0 0
-0.271795 0.509922 2.074000 255 0 0
-0.266279 0.510188 2.075000 255 0 0
-0.260757 0.510453 2.076000 255 0 0
-0.254860 0.509981 2.074000 255 0 0
-0.249213 0.510000 2.074000 255 0 0
-0.243332 0.509526 2.072000 255 0 0
-0.237690 0.509545 2.072000 255 0 0
-0.231935 0.509317 2.071000 255 0 0
-0.226404 0.509580 2.072000 255 0 0
-0.220761 0.509598 2.072000 255 0 0
-0.215013 0.509369 2.071000 255 0 0
-0.209169 0.508893 2.069000 255 0 0
-0.203433 0.508664 2.068000 255 0 0
-0.197607 0.508188 2.066000 255 0 0
-0.191885 0.507957 2.065000 255 0 0
-0.185806 0.506742 2.060000 255 0 0
-0.179842 0.505773 2.056000 255 0 0
-0.174153 0.505541 2.055000 255 0 0
-0.168551 0.505555 2.055000 255 0 0
-0.162870 0.505322 2.054000 255 0 0
-0.157041 0.504597 2.051000 255 0 0
-0.151005 0.503134 2.045000 255 0 0
-0.145074 0.501916 2.040000 255 0 0
-0.139443 0.501681 2.039000 255 0 0
-0.134013 0.502185 2.041000 255 0 0
-0.128636 0.502934 2.044000 255 0 0
-0.123362 0.504174 2.049000 255 0 0
-0.118233 0.506153 2.057000 255 0 0
-0.113005 0.507885 2.064000 255 0 0
-0.107531 0.508632 2.067000 255 0 0
-0.101843 0.508395 2.066000 255 0 0
-0.096207 0.508403 2.066000 255 0 0
-0.090526 0.508165 2.065000 255 0 0
-0.084892 0.508173 2.065000 255 0 0
-0.079258 0.508179 2.065000 255 0 0
-0.073623 0.508186 2.065000 255 0 0
-0.067824 0.506961 2.060000 255 0 0
-0.062021 0.505490 2.054000 255 0 0
-0.056141 0.503034 2.044000 255 0 0
-0.050440 0.501808 2.039000 255 0 0
-0.044743 0.500336 2.033000 255 0 0
-0.039098 0.499109 2.028000 255 0 0
-0.033497 0.498128 2.024000 255 0 0
-0.027974 0.498130 2.024000 255 0 0
-0.022494 0.499117 2.028000 255 0 0
-0.017034 0.501333 2.037000 255 0 0
-0.011508 0.502811 2.043000 255 0 0
-0.005947 0.504043 2.048000 255 0 0
-0.000357 0.504043 2.048000 255 0 0
0.005232 0.504043 2.048000 255 0 0
0.010838 0.504780 2.051000 255 0 0
0.016476 0.506010 2.056000 255 0 0
0.022130 0.506993 2.060000 255 0 0
0.027753 0.506990 2.060000 255 0 0
0.033358 0.506742 2.059000 255 0 0
0.038902 0.505754 2.055000 255 0 0
0.044467 0.505259 2.053000 255 0 0
0.050021 0.504762 2.051000 255 0 0
0.055618 0.504758 2.051000 255 0 0
0.061185 0.504507 2.050000 255 0 0
0.066780 0.504501 2.050000 255 0 0
0.072338 0.504249 2.049000 255 0 0
0.078005 0.504735 2.051000 255 0 0
0.083764 0.505713 2.055000 255 0 0
0.089502 0.506444 2.058000 255 0 0
0.095070 0.506190 2.057000 255 0 0
0.100682 0.506181 2.057000 255 0 0
0.106397 0.506665 2.059000 255 0 0
0.112231 0.507640 2.063000 255 0 0
0.118259 0.509353 2.070000 255 0 0
0.124384 0.511311 2.078000 255 0 0
-0.103463 0.655603 2.113556 255 255 0
-0.085987 0.654494 2.113656 255 255 0
-0.080562 0.652751 2.104669 255 255 0
-0.088007 0.650306 2.085832 255 255 0
-0.177875 0.576402 2.134672 0 255 0
-0.179907 0.581527 2.160704 0 255 0
-0.169034 0.582690 2.164908 0 255 0
-0.151971 0.583143 2.164624 0 255 0
-0.142833 0.584536 2.170220 0 255 0
-0.134568 0.586038 2.176491 0 255 0
-0.120104 0.586840 2.178312 0 255 0
-0.067195 0.585786 2.165016 0 255 0
-0.059746 0.587445 2.172150 0 255 0
-0.310387 0.511958 2.106000 255 0 0
-0.302923 0.509063 2.094000 255 0 0
-0.296233 0.507382 2.087000 255 0 0
-0.290277 0.506917 2.085000 255 0 0
-0.284058 0.505965 2.081000 255 0 0
-0.277860 0.505013 2.077000 255 0 0
-0.271815 0.504304 2.074000 255 0 0
-0.266299 0.504567 2.075000 255 0 0
-0.260776 0.504830 2.076000 255 0 0
-0.254756 0.504120 2.073000 255 0 0
-0.248992 0.503896 2.072000 255 0 0
-0.243115 0.503428 2.070000 255 0 0
-0.237593 0.503689 2.071000 255 0 0
-0.231841 0.503464 2.070000 255 0 0
-0.226422 0.503968 2.072000 255 0 0
-0.220778 0.503986 2.072000 255 0 0
-0.215133 0.504003 2.072000 255 0 0
-0.209286 0.503533 2.070000 255 0 0
-0.203548 0.503306 2.069000 255 0 0
-0.197719 0.502835 2.067000 255 0 0
-0.191807 0.502121 2.064000 255 0 0
-0.185640 0.500676 2.058000 255 0 0
-0.179681 0.499718 2.054000 255 0 0
-0.174082 0.499732 2.054000 255 0 0
-0.168565 0.499989 2.055000 255 0 0
-0.163121 0.500489 2.057000 255 0 0
-0.157130 0.499285 2.052000 255 0 0
-0.151165 0.498081 2.047000 255 0 0
-0.145441 0.497607 2.045000 255 0 0
-0.139796 0.497375 2.044000 255 0 0
-0.134024 0.496657 2.041000 255 0 0
-0.128332 0.496181 2.039000 255 0 0
-0.122830 0.496434 2.040000 255 0 0
-0.117726 0.498391 2.048000 255 0 0
-0.112577 0.500348 2.056000 255 0 0
-0.107384 0.502304 2.064000 255 0 0
-0.101852 0.502799 2.066000 255 0 0
-0.096261 0.503051 2.067000 255 0 0
-0.090534 0.502572 2.065000 255 0 0
-0.084817 0.502093 2.063000 255 0 0
-0.079149 0.501856 2.062000 255 0 0
-0.073522 0.501863 2.062000 255 0 0
-0.067698 0.500408 2.056000 255 0 0
-0.061785 0.497980 2.046000 255 0 0
-0.056009 0.496281 2.039000 255 0 0
-0.050394 0.495799 2.037000 255 0 0
-0.044791 0.495316 2.035000 255 0 0
-0.039179 0.494590 2.032000 255 0 0
-0.033583 0.493863 2.029000 255 0 0
-0.028045 0.493865 2.029000 255 0 0
-0.022529 0.494354 2.031000 255 0 0
-0.017027 0.495573 2.036000 255 0 0
-0.011492 0.496548 2.040000 255 0 0
-0.005930 0.497035 2.042000 255 0 0
-0.000356 0.497035 2.042000 255 0 0
0.005223 0.497522 2.044000 255 0 0
0.010828 0.498738 2.049000 255 0 0
0.016469 0.500198 2.055000 255 0 0
0.022121 0.501170 2.059000 255 0 0
0.027755 0.501411 2.060000 255 0 0
0.033313 0.500435 2.056000 255 0 0
0.038849 0.499458 2.052000 255 0 0
0.044428 0.499211 2.051000 255 0 0
0.050074 0.499694 2.053000 255 0 0
0.055650 0.499446 2.052000 255 0 0
0.061220 0.499198 2.051000 255 0 0
0.066850 0.499436 2.052000 255 0 0
0.072450 0.499430 2.052000 255 0 0
0.078088 0.499667 2.053000 255 0 0
0.083771 0.500147 2.055000 255 0 0
0.089422 0.500383 2.056000 255 0 0
0.094940 0.499888 2.054000 255 0 0
0.100544 0.499880 2.054000 255 0 0
0.106354 0.500845 2.058000 255 0 0
0.112241 0.502052 2.063000 255 0 0
0.118154 0.503260 2.068000 255 0 0
0.124214 0.504953 2.075000 255 0 0
-0.111379 0.646407 2.121884 255 255 0
-0.105931 0.644654 2.112831 255 255 0
-0.091035 0.643438 2.110954 255 255 0
-0.082171 0.641892 2.104563 255 255 0
-0.091025 0.637269 2.071436 255 255 0
-0.108687 0.634165 2.044543 255 255 0
-0.120320 0.631396 2.022171 255 255 0
-0.112285 0.629791 2.015040 255 255 0
-0.110228 0.627831 2.003249 255 255 0
-0.182006 0.571436 2.163449 0 255 0
-0.170256 0.572470 2.167007 0 255 0
-0.153202 0.572884 2.166735 0 255 0
-0.145832 0.574470 2.173625 0 255 0
-0.141105 0.576374 2.182460 0 255 0
-0.131071 0.577659 2.187470 0 255 0
-0.102446 0.576787 2.179156 0 255 0
-0.079977 0.576665 2.175423 0 255 0
-0.309967 0.505532 2.103000 255 0 0
-0.303089 0.503630 2.095000 255 0 0
-0.296255 0.501728 2.087000 255 0 0
-0.290437 0.501509 2.086000 255 0 0
-0.284079 0.500328 2.081000 255 0 0
-0.278015 0.499627 2.078000 255 0 0
-0.271966 0.498926 2.075000 255 0 0
-0.266575 0.499427 2.077000 255 0 0
-0.260796 0.499206 2.076000 255 0 0
-0.254775 0.498504 2.073000 255 0 0
-0.249011 0.498283 2.072000 255 0 0
-0.243369 0.498301 2.072000 255 0 0
-0.237956 0.498801 2.074000 255 0 0
-0.232195 0.498578 2.073000 255 0 0
-0.226549 0.498596 2.073000 255 0 0
-0.220795 0.498373 2.072000 255 0 0
-0.215150 0.498390 2.072000 255 0 0
-0.209202 0.497685 2.069000 255 0 0
-0.203465 0.497460 2.068000 255 0 0
-0.197639 0.496995 2.066000 255 0 0
-0.191729 0.496289 2.063000 255 0 0
-0.185746 0.495342 2.059000 255 0 0
-0.179783 0.494394 2.055000 255 0 0
-0.174181 0.494408 2.055000 255 0 0
-0.168579 0.494422 2.055000 255 0 0
-0.162976 0.494435 2.055000 255 0 0
-0.157143 0.493727 2.052000 255 0 0
-0.151547 0.493739 2.052000 255 0 0
-0.146022 0.493992 2.053000 255 0 0
-0.140423 0.494004 2.053000 255 0 0
-0.134298 0.492090 2.045000 255 0 0
-0.128217 0.490176 2.037000 255 0 0
-0.122479 0.489464 2.034000 255 0 0
-0.117276 0.490918 2.040000 255 0 0
-0.112148 0.492853 2.048000 255 0 0
-0.107081 0.495269 2.058000 255 0 0
-0.101712 0.496481 2.063000 255 0 0
-0.096223 0.497211 2.066000 255 0 0
-0.090542 0.496978 2.065000 255 0 0
-0.084865 0.496745 2.064000 255 0 0
-0.079118 0.496030 2.061000 255 0 0
-0.073279 0.494592 2.055000 255 0 0
-0.067374 0.492432 2.046000 255 0 0
-0.061549 0.490512 2.038000 255 0 0
-0.055986 0.490517 2.038000 255 0 0
-0.050473 0.491003 2.040000 255 0 0
-0.044905 0.491007 2.040000 255 0 0
-0.039298 0.490529 2.038000 255 0 0
-0.033735 0.490532 2.038000 255 0 0
-0.028199 0.491016 2.040000 255 0 0
-0.022642 0.491259 2.041000 255 0 0
-0.017079 0.491502 2.042000 255 0 0
-0.011505 0.491503 2.042000 255 0 0
-0.005928 0.491263 2.041000 255 0 0
-0.000356 0.490782 2.039000 255 0 0
0.005223 0.491985 2.044000 255 0 0
0.010835 0.493428 2.050000 255 0 0
0.016487 0.495112 2.057000 255 0 0
0.022091 0.494870 2.056000 255 0 0
0.027703 0.494868 2.056000 255 0 0
0.033218 0.493421 2.050000 255 0 0
0.038795 0.493177 2.049000 255 0 0
0.044366 0.492933 2.048000 255 0 0
0.050030 0.493651 2.051000 255 0 0
0.055628 0.493646 2.051000 255 0 0
0.061226 0.493641 2.051000 255 0 0
0.066889 0.494117 2.053000 255 0 0
0.072527 0.494352 2.054000 255 0 0
0.078132 0.494346 2.054000 255 0 0
0.083738 0.494339 2.054000 255 0 0
0.089430 0.494813 2.056000 255 0 0
0.095040 0.494805 2.056000 255 0 0
0.100699 0.495038 2.057000 255 0 0
0.106415 0.495510 2.059000 255 0 0
0.112250 0.496464 2.063000 255 0 0
0.118107 0.497417 2.067000 255 0 0
0.123985 0.498369 2.071000 255 0 0
0.130198 0.500525 2.080000 255 0 0
-0.110403 0.635631 2.123760 255 255 0
-0.099797 0.634187 2.118595 255 255 0
-0.084054 0.633059 2.117375 255 255 0
-0.074340 0.631582 2.111651 255 255 0
-0.091759 0.626389 2.071988 255 255 0
-0.228884 0.552284 2.126479 0 255 0
-0.192022 0.562326 2.172050 0 255 0
-0.175002 0.562680 2.171700 0 255 0
-0.157960 0.563052 2.171430 0 255 0
-0.151476 0.564731 2.178956 0 255 0
-0.147636 0.566736 2.188421 0 255 0
-0.136727 0.567892 2.192784 0 255 0
-0.109005 0.567050 2.185113 0 255 0
-0.088322 0.567080 2.182647 0 255 0
-0.076465 0.568180 2.186584 0 255 0
-0.063708 0.569188 2.189942 0 255 0
-0.318261 0.503852 2.120000 255 0 0
-0.309694 0.499358 2.101000 255 0 0
-0.302966 0.497716 2.094000 255 0 0
-0.296560 0.496549 2.089000 255 0 0
-0.290458 0.495857 2.086000 255 0 0
-0.284373 0.495165 2.083000 255 0 0
-0.278303 0.494473 2.080000 255 0 0
-0.272379 0.494017 2.078000 255 0 0
-0.266595 0.493800 2.077000 255 0 0
-0.260815 0.493581 2.076000 255 0 0
-0.254794 0.492888 2.073000 255 0 0
-0.248909 0.492431 2.071000 255 0 0
-0.243152 0.492212 2.070000 255 0 0
-0.237744 0.492706 2.072000 255 0 0
-0.232101 0.492724 2.072000 255 0 0
-0.226457 0.492741 2.072000 255 0 0
-0.220492 0.492045 2.069000 255 0 0
-0.214856 0.492062 2.069000 255 0 0
-0.209117 0.491841 2.068000 255 0 0
-0.203481 0.491857 2.068000 255 0 0
-0.197750 0.491635 2.067000 255 0 0
-0.191745 0.490699 2.063000 255 0 0
-0.185851 0.490001 2.060000 255 0 0
-0.180148 0.489778 2.059000 255 0 0
-0.174534 0.489792 2.059000 255 0 0
-0.168756 0.489330 2.057000 255 0 0
-0.163068 0.489105 2.056000 255 0 0
-0.157309 0.488643 2.054000 255 0 0
-0.151855 0.489131 2.056000 255 0 0
-0.146319 0.489381 2.057000 255 0 0
-0.140777 0.489631 2.058000 255 0 0
-0.134638 0.487739 2.050000 255 0 0
-0.128479 0.485608 2.041000 255 0 0
-0.122550 0.484191 2.035000 255 0 0
-0.117113 0.484677 2.037000 255 0 0
-0.111719 0.485400 2.040000 255 0 0
-0.106570 0.487313 2.048000 255 0 0
-0.101474 0.489701 2.058000 255 0 0
-0.096231 0.491613 2.066000 255 0 0
-0.090681 0.492097 2.068000 255 0 0
-0.084914 0.491390 2.065000 255 0 0
-0.079009 0.489732 2.058000 255 0 0
-0.073036 0.487358 2.048000 255 0 0
-0.067215 0.485699 2.041000 255 0 0
-0.061554 0.484990 2.038000 255 0 0
-0.056073 0.485709 2.041000 255 0 0
-0.050527 0.485952 2.042000 255 0 0
-0.044975 0.486193 2.043000 255 0 0
-0.039398 0.486197 2.043000 255 0 0
-0.033854 0.486676 2.045000 255 0 0
-0.028299 0.487155 2.047000 255 0 0
-0.022699 0.486919 2.046000 255 0 0
-0.017114 0.486921 2.046000 255 0 0
-0.011528 0.486922 2.046000 255 0 0
-0.005937 0.486447 2.044000 255 0 0
-0.000356 0.485971 2.042000 255 0 0
0.005229 0.486923 2.046000 255 0 0
0.010841 0.488112 2.051000 255 0 0
0.016480 0.489301 2.056000 255 0 0
0.022028 0.487871 2.050000 255 0 0
0.027611 0.487631 2.049000 255 0 0
0.033140 0.486677 2.045000 255 0 0
0.038780 0.487387 2.048000 255 0 0
0.044370 0.487384 2.048000 255 0 0
0.050009 0.487856 2.050000 255 0 0
0.055632 0.488089 2.051000 255 0 0
0.061231 0.488084 2.051000 255 0 0
0.066959 0.489031 2.055000 255 0 0
0.072604 0.489263 2.056000 255 0 0
0.078215 0.489257 2.056000 255 0 0
0.083745 0.488774 2.054000 255 0 0
0.089437 0.489242 2.056000 255 0 0
0.095048 0.489235 2.056000 255 0 0
0.100805 0.489940 2.059000 255 0 0
0.106579 0.490645 2.062000 255 0 0
0.112477 0.491826 2.067000 255 0 0
0.118231 0.492292 2.069000 255 0 0
0.124055 0.492996 2.072000 255 0 0
0.130271 0.495127 2.081000 255 0 0
-0.107706 0.624956 2.126927 255 255 0
-0.092809 0.623800 2.125000 255 255 0
-0.071070 0.623087 2.128341 255 255 0
-0.060514 0.621688 2.123298 255 255 0
-0.067102 0.619202 2.105188 255 255 0
-0.078801 0.616375 2.083069 255 255 0
-0.249030 0.539751 2.118610 0 255 0
-0.243498 0.541466 2.126568 0 255 0
-0.245834 0.544220 2.140529 0 255 0
-0.245553 0.546625 2.152464 0 255 0
-0.187083 0.551367 2.169583 0 255 0
-0.177106 0.552573 2.174445 0 255 0
-0.161833 0.553126 2.175473 0 255 0
-0.154472 0.554684 2.182352 0 255 0
-0.144458 0.555920 2.187334 0 255 0
-0.134433 0.557167 2.192354 0 255 0
-0.100196 0.557963 2.192389 0 255 0
-0.086584 0.558817 2.195045 0 255 0
-0.316932 0.495992 2.111000 255 0 0
-0.309421 0.493195 2.099000 255 0 0
-0.302988 0.492042 2.094000 255 0 0
-0.296723 0.491124 2.090000 255 0 0
-0.290619 0.490440 2.087000 255 0 0
-0.284530 0.489756 2.084000 255 0 0
-0.278724 0.489541 2.083000 255 0 0
-0.272793 0.489091 2.081000 255 0 0
-0.267000 0.488876 2.080000 255 0 0
-0.260960 0.488191 2.077000 255 0 0
-0.255059 0.487740 2.075000 255 0 0
-0.249048 0.487054 2.072000 255 0 0
-0.243288 0.486838 2.071000 255 0 0
-0.237763 0.487091 2.072000 255 0 0
-0.232231 0.487344 2.073000 255 0 0
-0.226365 0.486892 2.071000 255 0 0
-0.220403 0.486204 2.068000 255 0 0
-0.214665 0.485985 2.067000 255 0 0
-0.208830 0.485532 2.065000 255 0 0
-0.203301 0.485783 2.066000 255 0 0
-0.197574 0.485564 2.065000 255 0 0
-0.191853 0.485344 2.064000 255 0 0
-0.186046 0.484889 2.062000 255 0 0
-0.180425 0.484904 2.062000 255 0 0
-0.174718 0.484683 2.061000 255 0 0
-0.168934 0.484226 2.059000 255 0 0
-0.163161 0.483769 2.057000 255 0 0
-0.157551 0.483782 2.057000 255 0 0
-0.152089 0.484265 2.059000 255 0 0
-0.146473 0.484277 2.059000 255 0 0
-0.140857 0.484289 2.059000 255 0 0
-0.134846 0.482889 2.053000 255 0 0
-0.128930 0.481724 2.048000 255 0 0
-0.122981 0.480323 2.042000 255 0 0
-0.117295 0.479863 2.040000 255 0 0
-0.111455 0.478696 2.035000 255 0 0
-0.106006 0.479176 2.037000 255 0 0
-0.100842 0.481066 2.045000 255 0 0
-0.095960 0.484603 2.060000 255 0 0
-0.090601 0.486022 2.066000 255 0 0
-0.084797 0.485089 2.062000 255 0 0
-0.078785 0.482743 2.052000 255 0 0
-0.072899 0.480867 2.044000 255 0 0
-0.067188 0.479932 2.040000 255 0 0
-0.061650 0.480173 2.041000 255 0 0
-0.056105 0.480413 2.042000 255 0 0
-0.050556 0.480653 2.043000 255 0 0
-0.044978 0.480657 2.043000 255 0 0
-0.039420 0.480896 2.044000 255 0 0
-0.033873 0.481370 2.046000 255 0 0
-0.028301 0.481608 2.047000 255 0 0
-0.022723 0.481845 2.048000 255 0 0
-0.017132 0.481847 2.048000 255 0 0
-0.011535 0.481613 2.047000 255 0 0
-0.005943 0.481378 2.046000 255 0 0
-0.000357 0.481143 2.045000 255 0 0
0.005234 0.481849 2.048000 255 0 0
0.010847 0.482789 2.052000 255 0 0
0.016465 0.483259 2.054000 255 0 0
0.022020 0.482081 2.049000 255 0 0
0.027573 0.481373 2.046000 255 0 0
0.033143 0.481135 2.045000 255 0 0
0.038783 0.481837 2.048000 255 0 0
0.044374 0.481834 2.048000 255 0 0
0.049965 0.481830 2.048000 255 0 0
0.055637 0.482531 2.051000 255 0 0
0.061266 0.482762 2.052000 255 0 0
0.066998 0.483697 2.056000 255 0 0
0.072610 0.483691 2.056000 255 0 0
0.078222 0.483685 2.056000 255 0 0
0.083752 0.483208 2.054000 255 0 0
0.089445 0.483671 2.056000 255 0 0
0.095149 0.484134 2.058000 255 0 0
0.100912 0.484831 2.061000 255 0 0
0.106691 0.485528 2.064000 255 0 0
0.112487 0.486225 2.067000 255 0 0
0.118184 0.486450 2.068000 255 0 0
0.124006 0.487146 2.071000 255 0 0
0.130157 0.489017 2.079000 255 0 0
-0.098992 0.614675 2.134605 255 255 0
-0.084109 0.613555 2.132692 255 255 0
-0.069249 0.612449 2.130843 255 255 0
-0.052698 0.611468 2.130363 255 255 0
-0.065854 0.606430 2.094133 255 255 0
-0.209886 0.519197 2.064939 0 255 0
-0.240936 0.525925 2.101281 0 255 0
-0.246740 0.529178 2.117985 0 255 0
-0.251686 0.532305 2.133967 0 255 0
-0.253151 0.534953 2.147237 0 255 0
-0.252873 0.537363 2.159153 0 255 0
-0.193575 0.541851 2.175570 0 255 0
-0.182727 0.542921 2.179776 0 255 0
-0.169225 0.543662 2.182091 0 255 0
-0.158348 0.544755 2.186388 0 255 0
-0.144814 0.545523 2.188811 0 255 0
-0.132144 0.546415 2.191929 0 255 0
-0.114160 0.546656 2.191296 0 255 0
-0.106757 0.548240 2.198326 0 255 0
-0.094923 0.549281 2.202232 0 255 0
-0.316654 0.489807 2.109000 255 0 0
-0.309443 0.487506 2.099000 255 0 0
-0.303154 0.486599 2.095000 255 0 0
-0.296886 0.485691 2.091000 255 0 0
-0.290918 0.485248 2.089000 255 0 0
-0.285097 0.485037 2.088000 255 0 0
-0.279280 0.484825 2.087000 255 0 0
-0.273206 0.484148 2.084000 255 0 0
-0.267020 0.483239 2.080000 255 0 0
-0.260728 0.482097 2.075000 255 0 0
-0.254956 0.481884 2.074000 255 0 0
-0.249067 0.481438 2.072000 255 0 0
-0.243424 0.481457 2.072000 255 0 0
-0.237666 0.481243 2.071000 255 0 0
-0.232025 0.481261 2.071000 255 0 0
-0.226164 0.480814 2.069000 255 0 0
-0.220314 0.480366 2.067000 255 0 0
-0.214577 0.480151 2.066000 255 0 0
-0.208846 0.479935 2.065000 255 0 0
-0.203317 0.480184 2.066000 255 0 0
-0.197686 0.480200 2.066000 255 0 0
-0.191961 0.479982 2.065000 255 0 0
-0.186241 0.479765 2.064000 255 0 0
-0.180526 0.479547 2.063000 255 0 0
-0.174817 0.479329 2.062000 255 0 0
-0.169030 0.478878 2.060000 255 0 0
-0.163333 0.478659 2.059000 255 0 0
-0.157794 0.478905 2.060000 255 0 0
-0.152249 0.479150 2.061000 255 0 0
-0.146485 0.478697 2.059000 255 0 0
-0.140800 0.478476 2.058000 255 0 0
-0.134988 0.477790 2.055000 255 0 0
-0.129382 0.477801 2.055000 255 0 0
-0.123474 0.476649 2.050000 255 0 0
-0.117707 0.475961 2.047000 255 0 0
-0.111683 0.474111 2.039000 255 0 0
-0.105963 0.473422 2.036000 255 0 0
-0.100505 0.473896 2.038000 255 0 0
-0.095455 0.476462 2.049000 255 0 0
-0.090257 0.478562 2.058000 255 0 0
-0.084476 0.477640 2.054000 255 0 0
-0.078600 0.476019 2.047000 255 0 0
-0.072870 0.475095 2.043000 255 0 0
-0.067227 0.474636 2.041000 255 0 0
-0.061655 0.474641 2.041000 255 0 0
-0.056055 0.474413 2.040000 255 0 0
-0.050511 0.474651 2.041000 255 0 0
-0.044938 0.474655 2.041000 255 0 0
-0.039385 0.474891 2.042000 255 0 0
-0.033826 0.475126 2.043000 255 0 0
-0.028262 0.475362 2.044000 255 0 0
-0.022692 0.475596 2.045000 255 0 0
-0.017125 0.476063 2.047000 255 0 0
-0.011541 0.476297 2.048000 255 0 0
-0.005947 0.476065 2.047000 255 0 0
-0.000357 0.476298 2.048000 255 0 0
0.005237 0.476530 2.049000 255 0 0
0.010853 0.477460 2.053000 255 0 0
0.016451 0.477226 2.052000 255 0 0
0.022011 0.476294 2.048000 255 0 0
0.027562 0.475594 2.045000 255 0 0
0.033162 0.475824 2.046000 255 0 0
0.038786 0.476287 2.048000 255 0 0
0.044378 0.476283 2.048000 255 0 0
0.049994 0.476512 2.049000 255 0 0
0.055642 0.476972 2.051000 255 0 0
0.061301 0.477432 2.053000 255 0 0
0.067003 0.478125 2.056000 255 0 0
0.072616 0.478119 2.056000 255 0 0
0.078190 0.477880 2.055000 255 0 0
0.083759 0.477640 2.054000 255 0 0
0.089496 0.478331 2.057000 255 0 0
0.095203 0.478788 2.059000 255 0 0
0.100920 0.479245 2.061000 255 0 0
0.106700 0.479934 2.064000 255 0 0
0.112442 0.480390 2.066000 255 0 0
0.118079 0.480380 2.066000 255 0 0
0.124016 0.481533 2.071000 255 0 0
0.130168 0.483382 2.079000 255 0 0
0.136493 0.485696 2.089000 255 0 0
-0.091417 0.606453 2.154502 255 255 0
-0.086848 0.604668 2.144849 255 255 0
-0.075415 0.603353 2.140373 255 255 0
-0.067427 0.601811 2.133345 255 255 0
-0.038893 0.601702 2.141979 255 255 0
-0.208504 0.508589 2.065008 0 255 0
-0.255792 0.520154 2.126069 0 255 0
-0.258122 0.522939 2.140020 0 255 0
-0.263082 0.526078 2.155929 0 255 0
-0.261061 0.528253 2.166494 0 255 0
-0.245041 0.528527 2.166504 0 255 0
-0.238634 0.530120 2.173809 0 255 0
-0.228715 0.531246 2.178514 0 255 0
-0.215275 0.531913 2.180652 0 255 0
-0.195671 0.531778 2.178305 0 255 0
-0.186586 0.533057 2.183807 0 255 0
-0.174851 0.533999 2.187410 0 255 0
-0.169265 0.535758 2.195550 0 255 0
-0.149577 0.535688 2.193484 0 255 0
-0.136034 0.536437 2.195963 0 255 0
-0.119825 0.536860 2.196601 0 255 0
-0.114195 0.538656 2.204884 0 255 0
-0.100604 0.539444 2.207524 0 255 0
-0.316826 0.484320 2.110000 255 0 0
-0.309465 0.481817 2.099000 255 0 0
-0.303031 0.480691 2.094000 255 0 0
-0.296908 0.480024 2.091000 255 0 0
-0.291218 0.480045 2.091000 255 0 0
-0.285254 0.479607 2.089000 255 0 0
-0.279435 0.479398 2.088000 255 0 0
-0.273357 0.478729 2.085000 255 0 0
-0.267296 0.478060 2.082000 255 0 0
-0.260999 0.476932 2.077000 255 0 0
-0.255221 0.476722 2.076000 255 0 0
-0.249327 0.476281 2.074000 255 0 0
-0.243795 0.476530 2.075000 255 0 0
-0.238028 0.476318 2.074000 255 0 0
-0.232266 0.476107 2.073000 255 0 0
-0.226509 0.475895 2.072000 255 0 0
-0.220437 0.474993 2.068000 255 0 0
-0.214594 0.474551 2.066000 255 0 0
-0.208559 0.473648 2.062000 255 0 0
-0.203136 0.474124 2.064000 255 0 0
-0.197414 0.473910 2.063000 255 0 0
-0.191883 0.474155 2.064000 255 0 0
-0.186166 0.473940 2.063000 255 0 0
-0.180453 0.473725 2.062000 255 0 0
-0.174661 0.473280 2.060000 255 0 0
-0.169043 0.473294 2.060000 255 0 0
-0.163346 0.473077 2.059000 255 0 0
-0.157883 0.473550 2.061000 255 0 0
-0.152335 0.473792 2.062000 255 0 0
-0.146639 0.473575 2.061000 255 0 0
-0.140880 0.473127 2.059000 255 0 0
-0.135065 0.472449 2.056000 255 0 0
-0.129455 0.472460 2.056000 255 0 0
-0.123725 0.472011 2.054000 255 0 0
-0.118005 0.471561 2.052000 255 0 0
-0.112021 0.469962 2.045000 255 0 0
-0.106180 0.468822 2.040000 255 0 0
-0.100464 0.468141 2.037000 255 0 0
-0.095230 0.469758 2.044000 255 0 0
-0.089870 0.470915 2.049000 255 0 0
-0.084277 0.470922 2.049000 255 0 0
-0.078491 0.469780 2.044000 255 0 0
-0.072804 0.469097 2.041000 255 0 0
-0.067166 0.468643 2.039000 255 0 0
-0.061600 0.468648 2.039000 255 0 0
-0.056033 0.468653 2.039000 255 0 0
-0.050465 0.468658 2.039000 255 0 0
-0.044876 0.468432 2.038000 255 0 0
-0.039331 0.468665 2.039000 255 0 0
-0.033796 0.469128 2.041000 255 0 0
-0.028237 0.469361 2.042000 255 0 0
-0.022683 0.469823 2.044000 255 0 0
-0.017110 0.470054 2.045000 255 0 0
-0.011531 0.470285 2.046000 255 0 0
-0.005944 0.470286 2.046000 255 0 0
-0.000357 0.470286 2.046000 255 0 0
0.005233 0.470516 2.047000 255 0 0
0.010833 0.470975 2.049000 255 0 0
0.016428 0.470974 2.049000 255 0 0
0.022013 0.470742 2.048000 255 0 0
0.027591 0.470510 2.047000 255 0 0
0.033197 0.470738 2.048000 255 0 0
0.038808 0.470964 2.049000 255 0 0
0.044381 0.470731 2.048000 255 0 0
0.049998 0.470957 2.049000 255 0 0
0.055674 0.471642 2.052000 255 0 0
0.061396 0.472556 2.056000 255 0 0
0.067074 0.473011 2.058000 255 0 0
0.072693 0.473005 2.058000 255 0 0
0.078197 0.472309 2.055000 255 0 0
0.083848 0.472532 2.056000 255 0 0
0.089503 0.472754 2.057000 255 0 0
0.095303 0.473666 2.061000 255 0 0
0.100978 0.473888 2.062000 255 0 0
0.106709 0.474339 2.064000 255 0 0
0.112396 0.474559 2.065000 255 0 0
0.118089 0.474780 2.066000 255 0 0
0.124086 0.476148 2.072000 255 0 0
0.130178 0.477746 2.079000 255 0 0
0.136439 0.479804 2.088000 255 0 0
-0.129174 0.599369 2.166989 255 255 0
-0.110790 0.598518 2.167424 255 255 0
-0.092437 0.597682 2.167943 255 255 0
-0.075834 0.596742 2.167264 255 255 0
-0.055576 0.593988 2.156441 255 255 0
-0.051038 0.592221 2.146870 255 255 0
-0.031949 0.591512 2.148369 255 255 0
-0.012037 0.590883 2.150611 255 255 0
-0.006681 0.589200 2.141796 255 255 0
-0.205740 0.495241 2.051570 0 255 0
-0.264255 0.508618 2.121522 0 255 0
-0.262222 0.510801 2.132133 0 255 0
-0.265424 0.513722 2.146731 0 255 0
-0.263400 0.515902 2.157309 0 255 0
-0.259630 0.517838 2.166554 0 255 0
-0.247988 0.518683 2.169874 0 255 0
-0.244210 0.520628 2.179145 0 255 0
-0.233423 0.521613 2.183191 0 255 0
-0.221745 0.522488 2.186628 0 255 0
-0.202156 0.522301 2.184279 0 255 0
-0.187808 0.522849 2.185898 0 255 0
-0.173441 0.523411 2.187579 0 255 0
-0.166094 0.524929 2.194448 0 255 0
-0.157859 0.526337 2.200701 0 255 0
-0.144328 0.527053 2.203170 0 255 0
-0.130779 0.527782 2.205698 0 255 0
-0.113682 0.528064 2.205762 0 255 0
-0.100095 0.528823 2.208416 0 255 0
-0.082953 0.529138 2.208628 0 255 0
-0.317599 0.479734 2.115000 255 0 0
-0.310519 0.477714 2.106000 255 0 0
-0.303776 0.476148 2.099000 255 0 0
-0.297213 0.474809 2.093000 255 0 0
-0.291378 0.474603 2.092000 255 0 0
-0.285548 0.474397 2.091000 255 0 0
-0.279589 0.473964 2.089000 255 0 0
-0.273246 0.472850 2.084000 255 0 0
-0.267059 0.471962 2.080000 255 0 0
-0.261019 0.471301 2.077000 255 0 0
-0.255240 0.471093 2.076000 255 0 0
-0.249706 0.471339 2.077000 255 0 0
-0.244049 0.471358 2.077000 255 0 0
-0.238391 0.471376 2.077000 255 0 0
-0.232396 0.470713 2.074000 255 0 0
-0.226527 0.470277 2.072000 255 0 0
-0.220454 0.469386 2.068000 255 0 0
-0.214611 0.468949 2.066000 255 0 0
-0.208677 0.468285 2.063000 255 0 0
-0.203053 0.468301 2.063000 255 0 0
-0.197430 0.468317 2.063000 255 0 0
-0.191805 0.468332 2.063000 255 0 0
-0.186181 0.468347 2.063000 255 0 0
-0.180555 0.468362 2.063000 255 0 0
-0.174675 0.467695 2.060000 255 0 0
-0.168975 0.467482 2.059000 255 0 0
-0.163359 0.467495 2.059000 255 0 0
-0.157896 0.467962 2.061000 255 0 0
-0.152422 0.468429 2.063000 255 0 0
-0.146722 0.468214 2.062000 255 0 0
-0.141028 0.467999 2.061000 255 0 0
-0.135273 0.467556 2.059000 255 0 0
-0.129529 0.467112 2.057000 255 0 0
-0.123795 0.466669 2.055000 255 0 0
-0.118072 0.466225 2.053000 255 0 0
-0.112304 0.465553 2.050000 255 0 0
-0.106501 0.464653 2.046000 255 0 0
-0.100670 0.463526 2.041000 255 0 0
-0.095145 0.463762 2.042000 255 0 0
-0.089702 0.464451 2.045000 255 0 0
-0.084202 0.464912 2.047000 255 0 0
-0.078460 0.464011 2.043000 255 0 0
-0.072775 0.463336 2.040000 255 0 0
-0.067073 0.462433 2.036000 255 0 0
-0.061514 0.462438 2.036000 255 0 0
-0.055900 0.461989 2.034000 255 0 0
-0.050346 0.461994 2.034000 255 0 0
-0.044836 0.462452 2.036000 255 0 0
-0.039334 0.463137 2.039000 255 0 0
-0.033799 0.463594 2.041000 255 0 0
-0.028211 0.463370 2.040000 255 0 0
-0.022652 0.463599 2.041000 255 0 0
-0.017086 0.463828 2.042000 255 0 0
-0.011521 0.464283 2.044000 255 0 0
-0.005939 0.464284 2.044000 255 0 0
-0.000357 0.464511 2.045000 255 0 0
0.005230 0.464738 2.046000 255 0 0
0.010823 0.464965 2.047000 255 0 0
0.016406 0.464737 2.046000 255 0 0
0.021993 0.464735 2.046000 255 0 0
0.027594 0.464960 2.047000 255 0 0
0.033200 0.465185 2.048000 255 0 0
0.038793 0.465181 2.048000 255 0 0
0.044385 0.465178 2.048000 255 0 0
0.050002 0.465401 2.049000 255 0 0
0.055706 0.466305 2.053000 255 0 0
0.061431 0.467209 2.057000 255 0 0
0.067112 0.467658 2.059000 255 0 0
0.072699 0.467425 2.058000 255 0 0
0.078165 0.466510 2.054000 255 0 0
0.083814 0.466730 2.055000 255 0 0
0.089511 0.467177 2.057000 255 0 0
0.095357 0.468305 2.062000 255 0 0
0.101035 0.468524 2.063000 255 0 0
0.106718 0.468742 2.064000 255 0 0
0.112406 0.468960 2.065000 255 0 0
0.118213 0.469632 2.068000 255 0 0
0.124276 0.471212 2.075000 255 0 0
0.130252 0.472337 2.080000 255 0 0
0.136450 0.474142 2.088000 255 0 0
0.142556 0.475493 2.094000 255 0 0
-0.136245 0.590104 2.176106 255 255 0
-0.121296 0.589039 2.173943 255 255 0
-0.105509 0.588048 2.172479 255 255 0
-0.088888 0.587134 2.171723 255 255 0
-0.069716 0.586423 2.172962 255 255 0
-0.052293 0.585602 2.173006 255 255 0
-0.034899 0.584796 2.173129 255 255 0
-0.016454 0.582000 2.161256 255 255 0
0.002581 0.581362 2.162875 255 255 0
0.023289 0.580872 2.165894 255 255 0
0.039040 0.577954 2.152417 255 255 0
-0.261974 0.498024 2.120888 0 255 0
-0.267775 0.501348 2.137521 0 255 0
-0.268362 0.503909 2.150106 0 255 0
-0.262848 0.505592 2.158026 0 255 0
-0.259077 0.507527 2.167278 0 255 0
-0.250934 0.508845 2.173241 0 255 0
-0.244533 0.510418 2.180542 0 255 0
-0.229372 0.510766 2.181335 0 255 0
-0.218571 0.511742 2.185445 0 255 0
-0.206004 0.512486 2.188302 0 255 0
-0.193420 0.513242 2.191213 0 255 0
-0.177307 0.513527 2.191607 0 255 0
-0.165568 0.514431 2.195273 0 255 0
-0.156454 0.515706 2.200899 0 255 0
-0.149092 0.517228 2.207828 0 255 0
-0.135552 0.517926 2.210353 0 255 0
-0.116701 0.517928 2.209161 0 255 0
-0.101356 0.518422 2.210565 0 255 0
-0.085106 0.518814 2.211413 0 255 0
-0.325821 0.477562 2.131000 255 0 0
-0.317471 0.473775 2.114000 255 0 0
-0.310688 0.472228 2.107000 255 0 0
-0.303943 0.470681 2.100000 255 0 0
-0.297376 0.469358 2.094000 255 0 0
-0.291538 0.469155 2.093000 255 0 0
-0.285569 0.468727 2.091000 255 0 0
-0.279743 0.468524 2.090000 255 0 0
-0.273398 0.467423 2.085000 255 0 0
-0.267207 0.466546 2.081000 255 0 0
-0.261289 0.466118 2.079000 255 0 0
-0.255382 0.465689 2.077000 255 0 0
-0.249845 0.465932 2.078000 255 0 0
-0.244067 0.465726 2.077000 255 0 0
-0.238524 0.465969 2.078000 255 0 0
-0.232414 0.465090 2.074000 255 0 0
-0.226435 0.464434 2.071000 255 0 0
-0.220471 0.463779 2.068000 255 0 0
-0.214628 0.463347 2.066000 255 0 0
-0.208592 0.462467 2.062000 255 0 0
-0.202872 0.462258 2.061000 255 0 0
-0.197254 0.462274 2.061000 255 0 0
-0.191728 0.462514 2.062000 255 0 0
-0.186105 0.462529 2.062000 255 0 0
-0.180395 0.462319 2.061000 255 0 0
-0.174689 0.462109 2.060000 255 0 0
-0.169071 0.462123 2.060000 255 0 0
-0.163452 0.462136 2.060000 255 0 0
-0.157832 0.462149 2.060000 255 0 0
-0.152360 0.462610 2.062000 255 0 0
-0.146592 0.462174 2.060000 255 0 0
-0.140971 0.462185 2.060000 255 0 0
-0.135219 0.461748 2.058000 255 0 0
-0.129540 0.461534 2.057000 255 0 0
-0.123805 0.461096 2.055000 255 0 0
-0.118024 0.460433 2.052000 255 0 0
-0.112314 0.459994 2.050000 255 0 0
-0.106562 0.459329 2.047000 255 0 0
-0.100826 0.458665 2.044000 255 0 0
-0.095153 0.458224 2.042000 255 0 0
-0.089622 0.458456 2.043000 255 0 0
-0.084044 0.458463 2.043000 255 0 0
-0.078389 0.458021 2.041000 255 0 0
-0.072674 0.457130 2.037000 255 0 0
-0.067013 0.456463 2.034000 255 0 0
-0.061459 0.456468 2.034000 255 0 0
-0.055905 0.456473 2.034000 255 0 0
-0.050325 0.456253 2.033000 255 0 0
-0.044840 0.456930 2.036000 255 0 0
-0.039318 0.457383 2.038000 255 0 0
-0.033818 0.458284 2.042000 255 0 0
-0.028228 0.458062 2.041000 255 0 0
-0.022653 0.458064 2.041000 255 0 0
-0.017079 0.458066 2.041000 255 0 0
-0.011511 0.458291 2.042000 255 0 0
-0.005936 0.458516 2.043000 255 0 0
-0.000357 0.458517 2.043000 255 0 0
0.005223 0.458516 2.043000 255 0 0
0.010798 0.458291 2.042000 255 0 0
0.016383 0.458515 2.043000 255 0 0
0.021984 0.458962 2.045000 255 0 0
0.027596 0.459409 2.047000 255 0 0
0.033219 0.459855 2.049000 255 0 0
0.038815 0.459852 2.049000 255 0 0
0.044411 0.459848 2.049000 255 0 0
0.050055 0.460293 2.051000 255 0 0
0.055737 0.460962 2.054000 255 0 0
0.061466 0.461855 2.058000 255 0 0
0.067118 0.462074 2.059000 255 0 0
0.072740 0.462068 2.059000 255 0 0
0.078248 0.461388 2.056000 255 0 0
0.083902 0.461606 2.057000 255 0 0
0.089605 0.462048 2.059000 255 0 0
0.095412 0.462938 2.063000 255 0 0
0.101092 0.463154 2.064000 255 0 0
0.106778 0.463370 2.065000 255 0 0
0.112415 0.463360 2.065000 255 0 0
0.118280 0.464248 2.069000 255 0 0
0.124286 0.465585 2.075000 255 0 0
0.130325 0.466921 2.081000 255 0 0
0.136396 0.468256 2.087000 255 0 0
0.142500 0.469591 2.093000 255 0 0
0.149060 0.472271 2.105000 255 0 0
-0.135552 0.581383 2.190902 255 255 0
-0.126636 0.579900 2.184298 255 255 0
-0.112562 0.578809 2.181519 255 255 0
-0.095929 0.577923 2.180702 255 255 0
-0.076744 0.577246 2.181872 255 255 0
-0.058449 0.576522 2.182493 255 255 0
-0.036754 0.576077 2.185766 255 255 0
-0.023667 0.574987 2.182697 255 255 0
-0.005248 0.572235 2.170873 255 255 0
0.009496 0.571309 2.169249 255 255 0
0.020804 0.570124 2.165069 255 255 0
0.032096 0.568947 2.160933 255 255 0
0.034857 0.567087 2.150243 255 255 0
0.029112 0.564532 2.132923 255 255 0
-0.260567 0.487534 2.120930 0 255 0
-0.268972 0.491273 2.139565 0 255 0
-0.270427 0.493974 2.152812 0 255 0
-0.261427 0.495139 2.158084 0 255 0
-0.257653 0.497075 2.167344 0 255 0
-0.248638 0.498254 2.172663 0 255 0
-0.242236 0.499819 2.179978 0 255 0
-0.228829 0.500386 2.182095 0 255 0
-0.217155 0.501216 2.185568 0 255 0
-0.209850 0.502680 2.192322 0 255 0
-0.194642 0.503036 2.193301 0 255 0
-0.181170 0.503654 2.195631 0 255 0
-0.167681 0.504287 2.198019 0 255 0
-0.162968 0.506155 2.206830 0 255 0
-0.149452 0.506810 2.209310 0 255 0
-0.138560 0.507842 2.213742 0 255 0
-0.119720 0.507799 2.212557 0 255 0
-0.101735 0.507896 2.212088 0 255 0
-0.088142 0.508610 2.214822 0 255 0
-0.328290 0.475326 2.147000 255 0 0
-0.317494 0.468042 2.114000 255 0 0
-0.311005 0.466957 2.109000 255 0 0
-0.304254 0.465429 2.102000 255 0 0
-0.297824 0.464344 2.097000 255 0 0
-0.291977 0.464143 2.096000 255 0 0
-0.286136 0.463943 2.095000 255 0 0
-0.280165 0.463520 2.093000 255 0 0
-0.273680 0.462212 2.087000 255 0 0
-0.267227 0.460903 2.081000 255 0 0
-0.261309 0.460480 2.079000 255 0 0
-0.255524 0.460277 2.078000 255 0 0
-0.249984 0.460518 2.079000 255 0 0
-0.244321 0.460536 2.079000 255 0 0
-0.238657 0.460555 2.079000 255 0 0
-0.232544 0.459686 2.075000 255 0 0
-0.226452 0.458818 2.071000 255 0 0
-0.220488 0.458170 2.068000 255 0 0
-0.214748 0.457966 2.067000 255 0 0
-0.208810 0.457317 2.064000 255 0 0
-0.203085 0.457112 2.063000 255 0 0
-0.197365 0.456906 2.062000 255 0 0
-0.191650 0.456700 2.061000 255 0 0
-0.186030 0.456715 2.061000 255 0 0
-0.180321 0.456508 2.060000 255 0 0
-0.174618 0.456300 2.059000 255 0 0
-0.168838 0.455871 2.057000 255 0 0
-0.163306 0.456106 2.058000 255 0 0
-0.157845 0.456562 2.060000 255 0 0
-0.152299 0.456796 2.061000 255 0 0
-0.146462 0.456143 2.058000 255 0 0
-0.140846 0.456155 2.058000 255 0 0
-0.135164 0.455944 2.057000 255 0 0
-0.129550 0.455955 2.057000 255 0 0
-0.123876 0.455744 2.056000 255 0 0
-0.118149 0.455310 2.054000 255 0 0
-0.112433 0.454877 2.052000 255 0 0
-0.106675 0.454221 2.049000 255 0 0
-0.100933 0.453564 2.046000 255 0 0
-0.095207 0.452907 2.043000 255 0 0
-0.089629 0.452915 2.043000 255 0 0
-0.083969 0.452479 2.041000 255 0 0
-0.078319 0.452042 2.039000 255 0 0
-0.072680 0.451605 2.037000 255 0 0
-0.067052 0.451167 2.035000 255 0 0
-0.061494 0.451173 2.035000 255 0 0
-0.055909 0.450956 2.034000 255 0 0
-0.050404 0.451404 2.036000 255 0 0
-0.044887 0.451851 2.038000 255 0 0
-0.039360 0.452298 2.040000 255 0 0
-0.033821 0.452745 2.042000 255 0 0
-0.028216 0.452304 2.040000 255 0 0
-0.022655 0.452528 2.041000 255 0 0
-0.017072 0.452308 2.040000 255 0 0
-0.011512 0.452752 2.042000 255 0 0
-0.005934 0.452753 2.042000 255 0 0
-0.000357 0.452975 2.043000 255 0 0
0.005221 0.452753 2.042000 255 0 0
0.010799 0.452752 2.042000 255 0 0
0.016384 0.452973 2.043000 255 0 0
0.021986 0.453415 2.045000 255 0 0
0.027585 0.453635 2.046000 255 0 0
0.033189 0.453854 2.047000 255 0 0
0.038780 0.453851 2.047000 255 0 0
0.044414 0.454291 2.049000 255 0 0
0.050084 0.454952 2.052000 255 0 0
0.055769 0.455612 2.055000 255 0 0
0.061501 0.456494 2.059000 255 0 0
0.067124 0.456489 2.059000 255 0 0
0.072746 0.456483 2.059000 255 0 0
0.078331 0.456255 2.058000 255 0 0
0.084073 0.456913 2.061000 255 0 0
0.089830 0.457571 2.064000 255 0 0
0.095558 0.458007 2.066000 255 0 0
0.101199 0.457999 2.066000 255 0 0
0.106891 0.458212 2.067000 255 0 0
0.112588 0.458425 2.068000 255 0 0
0.118404 0.459080 2.071000 255 0 0
0.124297 0.459957 2.075000 255 0 0
0.130398 0.461498 2.082000 255 0 0
0.136473 0.462817 2.088000 255 0 0
0.142443 0.463692 2.092000 255 0 0
0.148718 0.465454 2.100000 255 0 0
-0.141765 0.572153 2.200684 255 255 0
-0.129391 0.570943 2.196557 255 255 0
-0.121344 0.569412 2.189335 255 255 0
-0.111585 0.568020 2.183400 255 255 0
-0.099259 0.566836 2.179403 255 255 0
-0.076639 0.566474 2.183094 255 255 0
-0.056634 0.565928 2.184978 255 255 0
-0.031519 0.565812 2.190807 255 255 0
-0.021010 0.564546 2.185809 255 255 0
-0.008805 0.563427 2.182144 255 255 0
-0.001745 0.561898 2.174634 255 255 0
0.012992 0.561006 2.173007 255 255 0
0.022588 0.559703 2.167520 255 255 0
0.028763 0.558121 2.159440 255 255 0
0.031529 0.556256 2.148736 255 255 0
0.059148 0.554415 2.144581 255 255 0
0.066554 0.548782 2.111916 255 255 0
-0.264380 0.477815 2.124990 0 255 0
-0.272779 0.481587 2.143609 0 255 0
-0.269881 0.483647 2.153526 0 255 0
-0.262625 0.485057 2.160130 0 255 0
-0.257107 0.486732 2.168075 0 255 0
-0.252459 0.488541 2.176686 0 255 0
-0.243439 0.489710 2.182035 0 255 0
-0.230038 0.490247 2.184161 0 255 0
-0.219244 0.491180 2.188289 0 255 0
-0.215446 0.493140 2.197630 0 255 0
-0.204632 0.494091 2.201823 0 255 0
-0.194684 0.495178 2.206701 0 255 0
-0.179454 0.495522 2.207786 0 255 0
-0.165962 0.496131 2.210210 0 255 0
-0.149813 0.496382 2.210794 0 255 0
-0.139806 0.497516 2.215866 0 255 0
-0.128906 0.498537 2.220349 0 255 0
-0.110937 0.498587 2.219869 0 255 0
-0.097356 0.499266 2.222589 0 255 0
-0.087291 0.500446 2.227850 0 255 0
-0.325255 0.465129 2.127000 255 0 0
-0.317516 0.462309 2.114000 255 0 0
-0.310880 0.461019 2.108000 255 0 0
-0.304131 0.459509 2.101000 255 0 0
-0.297845 0.458656 2.097000 255 0 0
-0.291998 0.458458 2.096000 255 0 0
-0.286566 0.458917 2.098000 255 0 0
-0.280319 0.458062 2.094000 255 0 0
-0.274225 0.457426 2.091000 255 0 0
-0.267632 0.455915 2.084000 255 0 0
-0.261705 0.455497 2.082000 255 0 0
-0.255666 0.454860 2.079000 255 0 0
-0.250123 0.455098 2.080000 255 0 0
-0.244457 0.455116 2.080000 255 0 0
-0.238675 0.454915 2.079000 255 0 0
-0.232562 0.454058 2.075000 255 0 0
-0.226470 0.453200 2.071000 255 0 0
-0.220505 0.452561 2.068000 255 0 0
-0.214661 0.452140 2.066000 255 0 0
-0.208827 0.451719 2.064000 255 0 0
-0.203101 0.451516 2.063000 255 0 0
-0.197285 0.451094 2.061000 255 0 0
-0.191479 0.450671 2.059000 255 0 0
-0.185774 0.450467 2.058000 255 0 0
-0.180161 0.450482 2.058000 255 0 0
-0.174547 0.450496 2.058000 255 0 0
-0.168933 0.450509 2.058000 255 0 0
-0.163319 0.450523 2.058000 255 0 0
-0.157781 0.450755 2.059000 255 0 0
-0.152163 0.450767 2.059000 255 0 0
-0.146473 0.450560 2.058000 255 0 0
-0.140720 0.450134 2.056000 255 0 0
-0.135044 0.449926 2.055000 255 0 0
-0.129372 0.449718 2.054000 255 0 0
-0.123886 0.450166 2.056000 255 0 0
-0.118216 0.449957 2.055000 255 0 0
-0.112551 0.449748 2.054000 255 0 0
-0.106788 0.449100 2.051000 255 0 0
-0.101040 0.448451 2.048000 255 0 0
-0.095262 0.447584 2.044000 255 0 0
-0.089593 0.447153 2.042000 255 0 0
-0.083894 0.446504 2.039000 255 0 0
-0.078249 0.446072 2.037000 255 0 0
-0.072686 0.446079 2.037000 255 0 0
-0.067123 0.446085 2.037000 255 0 0
-0.061560 0.446090 2.037000 255 0 0
-0.055969 0.445876 2.036000 255 0 0
-0.050433 0.446099 2.037000 255 0 0
-0.044891 0.446322 2.038000 255 0 0
-0.039344 0.446545 2.039000 255 0 0
-0.033807 0.446986 2.041000 255 0 0
-0.028246 0.447207 2.042000 255 0 0
-0.022680 0.447429 2.043000 255 0 0
