ply
format ascii 1.0
element vertex 1331
property double x
property double y
property double z
property uchar red
property uchar green
property uchar blue
end_header
-0.150522 0.684531 1.904000 255 0 0
-0.144963 0.682741 1.899000 255 0 0
-0.139431 0.680951 1.894000 255 0 0
-0.134210 0.680599 1.893000 255 0 0
-0.128926 0.679887 1.891000 255 0 0
-0.123652 0.679175 1.889000 255 0 0
-0.118452 0.678822 1.888000 255 0 0
-0.113317 0.678828 1.888000 255 0 0
-0.108240 0.679194 1.889000 255 0 0
-0.103047 0.678840 1.888000 255 0 0
-0.097964 0.679205 1.889000 255 0 0
-0.092777 0.678851 1.888000 255 0 0
-0.087688 0.679216 1.889000 255 0 0
-0.082550 0.679221 1.889000 255 0 0
-0.077452 0.679585 1.890000 255 0 0
-0.072388 0.680308 1.892000 255 0 0
-0.067241 0.680312 1.892000 255 0 0
-0.062193 0.681395 1.895000 255 0 0
-0.057068 0.681758 1.896000 255 0 0
-0.052129 0.684637 1.904000 255 0 0
-0.046999 0.685359 1.906000 255 0 0
-0.041923 0.687160 1.911000 255 0 0
-0.036821 0.688960 1.916000 255 0 0
-0.031724 0.691479 1.923000 255 0 0
-0.026575 0.693638 1.929000 255 0 0
-0.176601 0.680059 1.906000 255 0 0
-0.171779 0.681495 1.910000 255 0 0
-0.166585 0.681504 1.910000 255 0 0
-0.161477 0.681869 1.911000 255 0 0
-0.156362 0.682235 1.912000 255 0 0
-0.150768 0.680459 1.907000 255 0 0
-0.145048 0.677969 1.900000 255 0 0
-0.139513 0.676193 1.895000 255 0 0
-0.134217 0.675487 1.893000 255 0 0
-0.129001 0.675137 1.892000 255 0 0
-0.123724 0.674430 1.890000 255 0 0
-0.118584 0.674437 1.890000 255 0 0
-0.113504 0.674801 1.891000 255 0 0
-0.108532 0.675877 1.894000 255 0 0
-0.103272 0.675170 1.892000 255 0 0
-0.098073 0.674819 1.891000 255 0 0
-0.092881 0.674467 1.890000 255 0 0
-0.087786 0.674829 1.891000 255 0 0
-0.082642 0.674834 1.891000 255 0 0
-0.077498 0.674839 1.891000 255 0 0
-0.072507 0.676271 1.895000 255 0 0
-0.067423 0.676988 1.897000 255 0 0
-0.062393 0.678420 1.901000 255 0 0
-0.057222 0.678423 1.901000 255 0 0
-0.052214 0.680568 1.907000 255 0 0
-0.047100 0.681641 1.910000 255 0 0
-0.042014 0.683428 1.915000 255 0 0
-0.036861 0.684501 1.918000 255 0 0
-0.031693 0.685574 1.921000 255 0 0
-0.026577 0.688431 1.929000 255 0 0
-0.166158 0.674574 1.905000 255 0 0
-0.161316 0.675999 1.909000 255 0 0
-0.156207 0.676362 1.910000 255 0 0
-0.150697 0.674954 1.906000 255 0 0
-0.145514 0.674962 1.906000 255 0 0
-0.139888 0.672846 1.900000 255 0 0
-0.134508 0.671791 1.897000 255 0 0
-0.129145 0.670736 1.894000 255 0 0
-0.123993 0.670743 1.894000 255 0 0
-0.118905 0.671104 1.895000 255 0 0
-0.113810 0.671465 1.896000 255 0 0
-0.108710 0.671826 1.897000 255 0 0
-0.103496 0.671478 1.896000 255 0 0
-0.098235 0.670775 1.894000 255 0 0
-0.092984 0.670073 1.892000 255 0 0
-0.087791 0.669724 1.891000 255 0 0
-0.082690 0.670083 1.892000 255 0 0
-0.077625 0.670796 1.894000 255 0 0
-0.072702 0.672926 1.900000 255 0 0
-0.067604 0.673638 1.902000 255 0 0
-0.062561 0.675059 1.906000 255 0 0
-0.057346 0.674708 1.905000 255 0 0
-0.052327 0.676836 1.911000 255 0 0
-0.047152 0.677194 1.912000 255 0 0
-0.041972 0.677550 1.913000 255 0 0
-0.036748 0.677199 1.912000 255 0 0
-0.031596 0.678263 1.915000 255 0 0
-0.026427 0.679328 1.918000 255 0 0
-0.161579 0.671898 1.912000 255 0 0
-0.156461 0.672258 1.913000 255 0 0
-0.151022 0.671212 1.910000 255 0 0
-0.145751 0.670869 1.909000 255 0 0
-0.140412 0.670175 1.907000 255 0 0
-0.135012 0.669128 1.904000 255 0 0
-0.129493 0.667379 1.899000 255 0 0
-0.124328 0.667386 1.899000 255 0 0
-0.119100 0.667042 1.898000 255 0 0
-0.114057 0.667752 1.900000 255 0 0
-0.108889 0.667758 1.900000 255 0 0
-0.103829 0.668467 1.902000 255 0 0
-0.098604 0.668122 1.901000 255 0 0
-0.093481 0.668479 1.902000 255 0 0
-0.088168 0.667430 1.899000 255 0 0
-0.083001 0.667435 1.899000 255 0 0
-0.077589 0.665332 1.893000 255 0 0
-0.072669 0.667445 1.899000 255 0 0
-0.067573 0.668152 1.901000 255 0 0
-0.062598 0.670265 1.907000 255 0 0
-0.057470 0.670972 1.909000 255 0 0
-0.052385 0.672381 1.913000 255 0 0
-0.047205 0.672735 1.914000 255 0 0
-0.041887 0.670981 1.909000 255 0 0
-0.036635 0.669929 1.906000 255 0 0
-0.031515 0.671337 1.910000 255 0 0
-0.026470 0.675205 1.921000 255 0 0
-0.016407 0.691727 1.968000 255 0 0
-0.166613 0.666027 1.910000 255 0 0
-0.162095 0.668826 1.918000 255 0 0
-0.157042 0.669532 1.920000 255 0 0
-0.151426 0.667798 1.915000 255 0 0
-0.146141 0.667458 1.914000 255 0 0
-0.140788 0.666769 1.912000 255 0 0
-0.135588 0.666777 1.912000 255 0 0
-0.130046 0.665041 1.907000 255 0 0
-0.124793 0.664700 1.906000 255 0 0
-0.119358 0.663312 1.902000 255 0 0
-0.114244 0.663668 1.903000 255 0 0
-0.109125 0.664023 1.904000 255 0 0
-0.104163 0.665425 1.908000 255 0 0
-0.099024 0.665780 1.909000 255 0 0
-0.093929 0.666483 1.911000 255 0 0
-0.088544 0.665094 1.907000 255 0 0
-0.083269 0.664402 1.905000 255 0 0
-0.077881 0.662663 1.900000 255 0 0
-0.072864 0.664062 1.904000 255 0 0
-0.067755 0.664764 1.906000 255 0 0
-0.062733 0.666512 1.911000 255 0 0
-0.057533 0.666516 1.911000 255 0 0
-0.052498 0.668612 1.917000 255 0 0
-0.047257 0.668267 1.916000 255 0 0
-0.041977 0.667223 1.913000 255 0 0
-0.036676 0.665482 1.908000 255 0 0
-0.031583 0.667576 1.914000 255 0 0
-0.026568 0.672461 1.928000 255 0 0
-0.021730 0.685368 1.965000 255 0 0
-0.016642 0.696182 1.996000 255 0 0
-0.177937 0.664309 1.920000 255 0 0
-0.172716 0.664319 1.920000 255 0 0
-0.167756 0.665367 1.923000 255 0 0
-0.162442 0.665030 1.922000 255 0 0
-0.157461 0.666078 1.925000 255 0 0
-0.151988 0.665049 1.922000 255 0 0
-0.146684 0.664712 1.921000 255 0 0
-0.141312 0.664028 1.919000 255 0 0
-0.135950 0.663344 1.917000 255 0 0
-0.130531 0.662314 1.914000 255 0 0
-0.125194 0.661630 1.912000 255 0 0
-0.119616 0.659561 1.906000 255 0 0
-0.114311 0.658876 1.904000 255 0 0
-0.109131 0.658883 1.904000 255 0 0
-0.104170 0.660274 1.908000 255 0 0
-0.099082 0.660972 1.910000 255 0 0
-0.093984 0.661670 1.912000 255 0 0
-0.088596 0.660292 1.908000 255 0 0
-0.083492 0.660989 1.910000 255 0 0
-0.078214 0.660303 1.908000 255 0 0
-0.073175 0.661692 1.912000 255 0 0
-0.067937 0.661350 1.911000 255 0 0
-0.062868 0.662738 1.915000 255 0 0
-0.057657 0.662742 1.915000 255 0 0
-0.052583 0.664476 1.920000 255 0 0
-0.047408 0.665172 1.922000 255 0 0
-0.042178 0.665174 1.922000 255 0 0
-0.036928 0.664831 1.921000 255 0 0
-0.031767 0.666217 1.925000 255 0 0
-0.026790 0.672795 1.944000 255 0 0
-0.021931 0.686294 1.983000 255 0 0
-0.016701 0.693217 2.003000 255 0 0
-0.178503 0.661183 1.926000 255 0 0
-0.173805 0.663253 1.932000 255 0 0
-0.168639 0.663606 1.933000 255 0 0
-0.163044 0.662243 1.929000 255 0 0
-0.157879 0.662596 1.930000 255 0 0
-0.152392 0.661575 1.927000 255 0 0
-0.146998 0.660898 1.925000 255 0 0
-0.141541 0.659876 1.922000 255 0 0
-0.136100 0.658855 1.919000 255 0 0
-0.130539 0.657146 1.914000 255 0 0
-0.125267 0.656811 1.913000 255 0 0
-0.119875 0.655789 1.910000 255 0 0
-0.114558 0.655109 1.908000 255 0 0
-0.109310 0.654773 1.907000 255 0 0
-0.104231 0.655466 1.909000 255 0 0
-0.099089 0.655816 1.910000 255 0 0
-0.093892 0.655822 1.910000 255 0 0
-0.088602 0.655141 1.908000 255 0 0
-0.083541 0.656177 1.911000 255 0 0
-0.078506 0.657556 1.915000 255 0 0
-0.073486 0.659277 1.920000 255 0 0
-0.068226 0.658939 1.919000 255 0 0
-0.063069 0.659630 1.921000 255 0 0
-0.057842 0.659634 1.921000 255 0 0
-0.052751 0.661354 1.926000 255 0 0
-0.047510 0.661357 1.926000 255 0 0
-0.042334 0.662390 1.929000 255 0 0
-0.037046 0.661706 1.927000 255 0 0
-0.031818 0.662052 1.928000 255 0 0
-0.026778 0.667205 1.943000 255 0 0
-0.021954 0.681629 1.985000 255 0 0
-0.016736 0.689184 2.007000 255 0 0
-0.178050 0.654278 1.921000 255 0 0
-0.174086 0.659057 1.935000 255 0 0
-0.168910 0.659408 1.936000 255 0 0
-0.163391 0.658396 1.933000 255 0 0
-0.158052 0.658065 1.932000 255 0 0
-0.152639 0.657394 1.930000 255 0 0
-0.147236 0.656722 1.928000 255 0 0
-0.141697 0.655368 1.924000 255 0 0
-0.136251 0.654355 1.921000 255 0 0
-0.130752 0.653001 1.917000 255 0 0
-0.125471 0.652668 1.916000 255 0 0
-0.120008 0.651313 1.912000 255 0 0
-0.114625 0.650299 1.909000 255 0 0
-0.109317 0.649625 1.907000 255 0 0
-0.104183 0.649972 1.908000 255 0 0
-0.099147 0.651001 1.911000 255 0 0
-0.094095 0.652029 1.914000 255 0 0
-0.088840 0.651694 1.913000 255 0 0
-0.083678 0.652040 1.914000 255 0 0
-0.078552 0.652727 1.916000 255 0 0
-0.073452 0.653754 1.919000 255 0 0
-0.068301 0.654440 1.921000 255 0 0
-0.063205 0.655807 1.925000 255 0 0
-0.058056 0.656833 1.928000 255 0 0
-0.052891 0.657859 1.931000 255 0 0
-0.047661 0.658203 1.932000 255 0 0
-0.042447 0.658887 1.934000 255 0 0
-0.037183 0.658890 1.934000 255 0 0
-0.031837 0.657189 1.929000 255 0 0
-0.026766 0.661620 1.942000 255 0 0
-0.021989 0.677293 1.988000 255 0 0
-0.016770 0.685130 2.011000 255 0 0
-0.174456 0.655183 1.939000 255 0 0
-0.169182 0.655194 1.939000 255 0 0
-0.163740 0.654528 1.937000 255 0 0
-0.158144 0.653186 1.933000 255 0 0
-0.152727 0.652520 1.931000 255 0 0
-0.147246 0.651516 1.928000 255 0 0
-0.141780 0.650511 1.925000 255 0 0
-0.136330 0.649506 1.922000 255 0 0
-0.130828 0.648163 1.918000 255 0 0
-0.125545 0.647833 1.917000 255 0 0
-0.120204 0.647165 1.915000 255 0 0
-0.114813 0.646159 1.912000 255 0 0
-0.109439 0.645152 1.909000 255 0 0
-0.104353 0.645835 1.911000 255 0 0
-0.099309 0.646856 1.914000 255 0 0
-0.094248 0.647876 1.917000 255 0 0
-0.089032 0.647882 1.917000 255 0 0
-0.083815 0.647888 1.917000 255 0 0
-0.078639 0.648231 1.918000 255 0 0
-0.073572 0.649588 1.922000 255 0 0
-0.068412 0.650269 1.924000 255 0 0
-0.063340 0.651963 1.929000 255 0 0
-0.058090 0.651967 1.929000 255 0 0
-0.052922 0.652985 1.932000 255 0 0
-0.047664 0.652988 1.932000 255 0 0
-0.042471 0.654005 1.935000 255 0 0
-0.037205 0.654008 1.935000 255 0 0
-0.022024 0.672942 1.991000 255 0 0
-0.016813 0.681393 2.016000 255 0 0
-0.174017 0.648271 1.934000 255 0 0
-0.169106 0.649622 1.938000 255 0 0
-0.163496 0.648292 1.934000 255 0 0
-0.158072 0.647631 1.932000 255 0 0
-0.152579 0.646636 1.929000 255 0 0
-0.147331 0.646645 1.929000 255 0 0
-0.141936 0.645984 1.927000 255 0 0
-0.136623 0.645658 1.926000 255 0 0
-0.131178 0.644661 1.923000 255 0 0
-0.125815 0.643999 1.921000 255 0 0
-0.120337 0.642666 1.917000 255 0 0
-0.114821 0.640997 1.912000 255 0 0
-0.109503 0.640334 1.910000 255 0 0
-0.104470 0.641347 1.913000 255 0 0
-0.099575 0.643365 1.919000 255 0 0
-0.094500 0.644378 1.922000 255 0 0
-0.089270 0.644384 1.922000 255 0 0
-0.083995 0.644054 1.921000 255 0 0
-0.078767 0.644060 1.921000 255 0 0
-0.073615 0.644736 1.923000 255 0 0
-0.068453 0.645411 1.925000 255 0 0
-0.063345 0.646757 1.929000 255 0 0
-0.058124 0.647096 1.930000 255 0 0
-0.052926 0.647770 1.932000 255 0 0
-0.047717 0.648444 1.934000 255 0 0
-0.042518 0.649453 1.937000 255 0 0
-0.037226 0.649121 1.936000 255 0 0
-0.022092 0.669580 1.997000 255 0 0
-0.169378 0.645386 1.941000 255 0 0
-0.163676 0.643734 1.936000 255 0 0
-0.158082 0.642415 1.932000 255 0 0
-0.152510 0.641094 1.928000 255 0 0
-0.147417 0.641769 1.930000 255 0 0
-0.142093 0.641446 1.929000 255 0 0
-0.136773 0.641123 1.928000 255 0 0
-0.131323 0.640134 1.925000 255 0 0
-0.126020 0.639810 1.924000 255 0 0
-0.120408 0.637823 1.918000 255 0 0
-0.114948 0.636501 1.914000 255 0 0
-0.109682 0.636176 1.913000 255 0 0
-0.104695 0.637513 1.917000 255 0 0
-0.099737 0.639183 1.922000 255 0 0
-0.094556 0.639522 1.923000 255 0 0
-0.089369 0.639861 1.924000 255 0 0
-0.084220 0.640532 1.926000 255 0 0
-0.078977 0.640537 1.926000 255 0 0
-0.073774 0.640875 1.927000 255 0 0
-0.068493 0.640548 1.926000 255 0 0
-0.063316 0.641217 1.928000 255 0 0
-0.058098 0.641554 1.929000 255 0 0
-0.052930 0.642556 1.932000 255 0 0
-0.047695 0.642892 1.933000 255 0 0
-0.042455 0.643228 1.934000 255 0 0
-0.022137 0.665520 2.001000 255 0 0
-0.169738 0.641464 1.945000 255 0 0
-0.163771 0.638836 1.937000 255 0 0
-0.158256 0.637857 1.934000 255 0 0
-0.152599 0.636218 1.929000 255 0 0
-0.147427 0.636558 1.930000 255 0 0
-0.142249 0.636898 1.931000 255 0 0
-0.136995 0.636907 1.931000 255 0 0
-0.131536 0.635926 1.928000 255 0 0
-0.126159 0.635275 1.926000 255 0 0
-0.120541 0.633305 1.920000 255 0 0
-0.114956 0.631333 1.914000 255 0 0
-0.109690 0.631011 1.913000 255 0 0
-0.104702 0.632338 1.917000 255 0 0
-0.099848 0.634654 1.924000 255 0 0
-0.094661 0.634991 1.925000 255 0 0
-0.089468 0.635327 1.926000 255 0 0
-0.084269 0.635663 1.927000 255 0 0
-0.079065 0.635998 1.928000 255 0 0
-0.073779 0.635674 1.927000 255 0 0
-0.068533 0.635679 1.927000 255 0 0
-0.063321 0.636013 1.928000 255 0 0
-0.058163 0.637007 1.931000 255 0 0
-0.053015 0.638331 1.935000 255 0 0
-0.047797 0.638994 1.937000 255 0 0
-0.042480 0.638337 1.935000 255 0 0
-0.022238 0.663088 2.010000 255 0 0
-0.169662 0.635884 1.944000 255 0 0
-0.164204 0.635241 1.942000 255 0 0
-0.158512 0.633616 1.937000 255 0 0
-0.152846 0.631991 1.932000 255 0 0
-0.147666 0.632328 1.933000 255 0 0
-0.142333 0.632011 1.932000 255 0 0
-0.137076 0.632020 1.932000 255 0 0
-0.131614 0.631048 1.929000 255 0 0
-0.126299 0.630730 1.928000 255 0 0
-0.120675 0.628775 1.922000 255 0 0
-0.114964 0.626166 1.914000 255 0 0
-0.109697 0.625847 1.913000 255 0 0
-0.104655 0.626836 1.916000 255 0 0
-0.099855 0.629460 1.924000 255 0 0
-0.094766 0.630448 1.927000 255 0 0
-0.089567 0.630782 1.928000 255 0 0
-0.084362 0.631115 1.929000 255 0 0
-0.079153 0.631448 1.930000 255 0 0
-0.073822 0.630799 1.928000 255 0 0
-0.068609 0.631131 1.929000 255 0 0
-0.063325 0.630809 1.928000 255 0 0
-0.058257 0.632776 1.934000 255 0 0
-0.053101 0.634089 1.938000 255 0 0
-0.047924 0.635401 1.942000 255 0 0
-0.042527 0.633769 1.937000 255 0 0
-0.169673 0.630635 1.944000 255 0 0
-0.164300 0.630321 1.943000 255 0 0
-0.158931 0.630008 1.942000 255 0 0
-0.153252 0.628396 1.937000 255 0 0
-0.147905 0.628082 1.936000 255 0 0
-0.142490 0.627443 1.934000 255 0 0
-0.137227 0.627453 1.934000 255 0 0
-0.131759 0.626489 1.931000 255 0 0
-0.126373 0.625849 1.929000 255 0 0
-0.120683 0.623586 1.922000 255 0 0
-0.115092 0.621648 1.916000 255 0 0
-0.109762 0.621007 1.914000 255 0 0
-0.104662 0.621663 1.916000 255 0 0
-0.099862 0.624266 1.924000 255 0 0
-0.094920 0.626220 1.930000 255 0 0
-0.089713 0.626551 1.931000 255 0 0
-0.084412 0.626232 1.930000 255 0 0
-0.079199 0.626563 1.931000 255 0 0
-0.073904 0.626244 1.930000 255 0 0
-0.068721 0.626898 1.932000 255 0 0
-0.063461 0.626903 1.932000 255 0 0
-0.058382 0.628854 1.938000 255 0 0
-0.053187 0.629831 1.941000 255 0 0
-0.048076 0.632106 1.948000 255 0 0
-0.042618 0.629838 1.941000 255 0 0
-0.164818 0.627005 1.949000 255 0 0
-0.159351 0.626372 1.947000 255 0 0
-0.153737 0.625096 1.943000 255 0 0
-0.148221 0.624141 1.940000 255 0 0
-0.142720 0.623186 1.937000 255 0 0
-0.137378 0.622874 1.936000 255 0 0
-0.131905 0.621918 1.933000 255 0 0
-0.126382 0.620640 1.929000 255 0 0
-0.120629 0.618075 1.921000 255 0 0
-0.114980 0.615831 1.914000 255 0 0
-0.109713 0.615517 1.913000 255 0 0
-0.104615 0.616169 1.915000 255 0 0
-0.099817 0.618750 1.923000 255 0 0
-0.094976 0.621331 1.931000 255 0 0
-0.089858 0.622303 1.934000 255 0 0
-0.084637 0.622631 1.935000 255 0 0
-0.079369 0.622637 1.935000 255 0 0
-0.074101 0.622643 1.935000 255 0 0
-0.068904 0.623291 1.937000 255 0 0
-0.063597 0.622974 1.936000 255 0 0
-0.058537 0.625231 1.943000 255 0 0
-0.053356 0.626523 1.947000 255 0 0
-0.048252 0.629101 1.955000 255 0 0
-0.042753 0.626530 1.947000 255 0 0
-0.165083 0.622698 1.952000 255 0 0
-0.159772 0.622710 1.952000 255 0 0
-0.154143 0.621444 1.948000 255 0 0
-0.148537 0.620179 1.944000 255 0 0
-0.142952 0.618913 1.940000 255 0 0
-0.137530 0.618285 1.938000 255 0 0
-0.132119 0.617656 1.936000 255 0 0
-0.126587 0.616389 1.932000 255 0 0
-0.120763 0.613527 1.923000 255 0 0
-0.115108 0.611302 1.916000 255 0 0
-0.109835 0.610991 1.915000 255 0 0
-0.104786 0.611956 1.918000 255 0 0
-0.099928 0.614196 1.925000 255 0 0
-0.095081 0.616756 1.933000 255 0 0
-0.090004 0.618039 1.937000 255 0 0
-0.084774 0.618364 1.938000 255 0 0
-0.079498 0.618370 1.938000 255 0 0
-0.074298 0.619014 1.940000 255 0 0
-0.069051 0.619339 1.941000 255 0 0
-0.063832 0.619982 1.943000 255 0 0
-0.058661 0.621262 1.947000 255 0 0
-0.053469 0.622543 1.951000 255 0 0
-0.048305 0.624461 1.957000 255 0 0
-0.164672 0.615845 1.947000 255 0 0
-0.159946 0.618071 1.954000 255 0 0
-0.154392 0.617133 1.951000 255 0 0
-0.148776 0.615878 1.947000 255 0 0
-0.143256 0.614939 1.944000 255 0 0
-0.137752 0.614000 1.941000 255 0 0
-0.132265 0.613061 1.938000 255 0 0
-0.126793 0.612121 1.935000 255 0 0
-0.121212 0.610548 1.930000 255 0 0
-0.115657 0.608975 1.925000 255 0 0
-0.110302 0.608351 1.923000 255 0 0
-0.105176 0.608991 1.925000 255 0 0
-0.100143 0.610264 1.929000 255 0 0
-0.095137 0.611853 1.934000 255 0 0
-0.089964 0.612493 1.936000 255 0 0
-0.084824 0.613449 1.939000 255 0 0
-0.079586 0.613771 1.940000 255 0 0
-0.074380 0.614409 1.942000 255 0 0
-0.069163 0.615047 1.944000 255 0 0
-0.063935 0.615685 1.946000 255 0 0
-0.058786 0.617272 1.951000 255 0 0
-0.053583 0.618541 1.955000 255 0 0
-0.048284 0.618862 1.956000 255 0 0
-0.160040 0.613107 1.955000 255 0 0
-0.154719 0.613118 1.955000 255 0 0
-0.149093 0.611875 1.951000 255 0 0
-0.143488 0.610631 1.947000 255 0 0
-0.137975 0.609700 1.944000 255 0 0
-0.132411 0.608455 1.940000 255 0 0
-0.126999 0.607837 1.938000 255 0 0
-0.121534 0.606905 1.935000 255 0 0
-0.116146 0.606287 1.933000 255 0 0
-0.110827 0.605981 1.932000 255 0 0
-0.105621 0.606303 1.933000 255 0 0
-0.100410 0.606624 1.934000 255 0 0
-0.095292 0.607572 1.937000 255 0 0
-0.090110 0.608207 1.939000 255 0 0
-0.084918 0.608841 1.941000 255 0 0
-0.079715 0.609474 1.943000 255 0 0
-0.074424 0.609480 1.943000 255 0 0
-0.069239 0.610426 1.946000 255 0 0
-0.064071 0.611686 1.950000 255 0 0
-0.058881 0.612945 1.954000 255 0 0
-0.053669 0.614204 1.958000 255 0 0
-0.048287 0.613581 1.956000 255 0 0
-0.160296 0.608760 1.958000 255 0 0
-0.155126 0.609393 1.960000 255 0 0
-0.149485 0.608160 1.956000 255 0 0
-0.143867 0.606927 1.952000 255 0 0
-0.138056 0.604761 1.945000 255 0 0
-0.132489 0.603527 1.941000 255 0 0
-0.127073 0.602915 1.939000 255 0 0
-0.121669 0.602302 1.937000 255 0 0
-0.116275 0.601689 1.935000 255 0 0
-0.111007 0.601697 1.935000 255 0 0
-0.105793 0.602016 1.936000 255 0 0
-0.100625 0.602646 1.938000 255 0 0
-0.095397 0.602964 1.939000 255 0 0
-0.090210 0.603593 1.941000 255 0 0
-0.084968 0.603911 1.942000 255 0 0
-0.079844 0.605161 1.946000 255 0 0
-0.074544 0.605166 1.946000 255 0 0
-0.069387 0.606416 1.950000 255 0 0
-0.064207 0.607665 1.954000 255 0 0
-0.059036 0.609225 1.959000 255 0 0
-0.053838 0.610784 1.964000 255 0 0
-0.048439 0.610166 1.962000 255 0 0
-0.160308 0.603471 1.958000 255 0 0
-0.155533 0.605640 1.965000 255 0 0
-0.149955 0.604726 1.962000 255 0 0
-0.144319 0.603504 1.958000 255 0 0
-0.138350 0.600741 1.949000 255 0 0
-0.132840 0.599826 1.946000 255 0 0
-0.127214 0.598294 1.941000 255 0 0
-0.121741 0.597379 1.938000 255 0 0
-0.116224 0.596155 1.934000 255 0 0
-0.111015 0.596472 1.935000 255 0 0
-0.105746 0.596480 1.935000 255 0 0
-0.100685 0.597721 1.939000 255 0 0
-0.095503 0.598345 1.941000 255 0 0
-0.090449 0.599893 1.946000 255 0 0
-0.085193 0.600208 1.947000 255 0 0
-0.080055 0.601447 1.951000 255 0 0
-0.074780 0.601762 1.952000 255 0 0
-0.069534 0.602384 1.954000 255 0 0
-0.064344 0.603622 1.958000 255 0 0
-0.059161 0.605168 1.963000 255 0 0
-0.054061 0.607947 1.972000 255 0 0
-0.048640 0.607334 1.970000 255 0 0
-0.160811 0.600015 1.964000 255 0 0
-0.155940 0.601860 1.970000 255 0 0
-0.150195 0.600344 1.965000 255 0 0
-0.144551 0.599132 1.961000 255 0 0
-0.138715 0.597004 1.954000 255 0 0
-0.133054 0.595487 1.949000 255 0 0
-0.127486 0.594274 1.945000 255 0 0
-0.122064 0.593673 1.943000 255 0 0
-0.116593 0.592765 1.940000 255 0 0
-0.111368 0.593079 1.941000 255 0 0
-0.106027 0.592782 1.940000 255 0 0
-0.100952 0.594012 1.944000 255 0 0
-0.095805 0.594936 1.947000 255 0 0
-0.090735 0.596471 1.952000 255 0 0
-0.085419 0.596478 1.952000 255 0 0
-0.080225 0.597401 1.955000 255 0 0
-0.074939 0.597713 1.956000 255 0 0
-0.069718 0.598635 1.959000 255 0 0
-0.064546 0.600168 1.964000 255 0 0
-0.059407 0.602312 1.971000 255 0 0
-0.054257 0.604761 1.979000 255 0 0
-0.048940 0.605682 1.982000 255 0 0
-0.043959 0.611492 2.001000 255 0 0
-0.167607 0.599846 1.981000 255 0 0
-0.162133 0.599555 1.980000 255 0 0
-0.156822 0.599869 1.981000 255 0 0
-0.150818 0.597458 1.973000 255 0 0
-0.145078 0.595955 1.968000 255 0 0
-0.139152 0.593543 1.960000 255 0 0
-0.133610 0.592645 1.957000 255 0 0
-0.128020 0.591444 1.953000 255 0 0
-0.122639 0.591150 1.952000 255 0 0
-0.117203 0.590554 1.950000 255 0 0
-0.111778 0.589957 1.948000 255 0 0
-0.106363 0.589359 1.946000 255 0 0
-0.101167 0.589973 1.948000 255 0 0
-0.096059 0.591192 1.952000 255 0 0
-0.090882 0.592108 1.955000 255 0 0
-0.085688 0.593023 1.958000 255 0 0
-0.080396 0.593333 1.959000 255 0 0
-0.075174 0.594247 1.962000 255 0 0
-0.069865 0.594556 1.963000 255 0 0
-0.064781 0.596984 1.971000 255 0 0
-0.059623 0.599109 1.978000 255 0 0
-0.054508 0.602143 1.988000 255 0 0
-0.049364 0.605478 1.999000 255 0 0
-0.044775 0.617295 2.038000 255 0 0
-0.172189 0.610699 2.035000 255 0 0
-0.164520 0.602909 2.009000 255 0 0
-0.158259 0.599920 1.999000 255 0 0
-0.151823 0.596030 1.986000 255 0 0
-0.145678 0.593040 1.976000 255 0 0
-0.139730 0.590650 1.968000 255 0 0
-0.133894 0.588559 1.961000 255 0 0
-0.128423 0.587969 1.959000 255 0 0
-0.122962 0.587378 1.957000 255 0 0
-0.117573 0.587087 1.956000 255 0 0
-0.112073 0.586196 1.953000 255 0 0
-0.106754 0.586204 1.953000 255 0 0
-0.101695 0.587713 1.958000 255 0 0
-0.096509 0.588621 1.961000 255 0 0
-0.091168 0.588628 1.961000 255 0 0
-0.085913 0.589236 1.963000 255 0 0
-0.080648 0.589843 1.965000 255 0 0
-0.075448 0.591049 1.969000 255 0 0
-0.070191 0.591956 1.972000 255 0 0
-0.065148 0.594963 1.982000 255 0 0
-0.059989 0.597369 1.990000 255 0 0
-0.054869 0.600676 2.001000 255 0 0
-0.049985 0.607584 2.024000 255 0 0
-0.045284 0.618695 2.061000 255 0 0
-0.040034 0.624402 2.080000 255 0 0
-0.174148 0.612041 2.058000 255 0 0
-0.167317 0.607593 2.043000 255 0 0
-0.160488 0.602847 2.027000 255 0 0
-0.153363 0.596613 2.006000 255 0 0
-0.146648 0.591568 1.989000 255 0 0
-0.140309 0.587713 1.976000 255 0 0
-0.134245 0.584749 1.966000 255 0 0
-0.128760 0.584164 1.964000 255 0 0
-0.123223 0.583281 1.961000 255 0 0
-0.117702 0.582398 1.958000 255 0 0
-0.112139 0.581217 1.954000 255 0 0
-0.106872 0.581523 1.955000 255 0 0
-0.101754 0.582721 1.959000 255 0 0
-0.096566 0.583622 1.962000 255 0 0
-0.091221 0.583629 1.962000 255 0 0
-0.086051 0.584826 1.966000 255 0 0
-0.080778 0.585427 1.968000 255 0 0
-0.075684 0.587516 1.975000 255 0 0
-0.070482 0.589009 1.980000 255 0 0
-0.065514 0.592882 1.993000 255 0 0
-0.060416 0.596159 2.004000 255 0 0
-0.055394 0.600923 2.020000 255 0 0
-0.050681 0.610447 2.052000 255 0 0
-0.045661 0.618186 2.078000 255 0 0
-0.040114 0.619974 2.084000 255 0 0
-0.034419 0.619680 2.083000 255 0 0
-0.180724 0.609709 2.069000 255 0 0
-0.174245 0.606775 2.059000 255 0 0
-0.168640 0.606788 2.059000 255 0 0
-0.162321 0.604148 2.050000 255 0 0
-0.154828 0.596792 2.025000 255 0 0
-0.147691 0.590320 2.003000 255 0 0
-0.141101 0.585616 1.987000 255 0 0
-0.134665 0.581206 1.972000 255 0 0
-0.128836 0.579153 1.965000 255 0 0
-0.123233 0.577983 1.961000 255 0 0
-0.117771 0.577403 1.959000 255 0 0
-0.112263 0.576528 1.956000 255 0 0
-0.106935 0.576537 1.956000 255 0 0
-0.101814 0.577724 1.960000 255 0 0
-0.096721 0.579205 1.965000 255 0 0
-0.091461 0.579802 1.967000 255 0 0
-0.086321 0.581283 1.972000 255 0 0
-0.081153 0.582764 1.977000 255 0 0
-0.076112 0.585423 1.986000 255 0 0
-0.071021 0.588082 1.995000 255 0 0
-0.066013 0.591919 2.008000 255 0 0
-0.060933 0.595757 2.021000 255 0 0
-0.055893 0.600773 2.038000 255 0 0
-0.051105 0.609915 2.069000 255 0 0
-0.045840 0.614931 2.086000 255 0 0
-0.040233 0.616113 2.090000 255 0 0
-0.034405 0.613758 2.082000 255 0 0
-0.028732 0.613761 2.082000 255 0 0
-0.188352 0.610527 2.091000 255 0 0
-0.179427 0.599738 2.054000 255 0 0
-0.173920 0.600043 2.055000 255 0 0
-0.168980 0.602392 2.063000 255 0 0
-0.163363 0.602405 2.063000 255 0 0
-0.156828 0.598913 2.051000 255 0 0
-0.149325 0.591332 2.025000 255 0 0
-0.142390 0.585503 2.005000 255 0 0
-0.135632 0.579966 1.986000 255 0 0
-0.129436 0.576472 1.974000 255 0 0
-0.123682 0.574729 1.968000 255 0 0
-0.118141 0.573863 1.965000 255 0 0
-0.112444 0.572119 1.959000 255 0 0
-0.107107 0.572128 1.959000 255 0 0
-0.101874 0.572720 1.961000 255 0 0
-0.096876 0.574773 1.968000 255 0 0
-0.091701 0.575948 1.972000 255 0 0
-0.086634 0.578000 1.979000 255 0 0
-0.081653 0.580927 1.989000 255 0 0
-0.076693 0.584439 2.001000 255 0 0
-0.071703 0.588242 2.014000 255 0 0
-0.066577 0.591460 2.025000 255 0 0
-0.061451 0.595262 2.038000 255 0 0
-0.056226 0.598772 2.050000 255 0 0
-0.051232 0.605786 2.074000 255 0 0
-0.045954 0.610756 2.091000 255 0 0
-0.040352 0.612220 2.096000 255 0 0
-0.034491 0.609594 2.087000 255 0 0
-0.028720 0.607844 2.081000 255 0 0
-0.195543 0.609490 2.107000 255 0 0
-0.185844 0.596777 2.063000 255 0 0
-0.178829 0.592162 2.047000 255 0 0
-0.173764 0.593911 2.053000 255 0 0
-0.168829 0.596238 2.061000 255 0 0
-0.163692 0.597987 2.067000 255 0 0
-0.157757 0.596842 2.063000 255 0 0
-0.150812 0.591646 2.045000 255 0 0
-0.144035 0.586739 2.028000 255 0 0
-0.137213 0.581253 2.009000 255 0 0
-0.130757 0.576924 1.994000 255 0 0
-0.124572 0.573462 1.982000 255 0 0
-0.118932 0.572314 1.978000 255 0 0
-0.113256 0.570877 1.973000 255 0 0
-0.107827 0.570596 1.972000 255 0 0
-0.102558 0.571183 1.974000 255 0 0
-0.097573 0.573506 1.982000 255 0 0
-0.092499 0.575539 1.989000 255 0 0
-0.087473 0.578151 1.998000 255 0 0
-0.082521 0.581630 2.010000 255 0 0
-0.077504 0.585109 2.022000 255 0 0
-0.072350 0.588009 2.032000 255 0 0
-0.067076 0.590329 2.040000 255 0 0
-0.061697 0.592071 2.046000 255 0 0
-0.056368 0.594680 2.055000 255 0 0
-0.051138 0.599025 2.070000 255 0 0
-0.045870 0.603949 2.087000 255 0 0
-0.040336 0.606267 2.095000 255 0 0
-0.034560 0.605113 2.091000 255 0 0
-0.028709 0.601932 2.080000 255 0 0
-0.023017 0.601355 2.078000 255 0 0
-0.201485 0.604353 2.109000 255 0 0
-0.193887 0.598637 2.089000 255 0 0
-0.186398 0.592920 2.069000 255 0 0
-0.179018 0.587202 2.049000 255 0 0
-0.173438 0.587216 2.049000 255 0 0
-0.168596 0.589808 2.058000 255 0 0
-0.163784 0.592687 2.068000 255 0 0
-0.158381 0.593559 2.071000 255 0 0
-0.151708 0.589559 2.057000 255 0 0
-0.145324 0.586418 2.046000 255 0 0
-0.138795 0.582416 2.032000 255 0 0
-0.132604 0.579561 2.022000 255 0 0
-0.126279 0.575845 2.009000 255 0 0
-0.120625 0.574995 2.006000 255 0 0
-0.114873 0.573571 2.001000 255 0 0
-0.109312 0.573007 1.999000 255 0 0
-0.103917 0.573302 2.000000 255 0 0
-0.098812 0.575316 2.007000 255 0 0
-0.093762 0.577904 2.016000 255 0 0
-0.088487 0.579345 2.021000 255 0 0
-0.083431 0.582505 2.032000 255 0 0
-0.078124 0.584232 2.038000 255 0 0
-0.072748 0.585671 2.043000 255 0 0
-0.067278 0.586537 2.046000 255 0 0
-0.061853 0.587976 2.051000 255 0 0
-0.056510 0.590560 2.060000 255 0 0
-0.051191 0.594005 2.072000 255 0 0
-0.045852 0.598023 2.086000 255 0 0
-0.040281 0.599746 2.092000 255 0 0
-0.034530 0.598889 2.089000 255 0 0
-0.028670 0.595451 2.077000 255 0 0
-0.022931 0.593447 2.070000 255 0 0
-0.017363 0.596029 2.079000 255 0 0
-0.213386 0.599756 2.113000 255 0 0
-0.206455 0.596366 2.101000 255 0 0
-0.200449 0.595530 2.098000 255 0 0
-0.193716 0.592422 2.087000 255 0 0
-0.187223 0.589882 2.078000 255 0 0
-0.179730 0.583935 2.057000 255 0 0
-0.173452 0.581677 2.049000 255 0 0
-0.168527 0.583962 2.057000 255 0 0
-0.163717 0.586813 2.067000 255 0 0
-0.158623 0.588813 2.074000 255 0 0
-0.152015 0.585135 2.061000 255 0 0
-0.145762 0.582591 2.052000 255 0 0
-0.139557 0.580047 2.043000 255 0 0
-0.133729 0.578922 2.039000 255 0 0
-0.127734 0.576945 2.032000 255 0 0
-0.122198 0.576955 2.032000 255 0 0
-0.116490 0.576113 2.029000 255 0 0
-0.110852 0.575554 2.027000 255 0 0
-0.105276 0.575279 2.026000 255 0 0
-0.099953 0.576423 2.030000 255 0 0
-0.094653 0.577851 2.035000 255 0 0
-0.089195 0.578426 2.037000 255 0 0
-0.083767 0.579285 2.040000 255 0 0
-0.078283 0.579860 2.042000 255 0 0
-0.072825 0.580718 2.045000 255 0 0
-0.067350 0.581575 2.048000 255 0 0
-0.061918 0.583000 2.053000 255 0 0
-0.056597 0.585845 2.063000 255 0 0
-0.051245 0.588973 2.074000 255 0 0
-0.045811 0.591817 2.084000 255 0 0
-0.040188 0.592673 2.087000 255 0 0
-0.034400 0.590972 2.081000 255 0 0
-0.028534 0.586999 2.067000 255 0 0
-0.022811 0.584729 2.059000 255 0 0
-0.017256 0.586718 2.066000 255 0 0
-0.011754 0.593251 2.089000 255 0 0
-0.006105 0.597796 2.105000 255 0 0
-0.224160 0.592043 2.106000 255 0 0
-0.217598 0.589811 2.098000 255 0 0
-0.211787 0.589546 2.097000 255 0 0
-0.205685 0.588437 2.093000 255 0 0
-0.199891 0.588171 2.092000 255 0 0
-0.193638 0.586499 2.086000 255 0 0
-0.187508 0.585108 2.081000 255 0 0
-0.180618 0.581186 2.067000 255 0 0
-0.173804 0.577263 2.053000 255 0 0
-0.168540 0.578401 2.057000 255 0 0
-0.163572 0.580664 2.065000 255 0 0
-0.158712 0.583488 2.075000 255 0 0
-0.152396 0.580970 2.066000 255 0 0
-0.146200 0.578732 2.058000 255 0 0
-0.139978 0.576212 2.049000 255 0 0
-0.134134 0.575098 2.045000 255 0 0
-0.128248 0.573703 2.040000 255 0 0
-0.122810 0.574275 2.042000 255 0 0
-0.117188 0.574004 2.041000 255 0 0
-0.111572 0.573732 2.040000 255 0 0
-0.105857 0.572897 2.037000 255 0 0
-0.100404 0.573467 2.039000 255 0 0
-0.094893 0.573757 2.040000 255 0 0
-0.089333 0.573764 2.040000 255 0 0
-0.083897 0.574615 2.043000 255 0 0
-0.078405 0.575184 2.045000 255 0 0
-0.073009 0.576597 2.050000 255 0 0
-0.067487 0.577165 2.052000 255 0 0
-0.062104 0.579139 2.059000 255 0 0
-0.056738 0.581676 2.068000 255 0 0
-0.051373 0.584774 2.079000 255 0 0
-0.045837 0.586466 2.085000 255 0 0
-0.040172 0.586751 2.086000 255 0 0
-0.034320 0.583941 2.076000 255 0 0
-0.028481 0.580287 2.063000 255 0 0
-0.022802 0.578883 2.058000 255 0 0
-0.017249 0.580853 2.065000 255 0 0
-0.011704 0.585074 2.080000 255 0 0
-0.006053 0.587043 2.087000 255 0 0
-0.000364 0.588169 2.091000 255 0 0
0.005344 0.589013 2.094000 255 0 0
-0.234858 0.584366 2.099000 255 0 0
-0.228490 0.582712 2.093000 255 0 0
-0.222474 0.581894 2.090000 255 0 0
-0.216889 0.582189 2.091000 255 0 0
-0.211297 0.582483 2.092000 255 0 0
-0.205406 0.581942 2.090000 255 0 0
-0.199620 0.581679 2.089000 255 0 0
-0.193468 0.580302 2.084000 255 0 0
-0.187613 0.579760 2.082000 255 0 0
-0.181244 0.577546 2.074000 255 0 0
-0.174241 0.573105 2.058000 255 0 0
-0.168472 0.572561 2.056000 255 0 0
-0.163188 0.573688 2.060000 255 0 0
-0.158342 0.576486 2.070000 255 0 0
-0.152629 0.576220 2.069000 255 0 0
-0.146495 0.574282 2.062000 255 0 0
-0.140331 0.572065 2.054000 255 0 0
-0.134472 0.570962 2.050000 255 0 0
-0.128635 0.569859 2.046000 255 0 0
-0.123120 0.570147 2.047000 255 0 0
-0.117370 0.569322 2.044000 255 0 0
-0.111799 0.569331 2.044000 255 0 0
-0.106021 0.568226 2.040000 255 0 0
-0.100510 0.568512 2.041000 255 0 0
-0.094948 0.568521 2.041000 255 0 0
-0.089472 0.569085 2.043000 255 0 0
-0.083986 0.569649 2.045000 255 0 0
-0.078450 0.569935 2.046000 255 0 0
-0.073015 0.571055 2.050000 255 0 0
-0.067525 0.571897 2.053000 255 0 0
-0.062109 0.573573 2.059000 255 0 0
-0.056743 0.576085 2.068000 255 0 0
-0.051328 0.578597 2.077000 255 0 0
-0.045731 0.579437 2.080000 255 0 0
-0.040060 0.579440 2.080000 255 0 0
-0.034191 0.576101 2.068000 255 0 0
-0.028401 0.573039 2.057000 255 0 0
-0.022792 0.573041 2.057000 255 0 0
-0.017251 0.575271 2.065000 255 0 0
-0.011688 0.578615 2.077000 255 0 0
-0.006037 0.579731 2.081000 255 0 0
-0.000363 0.580288 2.083000 255 0 0
0.005322 0.580845 2.085000 255 0 0
0.011012 0.581123 2.086000 255 0 0
0.016755 0.583072 2.093000 255 0 0
0.022526 0.584742 2.099000 255 0 0
-0.253932 0.583046 2.115000 255 0 0
-0.246886 0.580032 2.104000 255 0 0
-0.240244 0.577845 2.096000 255 0 0
-0.233980 0.576484 2.091000 255 0 0
-0.227852 0.575398 2.087000 255 0 0
-0.222171 0.575415 2.087000 255 0 0
-0.216490 0.575431 2.087000 255 0 0
-0.210910 0.575723 2.088000 255 0 0
-0.204930 0.574912 2.085000 255 0 0
-0.198966 0.574100 2.082000 255 0 0
-0.193018 0.573288 2.079000 255 0 0
-0.187177 0.572751 2.077000 255 0 0
-0.181520 0.572766 2.077000 255 0 0
-0.174593 0.568643 2.062000 255 0 0
-0.168403 0.566726 2.055000 255 0 0
-0.162884 0.567015 2.056000 255 0 0
-0.157972 0.569510 2.065000 255 0 0
-0.152715 0.570901 2.070000 255 0 0
-0.146791 0.569810 2.066000 255 0 0
-0.140616 0.567615 2.058000 255 0 0
-0.134746 0.566523 2.054000 255 0 0
-0.128771 0.564879 2.048000 255 0 0
-0.123250 0.565165 2.049000 255 0 0
-0.117552 0.564623 2.047000 255 0 0
-0.111973 0.564632 2.047000 255 0 0
-0.106238 0.563814 2.044000 255 0 0
-0.100666 0.563822 2.044000 255 0 0
-0.095142 0.564106 2.045000 255 0 0
-0.089699 0.564941 2.048000 255 0 0
-0.084198 0.565500 2.050000 255 0 0
-0.078648 0.565782 2.051000 255 0 0
-0.073128 0.566340 2.053000 255 0 0
-0.067596 0.566898 2.055000 255 0 0
-0.062145 0.568283 2.060000 255 0 0
-0.056720 0.570219 2.067000 255 0 0
-0.051258 0.572154 2.074000 255 0 0
-0.045647 0.572710 2.076000 255 0 0
-0.039967 0.572438 2.075000 255 0 0
-0.034095 0.568854 2.062000 255 0 0
-0.028362 0.566650 2.054000 255 0 0
-0.022794 0.567480 2.057000 255 0 0
-0.017269 0.570240 2.067000 255 0 0
-0.011683 0.572724 2.076000 255 0 0
-0.006028 0.573277 2.078000 255 0 0
-0.000362 0.573553 2.079000 255 0 0
0.005307 0.573553 2.079000 255 0 0
0.010965 0.573000 2.077000 255 0 0
0.016669 0.574379 2.082000 255 0 0
0.022378 0.575205 2.085000 255 0 0
0.028103 0.576030 2.088000 255 0 0
0.033813 0.576303 2.089000 255 0 0
-0.264832 0.575923 2.110000 255 0 0
-0.257740 0.572939 2.099000 255 0 0
-0.251549 0.571866 2.095000 255 0 0
-0.245965 0.572157 2.096000 255 0 0
-0.239688 0.570810 2.091000 255 0 0
-0.233773 0.570282 2.089000 255 0 0
-0.227869 0.569754 2.087000 255 0 0
-0.222082 0.569497 2.086000 255 0 0
-0.216195 0.568968 2.084000 255 0 0
-0.210319 0.568438 2.082000 255 0 0
-0.204258 0.567362 2.078000 255 0 0
-0.198312 0.566558 2.075000 255 0 0
-0.192569 0.566301 2.074000 255 0 0
-0.187011 0.566588 2.075000 255 0 0
-0.181447 0.566876 2.076000 255 0 0
-0.174607 0.563067 2.062000 255 0 0
-0.168252 0.560623 2.053000 255 0 0
-0.162501 0.560090 2.051000 255 0 0
-0.157602 0.562560 2.060000 255 0 0
-0.152506 0.564484 2.067000 255 0 0
-0.146874 0.564496 2.067000 255 0 0
-0.140969 0.563415 2.063000 255 0 0
-0.135085 0.562334 2.059000 255 0 0
-0.129222 0.561252 2.055000 255 0 0
-0.123501 0.560716 2.053000 255 0 0
-0.117848 0.560453 2.052000 255 0 0
-0.112037 0.559370 2.048000 255 0 0
-0.106298 0.558560 2.045000 255 0 0
-0.100724 0.558568 2.045000 255 0 0
-0.095335 0.559669 2.049000 255 0 0
-0.089881 0.560496 2.052000 255 0 0
-0.084369 0.561049 2.054000 255 0 0
-0.078731 0.560783 2.053000 255 0 0
-0.073205 0.561336 2.055000 255 0 0
-0.067668 0.561888 2.057000 255 0 0
-0.062150 0.562713 2.060000 255 0 0
-0.056670 0.564083 2.065000 255 0 0
-0.051188 0.565727 2.071000 255 0 0
-0.045607 0.566550 2.074000 255 0 0
-0.039836 0.564915 2.068000 255 0 0
-0.033949 0.560821 2.053000 255 0 0
-0.028281 0.559457 2.048000 255 0 0
-0.022774 0.561372 2.055000 255 0 0
-0.017279 0.564925 2.068000 255 0 0
-0.011679 0.566838 2.075000 255 0 0
-0.006023 0.567112 2.076000 255 0 0
-0.000362 0.566839 2.075000 255 0 0
0.005299 0.567112 2.076000 255 0 0
0.010950 0.566565 2.074000 255 0 0
0.016630 0.567383 2.077000 255 0 0
0.022294 0.567382 2.077000 255 0 0
0.027971 0.567653 2.078000 255 0 0
0.033638 0.567650 2.078000 255 0 0
0.039380 0.568740 2.082000 255 0 0
0.045165 0.570102 2.087000 255 0 0
-0.277510 0.572608 2.119000 255 0 0
-0.269181 0.567223 2.099000 255 0 0
-0.262592 0.565351 2.092000 255 0 0
-0.257022 0.565640 2.093000 255 0 0
-0.250967 0.564848 2.090000 255 0 0
-0.245279 0.564866 2.090000 255 0 0
-0.239247 0.564073 2.087000 255 0 0
-0.233567 0.564091 2.087000 255 0 0
-0.227668 0.563568 2.085000 255 0 0
-0.221779 0.563044 2.083000 255 0 0
-0.215797 0.562250 2.080000 255 0 0
-0.209729 0.561185 2.076000 255 0 0
-0.203782 0.560390 2.073000 255 0 0
-0.197850 0.559595 2.070000 255 0 0
-0.192120 0.559339 2.069000 255 0 0
-0.186665 0.559895 2.071000 255 0 0
-0.181111 0.560180 2.072000 255 0 0
-0.174621 0.557490 2.062000 255 0 0
-0.168102 0.554530 2.051000 255 0 0
-0.162276 0.553732 2.048000 255 0 0
-0.157232 0.555637 2.055000 255 0 0
-0.152149 0.557542 2.062000 255 0 0
-0.146815 0.558636 2.066000 255 0 0
-0.141048 0.558107 2.064000 255 0 0
-0.135227 0.557307 2.061000 255 0 0
-0.129358 0.556236 2.057000 255 0 0
-0.123631 0.555705 2.055000 255 0 0
-0.117973 0.555445 2.054000 255 0 0
-0.112265 0.554913 2.052000 255 0 0
-0.106567 0.554381 2.050000 255 0 0
-0.101028 0.554660 2.051000 255 0 0
-0.095529 0.555209 2.053000 255 0 0
-0.089976 0.555488 2.054000 255 0 0
-0.084417 0.555765 2.055000 255 0 0
-0.078891 0.556313 2.057000 255 0 0
-0.073318 0.556590 2.058000 255 0 0
-0.067805 0.557407 2.061000 255 0 0
-0.062246 0.557953 2.063000 255 0 0
-0.056730 0.559040 2.067000 255 0 0
-0.051192 0.560126 2.071000 255 0 0
-0.045523 0.559860 2.070000 255 0 0
-0.039724 0.557700 2.062000 255 0 0
-0.033852 0.553646 2.047000 255 0 0
-0.028242 0.553108 2.045000 255 0 0
-0.022765 0.555544 2.054000 255 0 0
-0.017280 0.559332 2.068000 255 0 0
-0.011652 0.559875 2.070000 255 0 0
-0.006006 0.559875 2.070000 255 0 0
-0.000360 0.559064 2.067000 255 0 0
0.005282 0.559605 2.069000 255 0 0
0.010925 0.559604 2.069000 255 0 0
0.016591 0.560414 2.072000 255 0 0
0.022253 0.560683 2.073000 255 0 0
0.027893 0.560411 2.072000 255 0 0
0.033527 0.560138 2.071000 255 0 0
0.039194 0.560405 2.072000 255 0 0
0.044909 0.561213 2.075000 255 0 0
0.050690 0.562561 2.080000 255 0 0
0.056606 0.564991 2.089000 255 0 0
-0.290013 0.568707 2.126000 255 0 0
-0.280487 0.561237 2.098000 255 0 0
-0.273732 0.559117 2.090000 255 0 0
-0.267789 0.558601 2.088000 255 0 0
-0.261481 0.557283 2.083000 255 0 0
-0.255936 0.557570 2.084000 255 0 0
-0.250145 0.557321 2.083000 255 0 0
-0.244476 0.557339 2.083000 255 0 0
-0.238692 0.557089 2.082000 255 0 0
-0.233137 0.557375 2.083000 255 0 0
-0.227248 0.556857 2.081000 255 0 0
-0.221370 0.556339 2.079000 255 0 0
-0.215191 0.555018 2.074000 255 0 0
-0.209240 0.554231 2.071000 255 0 0
-0.203208 0.553177 2.067000 255 0 0
-0.197674 0.553460 2.068000 255 0 0
-0.191949 0.553207 2.067000 255 0 0
-0.186499 0.553757 2.069000 255 0 0
-0.180601 0.552969 2.066000 255 0 0
-0.174296 0.550842 2.058000 255 0 0
-0.167869 0.548179 2.048000 255 0 0
-0.162052 0.547389 2.045000 255 0 0
-0.156939 0.549008 2.051000 255 0 0
-0.152014 0.551429 2.060000 255 0 0
-0.146969 0.553583 2.068000 255 0 0
-0.141401 0.553862 2.069000 255 0 0
-0.135500 0.552803 2.065000 255 0 0
-0.129620 0.551743 2.061000 255 0 0
-0.123822 0.550950 2.058000 255 0 0
-0.118097 0.550424 2.056000 255 0 0
-0.112383 0.549899 2.054000 255 0 0
-0.106732 0.549640 2.053000 255 0 0
-0.101184 0.549916 2.054000 255 0 0
-0.095630 0.550192 2.055000 255 0 0
-0.090027 0.550200 2.055000 255 0 0
-0.084465 0.550475 2.056000 255 0 0
-0.078936 0.551017 2.058000 255 0 0
-0.073431 0.551827 2.061000 255 0 0
-0.067909 0.552636 2.064000 255 0 0
-0.062371 0.553445 2.067000 255 0 0
-0.056817 0.554253 2.070000 255 0 0
-0.051196 0.554525 2.071000 255 0 0
-0.045394 0.552655 2.064000 255 0 0
-0.039515 0.549178 2.051000 255 0 0
-0.033723 0.545968 2.039000 255 0 0
-0.028203 0.546773 2.042000 255 0 0
-0.022767 0.549989 2.054000 255 0 0
-0.017273 0.553471 2.067000 255 0 0
-0.011636 0.553473 2.067000 255 0 0
-0.005989 0.552670 2.064000 255 0 0
-0.000359 0.551867 2.061000 255 0 0
0.005270 0.552670 2.064000 255 0 0
0.010910 0.553205 2.066000 255 0 0
0.016561 0.553739 2.068000 255 0 0
0.022201 0.553738 2.068000 255 0 0
0.027814 0.553200 2.066000 255 0 0
0.033449 0.553197 2.066000 255 0 0
0.039103 0.553462 2.067000 255 0 0
0.044762 0.553726 2.068000 255 0 0
0.050426 0.553990 2.069000 255 0 0
0.056095 0.554254 2.070000 255 0 0
0.061800 0.554784 2.072000 255 0 0
0.067711 0.556921 2.080000 255 0 0
-0.293589 0.558697 2.110000 255 0 0
-0.285804 0.554746 2.095000 255 0 0
-0.279303 0.553177 2.089000 255 0 0
-0.272835 0.551608 2.083000 255 0 0
-0.267039 0.551363 2.082000 255 0 0
-0.260872 0.550323 2.078000 255 0 0
-0.255341 0.550607 2.079000 255 0 0
-0.249683 0.550625 2.079000 255 0 0
-0.244025 0.550644 2.079000 255 0 0
-0.238137 0.550132 2.077000 255 0 0
-0.232707 0.550680 2.079000 255 0 0
-0.227047 0.550697 2.079000 255 0 0
-0.221280 0.550449 2.078000 255 0 0
-0.214896 0.548612 2.071000 255 0 0
-0.208953 0.547833 2.068000 255 0 0
-0.203125 0.547319 2.066000 255 0 0
-0.197498 0.547335 2.066000 255 0 0
-0.191500 0.546291 2.062000 255 0 0
-0.185793 0.546041 2.061000 255 0 0
-0.180004 0.545525 2.059000 255 0 0
-0.174055 0.544479 2.055000 255 0 0
-0.167719 0.542108 2.046000 255 0 0
-0.161906 0.541327 2.043000 255 0 0
-0.156722 0.542664 2.048000 255 0 0
-0.151953 0.545592 2.059000 255 0 0
-0.146839 0.547459 2.066000 255 0 0
-0.141345 0.548000 2.068000 255 0 0
-0.135380 0.546687 2.063000 255 0 0
-0.129631 0.546167 2.061000 255 0 0
-0.123892 0.545648 2.059000 255 0 0
-0.118222 0.545393 2.058000 255 0 0
-0.112557 0.545137 2.057000 255 0 0
-0.106897 0.544881 2.056000 255 0 0
-0.101340 0.545155 2.057000 255 0 0
-0.095638 0.544633 2.055000 255 0 0
-0.090123 0.545171 2.057000 255 0 0
-0.084555 0.545443 2.058000 255 0 0
-0.079058 0.546245 2.061000 255 0 0
-0.073473 0.546517 2.062000 255 0 0
-0.067948 0.547318 2.065000 255 0 0
-0.062377 0.547853 2.067000 255 0 0
-0.056822 0.548653 2.070000 255 0 0
-0.051077 0.547598 2.066000 255 0 0
-0.045200 0.544686 2.055000 255 0 0
-0.039326 0.540979 2.041000 255 0 0
-0.033643 0.539127 2.034000 255 0 0
-0.028178 0.540720 2.040000 255 0 0
-0.022746 0.543903 2.052000 255 0 0
-0.017233 0.546555 2.062000 255 0 0
-0.011603 0.546291 2.061000 255 0 0
-0.005975 0.545762 2.059000 255 0 0
-0.000359 0.545497 2.058000 255 0 0
0.005263 0.546292 2.061000 255 0 0
0.010895 0.546821 2.063000 255 0 0
0.016546 0.547615 2.066000 255 0 0
0.022203 0.548144 2.068000 255 0 0
0.027830 0.547877 2.067000 255 0 0
0.033436 0.547344 2.065000 255 0 0
0.039030 0.546811 2.063000 255 0 0
0.044657 0.546807 2.063000 255 0 0
0.050284 0.546803 2.063000 255 0 0
0.055938 0.547064 2.064000 255 0 0
0.061626 0.547589 2.066000 255 0 0
0.067359 0.548379 2.069000 255 0 0
0.073283 0.550493 2.077000 255 0 0
-0.116169 0.637791 2.055075 0 255 0
-0.110526 0.639645 2.063343 0 255 0
-0.109294 0.641939 2.074933 0 255 0
-0.108950 0.644318 2.087169 0 255 0
-0.104188 0.646266 2.096099 0 255 0
-0.092342 0.647536 2.099797 0 255 0
-0.089342 0.649665 2.110064 0 255 0
-0.298072 0.550607 2.101000 255 0 0
-0.291244 0.548531 2.093000 255 0 0
-0.284597 0.546717 2.086000 255 0 0
-0.278254 0.545427 2.081000 255 0 0
-0.272199 0.544661 2.078000 255 0 0
-0.266418 0.544418 2.077000 255 0 0
-0.260389 0.543651 2.074000 255 0 0
-0.254746 0.543670 2.074000 255 0 0
-0.249221 0.543951 2.075000 255 0 0
-0.243574 0.543969 2.075000 255 0 0
-0.237925 0.543987 2.075000 255 0 0
-0.232389 0.544267 2.076000 255 0 0
-0.226846 0.544547 2.077000 255 0 0
-0.221084 0.544302 2.076000 255 0 0
-0.214913 0.543008 2.071000 255 0 0
-0.208970 0.542238 2.068000 255 0 0
-0.202944 0.541205 2.064000 255 0 0
-0.197227 0.540958 2.063000 255 0 0
-0.191143 0.539662 2.058000 255 0 0
-0.185447 0.539415 2.057000 255 0 0
-0.179668 0.538905 2.055000 255 0 0
-0.173815 0.538132 2.052000 255 0 0
-0.167568 0.536048 2.044000 255 0 0
-0.161761 0.535275 2.041000 255 0 0
-0.156428 0.536074 2.044000 255 0 0
-0.151596 0.538709 2.054000 255 0 0
-0.146637 0.541082 2.063000 255 0 0
-0.141356 0.542405 2.068000 255 0 0
-0.135588 0.541892 2.066000 255 0 0
-0.129767 0.541116 2.063000 255 0 0
-0.123963 0.540339 2.060000 255 0 0
-0.118289 0.540087 2.059000 255 0 0
-0.112621 0.539834 2.058000 255 0 0
-0.107009 0.539843 2.058000 255 0 0
-0.101349 0.539590 2.057000 255 0 0
-0.095693 0.539336 2.056000 255 0 0
-0.090174 0.539868 2.058000 255 0 0
-0.084644 0.540400 2.060000 255 0 0
-0.079103 0.540932 2.062000 255 0 0
-0.073479 0.540938 2.062000 255 0 0
-0.067921 0.541469 2.064000 255 0 0
-0.062322 0.541736 2.065000 255 0 0
-0.056717 0.542004 2.066000 255 0 0
-0.050933 0.540434 2.060000 255 0 0
-0.045050 0.537290 2.048000 255 0 0
-0.039233 0.534145 2.036000 255 0 0
-0.033596 0.532837 2.031000 255 0 0
-0.028153 0.534676 2.038000 255 0 0
-0.022726 0.537826 2.050000 255 0 0
-0.017193 0.539665 2.057000 255 0 0
-0.011581 0.539666 2.057000 255 0 0
-0.005970 0.539667 2.057000 255 0 0
-0.000359 0.539667 2.057000 255 0 0
0.005260 0.540454 2.060000 255 0 0
0.010896 0.541240 2.063000 255 0 0
0.016540 0.541764 2.065000 255 0 0
0.022183 0.542024 2.066000 255 0 0
0.027792 0.541497 2.064000 255 0 0
0.033422 0.541495 2.064000 255 0 0
0.039053 0.541492 2.064000 255 0 0
0.044639 0.540964 2.062000 255 0 0
0.050239 0.540697 2.061000 255 0 0
0.055807 0.540168 2.059000 255 0 0
0.061512 0.540950 2.062000 255 0 0
0.067169 0.541207 2.063000 255 0 0
0.072831 0.541463 2.064000 255 0 0
0.078650 0.542769 2.069000 255 0 0
0.084537 0.544336 2.075000 255 0 0
-0.117421 0.627421 2.057222 0 255 0
-0.110898 0.629179 2.064828 0 255 0
-0.117606 0.632285 2.082375 0 255 0
-0.124331 0.635381 2.099861 0 255 0
-0.121350 0.637494 2.110065 0 255 0
-0.111292 0.638906 2.115032 0 255 0
-0.095024 0.639716 2.115477 0 255 0
-0.303228 0.543862 2.097000 255 0 0
-0.296248 0.541549 2.088000 255 0 0
-0.290013 0.540532 2.084000 255 0 0
-0.283662 0.539256 2.079000 255 0 0
-0.277472 0.538238 2.075000 255 0 0
-0.271564 0.537739 2.073000 255 0 0
-0.266052 0.538019 2.074000 255 0 0
-0.260534 0.538297 2.075000 255 0 0
-0.254764 0.538057 2.074000 255 0 0
-0.249000 0.537816 2.073000 255 0 0
-0.243357 0.537835 2.073000 255 0 0
-0.237714 0.537853 2.073000 255 0 0
-0.232294 0.538390 2.075000 255 0 0
-0.226645 0.538407 2.075000 255 0 0
-0.220995 0.538424 2.075000 255 0 0
-0.214929 0.537403 2.071000 255 0 0
-0.209087 0.536901 2.069000 255 0 0
-0.203058 0.535879 2.065000 255 0 0
-0.197051 0.534856 2.061000 255 0 0
-0.191065 0.533834 2.057000 255 0 0
-0.185371 0.533589 2.056000 255 0 0
-0.179682 0.533344 2.055000 255 0 0
-0.173744 0.532320 2.051000 255 0 0
-0.167582 0.530517 2.044000 255 0 0
-0.161615 0.529232 2.039000 255 0 0
-0.156211 0.529764 2.041000 255 0 0
-0.151091 0.531334 2.047000 255 0 0
-0.146152 0.533682 2.056000 255 0 0
-0.141026 0.535511 2.063000 255 0 0
-0.135468 0.535782 2.064000 255 0 0
-0.129715 0.535274 2.062000 255 0 0
-0.123973 0.534765 2.060000 255 0 0
-0.118414 0.535035 2.061000 255 0 0
-0.112740 0.534785 2.060000 255 0 0
-0.107122 0.534794 2.060000 255 0 0
-0.101406 0.534283 2.058000 255 0 0
-0.095747 0.534032 2.057000 255 0 0
-0.090181 0.534299 2.058000 255 0 0
-0.084651 0.534826 2.060000 255 0 0
-0.079109 0.535352 2.062000 255 0 0
-0.073485 0.535358 2.062000 255 0 0
-0.067861 0.535364 2.062000 255 0 0
-0.062267 0.535630 2.063000 255 0 0
-0.056529 0.534596 2.059000 255 0 0
-0.050740 0.532783 2.052000 255 0 0
-0.044900 0.529931 2.041000 255 0 0
-0.039159 0.527598 2.032000 255 0 0
-0.033582 0.527082 2.030000 255 0 0
-0.028127 0.528642 2.036000 255 0 0
-0.022695 0.531501 2.047000 255 0 0
-0.017152 0.532800 2.052000 255 0 0
-0.011565 0.533321 2.054000 255 0 0
-0.005965 0.533581 2.055000 255 0 0
-0.000359 0.534101 2.057000 255 0 0
0.005261 0.534880 2.060000 255 0 0
0.010891 0.535398 2.062000 255 0 0
0.016533 0.535916 2.064000 255 0 0
0.022153 0.535655 2.063000 255 0 0
0.027781 0.535653 2.063000 255 0 0
0.033425 0.535910 2.064000 255 0 0
0.039056 0.535907 2.064000 255 0 0
0.044621 0.535124 2.061000 255 0 0
0.050171 0.534342 2.058000 255 0 0
0.055730 0.533818 2.056000 255 0 0
0.061428 0.534592 2.059000 255 0 0
0.067044 0.534586 2.059000 255 0 0
0.072660 0.534580 2.059000 255 0 0
0.078314 0.534834 2.060000 255 0 0
0.083974 0.535086 2.061000 255 0 0
0.089899 0.536896 2.068000 255 0 0
-0.096664 0.614719 2.042717 0 255 0
-0.106866 0.618241 2.062997 0 255 0
-0.124147 0.622485 2.088483 0 255 0
-0.130870 0.625608 2.105947 0 255 0
-0.127893 0.627719 2.116134 0 255 0
-0.110770 0.628385 2.115866 0 255 0
-0.098048 0.629518 2.118929 0 255 0
-0.309247 0.538677 2.099000 255 0 0
-0.301803 0.535619 2.087000 255 0 0
-0.295276 0.534100 2.081000 255 0 0
-0.288920 0.532837 2.076000 255 0 0
