ply
format ascii 1.0
element vertex 1294
property double x
property double y
property double z
property uchar red
property uchar green
property uchar blue
end_header
-0.129688 -0.386701 2.363000 255 0 0
-0.092456 -0.393296 2.403000 255 0 0
-0.086062 -0.394121 2.408000 255 0 0
-0.079509 -0.394290 2.409000 255 0 0
-0.072798 -0.393641 2.405000 255 0 0
-0.066164 -0.393319 2.403000 255 0 0
-0.059342 -0.391687 2.393000 255 0 0
-0.052707 -0.391036 2.389000 255 0 0
-0.046152 -0.390876 2.388000 255 0 0
-0.039586 -0.390552 2.386000 255 0 0
-0.032989 -0.389736 2.381000 255 0 0
-0.026385 -0.388429 2.373000 255 0 0
-0.019868 -0.387939 2.370000 255 0 0
-0.013406 -0.388595 2.374000 255 0 0
-0.006908 -0.388432 2.373000 255 0 0
-0.000416 -0.389087 2.377000 255 0 0
0.006078 -0.388432 2.373000 255 0 0
0.012539 -0.387449 2.367000 255 0 0
0.018935 -0.385811 2.357000 255 0 0
-0.239184 -0.372431 2.240000 255 0 0
-0.232655 -0.371782 2.236000 255 0 0
-0.226755 -0.372131 2.238000 255 0 0
-0.221238 -0.373144 2.244000 255 0 0
-0.215687 -0.374157 2.250000 255 0 0
-0.210382 -0.375668 2.259000 255 0 0
-0.204666 -0.376514 2.264000 255 0 0
-0.198747 -0.377027 2.267000 255 0 0
-0.192810 -0.377540 2.270000 255 0 0
-0.186774 -0.377886 2.272000 255 0 0
-0.180647 -0.378065 2.273000 255 0 0
-0.174514 -0.378244 2.274000 255 0 0
-0.168819 -0.379420 2.281000 255 0 0
-0.163157 -0.380763 2.289000 255 0 0
-0.157381 -0.381939 2.296000 255 0 0
-0.151699 -0.383447 2.305000 255 0 0
-0.146156 -0.385454 2.317000 255 0 0
-0.140607 -0.387627 2.330000 255 0 0
-0.134756 -0.389134 2.339000 255 0 0
-0.128417 -0.389310 2.340000 255 0 0
-0.100051 -0.403993 2.428000 255 0 0
-0.093411 -0.404001 2.428000 255 0 0
-0.086413 -0.402343 2.418000 255 0 0
-0.079734 -0.402016 2.416000 255 0 0
-0.072914 -0.400857 2.409000 255 0 0
-0.066379 -0.401195 2.411000 255 0 0
-0.059611 -0.400035 2.404000 255 0 0
-0.053035 -0.400039 2.404000 255 0 0
-0.046439 -0.399876 2.403000 255 0 0
-0.039716 -0.398382 2.394000 255 0 0
-0.033069 -0.397220 2.387000 255 0 0
-0.026439 -0.395724 2.378000 255 0 0
-0.019984 -0.396724 2.384000 255 0 0
-0.013478 -0.397225 2.387000 255 0 0
-0.006951 -0.397392 2.388000 255 0 0
-0.000417 -0.396727 2.384000 255 0 0
0.006093 -0.395894 2.379000 255 0 0
0.012570 -0.394895 2.373000 255 0 0
0.018957 -0.392731 2.360000 255 0 0
-0.239915 -0.379711 2.247000 255 0 0
-0.233888 -0.379896 2.248000 255 0 0
-0.227651 -0.379743 2.247000 255 0 0
-0.222110 -0.380773 2.253000 255 0 0
-0.216631 -0.381971 2.260000 255 0 0
-0.211206 -0.383339 2.268000 255 0 0
-0.205375 -0.384029 2.272000 255 0 0
-0.199259 -0.384213 2.273000 255 0 0
-0.193306 -0.384734 2.276000 255 0 0
-0.187336 -0.385254 2.279000 255 0 0
-0.181270 -0.385606 2.281000 255 0 0
-0.175269 -0.386126 2.284000 255 0 0
-0.169251 -0.386645 2.287000 255 0 0
-0.163715 -0.388348 2.297000 255 0 0
-0.157781 -0.389205 2.302000 255 0 0
-0.152083 -0.390738 2.311000 255 0 0
-0.146271 -0.392101 2.319000 255 0 0
-0.140778 -0.394479 2.333000 255 0 0
-0.135035 -0.396349 2.344000 255 0 0
-0.129176 -0.398049 2.354000 255 0 0
-0.100538 -0.412634 2.440000 255 0 0
-0.093481 -0.410950 2.430000 255 0 0
-0.086586 -0.409773 2.423000 255 0 0
-0.079893 -0.409441 2.421000 255 0 0
-0.073060 -0.408263 2.414000 255 0 0
-0.066457 -0.408268 2.414000 255 0 0
-0.059780 -0.407765 2.411000 255 0 0
-0.053185 -0.407770 2.411000 255 0 0
-0.046551 -0.407435 2.409000 255 0 0
-0.039846 -0.406254 2.402000 255 0 0
-0.033178 -0.405073 2.395000 255 0 0
-0.026537 -0.403722 2.387000 255 0 0
-0.020016 -0.403893 2.388000 255 0 0
-0.013523 -0.405079 2.395000 255 0 0
-0.006971 -0.405079 2.395000 255 0 0
-0.000418 -0.404572 2.392000 255 0 0
0.006105 -0.403219 2.384000 255 0 0
0.012616 -0.402880 2.382000 255 0 0
0.019084 -0.401864 2.376000 255 0 0
-0.241714 -0.388745 2.264000 255 0 0
-0.235016 -0.387903 2.259000 255 0 0
-0.228750 -0.387748 2.258000 255 0 0
-0.222883 -0.388279 2.261000 255 0 0
-0.216903 -0.388638 2.263000 255 0 0
-0.211191 -0.389511 2.268000 255 0 0
-0.205089 -0.389698 2.269000 255 0 0
-0.199157 -0.390228 2.272000 255 0 0
-0.193462 -0.391272 2.278000 255 0 0
-0.187980 -0.392832 2.287000 255 0 0
-0.181813 -0.393017 2.288000 255 0 0
-0.175717 -0.393373 2.290000 255 0 0
-0.169387 -0.393214 2.289000 255 0 0
-0.163775 -0.394772 2.298000 255 0 0
-0.157907 -0.395815 2.304000 255 0 0
-0.152269 -0.397544 2.314000 255 0 0
-0.146576 -0.399273 2.324000 255 0 0
-0.141069 -0.401689 2.338000 255 0 0
-0.135370 -0.403761 2.350000 255 0 0
-0.129386 -0.405145 2.358000 255 0 0
-0.099995 -0.417044 2.427000 255 0 0
-0.093705 -0.418597 2.436000 255 0 0
-0.086829 -0.417573 2.430000 255 0 0
-0.080184 -0.417579 2.430000 255 0 0
-0.073266 -0.416038 2.421000 255 0 0
-0.066700 -0.416387 2.423000 255 0 0
-0.060172 -0.417080 2.427000 255 0 0
-0.053446 -0.416396 2.423000 255 0 0
-0.046664 -0.415025 2.415000 255 0 0
-0.039909 -0.413482 2.406000 255 0 0
-0.033245 -0.412454 2.400000 255 0 0
-0.026602 -0.411253 2.393000 255 0 0
-0.020048 -0.411083 2.392000 255 0 0
-0.013521 -0.411600 2.395000 255 0 0
-0.006970 -0.411600 2.395000 255 0 0
-0.000419 -0.411772 2.396000 255 0 0
0.006120 -0.410741 2.390000 255 0 0
0.012652 -0.410569 2.389000 255 0 0
0.019244 -0.411770 2.396000 255 0 0
-0.242871 -0.396824 2.275000 255 0 0
-0.235832 -0.395445 2.267000 255 0 0
-0.229443 -0.395113 2.265000 255 0 0
-0.223557 -0.395652 2.268000 255 0 0
-0.217463 -0.395842 2.269000 255 0 0
-0.211455 -0.396206 2.271000 255 0 0
-0.205526 -0.396745 2.274000 255 0 0
-0.199405 -0.396934 2.275000 255 0 0
-0.193788 -0.398169 2.282000 255 0 0
-0.188296 -0.399754 2.291000 255 0 0
-0.182356 -0.400465 2.295000 255 0 0
-0.176395 -0.401176 2.299000 255 0 0
-0.169819 -0.400491 2.295000 255 0 0
-0.164261 -0.402248 2.305000 255 0 0
-0.158375 -0.403307 2.311000 255 0 0
-0.152850 -0.405413 2.323000 255 0 0
-0.147007 -0.406820 2.331000 255 0 0
-0.141361 -0.408925 2.343000 255 0 0
-0.135533 -0.410681 2.353000 255 0 0
-0.129266 -0.411214 2.356000 255 0 0
-0.100359 -0.425221 2.436000 255 0 0
-0.093967 -0.426450 2.443000 255 0 0
-0.087502 -0.427504 2.449000 255 0 0
-0.080640 -0.426638 2.444000 255 0 0
-0.073745 -0.425422 2.437000 255 0 0
-0.066998 -0.424903 2.434000 255 0 0
-0.060316 -0.424734 2.433000 255 0 0
-0.053376 -0.422468 2.420000 255 0 0
-0.046660 -0.421599 2.415000 255 0 0
-0.040022 -0.421254 2.413000 255 0 0
-0.033436 -0.421431 2.414000 255 0 0
-0.026767 -0.420386 2.408000 255 0 0
-0.020113 -0.418991 2.400000 255 0 0
-0.013537 -0.418643 2.398000 255 0 0
-0.006967 -0.417945 2.394000 255 0 0
-0.000418 -0.417946 2.394000 255 0 0
0.006114 -0.416898 2.388000 255 0 0
0.012678 -0.417945 2.394000 255 0 0
0.019459 -0.423006 2.423000 255 0 0
-0.241466 -0.400710 2.262000 255 0 0
-0.235607 -0.401258 2.265000 255 0 0
-0.229528 -0.401452 2.266000 255 0 0
-0.223837 -0.402354 2.271000 255 0 0
-0.217830 -0.402724 2.273000 255 0 0
-0.211440 -0.402385 2.271000 255 0 0
-0.205150 -0.402223 2.270000 255 0 0
-0.198953 -0.402238 2.270000 255 0 0
-0.193349 -0.403492 2.277000 255 0 0
-0.187953 -0.405278 2.287000 255 0 0
-0.182264 -0.406532 2.294000 255 0 0
-0.176382 -0.407432 2.299000 255 0 0
-0.170102 -0.407444 2.299000 255 0 0
-0.164178 -0.408343 2.304000 255 0 0
-0.158295 -0.409418 2.310000 255 0 0
-0.152641 -0.411202 2.320000 255 0 0
-0.146996 -0.413163 2.331000 255 0 0
-0.141109 -0.414592 2.339000 255 0 0
-0.135120 -0.415843 2.346000 255 0 0
-0.128653 -0.415676 2.345000 255 0 0
-0.100433 -0.432205 2.438000 255 0 0
-0.094229 -0.434340 2.450000 255 0 0
-0.087531 -0.434347 2.450000 255 0 0
-0.080667 -0.433467 2.445000 255 0 0
-0.073890 -0.432941 2.442000 255 0 0
-0.067268 -0.433301 2.444000 255 0 0
-0.060460 -0.432419 2.439000 255 0 0
-0.053438 -0.429587 2.423000 255 0 0
-0.046618 -0.427818 2.413000 255 0 0
-0.040019 -0.427821 2.413000 255 0 0
-0.033503 -0.428888 2.419000 255 0 0
-0.026865 -0.428535 2.417000 255 0 0
-0.020204 -0.427473 2.411000 255 0 0
-0.013587 -0.426765 2.407000 255 0 0
-0.006992 -0.426057 2.403000 255 0 0
-0.000420 -0.425703 2.401000 255 0 0
0.006129 -0.424461 2.394000 255 0 0
0.012735 -0.426411 2.405000 255 0 0
0.019273 -0.425523 2.400000 255 0 0
-0.241236 -0.406502 2.260000 255 0 0
-0.235382 -0.407059 2.263000 255 0 0
-0.229309 -0.407256 2.264000 255 0 0
-0.223919 -0.408711 2.272000 255 0 0
-0.217815 -0.408907 2.273000 255 0 0
-0.211518 -0.408743 2.272000 255 0 0
-0.205135 -0.408398 2.270000 255 0 0
-0.198851 -0.408233 2.269000 255 0 0
-0.193590 -0.410226 2.280000 255 0 0
-0.188186 -0.412040 2.290000 255 0 0
-0.182647 -0.413673 2.299000 255 0 0
-0.176522 -0.414046 2.301000 255 0 0
-0.170385 -0.414419 2.303000 255 0 0
-0.164166 -0.414611 2.304000 255 0 0
-0.158146 -0.415343 2.308000 255 0 0
-0.152301 -0.416614 2.315000 255 0 0
-0.146796 -0.418965 2.328000 255 0 0
-0.140857 -0.420236 2.335000 255 0 0
-0.134937 -0.421686 2.343000 255 0 0
-0.128808 -0.422596 2.348000 255 0 0
-0.106695 -0.437211 2.429000 255 0 0
-0.101126 -0.441899 2.455000 255 0 0
-0.094568 -0.442626 2.459000 255 0 0
-0.087738 -0.442093 2.456000 255 0 0
-0.080628 -0.439940 2.444000 255 0 0
-0.073794 -0.439046 2.439000 255 0 0
-0.067180 -0.439411 2.441000 255 0 0
-0.060431 -0.438876 2.438000 255 0 0
-0.053500 -0.436720 2.426000 255 0 0
-0.046711 -0.435284 2.418000 255 0 0
-0.040132 -0.435647 2.420000 255 0 0
-0.033611 -0.436910 2.427000 255 0 0
-0.026929 -0.436192 2.423000 255 0 0
-0.020253 -0.435114 2.417000 255 0 0
-0.013620 -0.434395 2.413000 255 0 0
-0.007009 -0.433676 2.409000 255 0 0
-0.000420 -0.432776 2.404000 255 0 0
0.006149 -0.432416 2.402000 255 0 0
0.012745 -0.433315 2.407000 255 0 0
-0.236197 -0.414674 2.271000 255 0 0
-0.229799 -0.414326 2.269000 255 0 0
-0.224396 -0.415803 2.277000 255 0 0
-0.218182 -0.415819 2.277000 255 0 0
-0.211875 -0.415652 2.276000 255 0 0
-0.205301 -0.414937 2.272000 255 0 0
-0.199099 -0.414952 2.272000 255 0 0
-0.193575 -0.416428 2.280000 255 0 0
-0.188418 -0.418816 2.293000 255 0 0
-0.182952 -0.420657 2.303000 255 0 0
-0.176816 -0.421035 2.305000 255 0 0
-0.170595 -0.421231 2.306000 255 0 0
-0.164011 -0.420513 2.302000 255 0 0
-0.157929 -0.421073 2.305000 255 0 0
-0.152026 -0.422181 2.311000 255 0 0
-0.146595 -0.424750 2.325000 255 0 0
-0.140605 -0.425857 2.331000 255 0 0
-0.134984 -0.428242 2.344000 255 0 0
-0.129073 -0.429897 2.353000 255 0 0
-0.101489 -0.450222 2.464000 255 0 0
-0.094946 -0.451143 2.469000 255 0 0
-0.087982 -0.450054 2.463000 255 0 0
-0.080819 -0.447685 2.450000 255 0 0
-0.073818 -0.445864 2.440000 255 0 0
-0.067312 -0.446966 2.446000 255 0 0
-0.060649 -0.447153 2.447000 255 0 0
-0.053848 -0.446244 2.442000 255 0 0
-0.046959 -0.444238 2.431000 255 0 0
-0.040311 -0.444241 2.431000 255 0 0
-0.033691 -0.444610 2.433000 255 0 0
-0.026972 -0.443515 2.427000 255 0 0
-0.020310 -0.442969 2.424000 255 0 0
-0.013658 -0.442239 2.420000 255 0 0
-0.007052 -0.442971 2.424000 255 0 0
-0.000424 -0.443337 2.426000 255 0 0
0.006205 -0.442971 2.424000 255 0 0
0.012866 -0.444067 2.430000 255 0 0
-0.237220 -0.422702 2.281000 255 0 0
-0.230592 -0.421978 2.277000 255 0 0
-0.224774 -0.422736 2.281000 255 0 0
-0.218166 -0.422011 2.277000 255 0 0
-0.211859 -0.421841 2.276000 255 0 0
-0.205466 -0.421486 2.274000 255 0 0
-0.199259 -0.421501 2.274000 255 0 0
-0.193816 -0.423184 2.283000 255 0 0
-0.188487 -0.425237 2.294000 255 0 0
-0.182938 -0.426919 2.303000 255 0 0
-0.176879 -0.427489 2.306000 255 0 0
-0.170508 -0.427317 2.305000 255 0 0
-0.164141 -0.427144 2.304000 255 0 0
-0.158122 -0.427898 2.308000 255 0 0
-0.152212 -0.429022 2.314000 255 0 0
-0.146458 -0.430702 2.323000 255 0 0
-0.140715 -0.432567 2.333000 255 0 0
-0.135031 -0.434803 2.345000 255 0 0
-0.129556 -0.437965 2.362000 255 0 0
-0.107645 -0.454505 2.451000 255 0 0
-0.101646 -0.457666 2.468000 255 0 0
-0.095130 -0.458786 2.474000 255 0 0
-0.088403 -0.458978 2.475000 255 0 0
-0.081176 -0.456389 2.461000 255 0 0
-0.074145 -0.454540 2.451000 255 0 0
-0.067362 -0.453990 2.448000 255 0 0
-0.060719 -0.454365 2.450000 255 0 0
-0.053910 -0.453443 2.445000 255 0 0
-0.047129 -0.452519 2.440000 255 0 0
-0.040490 -0.452894 2.442000 255 0 0
-0.033758 -0.452155 2.438000 255 0 0
-0.026992 -0.450488 2.429000 255 0 0
-0.020300 -0.449377 2.423000 255 0 0
-0.013657 -0.448822 2.420000 255 0 0
-0.007058 -0.449936 2.426000 255 0 0
-0.000425 -0.451605 2.435000 255 0 0
0.006271 -0.454387 2.450000 255 0 0
-0.238555 -0.431347 2.294000 255 0 0
-0.231689 -0.430236 2.288000 255 0 0
-0.225348 -0.430065 2.287000 255 0 0
-0.218342 -0.428577 2.279000 255 0 0
-0.212123 -0.428593 2.279000 255 0 0
-0.205542 -0.427856 2.275000 255 0 0
-0.199683 -0.428624 2.279000 255 0 0
-0.193801 -0.429391 2.283000 255 0 0
-0.188472 -0.431474 2.294000 255 0 0
-0.182845 -0.432993 2.302000 255 0 0
-0.176866 -0.433759 2.306000 255 0 0
-0.170347 -0.433208 2.303000 255 0 0
-0.164057 -0.433221 2.303000 255 0 0
-0.158247 -0.434550 2.310000 255 0 0
-0.152595 -0.436443 2.320000 255 0 0
-0.146636 -0.437583 2.326000 255 0 0
-0.140825 -0.439287 2.335000 255 0 0
-0.135251 -0.441932 2.349000 255 0 0
-0.129601 -0.444576 2.363000 255 0 0
-0.101597 -0.464189 2.467000 255 0 0
-0.095085 -0.465326 2.473000 255 0 0
-0.088432 -0.465897 2.476000 255 0 0
-0.081301 -0.463834 2.465000 255 0 0
-0.074442 -0.463087 2.461000 255 0 0
-0.067660 -0.462717 2.459000 255 0 0
-0.060888 -0.462345 2.457000 255 0 0
-0.054060 -0.461409 2.452000 255 0 0
-0.047183 -0.459720 2.443000 255 0 0
-0.040537 -0.460099 2.445000 255 0 0
-0.033797 -0.459350 2.441000 255 0 0
-0.027067 -0.458411 2.436000 255 0 0
-0.020332 -0.456719 2.427000 255 0 0
-0.013696 -0.456721 2.427000 255 0 0
-0.007080 -0.458039 2.434000 255 0 0
-0.000427 -0.459733 2.443000 255 0 0
0.006289 -0.462367 2.457000 255 0 0
0.013065 -0.464436 2.468000 255 0 0
-0.239785 -0.439871 2.306000 255 0 0
-0.232178 -0.437409 2.293000 255 0 0
-0.225233 -0.436091 2.286000 255 0 0
-0.218421 -0.434963 2.280000 255 0 0
-0.211735 -0.434025 2.275000 255 0 0
-0.205526 -0.434040 2.275000 255 0 0
-0.199930 -0.435391 2.282000 255 0 0
-0.194211 -0.436551 2.288000 255 0 0
-0.188540 -0.437901 2.295000 255 0 0
-0.182593 -0.438678 2.299000 255 0 0
-0.176776 -0.439837 2.305000 255 0 0
-0.170186 -0.439087 2.301000 255 0 0
-0.164116 -0.439672 2.304000 255 0 0
-0.158303 -0.441020 2.311000 255 0 0
-0.152847 -0.443513 2.324000 255 0 0
-0.146940 -0.444861 2.331000 255 0 0
-0.141236 -0.446971 2.342000 255 0 0
-0.135529 -0.449272 2.354000 255 0 0
-0.130194 -0.453100 2.374000 255 0 0
-0.107979 -0.469361 2.459000 255 0 0
-0.101877 -0.472232 2.474000 255 0 0
-0.095116 -0.472240 2.474000 255 0 0
-0.088390 -0.472438 2.475000 255 0 0
-0.081460 -0.471491 2.470000 255 0 0
-0.074648 -0.471115 2.468000 255 0 0
-0.067682 -0.469593 2.460000 255 0 0
-0.060833 -0.468644 2.455000 255 0 0
-0.054078 -0.468267 2.453000 255 0 0
-0.047276 -0.467316 2.448000 255 0 0
-0.040600 -0.467511 2.449000 255 0 0
-0.033794 -0.465987 2.441000 255 0 0
-0.027099 -0.465607 2.439000 255 0 0
-0.020355 -0.463891 2.430000 255 0 0
-0.013723 -0.464274 2.432000 255 0 0
-0.007080 -0.464657 2.434000 255 0 0
-0.000426 -0.465803 2.440000 255 0 0
0.006255 -0.466566 2.444000 255 0 0
0.037260 -0.527075 2.761000 255 0 0
-0.232161 -0.443640 2.293000 255 0 0
-0.225216 -0.442303 2.286000 255 0 0
-0.218884 -0.442126 2.285000 255 0 0
-0.212277 -0.441368 2.281000 255 0 0
-0.206233 -0.441771 2.283000 255 0 0
-0.200266 -0.442367 2.286000 255 0 0
-0.194196 -0.442769 2.288000 255 0 0
-0.188197 -0.443364 2.291000 255 0 0
-0.182499 -0.444733 2.298000 255 0 0
-0.176839 -0.446295 2.306000 255 0 0
-0.170395 -0.445922 2.304000 255 0 0
-0.164175 -0.446128 2.305000 255 0 0
-0.158291 -0.447302 2.311000 255 0 0
-0.152966 -0.450217 2.326000 255 0 0
-0.147370 -0.452552 2.338000 255 0 0
-0.141526 -0.454305 2.347000 255 0 0
-0.135806 -0.456639 2.359000 255 0 0
-0.130129 -0.459359 2.373000 255 0 0
-0.125001 -0.464402 2.399000 255 0 0
-0.108059 -0.476432 2.461000 255 0 0
-0.101992 -0.479538 2.477000 255 0 0
-0.095262 -0.479740 2.478000 255 0 0
-0.088561 -0.480134 2.480000 255 0 0
-0.081651 -0.479367 2.476000 255 0 0
-0.074914 -0.479566 2.477000 255 0 0
-0.067869 -0.477636 2.467000 255 0 0
-0.060952 -0.476286 2.460000 255 0 0
-0.054206 -0.476097 2.459000 255 0 0
-0.047407 -0.475327 2.455000 255 0 0
-0.040647 -0.474749 2.452000 255 0 0
-0.033888 -0.473978 2.448000 255 0 0
-0.027230 -0.474561 2.451000 255 0 0
-0.020496 -0.473788 2.447000 255 0 0
-0.013818 -0.474177 2.449000 255 0 0
-0.007126 -0.474372 2.450000 255 0 0
-0.000428 -0.474372 2.450000 255 0 0
0.006262 -0.473791 2.447000 255 0 0
-0.231334 -0.448301 2.285000 255 0 0
-0.224805 -0.447729 2.282000 255 0 0
-0.218676 -0.447942 2.283000 255 0 0
-0.212261 -0.447566 2.281000 255 0 0
-0.206489 -0.448563 2.286000 255 0 0
-0.200513 -0.449167 2.289000 255 0 0
-0.194351 -0.449379 2.290000 255 0 0
-0.188183 -0.449590 2.291000 255 0 0
-0.182406 -0.450781 2.297000 255 0 0
-0.177132 -0.453347 2.310000 255 0 0
-0.170973 -0.453753 2.312000 255 0 0
-0.164874 -0.454355 2.315000 255 0 0
-0.158621 -0.454563 2.316000 255 0 0
-0.152954 -0.456538 2.326000 255 0 0
-0.147169 -0.458317 2.335000 255 0 0
-0.141395 -0.460291 2.345000 255 0 0
-0.135680 -0.462657 2.357000 255 0 0
-0.129900 -0.465023 2.369000 255 0 0
-0.124366 -0.468567 2.387000 255 0 0
-0.108182 -0.483710 2.464000 255 0 0
-0.101984 -0.486270 2.477000 255 0 0
-0.095254 -0.486474 2.478000 255 0 0
-0.088661 -0.487463 2.483000 255 0 0
-0.081777 -0.486881 2.480000 255 0 0
-0.074969 -0.486691 2.479000 255 0 0
-0.067918 -0.484734 2.469000 255 0 0
-0.061047 -0.483757 2.464000 255 0 0
-0.054224 -0.482977 2.460000 255 0 0
-0.047481 -0.482784 2.459000 255 0 0
-0.040643 -0.481414 2.452000 255 0 0
-0.033899 -0.480828 2.449000 255 0 0
-0.027239 -0.481419 2.452000 255 0 0
-0.020561 -0.482010 2.455000 255 0 0
-0.013867 -0.482600 2.458000 255 0 0
-0.007148 -0.482601 2.458000 255 0 0
-0.000430 -0.482994 2.460000 255 0 0
0.006264 -0.480638 2.448000 255 0 0
-0.228381 -0.448740 2.256000 255 0 0
-0.225182 -0.454724 2.286000 255 0 0
-0.219138 -0.455139 2.288000 255 0 0
-0.212803 -0.454957 2.287000 255 0 0
-0.206654 -0.455172 2.288000 255 0 0
-0.200761 -0.455983 2.292000 255 0 0
-0.194506 -0.455998 2.292000 255 0 0
-0.188579 -0.456809 2.296000 255 0 0
-0.182550 -0.457420 2.299000 255 0 0
-0.177118 -0.459623 2.310000 255 0 0
-0.171108 -0.460432 2.314000 255 0 0
-0.165217 -0.461639 2.320000 255 0 0
-0.159157 -0.462448 2.324000 255 0 0
-0.153271 -0.463853 2.331000 255 0 0
-0.147347 -0.465258 2.338000 255 0 0
-0.141383 -0.466662 2.345000 255 0 0
-0.135669 -0.469061 2.357000 255 0 0
-0.129889 -0.471460 2.369000 255 0 0
-0.124148 -0.474256 2.383000 255 0 0
-0.107734 -0.488415 2.454000 255 0 0
-0.101976 -0.493001 2.477000 255 0 0
-0.095400 -0.494004 2.482000 255 0 0
-0.088940 -0.495803 2.491000 255 0 0
-0.081968 -0.494814 2.486000 255 0 0
-0.075053 -0.494025 2.482000 255 0 0
-0.068023 -0.492239 2.473000 255 0 0
-0.061165 -0.491448 2.469000 255 0 0
-0.054396 -0.491254 2.468000 255 0 0
-0.047631 -0.491059 2.467000 255 0 0
-0.040756 -0.489470 2.459000 255 0 0
-0.034049 -0.489672 2.460000 255 0 0
-0.027359 -0.490272 2.463000 255 0 0
-0.020710 -0.492264 2.473000 255 0 0
-0.013911 -0.490872 2.466000 255 0 0
-0.007165 -0.490475 2.464000 255 0 0
-0.000429 -0.489281 2.458000 255 0 0
0.006243 -0.485698 2.440000 255 0 0
0.012902 -0.485299 2.438000 255 0 0
-0.226643 -0.463958 2.301000 255 0 0
-0.219600 -0.462362 2.293000 255 0 0
-0.213159 -0.461975 2.291000 255 0 0
-0.206638 -0.461386 2.288000 255 0 0
-0.201096 -0.463015 2.296000 255 0 0
-0.195170 -0.463837 2.300000 255 0 0
-0.189550 -0.465466 2.308000 255 0 0
-0.183251 -0.465480 2.308000 255 0 0
-0.177488 -0.466906 2.315000 255 0 0
-0.171316 -0.467323 2.317000 255 0 0
-0.165418 -0.468547 2.323000 255 0 0
-0.159350 -0.469366 2.327000 255 0 0
-0.153193 -0.469984 2.330000 255 0 0
-0.147272 -0.471407 2.337000 255 0 0
-0.141433 -0.473234 2.346000 255 0 0
-0.135946 -0.476473 2.362000 255 0 0
-0.130098 -0.478703 2.373000 255 0 0
-0.124242 -0.481134 2.385000 255 0 0
-0.118517 -0.484371 2.401000 255 0 0
-0.109174 -0.501739 2.487000 255 0 0
-0.102380 -0.501748 2.487000 255 0 0
-0.095700 -0.502361 2.490000 255 0 0
-0.089004 -0.502974 2.493000 255 0 0
-0.081961 -0.501568 2.486000 255 0 0
-0.075017 -0.500566 2.481000 255 0 0
-0.068183 -0.500168 2.479000 255 0 0
-0.061359 -0.499770 2.477000 255 0 0
-0.054700 -0.500784 2.482000 255 0 0
-0.047898 -0.500586 2.481000 255 0 0
-0.041034 -0.499581 2.476000 255 0 0
-0.034254 -0.499382 2.475000 255 0 0
-0.027512 -0.499788 2.477000 255 0 0
-0.020776 -0.500597 2.481000 255 0 0
-0.013955 -0.499186 2.474000 255 0 0
-0.007176 -0.497976 2.468000 255 0 0
-0.000429 -0.495959 2.458000 255 0 0
0.006225 -0.490914 2.433000 255 0 0
-0.229186 -0.475520 2.327000 255 0 0
-0.220254 -0.470019 2.300000 255 0 0
-0.213236 -0.468401 2.292000 255 0 0
-0.206893 -0.468213 2.291000 255 0 0
-0.201080 -0.469251 2.296000 255 0 0
-0.195494 -0.470901 2.304000 255 0 0
-0.189946 -0.472756 2.313000 255 0 0
-0.183872 -0.473384 2.316000 255 0 0
-0.177627 -0.473602 2.317000 255 0 0
-0.171155 -0.473207 2.315000 255 0 0
-0.165191 -0.474242 2.320000 255 0 0
-0.159337 -0.475686 2.327000 255 0 0
-0.153247 -0.476516 2.331000 255 0 0
-0.147260 -0.477755 2.337000 255 0 0
-0.141361 -0.479402 2.345000 255 0 0
-0.136108 -0.483502 2.365000 255 0 0
-0.130526 -0.486784 2.381000 255 0 0
-0.125117 -0.491087 2.402000 255 0 0
-0.119889 -0.496617 2.429000 255 0 0
-0.117451 -0.515028 2.519000 255 0 0
-0.109604 -0.510539 2.497000 255 0 0
-0.102865 -0.510956 2.499000 255 0 0
-0.095961 -0.510556 2.497000 255 0 0
-0.089068 -0.510154 2.495000 255 0 0
-0.081988 -0.508525 2.487000 255 0 0
-0.075162 -0.508327 2.486000 255 0 0
-0.068425 -0.508742 2.488000 255 0 0
-0.061552 -0.508134 2.485000 255 0 0
-0.054828 -0.508752 2.488000 255 0 0
-0.048106 -0.509574 2.492000 255 0 0
-0.041329 -0.509987 2.494000 255 0 0
-0.034500 -0.509786 2.493000 255 0 0
-0.027654 -0.509175 2.490000 255 0 0
-0.020891 -0.510199 2.495000 255 0 0
-0.014022 -0.508360 2.486000 255 0 0
-0.007211 -0.507134 2.480000 255 0 0
-0.000431 -0.504272 2.466000 255 0 0
0.006280 -0.502022 2.455000 255 0 0
-0.219758 -0.475229 2.295000 255 0 0
-0.212661 -0.473382 2.286000 255 0 0
-0.206696 -0.474019 2.289000 255 0 0
-0.200977 -0.475278 2.295000 255 0 0
-0.195818 -0.477986 2.308000 255 0 0
-0.190259 -0.479865 2.317000 255 0 0
-0.184254 -0.480708 2.321000 255 0 0
-0.178073 -0.481136 2.323000 255 0 0
-0.171585 -0.480736 2.321000 255 0 0
-0.165392 -0.481164 2.323000 255 0 0
-0.159324 -0.482005 2.327000 255 0 0
-0.153169 -0.482639 2.330000 255 0 0
-0.147248 -0.484101 2.337000 255 0 0
-0.141229 -0.485355 2.343000 255 0 0
-0.135925 -0.489303 2.362000 255 0 0
-0.130790 -0.494285 2.386000 255 0 0
-0.125732 -0.500096 2.414000 255 0 0
-0.121459 -0.509843 2.461000 255 0 0
-0.117581 -0.522490 2.522000 255 0 0
-0.110341 -0.520842 2.514000 255 0 0
-0.103269 -0.519815 2.509000 255 0 0
-0.096223 -0.518787 2.504000 255 0 0
-0.089061 -0.516930 2.495000 255 0 0
-0.081915 -0.514865 2.485000 255 0 0
-0.075277 -0.515907 2.490000 255 0 0
-0.068666 -0.517364 2.497000 255 0 0
-0.061844 -0.517369 2.497000 255 0 0
-0.055021 -0.517374 2.497000 255 0 0
-0.048179 -0.517171 2.496000 255 0 0
-0.041425 -0.518003 2.500000 255 0 0
-0.034539 -0.517178 2.496000 255 0 0
-0.027696 -0.516766 2.494000 255 0 0
-0.020881 -0.516768 2.494000 255 0 0
-0.014055 -0.516355 2.492000 255 0 0
-0.007230 -0.515320 2.487000 255 0 0
-0.000434 -0.514491 2.483000 255 0 0
0.006377 -0.516563 2.493000 255 0 0
0.036783 -0.565042 2.727000 255 0 0
-0.228068 -0.485847 2.316000 255 0 0
-0.219262 -0.480410 2.290000 255 0 0
-0.212459 -0.479168 2.284000 255 0 0
-0.207041 -0.481073 2.293000 255 0 0
-0.201486 -0.482767 2.301000 255 0 0
-0.196142 -0.485091 2.312000 255 0 0
-0.190409 -0.486575 2.319000 255 0 0
-0.184319 -0.487219 2.322000 255 0 0
-0.178136 -0.487653 2.324000 255 0 0
-0.171719 -0.487457 2.323000 255 0 0
-0.165592 -0.488100 2.326000 255 0 0
-0.159517 -0.488952 2.330000 255 0 0
-0.153354 -0.489594 2.333000 255 0 0
-0.147426 -0.491075 2.340000 255 0 0
-0.141399 -0.492346 2.346000 255 0 0
-0.135683 -0.494876 2.358000 255 0 0
-0.130560 -0.499924 2.382000 255 0 0
-0.126243 -0.508749 2.424000 255 0 0
-0.123374 -0.524710 2.500000 255 0 0
-0.117991 -0.531227 2.531000 255 0 0
-0.110640 -0.529137 2.521000 255 0 0
-0.103630 -0.528516 2.518000 255 0 0
-0.096330 -0.526215 2.507000 255 0 0
-0.089339 -0.525383 2.503000 255 0 0
-0.082271 -0.523921 2.496000 255 0 0
-0.075754 -0.526027 2.506000 255 0 0
-0.069101 -0.527502 2.513000 255 0 0
-0.062210 -0.527298 2.512000 255 0 0
-0.055303 -0.526883 2.510000 255 0 0
-0.048446 -0.526887 2.510000 255 0 0
-0.041588 -0.526891 2.510000 255 0 0
-0.034702 -0.526474 2.508000 255 0 0
-0.027838 -0.526267 2.507000 255 0 0
-0.020988 -0.526269 2.507000 255 0 0
-0.014104 -0.525011 2.501000 255 0 0
-0.007282 -0.525851 2.505000 255 0 0
-0.000438 -0.526691 2.509000 255 0 0
0.006528 -0.535717 2.552000 255 0 0
0.013696 -0.543484 2.589000 255 0 0
0.208990 -0.574736 2.739000 255 0 0
-0.234254 -0.505520 2.379000 255 0 0
-0.218862 -0.485776 2.286000 255 0 0
-0.213000 -0.486643 2.290000 255 0 0
-0.207476 -0.488359 2.298000 255 0 0
-0.201908 -0.490075 2.306000 255 0 0
-0.196042 -0.491154 2.311000 255 0 0
-0.190229 -0.492444 2.317000 255 0 0
-0.184066 -0.492884 2.319000 255 0 0
-0.178198 -0.494174 2.325000 255 0 0
-0.171927 -0.494400 2.326000 255 0 0
-0.165864 -0.495264 2.330000 255 0 0
-0.159710 -0.495915 2.333000 255 0 0
-0.153736 -0.497203 2.339000 255 0 0
-0.147792 -0.498703 2.346000 255 0 0
-0.141929 -0.500628 2.355000 255 0 0
-0.135845 -0.501915 2.361000 255 0 0
-0.130440 -0.505965 2.380000 255 0 0
-0.125972 -0.514266 2.419000 255 0 0
-0.124647 -0.537024 2.526000 255 0 0
-0.118821 -0.541924 2.549000 255 0 0
-0.111157 -0.538532 2.533000 255 0 0
-0.103663 -0.535564 2.519000 255 0 0
-0.096437 -0.533659 2.510000 255 0 0
-0.089403 -0.532603 2.505000 255 0 0
-0.082725 -0.533674 2.510000 255 0 0
-0.076111 -0.535381 2.518000 255 0 0
-0.069397 -0.536663 2.524000 255 0 0
-0.062527 -0.536881 2.525000 255 0 0
-0.055629 -0.536886 2.525000 255 0 0
-0.048692 -0.536465 2.523000 255 0 0
-0.041816 -0.536681 2.524000 255 0 0
-0.034920 -0.536685 2.524000 255 0 0
-0.028025 -0.536687 2.524000 255 0 0
-0.021129 -0.536689 2.524000 255 0 0
-0.014205 -0.535628 2.519000 255 0 0
-0.007325 -0.535841 2.520000 255 0 0
-0.000441 -0.536692 2.524000 255 0 0
0.006573 -0.546473 2.570000 255 0 0
-0.240537 -0.525749 2.443000 255 0 0
-0.218845 -0.491979 2.286000 255 0 0
-0.213076 -0.493072 2.291000 255 0 0
-0.207821 -0.495456 2.302000 255 0 0
-0.201980 -0.496548 2.307000 255 0 0
-0.196026 -0.497425 2.311000 255 0 0
-0.190050 -0.498301 2.315000 255 0 0
-0.184290 -0.499823 2.322000 255 0 0
-0.178337 -0.500914 2.327000 255 0 0
-0.172283 -0.501789 2.331000 255 0 0
-0.166277 -0.502879 2.336000 255 0 0
-0.159971 -0.503107 2.337000 255 0 0
-0.153855 -0.503981 2.341000 255 0 0
-0.147843 -0.505285 2.347000 255 0 0
-0.142038 -0.507450 2.357000 255 0 0
-0.135777 -0.508107 2.360000 255 0 0
-0.130046 -0.510917 2.373000 255 0 0
-0.125077 -0.517171 2.402000 255 0 0
-0.124982 -0.545387 2.533000 255 0 0
-0.119091 -0.550134 2.555000 255 0 0
-0.111499 -0.547129 2.541000 255 0 0
-0.103737 -0.542832 2.521000 255 0 0
-0.096583 -0.541333 2.514000 255 0 0
-0.089503 -0.540048 2.508000 255 0 0
-0.082883 -0.541563 2.515000 255 0 0
-0.076135 -0.542431 2.519000 255 0 0
-0.069392 -0.543513 2.524000 255 0 0
-0.062448 -0.543088 2.522000 255 0 0
-0.055647 -0.543954 2.526000 255 0 0
-0.048843 -0.545036 2.531000 255 0 0
-0.041978 -0.545685 2.534000 255 0 0
-0.035056 -0.545689 2.534000 255 0 0
-0.028100 -0.545045 2.531000 255 0 0
-0.021202 -0.545478 2.533000 255 0 0
-0.014282 -0.545480 2.533000 255 0 0
-0.007365 -0.545696 2.534000 255 0 0
-0.000442 -0.545265 2.532000 255 0 0
-0.222370 -0.506245 2.323000 255 0 0
-0.213525 -0.500378 2.296000 255 0 0
-0.207805 -0.501702 2.302000 255 0 0
-0.201526 -0.501718 2.302000 255 0 0
-0.195587 -0.502606 2.306000 255 0 0
-0.189625 -0.503493 2.310000 255 0 0
-0.184196 -0.505906 2.321000 255 0 0
-0.178170 -0.506792 2.325000 255 0 0
-0.172343 -0.508332 2.332000 255 0 0
-0.166549 -0.510089 2.340000 255 0 0
-0.160231 -0.510321 2.341000 255 0 0
-0.154105 -0.511205 2.345000 255 0 0
-0.147894 -0.511872 2.348000 255 0 0
-0.142147 -0.514282 2.359000 255 0 0
-0.135765 -0.514511 2.360000 255 0 0
-0.129706 -0.516048 2.367000 255 0 0
-0.123973 -0.519111 2.381000 255 0 0
-0.122011 -0.539179 2.473000 255 0 0
-0.119267 -0.557939 2.559000 255 0 0
-0.111709 -0.555115 2.546000 255 0 0
-0.103975 -0.550981 2.527000 255 0 0
-0.096652 -0.548591 2.516000 255 0 0
-0.089567 -0.547290 2.510000 255 0 0
-0.082975 -0.549042 2.518000 255 0 0
-0.076128 -0.549266 2.519000 255 0 0
-0.069331 -0.549927 2.522000 255 0 0
-0.062368 -0.549278 2.519000 255 0 0
-0.055598 -0.550373 2.524000 255 0 0
-0.048839 -0.551904 2.531000 255 0 0
-0.041958 -0.552344 2.533000 255 0 0
-0.035011 -0.551911 2.531000 255 0 0
-0.028042 -0.550823 2.526000 255 0 0
-0.021184 -0.551916 2.531000 255 0 0
-0.014309 -0.553444 2.538000 255 0 0
-0.007385 -0.554099 2.541000 255 0 0
-0.000444 -0.554317 2.542000 255 0 0
-0.225033 -0.518725 2.351000 255 0 0
-0.214252 -0.508372 2.304000 255 0 0
-0.207969 -0.508388 2.304000 255 0 0
-0.201510 -0.507963 2.302000 255 0 0
-0.195741 -0.509303 2.308000 255 0 0
-0.189691 -0.509980 2.311000 255 0 0
-0.184181 -0.512202 2.321000 255 0 0
-0.178308 -0.513541 2.327000 255 0 0
-0.172625 -0.515541 2.336000 255 0 0
-0.166678 -0.516879 2.342000 255 0 0
-0.160424 -0.517334 2.344000 255 0 0
-0.154290 -0.518229 2.348000 255 0 0
-0.148259 -0.519566 2.354000 255 0 0
-0.142317 -0.521344 2.362000 255 0 0
-0.135869 -0.521355 2.362000 255 0 0
-0.129641 -0.522249 2.366000 255 0 0
-0.123703 -0.524467 2.376000 255 0 0
-0.118885 -0.563116 2.551000 255 0 0
-0.112007 -0.563567 2.553000 255 0 0
-0.104255 -0.559382 2.534000 255 0 0
-0.096836 -0.556521 2.521000 255 0 0
-0.089773 -0.555425 2.516000 255 0 0
-0.083133 -0.556977 2.523000 255 0 0
-0.076273 -0.557204 2.524000 255 0 0
-0.069325 -0.556769 2.522000 255 0 0
-0.062412 -0.556554 2.521000 255 0 0
-0.055615 -0.557442 2.525000 255 0 0
-0.048854 -0.558992 2.532000 255 0 0
-0.041955 -0.559216 2.533000 255 0 0
-0.035009 -0.558778 2.531000 255 0 0
-0.028040 -0.557677 2.526000 255 0 0
-0.021157 -0.558120 2.528000 255 0 0
-0.014302 -0.560109 2.537000 255 0 0
-0.007445 -0.565629 2.562000 255 0 0
-0.000458 -0.579759 2.626000 255 0 0
-0.227599 -0.531132 2.378000 255 0 0
-0.215351 -0.517301 2.316000 255 0 0
-0.208494 -0.515978 2.310000 255 0 0
-0.201932 -0.515324 2.307000 255 0 0
-0.195640 -0.515340 2.307000 255 0 0
-0.189594 -0.516025 2.310000 255 0 0
-0.184007 -0.518051 2.319000 255 0 0
-0.178524 -0.520523 2.330000 255 0 0
-0.172685 -0.522101 2.337000 255 0 0
-0.166664 -0.523232 2.342000 255 0 0
-0.160479 -0.523915 2.345000 255 0 0
-0.154803 -0.526386 2.356000 255 0 0
-0.148877 -0.528185 2.364000 255 0 0
-0.142907 -0.529985 2.372000 255 0 0
-0.136376 -0.529773 2.371000 255 0 0
-0.129959 -0.530007 2.372000 255 0 0
-0.123953 -0.532029 2.381000 255 0 0
-0.111471 -0.567811 2.541000 255 0 0
-0.104122 -0.565585 2.531000 255 0 0
-0.096981 -0.564253 2.525000 255 0 0
-0.090158 -0.564708 2.527000 255 0 0
-0.083554 -0.566726 2.536000 255 0 0
-0.076539 -0.566062 2.533000 255 0 0
-0.069457 -0.564728 2.527000 255 0 0
-0.062482 -0.564063 2.524000 255 0 0
-0.055677 -0.564962 2.528000 255 0 0
-0.048888 -0.566307 2.534000 255 0 0
-0.041984 -0.566534 2.535000 255 0 0
-0.035047 -0.566314 2.534000 255 0 0
-0.028115 -0.566093 2.533000 255 0 0
-0.021222 -0.566766 2.536000 255 0 0
-0.014363 -0.569449 2.548000 255 0 0
-0.007666 -0.589564 2.638000 255 0 0
0.006550 -0.572579 2.562000 255 0 0
0.013881 -0.586658 2.625000 255 0 0
-0.209200 -0.524051 2.318000 255 0 0
-0.202441 -0.522937 2.313000 255 0 0
-0.195879 -0.522274 2.310000 255 0 0
-0.189743 -0.522742 2.312000 255 0 0
-0.183913 -0.524114 2.318000 255 0 0
-0.178663 -0.527294 2.332000 255 0 0
-0.172744 -0.528665 2.338000 255 0 0
-0.166508 -0.529131 2.340000 255 0 0
-0.160398 -0.530049 2.344000 255 0 0
-0.154922 -0.533227 2.358000 255 0 0
-0.149243 -0.535953 2.370000 255 0 0
-0.143076 -0.537096 2.375000 255 0 0
-0.136595 -0.537108 2.375000 255 0 0
-0.130112 -0.537119 2.375000 255 0 0
-0.124099 -0.539165 2.384000 255 0 0
-0.119120 -0.546186 2.415000 255 0 0
-0.116302 -0.564515 2.496000 255 0 0
-0.111155 -0.573119 2.534000 255 0 0
-0.104237 -0.573128 2.534000 255 0 0
-0.097357 -0.573363 2.535000 255 0 0
-0.090436 -0.573370 2.535000 255 0 0
-0.083679 -0.574509 2.540000 255 0 0
-0.076532 -0.572932 2.533000 255 0 0
-0.069423 -0.571355 2.526000 255 0 0
-0.062501 -0.571134 2.525000 255 0 0
-0.055650 -0.571592 2.527000 255 0 0
-0.048826 -0.572501 2.531000 255 0 0
-0.041948 -0.572957 2.533000 255 0 0
-0.035113 -0.574318 2.539000 255 0 0
-0.028257 -0.575904 2.546000 255 0 0
-0.210085 -0.532624 2.328000 255 0 0
-0.203125 -0.531038 2.321000 255 0 0
-0.196118 -0.529224 2.313000 255 0 0
-0.189728 -0.529011 2.312000 255 0 0
-0.183581 -0.529483 2.314000 255 0 0
-0.177806 -0.531100 2.321000 255 0 0
-0.171992 -0.532716 2.328000 255 0 0
-0.166139 -0.534331 2.335000 255 0 0
-0.160316 -0.536175 2.343000 255 0 0
-0.154712 -0.538934 2.355000 255 0 0
-0.148916 -0.541235 2.365000 255 0 0
-0.142944 -0.543078 2.373000 255 0 0
-0.136583 -0.543548 2.375000 255 0 0
-0.130157 -0.543787 2.376000 255 0 0
-0.123828 -0.544485 2.379000 255 0 0
-0.118469 -0.549759 2.402000 255 0 0
-0.114848 -0.564188 2.465000 255 0 0
-0.111014 -0.579303 2.531000 255 0 0
-0.104599 -0.582059 2.543000 255 0 0
-0.097695 -0.582296 2.544000 255 0 0
-0.090571 -0.581160 2.539000 255 0 0
-0.083540 -0.580481 2.536000 255 0 0
-0.076375 -0.578656 2.528000 255 0 0
-0.069308 -0.577289 2.522000 255 0 0
-0.062421 -0.577294 2.522000 255 0 0
-0.055579 -0.577757 2.524000 255 0 0
-0.048764 -0.578677 2.528000 255 0 0
-0.041894 -0.579139 2.530000 255 0 0
-0.035124 -0.581431 2.540000 255 0 0
-0.028288 -0.583494 2.549000 255 0 0
-0.021386 -0.585099 2.556000 255 0 0
-0.217810 -0.542390 2.343000 255 0 0
-0.211422 -0.542407 2.343000 255 0 0
-0.204071 -0.539877 2.332000 255 0 0
-0.196695 -0.537115 2.320000 255 0 0
-0.189959 -0.535973 2.315000 255 0 0
-0.183566 -0.535757 2.314000 255 0 0
-0.177408 -0.536234 2.316000 255 0 0
-0.171387 -0.537175 2.320000 255 0 0
-0.165770 -0.539504 2.330000 255 0 0
-0.160166 -0.542064 2.341000 255 0 0
-0.154633 -0.545087 2.354000 255 0 0
-0.148589 -0.546489 2.360000 255 0 0
-0.142752 -0.548817 2.370000 255 0 0
-0.136630 -0.550218 2.376000 255 0 0
-0.130529 -0.551850 2.383000 255 0 0
-0.123974 -0.551629 2.382000 255 0 0
-0.118015 -0.554186 2.393000 255 0 0
-0.113441 -0.563923 2.435000 255 0 0
-0.110654 -0.584312 2.523000 255 0 0
-0.104795 -0.590111 2.548000 255 0 0
-0.097763 -0.589657 2.546000 255 0 0
-0.090564 -0.588043 2.539000 255 0 0
-0.083468 -0.586893 2.534000 255 0 0
-0.076278 -0.584815 2.525000 255 0 0
-0.069274 -0.583895 2.521000 255 0 0
-0.062416 -0.584132 2.522000 255 0 0
-0.055552 -0.584368 2.523000 255 0 0
-0.048664 -0.584373 2.523000 255 0 0
-0.041792 -0.584608 2.524000 255 0 0
-0.035080 -0.587623 2.537000 255 0 0
-0.028297 -0.590636 2.550000 255 0 0
-0.021417 -0.592955 2.560000 255 0 0
0.197570 -0.599908 2.591000 255 0 0
-0.212759 -0.552271 2.358000 255 0 0
-0.204493 -0.547369 2.337000 255 0 0
-0.196680 -0.543403 2.320000 255 0 0
-0.189861 -0.542013 2.314000 255 0 0
-0.183789 -0.542731 2.317000 255 0 0
-0.177624 -0.543214 2.319000 255 0 0
-0.171373 -0.543463 2.320000 255 0 0
-0.165685 -0.545585 2.329000 255 0 0
-0.159948 -0.547707 2.338000 255 0 0
-0.154424 -0.550765 2.351000 255 0 0
-0.148324 -0.551949 2.356000 255 0 0
-0.142499 -0.554304 2.366000 255 0 0
-0.136791 -0.557361 2.379000 255 0 0
-0.130847 -0.559715 2.389000 255 0 0
-0.124380 -0.559960 2.390000 255 0 0
-0.118104 -0.561141 2.395000 255 0 0
-0.112313 -0.564900 2.411000 255 0 0
-0.108233 -0.578264 2.468000 255 0 0
-0.104581 -0.595846 2.543000 255 0 0
-0.097794 -0.596792 2.547000 255 0 0
-0.090627 -0.595394 2.541000 255 0 0
-0.083559 -0.594464 2.537000 255 0 0
-0.076362 -0.592362 2.528000 255 0 0
-0.069378 -0.591665 2.525000 255 0 0
-0.062386 -0.590734 2.521000 255 0 0
-0.055460 -0.590270 2.519000 255 0 0
-0.048486 -0.589103 2.514000 255 0 0
-0.041556 -0.588169 2.510000 255 0 0
-0.034911 -0.591687 2.525000 255 0 0
-0.028217 -0.595908 2.543000 255 0 0
-0.021407 -0.599660 2.559000 255 0 0
-0.014443 -0.600598 2.563000 255 0 0
-0.000440 -0.590523 2.520000 255 0 0
0.232160 -0.604971 2.583000 255 0 0
-0.401361 -0.656728 2.774000 255 0 0
-0.214095 -0.562215 2.373000 255 0 0
-0.205264 -0.555835 2.346000 255 0 0
-0.196749 -0.549927 2.321000 255 0 0
-0.190092 -0.548995 2.317000 255 0 0
-0.184171 -0.550195 2.322000 255 0 0
-0.178145 -0.551158 2.326000 255 0 0
-0.171506 -0.550224 2.322000 255 0 0
-0.165245 -0.550475 2.323000 255 0 0
-0.159319 -0.551910 2.329000 255 0 0
-0.154017 -0.555714 2.345000 255 0 0
-0.148123 -0.557623 2.353000 255 0 0
-0.142427 -0.560479 2.365000 255 0 0
-0.136549 -0.562860 2.375000 255 0 0
-0.130946 -0.566663 2.391000 255 0 0
-0.124890 -0.568807 2.400000 255 0 0
-0.118390 -0.569054 2.401000 255 0 0
-0.112024 -0.570012 2.405000 255 0 0
-0.106031 -0.573102 2.418000 255 0 0
-0.103421 -0.596102 2.515000 255 0 0
-0.097824 -0.603932 2.548000 255 0 0
-0.090620 -0.602280 2.541000 255 0 0
-0.083585 -0.601577 2.538000 255 0 0
-0.076446 -0.599924 2.531000 255 0 0
-0.069427 -0.598982 2.527000 255 0 0
-0.062505 -0.598751 2.526000 255 0 0
-0.055565 -0.598282 2.524000 255 0 0
-0.048578 -0.597101 2.519000 255 0 0
-0.041602 -0.595683 2.513000 255 0 0
-0.034839 -0.597345 2.520000 255 0 0
-0.028092 -0.600192 2.532000 255 0 0
-0.021297 -0.603513 2.546000 255 0 0
-0.014385 -0.605174 2.553000 255 0 0
-0.007421 -0.605649 2.555000 255 0 0
-0.000448 -0.608731 2.568000 255 0 0
-0.224635 -0.579171 2.417000 255 0 0
-0.215792 -0.573198 2.392000 255 0 0
-0.206910 -0.566744 2.365000 255 0 0
-0.197665 -0.558852 2.332000 255 0 0
-0.190241 -0.555753 2.319000 255 0 0
-0.184077 -0.556247 2.321000 255 0 0
-0.178054 -0.557220 2.325000 255 0 0
-0.171345 -0.556036 2.320000 255 0 0
-0.165018 -0.556050 2.320000 255 0 0
-0.158895 -0.556782 2.323000 255 0 0
-0.153741 -0.561110 2.341000 255 0 0
-0.148111 -0.563998 2.353000 255 0 0
-0.142114 -0.565688 2.360000 255 0 0
-0.136308 -0.568337 2.371000 255 0 0
-0.130716 -0.572183 2.387000 255 0 0
-0.125035 -0.576029 2.403000 255 0 0
-0.118627 -0.576758 2.406000 255 0 0
-0.112155 -0.577248 2.408000 255 0 0
-0.106110 -0.580133 2.420000 255 0 0
-0.101233 -0.590211 2.462000 255 0 0
-0.090077 -0.605570 2.526000 255 0 0
-0.083018 -0.604378 2.521000 255 0 0
-0.075896 -0.602467 2.513000 255 0 0
-0.069394 -0.605590 2.526000 255 0 0
-0.062425 -0.604876 2.523000 255 0 0
-0.055648 -0.606080 2.528000 255 0 0
-0.048690 -0.605365 2.525000 255 0 0
-0.041764 -0.604890 2.523000 255 0 0
-0.034836 -0.604174 2.520000 255 0 0
-0.027968 -0.604416 2.521000 255 0 0
-0.021144 -0.606096 2.528000 255 0 0
-0.014266 -0.607057 2.532000 255 0 0
-0.007383 -0.609455 2.542000 255 0 0
-0.000447 -0.613771 2.560000 255 0 0
-0.223595 -0.583053 2.406000 255 0 0
-0.217128 -0.583313 2.407000 255 0 0
-0.208643 -0.577998 2.385000 255 0 0
-0.199514 -0.570502 2.354000 255 0 0
-0.191128 -0.564701 2.330000 255 0 0
-0.183982 -0.562293 2.320000 255 0 0
-0.177886 -0.563034 2.323000 255 0 0
-0.171183 -0.561837 2.318000 255 0 0
-0.165004 -0.562335 2.320000 255 0 0
-0.158882 -0.563076 2.323000 255 0 0
-0.153400 -0.566240 2.336000 255 0 0
-0.147910 -0.569646 2.350000 255 0 0
-0.142042 -0.571840 2.359000 255 0 0
-0.136239 -0.574518 2.370000 255 0 0
-0.130595 -0.578165 2.385000 255 0 0
-0.124817 -0.581569 2.399000 255 0 0
-0.118617 -0.583277 2.406000 255 0 0
-0.112285 -0.584498 2.411000 255 0 0
-0.106013 -0.586205 2.418000 255 0 0
-0.100690 -0.593729 2.449000 255 0 0
-0.095811 -0.605132 2.496000 255 0 0
-0.089606 -0.609261 2.513000 255 0 0
-0.082188 -0.605147 2.496000 255 0 0
-0.075437 -0.605638 2.498000 255 0 0
-0.068894 -0.608069 2.508000 255 0 0
-0.062222 -0.609772 2.515000 255 0 0
-0.055534 -0.611716 2.523000 255 0 0
-0.048724 -0.612691 2.527000 255 0 0
-0.041794 -0.612210 2.525000 255 0 0
-0.034791 -0.610273 2.517000 255 0 0
-0.027854 -0.608821 2.511000 255 0 0
-0.021042 -0.610036 2.516000 255 0 0
-0.014214 -0.611734 2.523000 255 0 0
-0.007359 -0.614402 2.534000 255 0 0
-0.000443 -0.616100 2.541000 255 0 0
-0.216569 -0.588362 2.401000 255 0 0
-0.209063 -0.585684 2.390000 255 0 0
-0.200430 -0.579574 2.365000 255 0 0
-0.191686 -0.572728 2.337000 255 0 0
-0.183967 -0.568577 2.320000 255 0 0
-0.177489 -0.568101 2.318000 255 0 0
-0.171021 -0.567625 2.316000 255 0 0
-0.165133 -0.569109 2.322000 255 0 0
-0.159074 -0.570103 2.326000 255 0 0
-0.153388 -0.572567 2.336000 255 0 0
-0.147772 -0.575521 2.348000 255 0 0
-0.142090 -0.578474 2.360000 255 0 0
-0.136170 -0.580692 2.369000 255 0 0
-0.130256 -0.583154 2.379000 255 0 0
-0.124390 -0.586106 2.391000 255 0 0
-0.118558 -0.589548 2.405000 255 0 0
-0.112322 -0.591274 2.412000 255 0 0
-0.105917 -0.592264 2.416000 255 0 0
-0.099818 -0.595214 2.428000 255 0 0
-0.094843 -0.605764 2.471000 255 0 0
-0.088315 -0.607243 2.477000 255 0 0
-0.082477 -0.614114 2.505000 255 0 0
-0.075249 -0.610934 2.492000 255 0 0
-0.068503 -0.611430 2.494000 255 0 0
-0.061771 -0.612171 2.497000 255 0 0
-0.055177 -0.614628 2.507000 255 0 0
-0.048373 -0.615122 2.509000 255 0 0
-0.041525 -0.615126 2.509000 255 0 0
-0.034609 -0.613904 2.504000 255 0 0
-0.027819 -0.614887 2.508000 255 0 0
-0.021082 -0.618076 2.521000 255 0 0
-0.014246 -0.620039 2.529000 255 0 0
-0.007364 -0.621756 2.536000 255 0 0
-0.000443 -0.622492 2.539000 255 0 0
0.006505 -0.624208 2.546000 255 0 0
0.013311 -0.617588 2.519000 255 0 0
0.019570 -0.598708 2.442000 255 0 0
0.033075 -0.601891 2.455000 255 0 0
-0.216011 -0.593378 2.395000 255 0 0
-0.207997 -0.589183 2.378000 255 0 0
-0.200922 -0.587465 2.371000 255 0 0
-0.192737 -0.582278 2.350000 255 0 0
-0.184825 -0.577585 2.331000 255 0 0
-0.177934 -0.575866 2.324000 255 0 0
-0.171598 -0.575880 2.324000 255 0 0
-0.165475 -0.576637 2.327000 255 0 0
-0.159335 -0.577394 2.330000 255 0 0
-0.153112 -0.577902 2.332000 255 0 0
-0.147508 -0.580889 2.344000 255 0 0
-0.141898 -0.584122 2.357000 255 0 0
-0.136159 -0.587108 2.369000 255 0 0
-0.130026 -0.588606 2.375000 255 0 0
-0.124172 -0.591590 2.387000 255 0 0
-0.118597 -0.596310 2.406000 255 0 0
-0.112452 -0.598550 2.415000 255 0 0
-0.106039 -0.599551 2.419000 255 0 0
-0.100673 -0.606995 2.449000 255 0 0
-0.093454 -0.603533 2.435000 255 0 0
-0.082898 -0.624120 2.518000 255 0 0
-0.075424 -0.619170 2.498000 255 0 0
-0.068223 -0.615706 2.484000 255 0 0
-0.061395 -0.615215 2.482000 255 0 0
-0.054842 -0.617699 2.492000 255 0 0
-0.048138 -0.618943 2.497000 255 0 0
-0.041323 -0.618947 2.497000 255 0 0
-0.034509 -0.618950 2.497000 255 0 0
-0.027794 -0.621184 2.506000 255 0 0
-0.021080 -0.624904 2.521000 255 0 0
-0.000441 -0.627385 2.531000 255 0 0
0.006441 -0.624906 2.521000 255 0 0
0.013057 -0.612511 2.471000 255 0 0
0.032857 -0.604573 2.439000 255 0 0
-0.228280 -0.615374 2.457000 255 0 0
-0.214010 -0.594353 2.373000 255 0 0
-0.207630 -0.594621 2.374000 255 0 0
-0.200821 -0.593635 2.370000 255 0 0
-0.193460 -0.590896 2.359000 255 0 0
-0.185603 -0.586402 2.341000 255 0 0
-0.178532 -0.584163 2.332000 255 0 0
-0.171953 -0.583425 2.329000 255 0 0
-0.165746 -0.583940 2.331000 255 0 0
-0.159595 -0.584705 2.334000 255 0 0
-0.153494 -0.585720 2.338000 255 0 0
-0.147433 -0.586985 2.343000 255 0 0
-0.141525 -0.589001 2.351000 255 0 0
-0.135803 -0.592019 2.363000 255 0 0
-0.129687 -0.593534 2.369000 255 0 0
-0.123641 -0.595548 2.377000 255 0 0
-0.117946 -0.599567 2.393000 255 0 0
-0.112257 -0.604087 2.411000 255 0 0
-0.106162 -0.606852 2.422000 255 0 0
-0.100294 -0.611371 2.440000 255 0 0
-0.094866 -0.619397 2.472000 255 0 0
-0.082760 -0.629936 2.514000 255 0 0
-0.075176 -0.623929 2.490000 255 0 0
-0.068052 -0.620928 2.478000 255 0 0
-0.061266 -0.620683 2.477000 255 0 0
-0.054683 -0.622693 2.485000 255 0 0
-0.048076 -0.624952 2.494000 255 0 0
-0.041320 -0.625708 2.497000 255 0 0
-0.034492 -0.625461 2.496000 255 0 0
-0.027703 -0.625964 2.498000 255 0 0
-0.021003 -0.629475 2.512000 255 0 0
0.006417 -0.629477 2.512000 255 0 0
-0.214173 -0.601284 2.375000 255 0 0
-0.207351 -0.600288 2.371000 255 0 0
-0.200382 -0.598786 2.365000 255 0 0
-0.193444 -0.597282 2.359000 255 0 0
-0.186222 -0.594766 2.349000 255 0 0
-0.179283 -0.593008 2.342000 255 0 0
-0.172604 -0.592010 2.338000 255 0 0
-0.166016 -0.591264 2.335000 255 0 0
-0.159787 -0.591784 2.337000 255 0 0
-0.153481 -0.592050 2.338000 255 0 0
-0.147358 -0.593075 2.342000 255 0 0
-0.141032 -0.593340 2.343000 255 0 0
-0.135159 -0.595631 2.352000 255 0 0
-0.129238 -0.597921 2.361000 255 0 0
-0.123267 -0.600211 2.370000 255 0 0
-0.117345 -0.603007 2.381000 255 0 0
-0.111689 -0.607575 2.399000 255 0 0
-0.105758 -0.611130 2.413000 255 0 0
-0.099423 -0.612658 2.419000 255 0 0
-0.075049 -0.629657 2.486000 255 0 0
-0.068156 -0.628650 2.482000 255 0 0
-0.061360 -0.628402 2.481000 255 0 0
-0.054678 -0.629420 2.485000 255 0 0
-0.047975 -0.630438 2.489000 255 0 0
-0.041267 -0.631708 2.494000 255 0 0
-0.034392 -0.630445 2.489000 255 0 0
-0.027601 -0.630448 2.489000 255 0 0
-0.020868 -0.632223 2.496000 255 0 0
-0.213975 -0.607202 2.373000 255 0 0
-0.206723 -0.604916 2.364000 255 0 0
-0.199518 -0.602629 2.355000 255 0 0
-0.192937 -0.602133 2.353000 255 0 0
-0.185890 -0.600101 2.345000 255 0 0
-0.179192 -0.599092 2.341000 255 0 0
-0.172516 -0.598083 2.337000 255 0 0
-0.166216 -0.598352 2.338000 255 0 0
-0.159979 -0.598878 2.340000 255 0 0
-0.153468 -0.598379 2.338000 255 0 0
-0.147220 -0.598903 2.340000 255 0 0
-0.140719 -0.598403 2.338000 255 0 0
-0.134746 -0.600206 2.345000 255 0 0
-0.128844 -0.602521 2.354000 255 0 0
-0.122944 -0.605091 2.364000 255 0 0
-0.116842 -0.606892 2.371000 255 0 0
-0.110934 -0.609973 2.383000 255 0 0
-0.105092 -0.613822 2.398000 255 0 0
-0.099250 -0.618182 2.415000 255 0 0
-0.094044 -0.627406 2.451000 255 0 0
-0.074952 -0.635618 2.483000 255 0 0
-0.068013 -0.634089 2.477000 255 0 0
-0.061404 -0.635630 2.483000 255 0 0
-0.054762 -0.637171 2.489000 255 0 0
-0.047952 -0.636919 2.488000 255 0 0
-0.041081 -0.635643 2.483000 255 0 0
-0.034320 -0.635902 2.484000 255 0 0
-0.027521 -0.635393 2.482000 255 0 0
-0.020782 -0.636419 2.486000 255 0 0
-0.014005 -0.636677 2.487000 255 0 0
0.226463 -0.626121 2.447000 255 0 0
-0.213688 -0.612849 2.370000 255 0 0
-0.206444 -0.610538 2.361000 255 0 0
-0.199587 -0.609261 2.356000 255 0 0
-0.193003 -0.608760 2.354000 255 0 0
-0.186192 -0.607482 2.349000 255 0 0
-0.179330 -0.605945 2.343000 255 0 0
-0.172871 -0.605701 2.342000 255 0 0
-0.166274 -0.604939 2.339000 255 0 0
-0.160103 -0.605728 2.342000 255 0 0
-0.153587 -0.605224 2.340000 255 0 0
-0.147648 -0.607047 2.347000 255 0 0
-0.141129 -0.606541 2.345000 255 0 0
-0.134965 -0.607587 2.349000 255 0 0
-0.128833 -0.608892 2.354000 255 0 0
-0.122986 -0.611747 2.365000 255 0 0
-0.116783 -0.613051 2.370000 255 0 0
-0.110832 -0.615906 2.381000 255 0 0
-0.104645 -0.617725 2.388000 255 0 0
-0.098913 -0.622649 2.407000 255 0 0
-0.092962 -0.626796 2.423000 255 0 0
-0.074704 -0.640269 2.475000 255 0 0
-0.067760 -0.638464 2.468000 255 0 0
-0.041011 -0.641328 2.479000 255 0 0
0.045756 -0.625544 2.418000 255 0 0
0.161667 -0.614782 2.377000 255 0 0
0.169774 -0.620717 2.400000 255 0 0
0.201898 -0.639536 2.473000 255 0 0
-0.212769 -0.616650 2.360000 255 0 0
-0.206602 -0.617450 2.363000 255 0 0
-0.200249 -0.617728 2.364000 255 0 0
-0.193971 -0.618266 2.366000 255 0 0
-0.186811 -0.615930 2.357000 255 0 0
-0.180081 -0.614899 2.353000 255 0 0
-0.173152 -0.613084 2.346000 255 0 0
-0.166544 -0.612314 2.343000 255 0 0
-0.160090 -0.612066 2.342000 255 0 0
-0.153640 -0.611817 2.341000 255 0 0
-0.147950 -0.614705 2.352000 255 0 0
-0.141598 -0.614978 2.353000 255 0 0
-0.135585 -0.616819 2.360000 255 0 0
-0.129260 -0.617353 2.362000 255 0 0
-0.123288 -0.619715 2.371000 255 0 0
-0.117020 -0.620771 2.375000 255 0 0
-0.110962 -0.623133 2.384000 255 0 0
-0.104636 -0.624187 2.388000 255 0 0
-0.098658 -0.627594 2.401000 255 0 0
-0.091880 -0.626034 2.395000 255 0 0
-0.074154 -0.642261 2.457000 255 0 0
-0.067178 -0.639653 2.447000 255 0 0
-0.060850 -0.643318 2.461000 255 0 0
0.033004 -0.640721 2.451000 255 0 0
