ply
format ascii 1.0
element vertex 1295
property double x
property double y
property double z
property uchar red
property uchar green
property uchar blue
end_header
-0.193108 -0.107359 2.198000 255 0 0
-0.187434 -0.107559 2.202000 255 0 0
-0.181737 -0.107759 2.206000 255 0 0
-0.175779 -0.107812 2.207000 255 0 0
-0.169737 -0.107816 2.207000 255 0 0
-0.163844 -0.107918 2.209000 255 0 0
-0.157796 -0.107922 2.209000 255 0 0
-0.151953 -0.108072 2.212000 255 0 0
-0.146027 -0.108174 2.214000 255 0 0
-0.140027 -0.108226 2.215000 255 0 0
-0.134141 -0.108376 2.218000 255 0 0
-0.128354 -0.108624 2.223000 255 0 0
-0.122649 -0.108969 2.230000 255 0 0
-0.116592 -0.109021 2.231000 255 0 0
-0.110726 -0.109268 2.236000 255 0 0
-0.105441 -0.110150 2.254000 255 0 0
-0.099088 -0.109957 2.250000 255 0 0
-0.092344 -0.109276 2.236000 255 0 0
-0.085830 -0.108789 2.226000 255 0 0
-0.079370 -0.108303 2.216000 255 0 0
-0.073131 -0.108060 2.211000 255 0 0
-0.066857 -0.107720 2.204000 255 0 0
-0.060788 -0.107673 2.203000 255 0 0
-0.054575 -0.107332 2.196000 255 0 0
-0.048399 -0.106991 2.189000 255 0 0
-0.042185 -0.106455 2.178000 255 0 0
-0.036080 -0.106065 2.170000 255 0 0
-0.030061 -0.105821 2.165000 255 0 0
-0.024080 -0.105626 2.161000 255 0 0
-0.018121 -0.105431 2.157000 255 0 0
-0.012201 -0.105383 2.156000 255 0 0
-0.006301 -0.105578 2.160000 255 0 0
-0.000380 -0.105921 2.167000 255 0 0
0.005578 -0.106214 2.173000 255 0 0
0.011552 -0.106360 2.176000 255 0 0
0.017551 -0.106555 2.180000 255 0 0
0.023550 -0.106653 2.182000 255 0 0
0.029587 -0.106848 2.186000 255 0 0
0.035662 -0.107091 2.191000 255 0 0
0.041783 -0.107383 2.197000 255 0 0
0.047850 -0.107480 2.199000 255 0 0
0.053903 -0.107528 2.200000 255 0 0
0.059989 -0.107624 2.202000 255 0 0
0.066355 -0.108160 2.213000 255 0 0
0.073436 -0.109673 2.244000 255 0 0
-0.105870 -0.485632 2.629216 255 255 0
-0.093683 -0.484332 2.623732 255 255 0
-0.096574 -0.488707 2.609021 255 255 0
-0.075142 -0.490457 2.583488 255 255 0
-0.071346 -0.492302 2.572917 255 255 0
-0.046747 -0.486200 2.575549 255 255 0
-0.033830 -0.484533 2.570880 255 255 0
-0.029238 -0.486043 2.560939 255 255 0
-0.035430 -0.491702 2.544042 255 255 0
-0.035802 -0.495134 2.530852 255 255 0
-0.011336 -0.488967 2.533855 255 255 0
-0.004278 -0.489510 2.525580 255 255 0
-0.184159 -0.553362 2.501281 0 255 0
-0.161872 -0.559747 2.499496 0 255 0
-0.134771 -0.564641 2.507384 0 255 0
-0.340671 -0.112391 2.182000 255 0 0
-0.333344 -0.111935 2.173000 255 0 0
-0.328325 -0.112252 2.179000 255 0 0
-0.323272 -0.112569 2.185000 255 0 0
-0.318911 -0.113143 2.196000 255 0 0
-0.313491 -0.113357 2.200000 255 0 0
-0.308468 -0.113725 2.207000 255 0 0
-0.287984 -0.115196 2.235000 255 0 0
-0.281756 -0.115152 2.234000 255 0 0
-0.274298 -0.114591 2.223000 255 0 0
-0.267382 -0.114237 2.216000 255 0 0
-0.261447 -0.114295 2.217000 255 0 0
-0.254929 -0.114095 2.213000 255 0 0
-0.248995 -0.114153 2.214000 255 0 0
-0.242615 -0.114005 2.211000 255 0 0
-0.236465 -0.113959 2.210000 255 0 0
-0.229902 -0.113707 2.205000 255 0 0
-0.223670 -0.113610 2.203000 255 0 0
-0.217449 -0.113512 2.201000 255 0 0
-0.211333 -0.113466 2.200000 255 0 0
-0.205129 -0.113368 2.198000 255 0 0
-0.199479 -0.113580 2.202000 255 0 0
-0.193454 -0.113585 2.202000 255 0 0
-0.187855 -0.113848 2.207000 255 0 0
-0.181732 -0.113801 2.206000 255 0 0
-0.175854 -0.113909 2.208000 255 0 0
-0.169887 -0.113965 2.209000 255 0 0
-0.163988 -0.114072 2.211000 255 0 0
-0.157934 -0.114076 2.211000 255 0 0
-0.151949 -0.114132 2.212000 255 0 0
-0.146023 -0.114239 2.214000 255 0 0
-0.140150 -0.114398 2.217000 255 0 0
-0.134198 -0.114504 2.219000 255 0 0
-0.128466 -0.114818 2.225000 255 0 0
-0.122701 -0.115130 2.231000 255 0 0
-0.116745 -0.115288 2.234000 255 0 0
-0.110921 -0.115601 2.240000 255 0 0
-0.105953 -0.116894 2.265000 255 0 0
-0.099350 -0.116432 2.256000 255 0 0
-0.092506 -0.115609 2.240000 255 0 0
-0.085827 -0.114889 2.226000 255 0 0
-0.079476 -0.114530 2.219000 255 0 0
-0.073228 -0.114274 2.214000 255 0 0
-0.066947 -0.113915 2.207000 255 0 0
-0.060814 -0.113761 2.204000 255 0 0
-0.054648 -0.113505 2.199000 255 0 0
-0.048531 -0.113300 2.195000 255 0 0
-0.042300 -0.112733 2.184000 255 0 0
-0.036212 -0.112425 2.178000 255 0 0
-0.030171 -0.112167 2.173000 255 0 0
-0.024158 -0.111910 2.168000 255 0 0
-0.018154 -0.111549 2.161000 255 0 0
-0.012207 -0.111343 2.157000 255 0 0
-0.006304 -0.111550 2.161000 255 0 0
-0.000380 -0.111860 2.167000 255 0 0
0.005580 -0.112221 2.174000 255 0 0
0.011557 -0.112376 2.177000 255 0 0
0.017558 -0.112582 2.181000 255 0 0
0.023571 -0.112736 2.184000 255 0 0
0.029626 -0.112993 2.189000 255 0 0
0.035693 -0.113199 2.193000 255 0 0
0.041801 -0.113456 2.198000 255 0 0
0.047892 -0.113610 2.201000 255 0 0
0.054049 -0.113866 2.206000 255 0 0
0.060151 -0.113968 2.208000 255 0 0
0.066443 -0.114379 2.216000 255 0 0
0.073172 -0.115410 2.236000 255 0 0
-0.104831 -0.496996 2.631347 255 255 0
-0.090135 -0.494717 2.627391 255 255 0
-0.098042 -0.501020 2.609602 255 255 0
-0.074564 -0.498660 2.598250 255 255 0
-0.070771 -0.500504 2.587686 255 255 0
-0.056986 -0.498506 2.583421 255 255 0
-0.048215 -0.498421 2.576054 255 255 0
-0.021176 -0.491270 2.580376 255 255 0
-0.025725 -0.496306 2.564610 255 255 0
-0.027769 -0.500386 2.550400 255 255 0
-0.020692 -0.500926 2.542068 255 255 0
-0.021895 -0.504690 2.528358 255 255 0
-0.326962 -0.119902 2.210000 255 0 0
-0.320646 -0.119801 2.208000 255 0 0
-0.313769 -0.119484 2.202000 255 0 0
-0.310418 -0.120522 2.221000 255 0 0
-0.287424 -0.123708 2.279000 255 0 0
-0.274415 -0.120730 2.224000 255 0 0
-0.267858 -0.120519 2.220000 255 0 0
-0.262030 -0.120635 2.222000 255 0 0
-0.255153 -0.120262 2.215000 255 0 0
-0.249101 -0.120268 2.215000 255 0 0
-0.242609 -0.120057 2.211000 255 0 0
-0.236459 -0.120009 2.210000 255 0 0
-0.230001 -0.119798 2.206000 255 0 0
-0.223766 -0.119696 2.204000 255 0 0
-0.217641 -0.119647 2.203000 255 0 0
-0.211328 -0.119490 2.200000 255 0 0
-0.205124 -0.119387 2.198000 255 0 0
-0.199655 -0.119718 2.204000 255 0 0
-0.193801 -0.119832 2.206000 255 0 0
-0.188020 -0.120000 2.209000 255 0 0
-0.181810 -0.119897 2.207000 255 0 0
-0.175929 -0.120010 2.209000 255 0 0
-0.169959 -0.120069 2.210000 255 0 0
-0.164058 -0.120183 2.212000 255 0 0
-0.158287 -0.120404 2.216000 255 0 0
-0.152357 -0.120517 2.218000 255 0 0
-0.146481 -0.120684 2.221000 255 0 0
-0.140462 -0.120743 2.222000 255 0 0
-0.134557 -0.120910 2.225000 255 0 0
-0.128578 -0.121022 2.227000 255 0 0
-0.122753 -0.121297 2.232000 255 0 0
-0.117003 -0.121681 2.239000 255 0 0
-0.111315 -0.122173 2.248000 255 0 0
-0.099435 -0.122722 2.258000 255 0 0
-0.092587 -0.121856 2.242000 255 0 0
-0.085864 -0.121043 2.227000 255 0 0
-0.079509 -0.120665 2.220000 255 0 0
-0.073226 -0.120341 2.214000 255 0 0
-0.066945 -0.119962 2.207000 255 0 0
-0.060867 -0.119910 2.206000 255 0 0
-0.054746 -0.119748 2.203000 255 0 0
-0.048684 -0.119695 2.202000 255 0 0
-0.042395 -0.118990 2.189000 255 0 0
-0.036294 -0.118665 2.183000 255 0 0
-0.030240 -0.118394 2.178000 255 0 0
-0.024168 -0.117906 2.169000 255 0 0
-0.018162 -0.117526 2.162000 255 0 0
-0.012212 -0.117309 2.158000 255 0 0
-0.006315 -0.117689 2.165000 255 0 0
-0.000380 -0.117907 2.169000 255 0 0
0.005588 -0.118342 2.177000 255 0 0
0.011572 -0.118505 2.180000 255 0 0
0.017582 -0.118722 2.184000 255 0 0
0.023602 -0.118884 2.187000 255 0 0
0.029666 -0.119155 2.192000 255 0 0
0.035725 -0.119317 2.195000 255 0 0
0.041762 -0.119371 2.196000 255 0 0
0.047826 -0.119478 2.198000 255 0 0
0.054023 -0.119857 2.205000 255 0 0
0.060204 -0.120127 2.210000 255 0 0
0.066472 -0.120506 2.217000 255 0 0
0.073236 -0.121645 2.238000 255 0 0
-0.084559 -0.494446 2.670855 255 255 0
-0.101735 -0.504276 2.647647 255 255 0
-0.092065 -0.503885 2.640608 255 255 0
-0.093284 -0.507654 2.626955 255 255 0
-0.085300 -0.507898 2.618928 255 255 0
-0.079829 -0.509101 2.609379 255 255 0
-0.074364 -0.510302 2.599842 255 255 0
-0.066403 -0.510535 2.591880 255 255 0
-0.051794 -0.508181 2.588140 255 255 0
-0.036379 -0.505493 2.584993 255 255 0
-0.034274 -0.507969 2.573450 255 255 0
-0.013485 -0.506437 2.561025 255 255 0
0.004336 -0.502736 2.559705 255 255 0
-0.284264 -0.128519 2.254000 255 0 0
-0.274408 -0.126816 2.224000 255 0 0
-0.267610 -0.126481 2.218000 255 0 0
-0.261669 -0.126545 2.219000 255 0 0
-0.255377 -0.126438 2.217000 255 0 0
-0.249432 -0.126502 2.218000 255 0 0
-0.243151 -0.126395 2.216000 255 0 0
-0.236560 -0.126116 2.211000 255 0 0
-0.230203 -0.125951 2.208000 255 0 0
-0.223659 -0.125673 2.203000 255 0 0
-0.217437 -0.125565 2.201000 255 0 0
-0.211130 -0.125399 2.198000 255 0 0
-0.205212 -0.125462 2.199000 255 0 0
-0.199921 -0.125924 2.207000 255 0 0
-0.193971 -0.125987 2.208000 255 0 0
-0.187844 -0.125935 2.207000 255 0 0
-0.181805 -0.125941 2.207000 255 0 0
-0.176083 -0.126174 2.211000 255 0 0
-0.170339 -0.126407 2.215000 255 0 0
-0.164276 -0.126412 2.215000 255 0 0
-0.158497 -0.126645 2.219000 255 0 0
-0.152834 -0.126992 2.225000 255 0 0
-0.146873 -0.127110 2.227000 255 0 0
-0.140774 -0.127115 2.227000 255 0 0
-0.134735 -0.127176 2.228000 255 0 0
-0.128748 -0.127294 2.230000 255 0 0
-0.122804 -0.127469 2.233000 255 0 0
-0.117105 -0.127929 2.241000 255 0 0
-0.111708 -0.128788 2.256000 255 0 0
-0.106883 -0.130447 2.285000 255 0 0
-0.099256 -0.128680 2.254000 255 0 0
-0.092584 -0.127998 2.242000 255 0 0
-0.086015 -0.127373 2.231000 255 0 0
-0.079614 -0.126918 2.223000 255 0 0
-0.073290 -0.126521 2.216000 255 0 0
-0.066913 -0.125952 2.206000 255 0 0
-0.060866 -0.125954 2.206000 255 0 0
-0.054769 -0.125842 2.204000 255 0 0
-0.048705 -0.125786 2.203000 255 0 0
-0.042472 -0.125216 2.193000 255 0 0
-0.036376 -0.124932 2.188000 255 0 0
-0.030267 -0.124476 2.180000 255 0 0
-0.024179 -0.123906 2.170000 255 0 0
-0.018179 -0.123564 2.164000 255 0 0
-0.012234 -0.123450 2.162000 255 0 0
-0.006324 -0.123793 2.168000 255 0 0
-0.000380 -0.123850 2.169000 255 0 0
0.005577 -0.124079 2.173000 255 0 0
0.011556 -0.124307 2.177000 255 0 0
0.017549 -0.124478 2.180000 255 0 0
0.023591 -0.124820 2.186000 255 0 0
0.029665 -0.125162 2.192000 255 0 0
0.035756 -0.125446 2.197000 255 0 0
0.041817 -0.125559 2.199000 255 0 0
0.047868 -0.125615 2.200000 255 0 0
0.054070 -0.126013 2.207000 255 0 0
0.060202 -0.126183 2.210000 255 0 0
0.066410 -0.126466 2.215000 255 0 0
0.073037 -0.127435 2.232000 255 0 0
-0.088519 -0.514254 2.644260 255 255 0
-0.087229 -0.517067 2.632148 255 255 0
-0.074240 -0.515354 2.627212 255 255 0
-0.063774 -0.514602 2.620785 255 255 0
-0.057491 -0.515466 2.611807 255 255 0
-0.062038 -0.520549 2.596073 255 255 0
-0.052428 -0.520111 2.589190 255 255 0
-0.027046 -0.513478 2.592340 255 255 0
-0.034078 -0.519542 2.575006 255 255 0
-0.275017 -0.133200 2.229000 255 0 0
-0.267844 -0.132670 2.220000 255 0 0
-0.261426 -0.132498 2.217000 255 0 0
-0.255370 -0.132506 2.217000 255 0 0
-0.249312 -0.132513 2.217000 255 0 0
-0.243254 -0.132520 2.217000 255 0 0
-0.236767 -0.132288 2.213000 255 0 0
-0.230196 -0.131996 2.208000 255 0 0
-0.223754 -0.131763 2.204000 255 0 0
-0.217530 -0.131650 2.202000 255 0 0
-0.211316 -0.131537 2.200000 255 0 0
-0.205299 -0.131543 2.200000 255 0 0
-0.199462 -0.131668 2.202000 255 0 0
-0.193877 -0.131973 2.207000 255 0 0
-0.187924 -0.132038 2.208000 255 0 0
-0.182376 -0.132403 2.214000 255 0 0
-0.176636 -0.132647 2.218000 255 0 0
-0.170796 -0.132832 2.221000 255 0 0
-0.164790 -0.132897 2.222000 255 0 0
-0.158993 -0.133141 2.226000 255 0 0
-0.153447 -0.133624 2.234000 255 0 0
-0.147132 -0.133449 2.231000 255 0 0
-0.141023 -0.133454 2.231000 255 0 0
-0.134912 -0.133458 2.231000 255 0 0
-0.129033 -0.133701 2.235000 255 0 0
-0.123130 -0.133944 2.239000 255 0 0
-0.117467 -0.134486 2.248000 255 0 0
-0.112051 -0.135387 2.263000 255 0 0
-0.105804 -0.135331 2.262000 255 0 0
-0.099121 -0.134676 2.251000 255 0 0
-0.092705 -0.134320 2.245000 255 0 0
-0.086398 -0.134083 2.241000 255 0 0
-0.079827 -0.133368 2.229000 255 0 0
-0.073354 -0.132712 2.218000 255 0 0
-0.066850 -0.131876 2.204000 255 0 0
-0.060754 -0.131759 2.202000 255 0 0
-0.054643 -0.131581 2.199000 255 0 0
-0.048593 -0.131523 2.198000 255 0 0
-0.042412 -0.131045 2.190000 255 0 0
-0.036359 -0.130867 2.187000 255 0 0
-0.030210 -0.130210 2.176000 255 0 0
-0.024178 -0.129852 2.170000 255 0 0
-0.018178 -0.129493 2.164000 255 0 0
-0.012251 -0.129554 2.165000 255 0 0
-0.006321 -0.129674 2.167000 255 0 0
-0.000380 -0.129734 2.168000 255 0 0
0.005577 -0.130033 2.173000 255 0 0
0.011556 -0.130272 2.177000 255 0 0
0.017565 -0.130571 2.182000 255 0 0
0.023601 -0.130869 2.187000 255 0 0
0.029664 -0.131167 2.192000 255 0 0
0.035739 -0.131406 2.196000 255 0 0
0.041816 -0.131584 2.199000 255 0 0
0.047866 -0.131643 2.200000 255 0 0
0.054020 -0.131940 2.205000 255 0 0
0.060064 -0.131938 2.205000 255 0 0
0.066288 -0.132295 2.211000 255 0 0
0.072741 -0.133011 2.223000 255 0 0
-0.074936 -0.520708 2.654005 255 255 0
-0.078672 -0.525477 2.638867 255 255 0
-0.069034 -0.525035 2.631893 255 255 0
-0.056908 -0.523606 2.626501 255 255 0
-0.048965 -0.523804 2.618572 255 255 0
-0.056012 -0.529892 2.601302 255 255 0
-0.048904 -0.530417 2.592858 255 255 0
-0.021044 -0.522728 2.597573 255 255 0
-0.006509 -0.520275 2.593987 255 255 0
-0.287779 -0.142603 2.282000 255 0 0
-0.275996 -0.139799 2.237000 255 0 0
-0.268680 -0.139182 2.227000 255 0 0
-0.261772 -0.138752 2.220000 255 0 0
-0.255708 -0.138760 2.220000 255 0 0
-0.249305 -0.138580 2.217000 255 0 0
-0.243357 -0.138650 2.218000 255 0 0
-0.236867 -0.138407 2.214000 255 0 0
-0.230398 -0.138164 2.210000 255 0 0
-0.223747 -0.137796 2.204000 255 0 0
-0.217523 -0.137678 2.202000 255 0 0
-0.211502 -0.137684 2.202000 255 0 0
-0.205573 -0.137753 2.203000 255 0 0
-0.199456 -0.137697 2.202000 255 0 0
-0.193696 -0.137890 2.205000 255 0 0
-0.187578 -0.137834 2.204000 255 0 0
-0.182288 -0.138402 2.213000 255 0 0
-0.176630 -0.138721 2.218000 255 0 0
-0.171175 -0.139226 2.226000 255 0 0
-0.165304 -0.139419 2.229000 255 0 0
-0.159345 -0.139549 2.231000 255 0 0
-0.153511 -0.139805 2.235000 255 0 0
-0.147128 -0.139559 2.231000 255 0 0
-0.141398 -0.139939 2.237000 255 0 0
-0.135392 -0.140068 2.239000 255 0 0
-0.129606 -0.140448 2.245000 255 0 0
-0.123456 -0.140452 2.245000 255 0 0
-0.117620 -0.140831 2.251000 255 0 0
-0.112196 -0.141773 2.266000 255 0 0
-0.104724 -0.140088 2.239000 255 0 0
-0.098986 -0.140654 2.248000 255 0 0
-0.092785 -0.140594 2.247000 255 0 0
-0.086588 -0.140535 2.246000 255 0 0
-0.080003 -0.139787 2.234000 255 0 0
-0.073484 -0.139038 2.222000 255 0 0
-0.066969 -0.138164 2.208000 255 0 0
-0.060807 -0.137916 2.204000 255 0 0
-0.054616 -0.137543 2.198000 255 0 0
-0.048569 -0.137482 2.197000 255 0 0
-0.042469 -0.137233 2.193000 255 0 0
-0.036424 -0.137109 2.191000 255 0 0
-0.030293 -0.136547 2.182000 255 0 0
-0.024222 -0.136047 2.174000 255 0 0
-0.018211 -0.135672 2.168000 255 0 0
-0.012256 -0.135548 2.166000 255 0 0
-0.006318 -0.135548 2.166000 255 0 0
-0.000380 -0.135611 2.167000 255 0 0
0.005567 -0.135736 2.169000 255 0 0
0.011534 -0.135986 2.173000 255 0 0
0.017548 -0.136423 2.180000 255 0 0
0.023600 -0.136861 2.187000 255 0 0
0.029691 -0.137298 2.194000 255 0 0
0.035787 -0.137610 2.199000 255 0 0
0.041872 -0.137796 2.202000 255 0 0
0.047930 -0.137857 2.203000 255 0 0
0.054091 -0.138169 2.208000 255 0 0
0.060198 -0.138292 2.210000 255 0 0
0.066376 -0.138540 2.214000 255 0 0
0.072804 -0.139226 2.225000 255 0 0
-0.073463 -0.535157 2.643538 255 255 0
-0.060494 -0.533379 2.638618 255 255 0
-0.055882 -0.534883 2.628607 255 255 0
-0.037117 -0.530782 2.627397 255 255 0
-0.042505 -0.536237 2.611205 255 255 0
-0.045381 -0.540711 2.596525 255 255 0
-0.013387 -0.531290 2.603851 255 255 0
-0.276728 -0.146310 2.243000 255 0 0
-0.268914 -0.145406 2.229000 255 0 0
-0.262472 -0.145218 2.226000 255 0 0
-0.256276 -0.145161 2.225000 255 0 0
-0.249860 -0.144973 2.222000 255 0 0
-0.243349 -0.144720 2.218000 255 0 0
-0.236966 -0.144531 2.215000 255 0 0
-0.230391 -0.144213 2.210000 255 0 0
-0.223943 -0.143959 2.206000 255 0 0
-0.217714 -0.143835 2.204000 255 0 0
-0.211783 -0.143907 2.205000 255 0 0
-0.205846 -0.143979 2.206000 255 0 0
-0.199541 -0.143790 2.203000 255 0 0
-0.193953 -0.144123 2.208000 255 0 0
-0.187912 -0.144129 2.208000 255 0 0
-0.182530 -0.144657 2.216000 255 0 0
-0.176704 -0.144859 2.219000 255 0 0
-0.171323 -0.145452 2.228000 255 0 0
-0.165670 -0.145849 2.234000 255 0 0
-0.159625 -0.145920 2.235000 255 0 0
-0.153506 -0.145925 2.235000 255 0 0
-0.147585 -0.146126 2.238000 255 0 0
-0.141962 -0.146653 2.246000 255 0 0
-0.136113 -0.146984 2.251000 255 0 0
-0.130064 -0.147119 2.253000 255 0 0
-0.123782 -0.146992 2.251000 255 0 0
-0.117668 -0.147062 2.252000 255 0 0
-0.111449 -0.147000 2.251000 255 0 0
-0.107060 -0.149485 2.289000 255 0 0
-0.099071 -0.146942 2.250000 255 0 0
-0.092782 -0.146749 2.247000 255 0 0
-0.086508 -0.146556 2.244000 255 0 0
-0.080001 -0.145906 2.234000 255 0 0
-0.073548 -0.145255 2.224000 255 0 0
-0.067149 -0.144605 2.214000 255 0 0
-0.060860 -0.144084 2.206000 255 0 0
-0.054639 -0.143629 2.199000 255 0 0
-0.048568 -0.143500 2.197000 255 0 0
-0.042506 -0.143371 2.195000 255 0 0
-0.036423 -0.143111 2.191000 255 0 0
-0.030278 -0.142459 2.181000 255 0 0
-0.024221 -0.142003 2.174000 255 0 0
-0.018202 -0.141546 2.167000 255 0 0
-0.012261 -0.141547 2.167000 255 0 0
-0.006321 -0.141547 2.167000 255 0 0
-0.000380 -0.141612 2.168000 255 0 0
0.005571 -0.141808 2.171000 255 0 0
0.011545 -0.142069 2.175000 255 0 0
0.017564 -0.142526 2.182000 255 0 0
0.023578 -0.142721 2.185000 255 0 0
0.029690 -0.143308 2.194000 255 0 0
0.035769 -0.143568 2.198000 255 0 0
0.041871 -0.143828 2.202000 255 0 0
0.047863 -0.143696 2.200000 255 0 0
0.054016 -0.144021 2.205000 255 0 0
0.060169 -0.144280 2.209000 255 0 0
0.066523 -0.144931 2.219000 255 0 0
0.073129 -0.145974 2.235000 255 0 0
-0.023192 -0.540180 2.624725 255 255 0
-0.019837 -0.545485 2.601209 255 255 0
-0.275856 -0.151971 2.236000 255 0 0
-0.268905 -0.151504 2.229000 255 0 0
-0.262699 -0.151444 2.228000 255 0 0
-0.256729 -0.151521 2.229000 255 0 0
-0.250189 -0.151257 2.225000 255 0 0
-0.243780 -0.151061 2.222000 255 0 0
-0.237280 -0.150797 2.218000 255 0 0
-0.230905 -0.150600 2.215000 255 0 0
-0.224241 -0.150200 2.209000 255 0 0
-0.218003 -0.150071 2.207000 255 0 0
-0.212065 -0.150146 2.208000 255 0 0
-0.206213 -0.150289 2.210000 255 0 0
-0.199896 -0.150092 2.207000 255 0 0
-0.194035 -0.150235 2.209000 255 0 0
-0.188162 -0.150377 2.211000 255 0 0
-0.182688 -0.150859 2.218000 255 0 0
-0.177017 -0.151205 2.223000 255 0 0
-0.171394 -0.151620 2.229000 255 0 0
-0.165664 -0.151965 2.234000 255 0 0
-0.159477 -0.151903 2.233000 255 0 0
-0.153433 -0.151976 2.234000 255 0 0
-0.147712 -0.152389 2.240000 255 0 0
-0.142336 -0.153211 2.252000 255 0 0
-0.136471 -0.153556 2.257000 255 0 0
-0.130406 -0.153696 2.259000 255 0 0
-0.123998 -0.153429 2.255000 255 0 0
-0.117821 -0.153433 2.255000 255 0 0
-0.099464 -0.153716 2.259000 255 0 0
-0.093026 -0.153311 2.253000 255 0 0
-0.086544 -0.152770 2.245000 255 0 0
-0.080177 -0.152365 2.239000 255 0 0
-0.073744 -0.151755 2.230000 255 0 0
-0.067480 -0.151417 2.225000 255 0 0
-0.061134 -0.150807 2.216000 255 0 0
-0.054886 -0.150333 2.209000 255 0 0
-0.048743 -0.150062 2.205000 255 0 0
-0.042621 -0.149792 2.201000 255 0 0
-0.036438 -0.149180 2.192000 255 0 0
-0.030304 -0.148569 2.183000 255 0 0
-0.024231 -0.148026 2.175000 255 0 0
-0.018235 -0.147754 2.171000 255 0 0
-0.012267 -0.147550 2.168000 255 0 0
-0.006329 -0.147687 2.170000 255 0 0
-0.000380 -0.147755 2.171000 255 0 0
0.005579 -0.147959 2.174000 255 0 0
0.011544 -0.148027 2.175000 255 0 0
0.017555 -0.148435 2.181000 255 0 0
0.023555 -0.148570 2.183000 255 0 0
0.029661 -0.149182 2.192000 255 0 0
0.035768 -0.149589 2.198000 255 0 0
0.041869 -0.149860 2.202000 255 0 0
0.047927 -0.149926 2.203000 255 0 0
0.054014 -0.150061 2.205000 255 0 0
0.060194 -0.150399 2.210000 255 0 0
0.066491 -0.150941 2.218000 255 0 0
0.073551 -0.152980 2.248000 255 0 0
-0.037512 -0.560930 2.604375 255 255 0
-0.269379 -0.157884 2.233000 255 0 0
-0.263280 -0.157893 2.233000 255 0 0
-0.257066 -0.157831 2.232000 255 0 0
-0.250631 -0.157627 2.229000 255 0 0
-0.244101 -0.157353 2.225000 255 0 0
-0.237700 -0.157149 2.222000 255 0 0
-0.231105 -0.156803 2.217000 255 0 0
-0.224436 -0.156386 2.211000 255 0 0
-0.218391 -0.156394 2.211000 255 0 0
-0.212538 -0.156543 2.213000 255 0 0
-0.206672 -0.156691 2.215000 255 0 0
-0.200161 -0.156345 2.210000 255 0 0
-0.194467 -0.156635 2.214000 255 0 0
-0.188581 -0.156783 2.216000 255 0 0
-0.182929 -0.157143 2.221000 255 0 0
-0.177170 -0.157432 2.225000 255 0 0
-0.171388 -0.157721 2.229000 255 0 0
-0.165658 -0.158081 2.234000 255 0 0
-0.159543 -0.158087 2.234000 255 0 0
-0.153633 -0.158305 2.237000 255 0 0
-0.147970 -0.158805 2.244000 255 0 0
-0.142394 -0.159447 2.253000 255 0 0
-0.136527 -0.159806 2.258000 255 0 0
-0.130401 -0.159882 2.259000 255 0 0
-0.124269 -0.159957 2.260000 255 0 0
-0.118235 -0.160174 2.263000 255 0 0
-0.099944 -0.160681 2.270000 255 0 0
-0.092940 -0.159340 2.251000 255 0 0
-0.086348 -0.158564 2.240000 255 0 0
-0.080067 -0.158284 2.236000 255 0 0
-0.073774 -0.157933 2.231000 255 0 0
-0.067569 -0.157723 2.228000 255 0 0
-0.061242 -0.157159 2.220000 255 0 0
-0.055058 -0.156878 2.216000 255 0 0
-0.048851 -0.156455 2.210000 255 0 0
-0.042639 -0.155890 2.202000 255 0 0
-0.036404 -0.155042 2.190000 255 0 0
-0.030276 -0.154406 2.181000 255 0 0
-0.024241 -0.154053 2.176000 255 0 0
-0.018234 -0.153700 2.171000 255 0 0
-0.012283 -0.153701 2.171000 255 0 0
-0.006338 -0.153843 2.173000 255 0 0
-0.000381 -0.154055 2.176000 255 0 0
0.005592 -0.154267 2.179000 255 0 0
0.011570 -0.154338 2.180000 255 0 0
0.017586 -0.154691 2.185000 255 0 0
0.023576 -0.154691 2.185000 255 0 0
0.029620 -0.154973 2.189000 255 0 0
0.035669 -0.155184 2.192000 255 0 0
0.041792 -0.155607 2.198000 255 0 0
0.047903 -0.155889 2.202000 255 0 0
0.054012 -0.156099 2.205000 255 0 0
0.060083 -0.156168 2.206000 255 0 0
0.066309 -0.156591 2.212000 255 0 0
-0.283239 -0.168609 2.296000 255 0 0
-0.271179 -0.165093 2.248000 255 0 0
-0.263743 -0.164295 2.237000 255 0 0
-0.257287 -0.164083 2.234000 255 0 0
-0.250510 -0.163652 2.228000 255 0 0
-0.244312 -0.163587 2.227000 255 0 0
-0.237585 -0.163154 2.221000 255 0 0
-0.231097 -0.162869 2.217000 255 0 0
-0.224428 -0.162436 2.211000 255 0 0
-0.218680 -0.162664 2.214000 255 0 0
-0.212818 -0.162819 2.216000 255 0 0
-0.206852 -0.162900 2.217000 255 0 0
-0.200426 -0.162613 2.213000 255 0 0
-0.194724 -0.162914 2.217000 255 0 0
-0.188659 -0.162921 2.217000 255 0 0
-0.183170 -0.163442 2.224000 255 0 0
-0.177243 -0.163596 2.226000 255 0 0
-0.171459 -0.163896 2.230000 255 0 0
-0.165430 -0.163976 2.231000 255 0 0
-0.159466 -0.164129 2.233000 255 0 0
-0.153696 -0.164502 2.238000 255 0 0
-0.148031 -0.165022 2.245000 255 0 0
-0.142326 -0.165542 2.252000 255 0 0
-0.136522 -0.165988 2.258000 255 0 0
-0.130512 -0.166214 2.261000 255 0 0
-0.124594 -0.166586 2.266000 255 0 0
-0.118753 -0.167105 2.273000 255 0 0
-0.092978 -0.165577 2.252000 255 0 0
-0.086422 -0.164845 2.242000 255 0 0
-0.080100 -0.164480 2.237000 255 0 0
-0.073738 -0.163969 2.230000 255 0 0
-0.067475 -0.163604 2.225000 255 0 0
-0.061184 -0.163091 2.218000 255 0 0
-0.054981 -0.162726 2.213000 255 0 0
-0.048805 -0.162360 2.208000 255 0 0
-0.042637 -0.161921 2.202000 255 0 0
-0.036485 -0.161407 2.195000 255 0 0
-0.030358 -0.160820 2.187000 255 0 0
-0.024307 -0.160454 2.182000 255 0 0
-0.018276 -0.160013 2.176000 255 0 0
-0.012300 -0.159867 2.174000 255 0 0
-0.006346 -0.160014 2.176000 255 0 0
-0.000381 -0.160088 2.177000 255 0 0
0.005597 -0.160382 2.181000 255 0 0
0.011580 -0.160455 2.182000 255 0 0
0.017610 -0.160896 2.188000 255 0 0
0.023618 -0.160969 2.189000 255 0 0
0.029632 -0.161041 2.190000 255 0 0
0.035635 -0.161040 2.190000 255 0 0
0.041752 -0.161480 2.196000 255 0 0
0.047880 -0.161846 2.201000 255 0 0
0.054059 -0.162285 2.207000 255 0 0
0.060108 -0.162283 2.207000 255 0 0
0.066306 -0.162648 2.212000 255 0 0
0.073153 -0.164410 2.236000 255 0 0
-0.270567 -0.170861 2.243000 255 0 0
-0.263734 -0.170413 2.237000 255 0 0
-0.257393 -0.170270 2.235000 255 0 0
-0.250613 -0.169822 2.229000 255 0 0
-0.244304 -0.169679 2.227000 255 0 0
-0.237255 -0.169002 2.218000 255 0 0
-0.230985 -0.168858 2.216000 255 0 0
-0.224623 -0.168638 2.213000 255 0 0
-0.219067 -0.169027 2.218000 255 0 0
-0.213099 -0.169111 2.219000 255 0 0
-0.207031 -0.169119 2.219000 255 0 0
-0.200781 -0.168974 2.217000 255 0 0
-0.195068 -0.169286 2.221000 255 0 0
-0.188737 -0.169064 2.218000 255 0 0
-0.183081 -0.169452 2.223000 255 0 0
-0.177078 -0.169535 2.224000 255 0 0
-0.171530 -0.170076 2.231000 255 0 0
-0.165350 -0.170006 2.230000 255 0 0
-0.159531 -0.170317 2.234000 255 0 0
-0.153897 -0.170856 2.241000 255 0 0
-0.148421 -0.171625 2.251000 255 0 0
-0.142574 -0.172011 2.256000 255 0 0
-0.136578 -0.172245 2.259000 255 0 0
-0.130564 -0.172479 2.262000 255 0 0
-0.124809 -0.173094 2.270000 255 0 0
-0.119062 -0.173785 2.279000 255 0 0
-0.100465 -0.174027 2.282000 255 0 0
-0.092892 -0.171590 2.250000 255 0 0
-0.086342 -0.170831 2.240000 255 0 0
-0.079953 -0.170300 2.233000 255 0 0
-0.073702 -0.169998 2.229000 255 0 0
-0.067382 -0.169467 2.222000 255 0 0
-0.061182 -0.169164 2.218000 255 0 0
-0.054880 -0.168480 2.209000 255 0 0
-0.048759 -0.168253 2.206000 255 0 0
-0.042655 -0.168026 2.203000 255 0 0
-0.036534 -0.167647 2.198000 255 0 0
-0.030371 -0.166885 2.188000 255 0 0
-0.024318 -0.166505 2.183000 255 0 0
-0.018275 -0.165972 2.176000 255 0 0
-0.012327 -0.166201 2.179000 255 0 0
-0.006349 -0.166049 2.177000 255 0 0
-0.000382 -0.166202 2.179000 255 0 0
0.005594 -0.166278 2.180000 255 0 0
0.011585 -0.166506 2.183000 255 0 0
0.017617 -0.166963 2.189000 255 0 0
0.023661 -0.167268 2.193000 255 0 0
0.029699 -0.167419 2.195000 255 0 0
0.035699 -0.167342 2.194000 255 0 0
0.041788 -0.167645 2.198000 255 0 0
0.047921 -0.168025 2.203000 255 0 0
0.054180 -0.168709 2.212000 255 0 0
0.060187 -0.168555 2.210000 255 0 0
0.066274 -0.168628 2.211000 255 0 0
-0.269592 -0.176363 2.235000 255 0 0
-0.263253 -0.176215 2.233000 255 0 0
-0.257614 -0.176541 2.237000 255 0 0
-0.250716 -0.175998 2.230000 255 0 0
-0.244733 -0.176086 2.231000 255 0 0
-0.237781 -0.175463 2.223000 255 0 0
-0.231602 -0.175393 2.222000 255 0 0
-0.225325 -0.175244 2.220000 255 0 0
-0.219849 -0.175726 2.226000 255 0 0
-0.213571 -0.175576 2.224000 255 0 0
-0.207210 -0.175348 2.221000 255 0 0
-0.200864 -0.175119 2.218000 255 0 0
-0.194973 -0.175284 2.220000 255 0 0
-0.188900 -0.175291 2.220000 255 0 0
-0.182991 -0.175457 2.222000 255 0 0
-0.177150 -0.175700 2.225000 255 0 0
-0.171600 -0.176260 2.232000 255 0 0
-0.165714 -0.176503 2.235000 255 0 0
-0.159668 -0.176589 2.236000 255 0 0
-0.154097 -0.177227 2.244000 255 0 0
-0.148481 -0.177864 2.252000 255 0 0
-0.142821 -0.178502 2.260000 255 0 0
-0.136754 -0.178666 2.262000 255 0 0
-0.130790 -0.178987 2.266000 255 0 0
-0.125024 -0.179624 2.274000 255 0 0
-0.119475 -0.180655 2.287000 255 0 0
-0.093425 -0.178777 2.263000 255 0 0
-0.086685 -0.177674 2.249000 255 0 0
-0.080129 -0.176808 2.238000 255 0 0
-0.073732 -0.176179 2.230000 255 0 0
-0.067379 -0.175550 2.222000 255 0 0
-0.061097 -0.175000 2.215000 255 0 0
-0.054828 -0.174370 2.207000 255 0 0
-0.048757 -0.174293 2.206000 255 0 0
-0.042731 -0.174374 2.207000 255 0 0
-0.036566 -0.173823 2.200000 255 0 0
-0.030369 -0.172876 2.188000 255 0 0
-0.024305 -0.172403 2.182000 255 0 0
-0.018308 -0.172246 2.180000 255 0 0
-0.012338 -0.172325 2.181000 255 0 0
-0.006354 -0.172168 2.179000 255 0 0
-0.000381 -0.171931 2.176000 255 0 0
0.005594 -0.172247 2.180000 255 0 0
0.011580 -0.172404 2.182000 255 0 0
0.017617 -0.172957 2.189000 255 0 0
0.023649 -0.173193 2.192000 255 0 0
0.029711 -0.173508 2.196000 255 0 0
0.035763 -0.173665 2.198000 255 0 0
0.041863 -0.173979 2.202000 255 0 0
0.048028 -0.174451 2.208000 255 0 0
0.054202 -0.174844 2.213000 255 0 0
0.060158 -0.174526 2.209000 255 0 0
0.066241 -0.174603 2.210000 255 0 0
-0.268979 -0.182067 2.230000 255 0 0
-0.264068 -0.182893 2.240000 255 0 0
-0.258065 -0.182985 2.241000 255 0 0
-0.251494 -0.182668 2.237000 255 0 0
-0.245382 -0.182677 2.237000 255 0 0
-0.238521 -0.182115 2.230000 255 0 0
-0.232218 -0.181961 2.228000 255 0 0
-0.226027 -0.181888 2.227000 255 0 0
-0.220137 -0.182060 2.229000 255 0 0
-0.213755 -0.181824 2.226000 255 0 0
-0.207202 -0.181424 2.221000 255 0 0
-0.200766 -0.181105 2.217000 255 0 0
-0.195053 -0.181439 2.221000 255 0 0
-0.189233 -0.181692 2.224000 255 0 0
-0.183396 -0.181945 2.227000 255 0 0
-0.177303 -0.181952 2.227000 255 0 0
-0.171286 -0.182041 2.228000 255 0 0
-0.165633 -0.182538 2.234000 255 0 0
-0.159733 -0.182789 2.237000 255 0 0
-0.154297 -0.183613 2.247000 255 0 0
-0.148607 -0.184191 2.254000 255 0 0
-0.143131 -0.185096 2.265000 255 0 0
-0.137111 -0.185347 2.268000 255 0 0
-0.131074 -0.185597 2.271000 255 0 0
-0.125239 -0.186174 2.278000 255 0 0
-0.119836 -0.187487 2.294000 255 0 0
-0.093504 -0.185134 2.265000 255 0 0
-0.086720 -0.183912 2.250000 255 0 0
-0.080198 -0.183098 2.240000 255 0 0
-0.073829 -0.182529 2.233000 255 0 0
-0.067528 -0.182042 2.227000 255 0 0
-0.061288 -0.181636 2.222000 255 0 0
-0.055025 -0.181066 2.215000 255 0 0
-0.048866 -0.180741 2.211000 255 0 0
-0.042710 -0.180334 2.206000 255 0 0
-0.036531 -0.179682 2.198000 255 0 0
-0.030326 -0.178620 2.185000 255 0 0
-0.024293 -0.178295 2.181000 255 0 0
-0.018299 -0.178132 2.179000 255 0 0
-0.012343 -0.178378 2.182000 255 0 0
-0.006357 -0.178215 2.180000 255 0 0
-0.000382 -0.178297 2.181000 255 0 0
0.005609 -0.178705 2.186000 255 0 0
0.011627 -0.179114 2.191000 255 0 0
0.017672 -0.179522 2.196000 255 0 0
0.023702 -0.179603 2.197000 255 0 0
0.029737 -0.179683 2.198000 255 0 0
0.035842 -0.180091 2.203000 255 0 0
0.041937 -0.180334 2.206000 255 0 0
0.048157 -0.180986 2.214000 255 0 0
0.054151 -0.180739 2.211000 255 0 0
0.060101 -0.180410 2.207000 255 0 0
0.066059 -0.180162 2.204000 255 0 0
-0.270898 -0.189514 2.246000 255 0 0
-0.264294 -0.189187 2.242000 255 0 0
-0.258285 -0.189281 2.243000 255 0 0
-0.252046 -0.189207 2.242000 255 0 0
-0.245921 -0.189217 2.242000 255 0 0
-0.239153 -0.188720 2.236000 255 0 0
-0.232626 -0.188392 2.232000 255 0 0
-0.226323 -0.188232 2.230000 255 0 0
-0.220227 -0.188241 2.230000 255 0 0
-0.213842 -0.187997 2.227000 255 0 0
-0.207287 -0.187583 2.222000 255 0 0
-0.200848 -0.187254 2.218000 255 0 0
-0.195045 -0.187515 2.221000 255 0 0
-0.189311 -0.187861 2.225000 255 0 0
-0.183636 -0.188291 2.230000 255 0 0
-0.177534 -0.188298 2.230000 255 0 0
-0.171356 -0.188221 2.229000 255 0 0
-0.165404 -0.188397 2.231000 255 0 0
-0.159584 -0.188741 2.235000 255 0 0
-0.154222 -0.189677 2.246000 255 0 0
-0.148535 -0.190274 2.253000 255 0 0
-0.143125 -0.191294 2.265000 255 0 0
-0.137347 -0.191891 2.272000 255 0 0
-0.131414 -0.192319 2.277000 255 0 0
-0.125454 -0.192746 2.282000 255 0 0
-0.122495 -0.198073 2.345000 255 0 0
-0.093211 -0.190742 2.258000 255 0 0
-0.086601 -0.189817 2.247000 255 0 0
-0.080230 -0.189314 2.241000 255 0 0
-0.073859 -0.188725 2.234000 255 0 0
-0.067525 -0.188137 2.227000 255 0 0
-0.061175 -0.187380 2.218000 255 0 0
-0.054973 -0.186960 2.213000 255 0 0
-0.048842 -0.186708 2.210000 255 0 0
-0.042650 -0.186119 2.203000 255 0 0
-0.036496 -0.185529 2.196000 255 0 0
-0.030367 -0.184855 2.188000 255 0 0
-0.024326 -0.184518 2.184000 255 0 0
-0.018315 -0.184265 2.181000 255 0 0
-0.012337 -0.184266 2.181000 255 0 0
-0.006368 -0.184520 2.184000 255 0 0
-0.000382 -0.184436 2.183000 255 0 0
0.005619 -0.185027 2.190000 255 0 0
0.011637 -0.185280 2.193000 255 0 0
0.017704 -0.185871 2.200000 255 0 0
0.023733 -0.185870 2.200000 255 0 0
0.029776 -0.185953 2.201000 255 0 0
0.035922 -0.186543 2.208000 255 0 0
0.042049 -0.186880 2.212000 255 0 0
0.048242 -0.187385 2.218000 255 0 0
0.054173 -0.186875 2.212000 255 0 0
0.060180 -0.186704 2.210000 255 0 0
0.066206 -0.186617 2.209000 255 0 0
-0.271129 -0.195828 2.248000 255 0 0
-0.264519 -0.195490 2.244000 255 0 0
-0.258160 -0.195327 2.242000 255 0 0
-0.251924 -0.195250 2.241000 255 0 0
-0.245472 -0.194999 2.238000 255 0 0
-0.238930 -0.194660 2.234000 255 0 0
-0.232304 -0.194234 2.229000 255 0 0
-0.226110 -0.194156 2.228000 255 0 0
-0.219922 -0.194078 2.227000 255 0 0
-0.213545 -0.193826 2.224000 255 0 0
-0.207278 -0.193660 2.222000 255 0 0
-0.201111 -0.193582 2.221000 255 0 0
-0.195564 -0.194113 2.227000 255 0 0
-0.189728 -0.194383 2.230000 255 0 0
-0.184287 -0.195088 2.238000 255 0 0
-0.178005 -0.194921 2.236000 255 0 0
-0.171656 -0.194667 2.233000 255 0 0
-0.165397 -0.194500 2.231000 255 0 0
-0.159791 -0.195117 2.238000 255 0 0
-0.154558 -0.196257 2.251000 255 0 0
-0.148924 -0.196961 2.259000 255 0 0
-0.143182 -0.197578 2.266000 255 0 0
-0.137402 -0.198194 2.273000 255 0 0
-0.131524 -0.198723 2.279000 255 0 0
-0.125614 -0.199252 2.285000 255 0 0
-0.092877 -0.196224 2.250000 255 0 0
-0.086520 -0.195792 2.245000 255 0 0
-0.080227 -0.195446 2.241000 255 0 0
-0.073888 -0.194927 2.235000 255 0 0
-0.067583 -0.194406 2.229000 255 0 0
-0.061255 -0.193711 2.221000 255 0 0
-0.054995 -0.193103 2.214000 255 0 0
-0.048796 -0.192582 2.208000 255 0 0
-0.042571 -0.191799 2.199000 255 0 0
-0.036495 -0.191540 2.196000 255 0 0
-0.030379 -0.190930 2.189000 255 0 0
-0.024347 -0.190670 2.186000 255 0 0
-0.018314 -0.190235 2.181000 255 0 0
-0.012342 -0.190323 2.182000 255 0 0
-0.006374 -0.190672 2.186000 255 0 0
-0.000383 -0.190847 2.188000 255 0 0
0.005621 -0.191108 2.191000 255 0 0
0.011658 -0.191631 2.197000 255 0 0
0.017735 -0.192241 2.204000 255 0 0
0.023797 -0.192415 2.206000 255 0 0
0.029843 -0.192413 2.206000 255 0 0
0.036002 -0.193022 2.213000 255 0 0
0.042105 -0.193195 2.215000 255 0 0
0.048240 -0.193455 2.218000 255 0 0
0.054195 -0.193017 2.213000 255 0 0
0.060259 -0.193014 2.213000 255 0 0
-0.271480 -0.202242 2.251000 255 0 0
-0.264862 -0.201894 2.247000 255 0 0
-0.258380 -0.201635 2.244000 255 0 0
-0.251801 -0.201287 2.240000 255 0 0
-0.245353 -0.201027 2.237000 255 0 0
-0.238813 -0.200678 2.233000 255 0 0
-0.232607 -0.200598 2.232000 255 0 0
-0.226304 -0.200428 2.230000 255 0 0
-0.220011 -0.200258 2.228000 255 0 0
-0.213728 -0.200087 2.226000 255 0 0
-0.207549 -0.200007 2.225000 255 0 0
-0.201465 -0.200015 2.225000 255 0 0
-0.195644 -0.200294 2.228000 255 0 0
-0.189805 -0.200572 2.231000 255 0 0
-0.184196 -0.201119 2.237000 255 0 0
-0.178395 -0.201487 2.241000 255 0 0
-0.172110 -0.201315 2.239000 255 0 0
-0.165909 -0.201232 2.238000 255 0 0
-0.160070 -0.201599 2.242000 255 0 0
-0.154620 -0.202505 2.252000 255 0 0
-0.148852 -0.203051 2.258000 255 0 0
-0.142987 -0.203507 2.263000 255 0 0
-0.137275 -0.204233 2.271000 255 0 0
-0.131403 -0.204779 2.277000 255 0 0
-0.127697 -0.208921 2.323000 255 0 0
-0.094565 -0.206068 2.291000 255 0 0
-0.086671 -0.202294 2.249000 255 0 0
-0.080366 -0.201938 2.245000 255 0 0
-0.073852 -0.200952 2.234000 255 0 0
-0.067550 -0.200416 2.228000 255 0 0
-0.061197 -0.199609 2.219000 255 0 0
-0.054968 -0.199072 2.213000 255 0 0
-0.048793 -0.198625 2.208000 255 0 0
-0.042646 -0.198177 2.203000 255 0 0
-0.036559 -0.197909 2.200000 255 0 0
-0.030489 -0.197640 2.197000 255 0 0
-0.024435 -0.197372 2.194000 255 0 0
-0.018380 -0.196923 2.189000 255 0 0
-0.012376 -0.196834 2.188000 255 0 0
-0.006382 -0.196924 2.189000 255 0 0
-0.000383 -0.196924 2.189000 255 0 0
0.005618 -0.197014 2.190000 255 0 0
0.011647 -0.197464 2.195000 255 0 0
0.017718 -0.198093 2.202000 255 0 0
0.023807 -0.198541 2.207000 255 0 0
0.029882 -0.198720 2.209000 255 0 0
0.036033 -0.199258 2.215000 255 0 0
0.042122 -0.199347 2.216000 255 0 0
0.048238 -0.199524 2.218000 255 0 0
0.054340 -0.199612 2.219000 255 0 0
0.060583 -0.200149 2.225000 255 0 0
-0.274121 -0.210431 2.273000 255 0 0
-0.266383 -0.209239 2.260000 255 0 0
-0.259175 -0.208417 2.251000 255 0 0
-0.252127 -0.207688 2.243000 255 0 0
-0.245452 -0.207235 2.238000 255 0 0
-0.239230 -0.207153 2.237000 255 0 0
-0.233014 -0.207071 2.236000 255 0 0
-0.226396 -0.206618 2.231000 255 0 0
-0.219903 -0.206257 2.227000 255 0 0
-0.213815 -0.206267 2.227000 255 0 0
-0.207913 -0.206461 2.229000 255 0 0
-0.201909 -0.206563 2.230000 255 0 0
-0.195723 -0.206479 2.229000 255 0 0
-0.190052 -0.206951 2.234000 255 0 0
-0.184188 -0.207237 2.237000 255 0 0
-0.178467 -0.207708 2.242000 255 0 0
-0.172333 -0.207716 2.242000 255 0 0
-0.166272 -0.207816 2.243000 255 0 0
-0.160348 -0.208102 2.246000 255 0 0
-0.154751 -0.208850 2.254000 255 0 0
-0.149175 -0.209691 2.263000 255 0 0
-0.143233 -0.210068 2.267000 255 0 0
-0.137389 -0.210631 2.273000 255 0 0
-0.131339 -0.210915 2.276000 255 0 0
-0.094148 -0.211409 2.281000 255 0 0
-0.087052 -0.209374 2.259000 255 0 0
-0.080506 -0.208451 2.249000 255 0 0
-0.074014 -0.207528 2.239000 255 0 0
-0.067698 -0.206975 2.233000 255 0 0
-0.061415 -0.206422 2.227000 255 0 0
-0.055139 -0.205776 2.220000 255 0 0
-0.048857 -0.204944 2.211000 255 0 0
-0.042760 -0.204761 2.209000 255 0 0
-0.036641 -0.204392 2.205000 255 0 0
-0.030571 -0.204208 2.203000 255 0 0
-0.024456 -0.203561 2.196000 255 0 0
-0.018405 -0.203191 2.192000 255 0 0
-0.012392 -0.203099 2.191000 255 0 0
-0.006388 -0.203099 2.191000 255 0 0
-0.000384 -0.203377 2.194000 255 0 0
0.005626 -0.203285 2.193000 255 0 0
0.011667 -0.203840 2.199000 255 0 0
0.017709 -0.204025 2.201000 255 0 0
0.023795 -0.204488 2.206000 255 0 0
0.029880 -0.204765 2.209000 255 0 0
0.036048 -0.205412 2.216000 255 0 0
0.042158 -0.205595 2.218000 255 0 0
0.048279 -0.205779 2.220000 255 0 0
0.054509 -0.206332 2.226000 255 0 0
0.060934 -0.207442 2.238000 255 0 0
-0.273627 -0.216262 2.269000 255 0 0
-0.267196 -0.216083 2.267000 255 0 0
-0.259969 -0.215237 2.258000 255 0 0
-0.252903 -0.214485 2.250000 255 0 0
-0.246209 -0.214020 2.245000 255 0 0
-0.239969 -0.213935 2.244000 255 0 0
-0.233733 -0.213850 2.243000 255 0 0
-0.226893 -0.213193 2.236000 255 0 0
-0.220189 -0.212631 2.230000 255 0 0
-0.214094 -0.212641 2.230000 255 0 0
-0.208464 -0.213127 2.235000 255 0 0
-0.202353 -0.213137 2.235000 255 0 0
-0.196241 -0.213146 2.235000 255 0 0
-0.190128 -0.213155 2.235000 255 0 0
-0.184345 -0.213545 2.239000 255 0 0
-0.178379 -0.213744 2.241000 255 0 0
-0.172402 -0.213943 2.243000 255 0 0
-0.166339 -0.214046 2.244000 255 0 0
-0.160270 -0.214149 2.245000 255 0 0
-0.154744 -0.215015 2.254000 255 0 0
-0.149234 -0.215976 2.264000 255 0 0
-0.143542 -0.216746 2.272000 255 0 0
-0.137564 -0.217134 2.276000 255 0 0
-0.131564 -0.217522 2.280000 255 0 0
-0.094020 -0.217363 2.278000 255 0 0
-0.086932 -0.215268 2.256000 255 0 0
-0.080502 -0.214604 2.249000 255 0 0
-0.074044 -0.213749 2.240000 255 0 0
-0.067755 -0.213275 2.235000 255 0 0
-0.061467 -0.212705 2.229000 255 0 0
-0.055136 -0.211849 2.220000 255 0 0
-0.048855 -0.210993 2.211000 255 0 0
-0.042758 -0.210804 2.209000 255 0 0
-0.036656 -0.210520 2.206000 255 0 0
-0.030583 -0.210331 2.204000 255 0 0
-0.024511 -0.210046 2.201000 255 0 0
-0.018463 -0.209856 2.199000 255 0 0
-0.012431 -0.209761 2.198000 255 0 0
-0.006399 -0.209475 2.195000 255 0 0
-0.000385 -0.209857 2.199000 255 0 0
0.005643 -0.209953 2.200000 255 0 0
0.011688 -0.210238 2.203000 255 0 0
0.017717 -0.210142 2.202000 255 0 0
0.023815 -0.210714 2.208000 255 0 0
0.029960 -0.211381 2.215000 255 0 0
0.036111 -0.211856 2.220000 255 0 0
0.042251 -0.212141 2.223000 255 0 0
0.048451 -0.212616 2.228000 255 0 0
0.054849 -0.213758 2.240000 255 0 0
0.061313 -0.214901 2.252000 255 0 0
-0.273012 -0.221972 2.264000 255 0 0
-0.267774 -0.222768 2.272000 255 0 0
-0.260418 -0.221799 2.262000 255 0 0
-0.252892 -0.220634 2.250000 255 0 0
-0.246088 -0.220057 2.244000 255 0 0
-0.240065 -0.220166 2.245000 255 0 0
-0.233827 -0.220079 2.244000 255 0 0
-0.226781 -0.219207 2.235000 255 0 0
-0.220179 -0.218727 2.230000 255 0 0
-0.214084 -0.218737 2.230000 255 0 0
-0.208640 -0.219433 2.237000 255 0 0
-0.202434 -0.219345 2.236000 255 0 0
-0.196495 -0.219550 2.238000 255 0 0
-0.190375 -0.219559 2.238000 255 0 0
-0.184583 -0.219961 2.242000 255 0 0
-0.178291 -0.219773 2.240000 255 0 0
-0.172471 -0.220174 2.244000 255 0 0
-0.166257 -0.220083 2.243000 255 0 0
-0.160619 -0.220778 2.250000 255 0 0
-0.155080 -0.221669 2.259000 255 0 0
-0.149490 -0.222559 2.268000 255 0 0
-0.143662 -0.223155 2.274000 255 0 0
-0.137739 -0.223652 2.279000 255 0 0
-0.131962 -0.224444 2.287000 255 0 0
-0.086928 -0.221438 2.256000 255 0 0
-0.080570 -0.220952 2.251000 255 0 0
-0.074172 -0.220268 2.244000 255 0 0
-0.067813 -0.219585 2.237000 255 0 0
-0.061492 -0.218901 2.230000 255 0 0
-0.055183 -0.218118 2.222000 255 0 0
-0.048941 -0.217434 2.215000 255 0 0
-0.042776 -0.216945 2.210000 255 0 0
-0.036571 -0.216064 2.201000 255 0 0
-0.030471 -0.215574 2.196000 255 0 0
-0.024431 -0.215379 2.194000 255 0 0
-0.018428 -0.215479 2.195000 255 0 0
-0.012425 -0.215676 2.197000 255 0 0
-0.006402 -0.215578 2.196000 255 0 0
-0.000386 -0.216167 2.202000 255 0 0
0.005651 -0.216265 2.203000 255 0 0
0.011698 -0.216461 2.205000 255 0 0
0.017724 -0.216264 2.203000 255 0 0
0.023836 -0.216950 2.210000 255 0 0
0.029986 -0.217636 2.217000 255 0 0
0.036109 -0.217929 2.220000 255 0 0
0.042287 -0.218418 2.225000 255 0 0
0.048535 -0.219103 2.232000 255 0 0
0.054969 -0.220376 2.245000 255 0 0
-0.274809 -0.229669 2.279000 255 0 0
-0.267997 -0.229177 2.274000 255 0 0
-0.260752 -0.228282 2.265000 255 0 0
-0.253442 -0.227286 2.255000 255 0 0
-0.246406 -0.226492 2.247000 255 0 0
-0.240054 -0.226301 2.245000 255 0 0
-0.233503 -0.225909 2.241000 255 0 0
-0.226669 -0.225214 2.234000 255 0 0
-0.220366 -0.225023 2.232000 255 0 0
-0.214362 -0.225134 2.233000 255 0 0
-0.208817 -0.225749 2.239000 255 0 0
-0.202424 -0.225457 2.236000 255 0 0
-0.196310 -0.225466 2.236000 255 0 0
-0.190026 -0.225274 2.234000 255 0 0
-0.184163 -0.225585 2.237000 255 0 0
-0.178203 -0.225796 2.239000 255 0 0
-0.172539 -0.226409 2.245000 255 0 0
-0.166545 -0.226619 2.247000 255 0 0
-0.160897 -0.227333 2.254000 255 0 0
-0.155415 -0.228349 2.264000 255 0 0
-0.149747 -0.229164 2.272000 255 0 0
-0.143844 -0.229675 2.277000 255 0 0
-0.138035 -0.230388 2.284000 255 0 0
-0.132590 -0.231807 2.298000 255 0 0
-0.094052 -0.229924 2.279000 255 0 0
-0.087194 -0.228314 2.263000 255 0 0
-0.080745 -0.227612 2.256000 255 0 0
-0.074169 -0.226405 2.244000 255 0 0
-0.067688 -0.225299 2.233000 255 0 0
-0.061406 -0.224697 2.227000 255 0 0
-0.055181 -0.224195 2.222000 255 0 0
-0.049027 -0.223895 2.219000 255 0 0
-0.042793 -0.223090 2.211000 255 0 0
-0.036586 -0.222184 2.202000 255 0 0
-0.030428 -0.221278 2.193000 255 0 0
-0.024430 -0.221380 2.194000 255 0 0
-0.018452 -0.221785 2.198000 255 0 0
-0.012436 -0.221887 2.199000 255 0 0
-0.006410 -0.221887 2.199000 255 0 0
-0.000386 -0.222493 2.205000 255 0 0
0.005668 -0.222997 2.210000 255 0 0
0.011719 -0.222896 2.209000 255 0 0
0.017771 -0.222895 2.209000 255 0 0
0.023878 -0.223398 2.214000 255 0 0
0.030025 -0.224002 2.220000 255 0 0
0.036124 -0.224102 2.221000 255 0 0
0.042323 -0.224705 2.227000 255 0 0
0.048663 -0.225813 2.238000 255 0 0
0.055162 -0.227324 2.253000 255 0 0
-0.268574 -0.235907 2.279000 255 0 0
-0.261315 -0.234988 2.270000 255 0 0
-0.253992 -0.233965 2.260000 255 0 0
-0.246942 -0.233149 2.252000 255 0 0
-0.240149 -0.232539 2.246000 255 0 0
-0.233284 -0.231826 2.239000 255 0 0
-0.226456 -0.231112 2.232000 255 0 0
-0.220257 -0.231019 2.231000 255 0 0
-0.214256 -0.231133 2.232000 255 0 0
-0.208621 -0.231661 2.237000 255 0 0
-0.202324 -0.231464 2.235000 255 0 0
-0.196213 -0.231474 2.235000 255 0 0
-0.190186 -0.231587 2.236000 255 0 0
-0.184401 -0.232010 2.240000 255 0 0
-0.178672 -0.232537 2.245000 255 0 0
-0.172838 -0.232960 2.249000 255 0 0
-0.166982 -0.233383 2.253000 255 0 0
-0.161246 -0.234013 2.259000 255 0 0
-0.155408 -0.234539 2.264000 255 0 0
-0.149608 -0.235168 2.270000 255 0 0
-0.143774 -0.235797 2.276000 255 0 0
-0.138270 -0.237047 2.288000 255 0 0
-0.132872 -0.238608 2.303000 255 0 0
-0.087497 -0.235331 2.271000 255 0 0
-0.080884 -0.234196 2.260000 255 0 0
-0.074198 -0.232645 2.245000 255 0 0
-0.067655 -0.231302 2.232000 255 0 0
-0.061265 -0.230269 2.222000 255 0 0
-0.055103 -0.229961 2.219000 255 0 0
-0.048980 -0.229756 2.217000 255 0 0
-0.042829 -0.229344 2.213000 255 0 0
-0.036600 -0.228310 2.203000 255 0 0
-0.030468 -0.227586 2.196000 255 0 0
-0.024429 -0.227380 2.194000 255 0 0
-0.018426 -0.227485 2.195000 255 0 0
-0.012429 -0.227797 2.198000 255 0 0
-0.006416 -0.228108 2.201000 255 0 0
-0.000386 -0.228730 2.207000 255 0 0
0.005673 -0.229248 2.212000 255 0 0
0.011723 -0.229040 2.210000 255 0 0
0.017794 -0.229247 2.212000 255 0 0
0.023898 -0.229660 2.216000 255 0 0
0.030010 -0.229970 2.219000 255 0 0
0.036106 -0.230072 2.220000 255 0 0
0.042340 -0.230899 2.228000 255 0 0
0.048769 -0.232451 2.243000 255 0 0
0.055649 -0.235557 2.273000 255 0 0
-0.268915 -0.242451 2.282000 255 0 0
-0.261763 -0.241614 2.274000 255 0 0
-0.254879 -0.240989 2.268000 255 0 0
-0.247698 -0.240045 2.259000 255 0 0
-0.240779 -0.239313 2.252000 255 0 0
-0.233377 -0.238049 2.240000 255 0 0
-0.226749 -0.237529 2.235000 255 0 0
-0.220444 -0.237328 2.233000 255 0 0
-0.214437 -0.237445 2.234000 255 0 0
-0.208797 -0.237987 2.239000 255 0 0
-0.202676 -0.237997 2.239000 255 0 0
-0.196467 -0.237900 2.238000 255 0 0
-0.190517 -0.238123 2.240000 255 0 0
-0.184638 -0.238451 2.243000 255 0 0
-0.179061 -0.239204 2.250000 255 0 0
-0.173137 -0.239532 2.253000 255 0 0
-0.167344 -0.240073 2.258000 255 0 0
-0.161452 -0.240506 2.262000 255 0 0
-0.155674 -0.241152 2.268000 255 0 0
-0.149666 -0.241479 2.271000 255 0 0
-0.143767 -0.242018 2.276000 255 0 0
-0.138142 -0.243089 2.286000 255 0 0
-0.132865 -0.244904 2.303000 255 0 0
-0.095817 -0.246960 2.322000 255 0 0
-0.087801 -0.242391 2.279000 255 0 0
-0.080880 -0.240375 2.260000 255 0 0
-0.074128 -0.238571 2.243000 255 0 0
-0.067621 -0.237298 2.231000 255 0 0
-0.061289 -0.236450 2.223000 255 0 0
-0.055150 -0.236241 2.221000 255 0 0
-0.049044 -0.236137 2.220000 255 0 0
-0.042885 -0.235714 2.216000 255 0 0
-0.036698 -0.234972 2.209000 255 0 0
-0.030563 -0.234335 2.203000 255 0 0
-0.024506 -0.234124 2.201000 255 0 0
-0.018459 -0.233912 2.199000 255 0 0
-0.012446 -0.234126 2.201000 255 0 0
-0.006427 -0.234552 2.205000 255 0 0
-0.000388 -0.235509 2.214000 255 0 0
0.005691 -0.236041 2.219000 255 0 0
0.011776 -0.236147 2.220000 255 0 0
0.017866 -0.236252 2.221000 255 0 0
0.023951 -0.236251 2.221000 255 0 0
0.030035 -0.236250 2.221000 255 0 0
0.036136 -0.236355 2.222000 255 0 0
0.042394 -0.237310 2.231000 255 0 0
0.048941 -0.239435 2.251000 255 0 0
-0.278628 -0.251830 2.311000 255 0 0
-0.269138 -0.248902 2.284000 255 0 0
-0.262211 -0.248261 2.278000 255 0 0
-0.255766 -0.248056 2.276000 255 0 0
-0.248234 -0.246760 2.264000 255 0 0
-0.241088 -0.245791 2.255000 255 0 0
-0.233782 -0.244604 2.244000 255 0 0
-0.227448 -0.244398 2.242000 255 0 0
-0.220828 -0.243864 2.237000 255 0 0
-0.214810 -0.243984 2.238000 255 0 0
-0.208693 -0.243995 2.238000 255 0 0
-0.202666 -0.244114 2.239000 255 0 0
-0.196632 -0.244233 2.240000 255 0 0
-0.191103 -0.245007 2.247000 255 0 0
-0.185534 -0.245780 2.254000 255 0 0
-0.179609 -0.246116 2.257000 255 0 0
-0.173589 -0.246343 2.259000 255 0 0
-0.167558 -0.246570 2.261000 255 0 0
-0.161658 -0.247015 2.265000 255 0 0
-0.155804 -0.247569 2.270000 255 0 0
-0.149658 -0.247686 2.271000 255 0 0
-0.143696 -0.248130 2.275000 255 0 0
-0.137893 -0.248901 2.282000 255 0 0
-0.132916 -0.251307 2.304000 255 0 0
-0.095440 -0.252325 2.313000 255 0 0
-0.087758 -0.248512 2.278000 255 0 0
-0.080875 -0.246553 2.260000 255 0 0
-0.074256 -0.245139 2.247000 255 0 0
-0.067829 -0.244161 2.238000 255 0 0
-0.061507 -0.243400 2.231000 255 0 0
-0.055247 -0.242749 2.225000 255 0 0
-0.049064 -0.242315 2.221000 255 0 0
-0.042902 -0.241881 2.217000 255 0 0
-0.036746 -0.241338 2.212000 255 0 0
-0.030617 -0.240794 2.207000 255 0 0
-0.024515 -0.240250 2.202000 255 0 0
-0.018458 -0.239924 2.199000 255 0 0
-0.012462 -0.240470 2.204000 255 0 0
-0.006441 -0.241126 2.210000 255 0 0
-0.000388 -0.241999 2.218000 255 0 0
0.005691 -0.242108 2.219000 255 0 0
0.011780 -0.242325 2.221000 255 0 0
0.017857 -0.242215 2.220000 255 0 0
0.023928 -0.242105 2.219000 255 0 0
0.030034 -0.242322 2.221000 255 0 0
0.036199 -0.242866 2.226000 255 0 0
0.042506 -0.244064 2.237000 255 0 0
0.049590 -0.248862 2.281000 255 0 0
