ply
format ascii 1.0
element vertex 1327
property double x
property double y
property double z
property uchar red
property uchar green
property uchar blue
end_header
-0.218741 0.420998 2.208310 0 255 0
-0.208827 0.421941 2.213208 0 255 0
-0.195406 0.422318 2.215599 0 255 0
-0.187215 0.423569 2.221849 0 255 0
-0.174639 0.424113 2.224972 0 255 0
-0.159419 0.424243 2.226264 0 255 0
-0.152069 0.425665 2.233257 0 255 0
-0.139447 0.426246 2.236533 0 255 0
-0.127687 0.426980 2.240483 0 255 0
-0.108002 0.426463 2.238918 0 255 0
-0.095326 0.427086 2.242374 0 255 0
-0.084396 0.427999 2.247109 0 255 0
-0.072570 0.428784 2.251278 0 255 0
-0.379595 0.426911 2.139000 255 0 0
-0.368190 0.420548 2.107000 255 0 0
-0.361431 0.419373 2.101000 255 0 0
-0.355211 0.418798 2.098000 255 0 0
-0.348674 0.417823 2.093000 255 0 0
-0.342819 0.417646 2.092000 255 0 0
-0.336968 0.417468 2.091000 255 0 0
-0.330806 0.416892 2.088000 255 0 0
-0.324658 0.416315 2.085000 255 0 0
-0.317915 0.414939 2.078000 255 0 0
-0.311960 0.414561 2.076000 255 0 0
-0.306605 0.414981 2.078000 255 0 0
-0.301384 0.415602 2.081000 255 0 0
-0.296145 0.416221 2.084000 255 0 0
-0.290471 0.416242 2.084000 255 0 0
-0.284113 0.415263 2.079000 255 0 0
-0.277782 0.414285 2.074000 255 0 0
-0.271740 0.413705 2.071000 255 0 0
-0.265841 0.413325 2.069000 255 0 0
-0.259953 0.412944 2.067000 255 0 0
-0.253952 0.412363 2.064000 255 0 0
-0.248087 0.411982 2.062000 255 0 0
-0.242115 0.411400 2.059000 255 0 0
-0.236158 0.410819 2.056000 255 0 0
-0.230554 0.410836 2.056000 255 0 0
-0.224839 0.410653 2.055000 255 0 0
-0.219022 0.410270 2.053000 255 0 0
-0.213216 0.409886 2.051000 255 0 0
-0.207825 0.410302 2.053000 255 0 0
-0.202127 0.410118 2.052000 255 0 0
-0.196625 0.410333 2.053000 255 0 0
-0.190745 0.409748 2.050000 255 0 0
-0.185152 0.409762 2.050000 255 0 0
-0.179559 0.409776 2.050000 255 0 0
-0.174134 0.410189 2.052000 255 0 0
-0.168616 0.410403 2.053000 255 0 0
-0.162933 0.410216 2.052000 255 0 0
-0.157332 0.410228 2.052000 255 0 0
-0.151730 0.410240 2.052000 255 0 0
-0.146270 0.410652 2.054000 255 0 0
-0.140731 0.410863 2.055000 255 0 0
-0.135119 0.410874 2.055000 255 0 0
-0.129382 0.410484 2.053000 255 0 0
-0.123654 0.410094 2.051000 255 0 0
-0.117938 0.409704 2.049000 255 0 0
-0.112286 0.409513 2.048000 255 0 0
-0.106640 0.409322 2.047000 255 0 0
-0.100900 0.408731 2.044000 255 0 0
-0.095316 0.408738 2.044000 255 0 0
-0.089732 0.408746 2.044000 255 0 0
-0.084189 0.408953 2.045000 255 0 0
-0.078640 0.409159 2.046000 255 0 0
-0.073085 0.409365 2.047000 255 0 0
-0.067557 0.409771 2.049000 255 0 0
-0.061928 0.409576 2.048000 255 0 0
-0.056331 0.409581 2.048000 255 0 0
-0.050784 0.409985 2.050000 255 0 0
-0.045182 0.409989 2.050000 255 0 0
-0.039560 0.409793 2.049000 255 0 0
-0.033960 0.409796 2.049000 255 0 0
-0.028387 0.410198 2.051000 255 0 0
-0.022804 0.410600 2.053000 255 0 0
-0.017201 0.410802 2.054000 255 0 0
-0.011604 0.411403 2.057000 255 0 0
-0.005996 0.412404 2.062000 255 0 0
-0.000361 0.413004 2.065000 255 0 0
0.005296 0.414004 2.070000 255 0 0
0.010975 0.414803 2.074000 255 0 0
0.016692 0.416002 2.080000 255 0 0
0.022420 0.416801 2.084000 255 0 0
0.028129 0.416999 2.085000 255 0 0
0.033877 0.417596 2.088000 255 0 0
0.039621 0.417993 2.090000 255 0 0
0.045463 0.419190 2.096000 255 0 0
0.051362 0.420586 2.103000 255 0 0
0.057408 0.422781 2.114000 255 0 0
0.063454 0.424576 2.123000 255 0 0
0.069386 0.425371 2.127000 255 0 0
0.075234 0.425565 2.128000 255 0 0
0.081163 0.426158 2.131000 255 0 0
0.086985 0.426152 2.131000 255 0 0
0.092720 0.425745 2.129000 255 0 0
0.098537 0.425737 2.129000 255 0 0
0.104598 0.426729 2.134000 255 0 0
0.110738 0.427920 2.140000 255 0 0
0.117074 0.429710 2.149000 255 0 0
-0.081976 0.488174 2.240331 255 255 0
-0.066259 0.487547 2.238803 255 255 0
-0.051424 0.486846 2.236720 255 255 0
-0.049462 0.484836 2.225262 255 255 0
-0.040650 0.483534 2.218849 255 255 0
-0.030140 0.482416 2.213733 255 255 0
-0.006837 0.482647 2.218208 255 255 0
0.014719 0.482719 2.221520 255 255 0
0.031125 0.482270 2.221086 255 255 0
0.044950 0.481562 2.218793 255 255 0
0.054502 0.480410 2.213326 255 255 0
0.057248 0.478531 2.202698 255 255 0
0.050662 0.475639 2.184895 255 255 0
0.046641 0.473014 2.168994 255 255 0
0.041790 0.470289 2.152390 255 255 0
-0.314716 0.396274 2.136336 0 255 0
-0.306648 0.397406 2.142201 0 255 0
-0.298571 0.398545 2.148093 0 255 0
-0.291352 0.399844 2.154673 0 255 0
-0.281528 0.400694 2.159293 0 255 0
-0.273427 0.401855 2.165265 0 255 0
-0.254911 0.401215 2.163395 0 255 0
-0.238972 0.401045 2.163573 0 255 0
-0.223012 0.400892 2.163824 0 255 0
-0.220071 0.402994 2.173870 0 255 0
-0.217130 0.405097 2.183912 0 255 0
-0.226383 0.409274 2.202954 0 255 0
-0.219096 0.410633 2.209752 0 255 0
-0.210930 0.411852 2.215934 0 255 0
-0.194896 0.411759 2.216425 0 255 0
-0.188454 0.413288 2.223952 0 255 0
-0.176758 0.413951 2.227714 0 255 0
-0.165923 0.414769 2.232152 0 255 0
-0.157703 0.416031 2.238509 0 255 0
-0.143336 0.416294 2.240536 0 255 0
-0.127195 0.416285 2.241386 0 255 0
-0.106640 0.415579 2.239223 0 255 0
-0.094847 0.416318 2.243311 0 255 0
-0.082159 0.416927 2.246834 0 255 0
-0.072097 0.417971 2.252240 0 255 0
-0.062905 0.419166 2.258294 0 255 0
-0.375892 0.416969 2.118000 255 0 0
-0.367165 0.413646 2.101000 255 0 0
-0.361110 0.413275 2.099000 255 0 0
-0.355404 0.413298 2.099000 255 0 0
-0.349030 0.412533 2.095000 255 0 0
-0.343169 0.412359 2.094000 255 0 0
-0.337313 0.412184 2.093000 255 0 0
-0.331145 0.411616 2.090000 255 0 0
-0.324836 0.410850 2.086000 255 0 0
-0.317936 0.409296 2.078000 255 0 0
-0.311831 0.408726 2.075000 255 0 0
-0.306331 0.408944 2.076000 255 0 0
-0.301260 0.409753 2.080000 255 0 0
-0.296166 0.410562 2.084000 255 0 0
-0.290910 0.411173 2.087000 255 0 0
-0.284817 0.410602 2.084000 255 0 0
-0.278337 0.409440 2.078000 255 0 0
-0.272021 0.408474 2.073000 255 0 0
-0.266374 0.408494 2.073000 255 0 0
-0.260349 0.407921 2.070000 255 0 0
-0.254340 0.407349 2.067000 255 0 0
-0.248226 0.406578 2.063000 255 0 0
-0.242368 0.406202 2.061000 255 0 0
-0.236405 0.405628 2.058000 255 0 0
-0.230683 0.405448 2.057000 255 0 0
-0.224746 0.404874 2.054000 255 0 0
-0.218932 0.404496 2.052000 255 0 0
-0.213232 0.404315 2.051000 255 0 0
-0.207739 0.404528 2.052000 255 0 0
-0.202142 0.404543 2.052000 255 0 0
-0.196544 0.404558 2.052000 255 0 0
-0.190853 0.404376 2.051000 255 0 0
-0.185166 0.404193 2.050000 255 0 0
-0.179572 0.404207 2.050000 255 0 0
-0.174147 0.404615 2.052000 255 0 0
-0.168793 0.405220 2.055000 255 0 0
-0.163105 0.405035 2.054000 255 0 0
-0.157421 0.404851 2.053000 255 0 0
-0.151816 0.404863 2.053000 255 0 0
-0.146353 0.405269 2.055000 255 0 0
-0.140879 0.405674 2.057000 255 0 0
-0.135262 0.405685 2.057000 255 0 0
-0.129518 0.405301 2.055000 255 0 0
-0.123785 0.404917 2.053000 255 0 0
-0.118005 0.404334 2.050000 255 0 0
-0.112350 0.404146 2.049000 255 0 0
-0.106649 0.403760 2.047000 255 0 0
-0.100908 0.403177 2.044000 255 0 0
-0.095371 0.403382 2.045000 255 0 0
-0.089827 0.403587 2.046000 255 0 0
-0.084195 0.403396 2.045000 255 0 0
-0.078608 0.403403 2.045000 255 0 0
-0.073055 0.403606 2.046000 255 0 0
-0.067563 0.404204 2.049000 255 0 0
-0.061933 0.404012 2.048000 255 0 0
-0.056363 0.404214 2.049000 255 0 0
-0.050788 0.404415 2.050000 255 0 0
-0.045163 0.404222 2.049000 255 0 0
-0.039582 0.404423 2.050000 255 0 0
-0.033996 0.404623 2.051000 255 0 0
-0.028431 0.405217 2.054000 255 0 0
-0.022806 0.405022 2.053000 255 0 0
-0.017211 0.405418 2.055000 255 0 0
-0.011599 0.405617 2.056000 255 0 0
-0.005997 0.406801 2.062000 255 0 0
-0.000361 0.407393 2.065000 255 0 0
0.005299 0.408577 2.071000 255 0 0
0.010987 0.409562 2.076000 255 0 0
0.016709 0.410745 2.082000 255 0 0
0.022443 0.411533 2.086000 255 0 0
0.028172 0.411925 2.088000 255 0 0
0.033928 0.412514 2.091000 255 0 0
0.039681 0.412906 2.093000 255 0 0
0.045510 0.413889 2.098000 255 0 0
0.051489 0.415858 2.108000 255 0 0
0.057603 0.418418 2.121000 255 0 0
0.063699 0.420386 2.131000 255 0 0
0.069653 0.421169 2.135000 255 0 0
0.075487 0.421164 2.135000 255 0 0
0.081359 0.421355 2.136000 255 0 0
0.087074 0.420756 2.133000 255 0 0
0.092771 0.420157 2.130000 255 0 0
0.098637 0.420347 2.131000 255 0 0
0.104753 0.421522 2.137000 255 0 0
0.111005 0.423092 2.145000 255 0 0
0.117246 0.424463 2.152000 255 0 0
0.123697 0.426426 2.162000 255 0 0
-0.107060 0.476960 2.236390 255 255 0
-0.088736 0.476618 2.236615 255 255 0
-0.068726 0.476473 2.238173 255 255 0
-0.054750 0.475713 2.235443 255 255 0
-0.049357 0.474059 2.226488 255 255 0
-0.041402 0.472679 2.219434 255 255 0
-0.033455 0.471306 2.212406 255 255 0
-0.015277 0.471042 2.213037 255 255 0
0.007984 0.471349 2.217583 255 255 0
0.029502 0.471491 2.220963 255 255 0
0.043325 0.470813 2.218653 255 255 0
0.054577 0.469865 2.214465 255 255 0
0.054778 0.467700 2.201889 255 255 0
0.051594 0.465153 2.186686 255 255 0
0.043342 0.462028 2.167520 255 255 0
-0.309877 0.385121 2.133668 0 255 0
-0.306121 0.387023 2.142895 0 255 0
-0.294591 0.387527 2.146134 0 255 0
-0.291691 0.389592 2.156049 0 255 0
-0.285331 0.391040 2.163318 0 255 0
-0.274637 0.391724 2.167315 0 255 0
-0.256997 0.391192 2.166113 0 255 0
-0.235862 0.390067 2.162384 0 255 0
-0.223379 0.390489 2.165259 0 255 0
-0.223043 0.393047 2.177251 0 255 0
-0.223582 0.395755 2.189869 0 255 0
-0.231091 0.399665 2.207602 0 255 0
-0.220324 0.400409 2.211835 0 255 0
-0.208673 0.401014 2.215473 0 255 0
-0.191772 0.400737 2.215352 0 255 0
-0.186200 0.402408 2.223526 0 255 0
-0.178003 0.403640 2.229825 0 255 0
-0.168047 0.404584 2.234898 0 255 0
-0.157204 0.405390 2.239384 0 255 0
-0.138461 0.404889 2.238317 0 255 0
-0.127585 0.405721 2.242913 0 255 0
-0.107917 0.405111 2.241384 0 255 0
-0.097886 0.406114 2.246708 0 255 0
-0.079929 0.405828 2.246564 0 255 0
-0.073388 0.407430 2.254426 0 255 0
-0.062437 0.408321 2.259271 0 255 0
-0.377513 0.412965 2.127000 255 0 0
-0.366664 0.407358 2.098000 255 0 0
-0.360789 0.407187 2.097000 255 0 0
-0.355088 0.407210 2.097000 255 0 0
-0.348720 0.406456 2.093000 255 0 0
-0.343028 0.406478 2.093000 255 0 0
-0.337174 0.406306 2.092000 255 0 0
-0.331008 0.405745 2.089000 255 0 0
-0.324858 0.405185 2.086000 255 0 0
-0.318264 0.404041 2.080000 255 0 0
-0.311852 0.403091 2.075000 255 0 0
-0.306057 0.402917 2.074000 255 0 0
-0.300846 0.403521 2.077000 255 0 0
-0.296044 0.404707 2.083000 255 0 0
-0.291488 0.406282 2.091000 255 0 0
-0.285657 0.406108 2.090000 255 0 0
-0.279161 0.404961 2.084000 255 0 0
-0.272697 0.403815 2.078000 255 0 0
-0.266779 0.403445 2.076000 255 0 0
-0.260745 0.402881 2.073000 255 0 0
-0.254481 0.401928 2.068000 255 0 0
-0.248484 0.401363 2.065000 255 0 0
-0.242621 0.400992 2.063000 255 0 0
-0.236882 0.400815 2.062000 255 0 0
-0.231148 0.400638 2.061000 255 0 0
-0.225091 0.399877 2.057000 255 0 0
-0.219055 0.399116 2.053000 255 0 0
-0.213040 0.398354 2.049000 255 0 0
-0.207451 0.398370 2.049000 255 0 0
-0.201960 0.398579 2.050000 255 0 0
-0.196559 0.398983 2.052000 255 0 0
-0.190961 0.398998 2.052000 255 0 0
-0.185271 0.398818 2.051000 255 0 0
-0.179674 0.398832 2.051000 255 0 0
-0.174246 0.399234 2.053000 255 0 0
-0.168806 0.399636 2.055000 255 0 0
-0.163117 0.399454 2.054000 255 0 0
-0.157510 0.399467 2.054000 255 0 0
-0.151754 0.399090 2.052000 255 0 0
-0.146293 0.399490 2.054000 255 0 0
-0.140753 0.399696 2.055000 255 0 0
-0.135338 0.400290 2.058000 255 0 0
-0.129591 0.399911 2.056000 255 0 0
-0.123794 0.399338 2.053000 255 0 0
-0.118014 0.398764 2.050000 255 0 0
-0.112359 0.398578 2.049000 255 0 0
-0.106657 0.398198 2.047000 255 0 0
-0.100966 0.397817 2.045000 255 0 0
-0.095425 0.398019 2.046000 255 0 0
-0.089878 0.398221 2.047000 255 0 0
-0.084285 0.398228 2.047000 255 0 0
-0.078652 0.398040 2.046000 255 0 0
-0.073097 0.398240 2.047000 255 0 0
-0.067601 0.398830 2.050000 255 0 0
-0.061968 0.398640 2.049000 255 0 0
-0.056368 0.398645 2.049000 255 0 0
-0.050792 0.398844 2.050000 255 0 0
-0.045189 0.398848 2.050000 255 0 0
-0.039605 0.399046 2.051000 255 0 0
-0.034015 0.399243 2.052000 255 0 0
-0.028461 0.400024 2.056000 255 0 0
-0.022841 0.400026 2.056000 255 0 0
-0.017220 0.400028 2.056000 255 0 0
-0.011600 0.400029 2.056000 255 0 0
-0.005994 0.401002 2.061000 255 0 0
-0.000361 0.401781 2.065000 255 0 0
0.005300 0.402948 2.071000 255 0 0
0.010993 0.404115 2.077000 255 0 0
0.016711 0.405087 2.082000 255 0 0
0.022456 0.406058 2.087000 255 0 0
0.028188 0.406445 2.089000 255 0 0
0.033979 0.407415 2.094000 255 0 0
0.039760 0.407996 2.097000 255 0 0
0.045622 0.409160 2.103000 255 0 0
0.051664 0.411491 2.115000 255 0 0
0.057852 0.414405 2.130000 255 0 0
0.063943 0.416151 2.139000 255 0 0
0.069821 0.416340 2.140000 255 0 0
0.075670 0.416334 2.140000 255 0 0
0.081404 0.415744 2.137000 255 0 0
0.087121 0.415154 2.134000 255 0 0
0.092822 0.414563 2.131000 255 0 0
0.098738 0.414945 2.133000 255 0 0
0.104811 0.415909 2.138000 255 0 0
0.111066 0.417457 2.146000 255 0 0
0.117147 0.418226 2.150000 255 0 0
0.123478 0.419773 2.158000 255 0 0
-0.104359 0.466319 2.239519 255 255 0
-0.092053 0.465379 2.235394 255 255 0
-0.074619 0.465003 2.235056 255 255 0
-0.060640 0.464270 2.232297 255 255 0
-0.055239 0.462617 2.223319 255 255 0
-0.042150 0.461809 2.220024 255 255 0
-0.032496 0.460635 2.214252 255 255 0
-0.013472 0.460510 2.215506 255 255 0
0.005519 0.460401 2.216849 255 255 0
0.027031 0.460596 2.220203 255 255 0
0.039153 0.459755 2.216590 255 255 0
0.049558 0.458730 2.211733 255 255 0
0.054010 0.457035 2.202381 255 255 0
0.053374 0.454758 2.189128 255 255 0
0.048515 0.451988 2.172584 255 255 0
0.008154 0.445083 2.128453 255 255 0
-0.314525 0.375678 2.138377 0 255 0
-0.311634 0.377735 2.148263 0 255 0
-0.301839 0.378528 2.152826 0 255 0
-0.294624 0.379803 2.159413 0 255 0
-0.286539 0.380927 2.165361 0 255 0
-0.275849 0.381589 2.169365 0 255 0
-0.254753 0.380390 2.165558 0 255 0
-0.232759 0.379059 2.161203 0 255 0
-0.222880 0.379920 2.166047 0 255 0
-0.227751 0.383415 2.181924 0 255 0
-0.227421 0.385978 2.193885 0 255 0
-0.229706 0.388998 2.207754 0 255 0
-0.212848 0.388653 2.207527 0 255 0
-0.209036 0.390608 2.216928 0 255 0
-0.195630 0.390897 2.219358 0 255 0
-0.186571 0.391956 2.225002 0 255 0
-0.172260 0.392119 2.226906 0 255 0
-0.164925 0.393498 2.233885 0 255 0
-0.154083 0.394284 2.238392 0 255 0
-0.137097 0.394039 2.238593 0 255 0
-0.124470 0.394553 2.241967 0 255 0
-0.110071 0.394785 2.244162 0 255 0
-0.101801 0.396062 2.250717 0 255 0
-0.082097 0.395438 2.249357 0 255 0
-0.072920 0.396591 2.255393 0 255 0
-0.061972 0.397461 2.260252 0 255 0
-0.374342 0.403742 2.109000 255 0 0
-0.366687 0.401660 2.098000 255 0 0
-0.360124 0.400725 2.093000 255 0 0
-0.354602 0.400940 2.094000 255 0 0
-0.348575 0.400579 2.092000 255 0 0
-0.343050 0.400793 2.093000 255 0 0
-0.337357 0.400815 2.093000 255 0 0
-0.331347 0.400454 2.091000 255 0 0
-0.325191 0.399901 2.088000 255 0 0
-0.318591 0.398774 2.082000 255 0 0
-0.312023 0.397646 2.076000 255 0 0
-0.305930 0.397092 2.073000 255 0 0
-0.300721 0.397687 2.076000 255 0 0
-0.296206 0.399240 2.084000 255 0 0
-0.291787 0.400984 2.093000 255 0 0
-0.286360 0.401388 2.095000 255 0 0
-0.279984 0.400449 2.090000 255 0 0
-0.273503 0.399319 2.084000 255 0 0
-0.267440 0.398763 2.081000 255 0 0
-0.261267 0.398015 2.077000 255 0 0
-0.254869 0.396884 2.071000 255 0 0
-0.248622 0.395944 2.066000 255 0 0
-0.242991 0.395961 2.066000 255 0 0
-0.237244 0.395787 2.065000 255 0 0
-0.231502 0.395613 2.064000 255 0 0
-0.225326 0.394671 2.059000 255 0 0
-0.219285 0.393920 2.055000 255 0 0
-0.213264 0.393170 2.051000 255 0 0
-0.207467 0.392802 2.049000 255 0 0
-0.202074 0.393200 2.051000 255 0 0
-0.196670 0.393599 2.053000 255 0 0
-0.191161 0.393805 2.054000 255 0 0
-0.185556 0.393819 2.054000 255 0 0
-0.179863 0.393641 2.053000 255 0 0
-0.174344 0.393846 2.054000 255 0 0
-0.168819 0.394051 2.055000 255 0 0
-0.163288 0.394255 2.056000 255 0 0
-0.157752 0.394460 2.057000 255 0 0
-0.151987 0.394088 2.055000 255 0 0
-0.146447 0.394291 2.056000 255 0 0
-0.140832 0.394302 2.056000 255 0 0
-0.135414 0.394888 2.059000 255 0 0
-0.129538 0.394131 2.055000 255 0 0
-0.123804 0.393758 2.053000 255 0 0
-0.118023 0.393192 2.050000 255 0 0
-0.112423 0.393201 2.050000 255 0 0
-0.106822 0.393209 2.050000 255 0 0
-0.101122 0.392834 2.048000 255 0 0
-0.095572 0.393033 2.049000 255 0 0
-0.089929 0.392849 2.048000 255 0 0
-0.084374 0.393048 2.049000 255 0 0
-0.078735 0.392862 2.048000 255 0 0
-0.073174 0.393060 2.049000 255 0 0
-0.067607 0.393257 2.050000 255 0 0
-0.062003 0.393263 2.050000 255 0 0
-0.056400 0.393267 2.050000 255 0 0
-0.050796 0.393272 2.050000 255 0 0
-0.045192 0.393275 2.050000 255 0 0
-0.039589 0.393279 2.050000 255 0 0
-0.034018 0.393665 2.052000 255 0 0
-0.028463 0.394435 2.056000 255 0 0
-0.022865 0.394821 2.058000 255 0 0
-0.017255 0.395206 2.060000 255 0 0
-0.011629 0.395399 2.061000 255 0 0
-0.006006 0.396167 2.065000 255 0 0
-0.000361 0.396743 2.068000 255 0 0
0.005305 0.397702 2.073000 255 0 0
0.010999 0.398661 2.078000 255 0 0
0.016712 0.399427 2.082000 255 0 0
0.022458 0.400385 2.087000 255 0 0
0.028217 0.401150 2.091000 255 0 0
0.034015 0.402107 2.096000 255 0 0
0.039839 0.403063 2.101000 255 0 0
0.045691 0.404019 2.106000 255 0 0
0.051815 0.406893 2.121000 255 0 0
0.057965 0.409382 2.134000 255 0 0
0.064038 0.410912 2.142000 255 0 0
0.069860 0.410715 2.141000 255 0 0
0.075782 0.411093 2.143000 255 0 0
0.081525 0.410511 2.140000 255 0 0
0.087251 0.409929 2.137000 255 0 0
0.092917 0.409155 2.133000 255 0 0
0.098931 0.409914 2.137000 255 0 0
0.105064 0.411057 2.143000 255 0 0
0.111333 0.412583 2.151000 255 0 0
0.117265 0.412766 2.152000 255 0 0
0.123430 0.413716 2.157000 255 0 0
-0.106813 0.455118 2.238942 255 255 0
-0.093647 0.454296 2.235419 255 255 0
-0.079645 0.453580 2.232574 255 255 0
-0.063953 0.453066 2.231038 255 255 0
-0.052562 0.452086 2.226435 255 255 0
-0.037770 0.451500 2.224396 255 255 0
-0.025562 0.450637 2.220526 255 255 0
-0.015077 0.449588 2.215435 255 255 0
-0.000348 0.449036 2.213571 255 255 0
0.018611 0.448987 2.214971 255 255 0
0.034988 0.448660 2.214534 255 255 0
0.047941 0.447950 2.211591 255 255 0
0.056636 0.446753 2.205466 255 255 0
0.063625 0.445363 2.198070 255 255 0
-0.312281 0.364958 2.137728 0 255 0
-0.309386 0.367018 2.147625 0 255 0
-0.298730 0.367633 2.151541 0 255 0
-0.288061 0.368258 2.155499 0 255 0
-0.287748 0.370809 2.167405 0 255 0
-0.275332 0.371130 2.170103 0 255 0
-0.221000 0.366440 2.153518 0 255 0
-0.213714 0.367762 2.160353 0 255 0
-0.222042 0.371915 2.178839 0 255 0
-0.224310 0.374959 2.192750 0 255 0
-0.223980 0.377531 2.204705 0 255 0
-0.212343 0.378082 2.208342 0 255 0
-0.206789 0.379727 2.216478 0 255 0
-0.199487 0.381068 2.223359 0 255 0
-0.187816 0.381647 2.227110 0 255 0
-0.176131 0.382237 2.230909 0 255 0
-0.163558 0.382686 2.234131 0 255 0
-0.151843 0.383300 2.238029 0 255 0
-0.136612 0.383319 2.239494 0 255 0
-0.125741 0.384109 2.244118 0 255 0
-0.113104 0.384609 2.247555 0 255 0
-0.105715 0.386021 2.254723 0 255 0
-0.091293 0.386244 2.257032 0 255 0
-0.083004 0.387523 2.263659 0 255 0
-0.374187 0.397825 2.108000 255 0 0
-0.367059 0.396338 2.100000 255 0 0
-0.360318 0.395229 2.094000 255 0 0
-0.354625 0.395251 2.094000 255 0 0
-0.348598 0.394896 2.092000 255 0 0
-0.342908 0.394918 2.092000 255 0 0
-0.337218 0.394940 2.092000 255 0 0
-0.331369 0.394774 2.091000 255 0 0
-0.325679 0.394795 2.091000 255 0 0
-0.319224 0.393872 2.086000 255 0 0
-0.312645 0.392761 2.080000 255 0 0
-0.306246 0.391837 2.075000 255 0 0
-0.300742 0.392047 2.076000 255 0 0
-0.295942 0.393200 2.082000 255 0 0
-0.291807 0.395297 2.093000 255 0 0
-0.286653 0.396073 2.097000 255 0 0
-0.280807 0.395904 2.096000 255 0 0
-0.274573 0.395167 2.092000 255 0 0
-0.268230 0.394242 2.087000 255 0 0
-0.261789 0.393127 2.081000 255 0 0
-0.255502 0.392201 2.076000 255 0 0
-0.249242 0.391274 2.071000 255 0 0
-0.243479 0.391103 2.070000 255 0 0
-0.237606 0.390742 2.068000 255 0 0
-0.231743 0.390381 2.066000 255 0 0
-0.225671 0.389642 2.062000 255 0 0
-0.219514 0.388713 2.057000 255 0 0
-0.213591 0.388162 2.054000 255 0 0
-0.207786 0.387800 2.052000 255 0 0
-0.202286 0.388004 2.053000 255 0 0
-0.196780 0.388208 2.054000 255 0 0
-0.191268 0.388411 2.055000 255 0 0
-0.185841 0.388803 2.057000 255 0 0
-0.180051 0.388439 2.055000 255 0 0
-0.174527 0.388641 2.056000 255 0 0
-0.168914 0.388654 2.056000 255 0 0
-0.163460 0.389045 2.058000 255 0 0
-0.157917 0.389246 2.059000 255 0 0
-0.152221 0.389069 2.058000 255 0 0
-0.146601 0.389080 2.058000 255 0 0
-0.140980 0.389091 2.058000 255 0 0
-0.135490 0.389480 2.060000 255 0 0
-0.129611 0.388734 2.056000 255 0 0
-0.123874 0.388366 2.054000 255 0 0
-0.118205 0.388186 2.053000 255 0 0
-0.112541 0.388006 2.052000 255 0 0
-0.106830 0.387636 2.050000 255 0 0
-0.101080 0.387077 2.047000 255 0 0
-0.095486 0.387085 2.047000 255 0 0
-0.089936 0.387281 2.048000 255 0 0
-0.084463 0.387855 2.051000 255 0 0
-0.078934 0.388240 2.053000 255 0 0
-0.073287 0.388057 2.052000 255 0 0
-0.067678 0.388062 2.052000 255 0 0
-0.062008 0.387689 2.050000 255 0 0
-0.056459 0.388072 2.052000 255 0 0
-0.050850 0.388076 2.052000 255 0 0
-0.045218 0.387891 2.051000 255 0 0
-0.039611 0.387894 2.051000 255 0 0
-0.034037 0.388276 2.053000 255 0 0
-0.028466 0.388845 2.056000 255 0 0
-0.022878 0.389415 2.059000 255 0 0
-0.017265 0.389795 2.061000 255 0 0
-0.011658 0.390741 2.066000 255 0 0
-0.006018 0.391310 2.069000 255 0 0
-0.000362 0.391877 2.072000 255 0 0
0.005311 0.392444 2.075000 255 0 0
0.011000 0.393011 2.078000 255 0 0
0.016721 0.393956 2.083000 255 0 0
0.022470 0.394900 2.088000 255 0 0
0.028260 0.396033 2.094000 255 0 0
0.034066 0.396976 2.099000 255 0 0
0.039899 0.397918 2.104000 255 0 0
0.045825 0.399428 2.112000 255 0 0
0.051990 0.402450 2.128000 255 0 0
0.058106 0.404526 2.139000 255 0 0
0.064102 0.405467 2.144000 255 0 0
0.069898 0.405083 2.142000 255 0 0
0.075824 0.405456 2.144000 255 0 0
0.081607 0.405071 2.142000 255 0 0
0.087380 0.404687 2.140000 255 0 0
0.093098 0.404112 2.137000 255 0 0
0.099170 0.405050 2.142000 255 0 0
0.105219 0.405799 2.146000 255 0 0
0.111446 0.407114 2.153000 255 0 0
0.117329 0.407105 2.153000 255 0 0
0.123554 0.408230 2.159000 255 0 0
-0.098103 0.445147 2.246389 255 255 0
-0.084950 0.444358 2.242880 255 255 0
-0.070104 0.443774 2.240670 255 255 0
-0.056992 0.443007 2.237277 255 255 0
-0.049030 0.441659 2.230176 255 255 0
-0.038516 0.440613 2.224989 255 255 0
-0.023750 0.440072 2.223001 255 255 0
-0.013269 0.439045 2.217906 255 255 0
0.004858 0.438928 2.218582 255 255 0
0.021254 0.438626 2.218065 255 255 0
0.041870 0.438843 2.220831 255 255 0
0.050570 0.437657 2.214675 255 255 0
0.061804 0.436782 2.210490 255 255 0
0.064555 0.434891 2.199856 255 255 0
0.063079 0.432485 2.185956 255 255 0
-0.281186 0.359226 2.163525 0 255 0
-0.274819 0.360656 2.170845 0 255 0
-0.254607 0.359514 2.167732 0 255 0
-0.220513 0.355826 2.154310 0 255 0
-0.208029 0.356177 2.157267 0 255 0
-0.214609 0.360049 2.174475 0 255 0
-0.215997 0.362957 2.187766 0 255 0
-0.216525 0.365702 2.200388 0 255 0
-0.206626 0.366549 2.205333 0 255 0
-0.200196 0.368034 2.212858 0 255 0
-0.194631 0.369682 2.221032 0 255 0
-0.186447 0.370864 2.227329 0 255 0
-0.176510 0.371742 2.232399 0 255 0
-0.165688 0.372475 2.236882 0 255 0
-0.155726 0.373373 2.242030 0 255 0
-0.145754 0.374280 2.247218 0 255 0
-0.129641 0.374121 2.248122 0 255 0
-0.114382 0.374132 2.249716 0 255 0
-0.101733 0.374617 2.253216 0 255 0
-0.091702 0.375570 2.258599 0 255 0
-0.082537 0.376684 2.264628 0 255 0
-0.372968 0.390796 2.101000 255 0 0
-0.366733 0.390261 2.098000 255 0 0
-0.360341 0.389540 2.094000 255 0 0
-0.354309 0.389190 2.092000 255 0 0
-0.348453 0.389026 2.091000 255 0 0
-0.342930 0.389234 2.092000 255 0 0
-0.337401 0.389442 2.093000 255 0 0
-0.331707 0.389464 2.093000 255 0 0
-0.325857 0.389300 2.092000 255 0 0
-0.319552 0.388576 2.088000 255 0 0
-0.313117 0.387667 2.083000 255 0 0
-0.306562 0.386571 2.077000 255 0 0
-0.301052 0.386777 2.078000 255 0 0
-0.296105 0.387728 2.083000 255 0 0
-0.291827 0.389610 2.093000 255 0 0
-0.286810 0.390560 2.098000 255 0 0
-0.281497 0.391138 2.101000 255 0 0
-0.275379 0.390599 2.098000 255 0 0
-0.269020 0.389687 2.093000 255 0 0
-0.262310 0.388216 2.085000 255 0 0
-0.255889 0.387117 2.079000 255 0 0
-0.249500 0.386018 2.073000 255 0 0
-0.243732 0.385849 2.072000 255 0 0
-0.237738 0.385307 2.069000 255 0 0
-0.231760 0.384766 2.066000 255 0 0
-0.225688 0.384037 2.062000 255 0 0
-0.219743 0.383494 2.059000 255 0 0
-0.214127 0.383510 2.059000 255 0 0
-0.208307 0.383153 2.057000 255 0 0
-0.202597 0.382982 2.056000 255 0 0
-0.196891 0.382810 2.055000 255 0 0
-0.191469 0.383197 2.057000 255 0 0
-0.186035 0.383584 2.059000 255 0 0
-0.180240 0.383225 2.057000 255 0 0
-0.174795 0.383611 2.059000 255 0 0
-0.169173 0.383624 2.059000 255 0 0
-0.163710 0.384009 2.061000 255 0 0
-0.158083 0.384021 2.061000 255 0 0
-0.152528 0.384219 2.062000 255 0 0
-0.146968 0.384417 2.063000 255 0 0
-0.141333 0.384428 2.063000 255 0 0
-0.135567 0.384066 2.061000 255 0 0
-0.129684 0.383330 2.057000 255 0 0
-0.123884 0.382781 2.054000 255 0 0
-0.118272 0.382790 2.054000 255 0 0
-0.112550 0.382426 2.052000 255 0 0
-0.106890 0.382248 2.051000 255 0 0
-0.101137 0.381697 2.048000 255 0 0
-0.095494 0.381519 2.047000 255 0 0
-0.089987 0.381899 2.049000 255 0 0
-0.084469 0.382278 2.051000 255 0 0
-0.078978 0.382844 2.054000 255 0 0
-0.073292 0.382477 2.052000 255 0 0
-0.067749 0.382855 2.054000 255 0 0
-0.062074 0.382487 2.052000 255 0 0
-0.056491 0.382679 2.053000 255 0 0
-0.050879 0.382683 2.053000 255 0 0
-0.045244 0.382500 2.052000 255 0 0
-0.039633 0.382503 2.052000 255 0 0
-0.034056 0.382879 2.054000 255 0 0
-0.028495 0.383627 2.058000 255 0 0
-0.022902 0.384189 2.061000 255 0 0
-0.017308 0.385122 2.066000 255 0 0
-0.011687 0.386055 2.071000 255 0 0
-0.006036 0.386802 2.075000 255 0 0
-0.000363 0.386988 2.076000 255 0 0
0.005319 0.387361 2.078000 255 0 0
0.011011 0.387733 2.080000 255 0 0
0.016739 0.388664 2.085000 255 0 0
0.022483 0.389408 2.089000 255 0 0
0.028276 0.390525 2.095000 255 0 0
0.034101 0.391641 2.101000 255 0 0
0.039922 0.392383 2.105000 255 0 0
0.045915 0.394430 2.116000 255 0 0
0.052091 0.397409 2.132000 255 0 0
0.058219 0.399455 2.143000 255 0 0
0.064167 0.400010 2.146000 255 0 0
0.070001 0.399818 2.145000 255 0 0
0.075900 0.399999 2.146000 255 0 0
0.081728 0.399806 2.145000 255 0 0
0.087550 0.399613 2.144000 255 0 0
0.093323 0.399233 2.142000 255 0 0
0.099363 0.399971 2.146000 255 0 0
0.105424 0.400709 2.150000 255 0 0
0.111713 0.402191 2.158000 255 0 0
0.117556 0.401996 2.157000 255 0 0
0.123621 0.402546 2.160000 255 0 0
-0.106853 0.435491 2.254311 255 255 0
-0.098836 0.434125 2.247051 255 255 0
-0.082258 0.433762 2.246002 255 255 0
-0.065706 0.433413 2.245029 255 255 0
-0.055169 0.432374 2.239765 255 255 0
-0.044646 0.431343 2.234542 255 255 0
-0.034991 0.430218 2.228730 255 255 0
-0.017677 0.430018 2.228632 255 255 0
-0.009758 0.428706 2.221645 255 255 0
0.007509 0.428531 2.221681 255 255 0
0.023897 0.428268 2.221157 255 255 0
0.043653 0.428435 2.223272 255 255 0
0.049807 0.426951 2.215183 255 255 0
0.056804 0.425575 2.207755 255 255 0
0.060408 0.423783 2.197750 255 255 0
0.059786 0.421464 2.184489 255 255 0
-0.281538 0.348910 2.164919 0 255 0
-0.276900 0.350660 2.173554 0 255 0
-0.260157 0.350122 2.173064 0 255 0
-0.227816 0.346665 2.160954 0 255 0
-0.211013 0.346172 2.160665 0 255 0
-0.213254 0.349262 2.174638 0 255 0
-0.209432 0.351216 2.184081 0 255 0
-0.212556 0.354460 2.198643 0 255 0
-0.207870 0.356253 2.207433 0 255 0
-0.197962 0.357089 2.212424 0 255 0
-0.190655 0.358413 2.219348 0 255 0
-0.186826 0.360378 2.228812 0 255 0
-0.183867 0.362504 2.238905 0 255 0
-0.173927 0.363368 2.244002 0 255 0
-0.163102 0.364084 2.248515 0 255 0
-0.150515 0.364498 2.251834 0 255 0
-0.133538 0.364143 2.252124 0 255 0
-0.118289 0.364117 2.253721 0 255 0
-0.105648 0.364573 2.257223 0 255 0
-0.097377 0.365813 2.263822 0 255 0
-0.089975 0.367215 2.271056 0 255 0
-0.386271 0.392762 2.143000 255 0 0
-0.373346 0.385454 2.103000 255 0 0
-0.366756 0.384560 2.098000 255 0 0
-0.360536 0.384033 2.095000 255 0 0
-0.354331 0.383505 2.092000 255 0 0
-0.348476 0.383344 2.091000 255 0 0
-0.342788 0.383366 2.091000 255 0 0
-0.337262 0.383571 2.092000 255 0 0
-0.331570 0.383593 2.092000 255 0 0
-0.325878 0.383614 2.092000 255 0 0
-0.319879 0.383269 2.090000 255 0 0
-0.313589 0.382556 2.086000 255 0 0
-0.307320 0.381843 2.082000 255 0 0
-0.301507 0.381680 2.081000 255 0 0
-0.296551 0.382617 2.086000 255 0 0
-0.291986 0.384104 2.094000 255 0 0
-0.287239 0.385408 2.101000 255 0 0
-0.282186 0.386344 2.106000 255 0 0
-0.276317 0.386180 2.105000 255 0 0
-0.269810 0.385098 2.099000 255 0 0
-0.262706 0.383099 2.088000 255 0 0
-0.256400 0.382199 2.083000 255 0 0
-0.250120 0.381300 2.078000 255 0 0
-0.244102 0.380767 2.075000 255 0 0
-0.238099 0.380233 2.072000 255 0 0
-0.232225 0.379883 2.070000 255 0 0
-0.226142 0.379165 2.066000 255 0 0
-0.220186 0.378631 2.063000 255 0 0
-0.214559 0.378646 2.063000 255 0 0
-0.208525 0.377927 2.059000 255 0 0
-0.202710 0.377575 2.057000 255 0 0
-0.197001 0.377406 2.056000 255 0 0
-0.191576 0.377788 2.058000 255 0 0
-0.186049 0.377985 2.059000 255 0 0
-0.180429 0.377999 2.059000 255 0 0
-0.175062 0.378563 2.062000 255 0 0
-0.169433 0.378576 2.062000 255 0 0
-0.163961 0.378955 2.064000 255 0 0
-0.158248 0.378784 2.063000 255 0 0
-0.152688 0.378979 2.064000 255 0 0
-0.147050 0.378990 2.064000 255 0 0
-0.141413 0.379001 2.064000 255 0 0
-0.135577 0.378461 2.061000 255 0 0
-0.129757 0.377920 2.058000 255 0 0
-0.124014 0.377562 2.056000 255 0 0
-0.118338 0.377388 2.055000 255 0 0
-0.112723 0.377397 2.055000 255 0 0
-0.106951 0.376854 2.052000 255 0 0
-0.101195 0.376311 2.049000 255 0 0
-0.095548 0.376135 2.048000 255 0 0
-0.090038 0.376510 2.050000 255 0 0
-0.084476 0.376700 2.051000 255 0 0
-0.078985 0.377257 2.054000 255 0 0
-0.073370 0.377263 2.054000 255 0 0
-0.067820 0.377636 2.056000 255 0 0
-0.062199 0.377641 2.056000 255 0 0
-0.056578 0.377646 2.056000 255 0 0
-0.050932 0.377466 2.055000 255 0 0
-0.045291 0.377286 2.054000 255 0 0
-0.039694 0.377473 2.055000 255 0 0
-0.034109 0.377844 2.057000 255 0 0
-0.028525 0.378397 2.060000 255 0 0
-0.022915 0.378767 2.062000 255 0 0
-0.017310 0.379503 2.066000 255 0 0
-0.011688 0.380422 2.071000 255 0 0
-0.006034 0.380974 2.074000 255 0 0
-0.000363 0.381342 2.076000 255 0 0
0.005322 0.381893 2.079000 255 0 0
0.011033 0.382811 2.084000 255 0 0
0.016764 0.383544 2.088000 255 0 0
0.022538 0.384645 2.094000 255 0 0
0.028318 0.385378 2.098000 255 0 0
0.034169 0.386661 2.105000 255 0 0
0.040038 0.387760 2.111000 255 0 0
0.046158 0.390696 2.127000 255 0 0
0.052291 0.393080 2.140000 255 0 0
0.058387 0.394729 2.149000 255 0 0
0.064292 0.394908 2.150000 255 0 0
0.070170 0.394902 2.150000 255 0 0
0.075977 0.394529 2.148000 255 0 0
0.081811 0.394339 2.147000 255 0 0
0.087639 0.394149 2.146000 255 0 0
0.093505 0.394142 2.146000 255 0 0
0.099509 0.394686 2.149000 255 0 0
0.105579 0.395413 2.153000 255 0 0
0.111774 0.396506 2.159000 255 0 0
0.117674 0.396497 2.159000 255 0 0
0.123516 0.396304 2.158000 255 0 0
-0.101576 0.425151 2.259275 255 255 0
-0.090135 0.424208 2.254485 255 255 0
-0.072713 0.423990 2.254066 255 255 0
-0.057889 0.423479 2.251866 255 255 0
-0.052490 0.421844 2.242878 255 255 0
-0.045388 0.420419 2.235150 255 255 0
-0.033174 0.419624 2.231211 255 255 0
-0.017571 0.419256 2.229844 255 255 0
-0.007951 0.418167 2.224116 255 255 0
0.010158 0.418139 2.224777 255 255 0
0.028237 0.418128 2.225524 255 255 0
0.044589 0.417920 2.225074 255 255 0
0.049047 0.416229 2.215695 255 255 0
0.055197 0.414755 2.207611 255 255 0
0.055422 0.412530 2.195005 255 255 0
0.054809 0.410194 2.181727 255 255 0
-0.281032 0.338416 2.165658 0 255 0
-0.272076 0.339330 2.171029 0 255 0
-0.220413 0.334718 2.156554 0 255 0
-0.213996 0.336172 2.164062 0 255 0
-0.212770 0.338619 2.175450 0 255 0
-0.207213 0.340244 2.183617 0 255 0
-0.210329 0.343509 2.198185 0 255 0
-0.208246 0.345789 2.208898 0 255 0
-0.198342 0.346606 2.213897 0 255 0
-0.182336 0.346299 2.214516 0 255 0
-0.176757 0.347946 2.222753 0 255 0
-0.172917 0.349918 2.232255 0 255 0
-0.173437 0.352694 2.244877 0 255 0
-0.166107 0.354028 2.251887 0 255 0
-0.153527 0.354412 2.255209 0 255 0
-0.136559 0.354016 2.255506 0 255 0
-0.121318 0.353954 2.257109 0 255 0
-0.108684 0.354381 2.260614 0 255 0
-0.099541 0.355448 2.266606 0 255 0
-0.092142 0.356838 2.273843 0 255 0
-0.084735 0.358233 2.281104 0 255 0
-0.383591 0.384230 2.128000 255 0 0
-0.374079 0.380461 2.107000 255 0 0
-0.366953 0.379039 2.099000 255 0 0
-0.360558 0.378339 2.095000 255 0 0
-0.354523 0.378001 2.093000 255 0 0
-0.348831 0.378023 2.093000 255 0 0
-0.343138 0.378044 2.093000 255 0 0
-0.337445 0.378066 2.093000 255 0 0
-0.331750 0.378087 2.093000 255 0 0
-0.325743 0.377747 2.091000 255 0 0
-0.319900 0.377588 2.090000 255 0 0
-0.313760 0.377066 2.087000 255 0 0
-0.307488 0.376364 2.083000 255 0 0
-0.301672 0.376204 2.082000 255 0 0
-0.296855 0.377308 2.088000 255 0 0
-0.292145 0.378592 2.095000 255 0 0
-0.287532 0.380058 2.103000 255 0 0
-0.282607 0.381161 2.109000 255 0 0
-0.276993 0.381361 2.110000 255 0 0
-0.270214 0.379934 2.102000 255 0 0
-0.262850 0.377602 2.089000 255 0 0
-0.256418 0.376536 2.083000 255 0 0
-0.250378 0.376011 2.080000 255 0 0
-0.244707 0.376029 2.080000 255 0 0
-0.238691 0.375503 2.077000 255 0 0
-0.232690 0.374977 2.074000 255 0 0
-0.226596 0.374271 2.070000 255 0 0
-0.220522 0.373563 2.066000 255 0 0
-0.214782 0.373398 2.065000 255 0 0
-0.208642 0.372509 2.060000 255 0 0
-0.202922 0.372343 2.059000 255 0 0
-0.197015 0.371815 2.056000 255 0 0
-0.191590 0.372191 2.058000 255 0 0
-0.186153 0.372566 2.060000 255 0 0
-0.180705 0.372942 2.062000 255 0 0
-0.175160 0.373136 2.063000 255 0 0
-0.169609 0.373329 2.064000 255 0 0
-0.164132 0.373703 2.066000 255 0 0
-0.158490 0.373715 2.066000 255 0 0
-0.152921 0.373908 2.067000 255 0 0
-0.147204 0.373738 2.066000 255 0 0
-0.141560 0.373749 2.066000 255 0 0
-0.135719 0.373217 2.063000 255 0 0
-0.129893 0.372684 2.060000 255 0 0
-0.124144 0.372332 2.058000 255 0 0
-0.118405 0.371979 2.056000 255 0 0
-0.112732 0.371807 2.055000 255 0 0
-0.107011 0.371453 2.053000 255 0 0
-0.101301 0.371100 2.051000 255 0 0
-0.095649 0.370926 2.050000 255 0 0
-0.090089 0.371114 2.051000 255 0 0
-0.084523 0.371302 2.052000 255 0 0
-0.078914 0.371308 2.052000 255 0 0
-0.073375 0.371676 2.054000 255 0 0
-0.067826 0.372043 2.056000 255 0 0
-0.062265 0.372410 2.058000 255 0 0
-0.056638 0.372415 2.058000 255 0 0
-0.050986 0.372238 2.057000 255 0 0
-0.045361 0.372242 2.057000 255 0 0
-0.039736 0.372245 2.057000 255 0 0
-0.034161 0.372791 2.060000 255 0 0
-0.028583 0.373517 2.064000 255 0 0
-0.022961 0.373881 2.066000 255 0 0
-0.017336 0.374425 2.069000 255 0 0
-0.011701 0.375150 2.073000 255 0 0
-0.006037 0.375513 2.075000 255 0 0
-0.000363 0.375875 2.077000 255 0 0
0.005327 0.376599 2.081000 255 0 0
0.011055 0.377865 2.088000 255 0 0
0.016806 0.378769 2.093000 255 0 0
0.022583 0.379672 2.098000 255 0 0
0.028375 0.380394 2.102000 255 0 0
0.034269 0.382020 2.111000 255 0 0
0.040250 0.384008 2.122000 255 0 0
0.046465 0.387443 2.141000 255 0 0
0.052515 0.388887 2.149000 255 0 0
0.058527 0.389787 2.154000 255 0 0
0.064417 0.389783 2.154000 255 0 0
0.070339 0.389958 2.155000 255 0 0
0.076053 0.389048 2.150000 255 0 0
0.081893 0.388861 2.149000 255 0 0
0.087605 0.388131 2.145000 255 0 0
0.093599 0.388666 2.148000 255 0 0
0.099471 0.388659 2.148000 255 0 0
0.105636 0.389737 2.154000 255 0 0
0.111730 0.390452 2.158000 255 0 0
0.117737 0.390805 2.160000 255 0 0
0.123525 0.390434 2.158000 255 0 0
-0.102308 0.414102 2.259949 255 255 0
-0.093439 0.412868 2.253302 255 255 0
-0.073452 0.413004 2.254711 255 255 0
-0.057775 0.412631 2.253116 255 255 0
-0.052375 0.411001 2.244122 255 255 0
-0.046126 0.409479 2.235763 255 255 0
-0.034768 0.408602 2.231183 255 255 0
-0.020871 0.408055 2.228538 255 255 0
-0.008696 0.407304 2.224689 255 255 0
0.010258 0.407428 2.225967 255 255 0
0.035971 0.408437 2.232437 255 255 0
0.048917 0.407835 2.229436 255 255 0
0.055066 0.406368 2.221350 255 255 0
0.055287 0.404134 2.208763 255 255 0
0.057206 0.402119 2.197451 255 255 0
0.045618 0.398328 2.175726 255 255 0
-0.271909 0.326209 2.159839 0 255 0
-0.264673 0.327450 2.166554 0 255 0
-0.234982 0.324309 2.156366 0 255 0
-0.197467 0.319686 2.140498 0 255 0
-0.158164 0.314772 2.123538 0 255 0
-0.218349 0.329132 2.180768 0 255 0
-0.211064 0.330414 2.187645 0 255 0
-0.213312 0.333530 2.201564 0 255 0
-0.211229 0.335811 2.212271 0 255 0
-0.202198 0.336773 2.217905 0 255 0
-0.185334 0.336262 2.217898 0 255 0
-0.176276 0.337244 2.223621 0 255 0
-0.173306 0.339379 2.233754 0 255 0
-0.170335 0.341515 2.243886 0 255 0
-0.165621 0.343327 2.252774 0 255 0
-0.149552 0.343038 2.253640 0 255 0
-0.132588 0.342604 2.253965 0 255 0
-0.119099 0.342831 2.256819 0 255 0
-0.111720 0.344194 2.264004 0 255 0
-0.105209 0.345722 2.271820 0 255 0
-0.100447 0.347574 2.280865 0 255 0
-0.090416 0.348477 2.286303 0 255 0
-0.382893 0.377735 2.124000 255 0 0
-0.374634 0.375268 2.110000 255 0 0
-0.367675 0.374046 2.103000 255 0 0
-0.361097 0.373179 2.098000 255 0 0
-0.355053 0.372845 2.096000 255 0 0
-0.349186 0.372689 2.095000 255 0 0
-0.343488 0.372711 2.095000 255 0 0
-0.337627 0.372554 2.094000 255 0 0
-0.331771 0.372398 2.093000 255 0 0
-0.325920 0.372241 2.092000 255 0 0
-0.320226 0.372262 2.092000 255 0 0
-0.314081 0.371748 2.089000 255 0 0
-0.307951 0.371235 2.086000 255 0 0
-0.302126 0.371077 2.085000 255 0 0
-0.297302 0.372165 2.091000 255 0 0
-0.292583 0.373430 2.098000 255 0 0
-0.287825 0.374696 2.105000 255 0 0
-0.282895 0.375783 2.111000 255 0 0
-0.277405 0.376158 2.113000 255 0 0
-0.270619 0.374752 2.105000 255 0 0
-0.263372 0.372634 2.093000 255 0 0
-0.257174 0.371940 2.089000 255 0 0
-0.251238 0.371601 2.087000 255 0 0
-0.245548 0.371618 2.087000 255 0 0
-0.239282 0.370745 2.082000 255 0 0
-0.233268 0.370227 2.079000 255 0 0
-0.227159 0.369531 2.075000 255 0 0
-0.220965 0.368657 2.070000 255 0 0
-0.215109 0.368316 2.068000 255 0 0
-0.209163 0.367797 2.065000 255 0 0
-0.203232 0.367277 2.062000 255 0 0
-0.197221 0.366579 2.058000 255 0 0
-0.191697 0.366771 2.059000 255 0 0
-0.186257 0.367141 2.061000 255 0 0
-0.180806 0.367511 2.063000 255 0 0
-0.175258 0.367702 2.064000 255 0 0
-0.169622 0.367715 2.064000 255 0 0
-0.164144 0.368083 2.066000 255 0 0
-0.158578 0.368273 2.067000 255 0 0
-0.153007 0.368463 2.068000 255 0 0
-0.147357 0.368474 2.068000 255 0 0
-0.141571 0.368129 2.066000 255 0 0
-0.135795 0.367783 2.064000 255 0 0
-0.129903 0.367080 2.060000 255 0 0
-0.124334 0.367267 2.061000 255 0 0
-0.118587 0.366920 2.059000 255 0 0
-0.112905 0.366751 2.058000 255 0 0
-0.107071 0.366046 2.054000 255 0 0
-0.101358 0.365698 2.052000 255 0 0
-0.095749 0.365705 2.052000 255 0 0
-0.090184 0.365890 2.053000 255 0 0
-0.084571 0.365897 2.053000 255 0 0
-0.078958 0.365903 2.053000 255 0 0
-0.073381 0.366087 2.054000 255 0 0
-0.067831 0.366449 2.056000 255 0 0
-0.062209 0.366454 2.056000 255 0 0
-0.056615 0.366637 2.057000 255 0 0
-0.050990 0.366641 2.057000 255 0 0
-0.045387 0.366823 2.058000 255 0 0
-0.039797 0.367183 2.060000 255 0 0
-0.034213 0.367720 2.063000 255 0 0
-0.028585 0.367901 2.064000 255 0 0
-0.022985 0.368616 2.068000 255 0 0
-0.017346 0.368974 2.070000 255 0 0
-0.011707 0.369688 2.074000 255 0 0
-0.006041 0.370045 2.076000 255 0 0
-0.000363 0.370580 2.079000 255 0 0
0.005330 0.371115 2.082000 255 0 0
0.011062 0.372362 2.089000 255 0 0
0.016815 0.373252 2.094000 255 0 0
0.022628 0.374676 2.102000 255 0 0
0.028458 0.375744 2.108000 255 0 0
0.034450 0.378237 2.122000 255 0 0
0.040595 0.381443 2.140000 255 0 0
0.046794 0.384291 2.156000 255 0 0
0.052763 0.384822 2.159000 255 0 0
0.058640 0.384639 2.158000 255 0 0
0.064541 0.384635 2.158000 255 0 0
0.070474 0.384808 2.159000 255 0 0
0.076201 0.383911 2.154000 255 0 0
0.081976 0.383370 2.151000 255 0 0
0.087611 0.382295 2.145000 255 0 0
0.093563 0.382644 2.147000 255 0 0
0.099432 0.382637 2.147000 255 0 0
0.105595 0.383698 2.153000 255 0 0
0.111532 0.383868 2.154000 255 0 0
0.117582 0.384394 2.157000 255 0 0
0.123420 0.384207 2.156000 255 0 0
0.129432 0.384554 2.158000 255 0 0
-0.101321 0.403251 2.261850 255 255 0
-0.093311 0.401925 2.254583 255 255 0
-0.074187 0.402002 2.255359 255 255 0
-0.055950 0.401989 2.255607 255 255 0
-0.048843 0.400581 2.247856 255 255 0
-0.046009 0.398632 2.237003 255 255 0
-0.037209 0.397449 2.230534 255 255 0
-0.027569 0.396382 2.224722 255 255 0
-0.010289 0.396315 2.224633 255 255 0
0.011208 0.396816 2.227795 255 255 0
0.037759 0.398004 2.234883 255 255 0
0.049005 0.397207 2.230598 255 255 0
0.062774 0.396756 2.228283 255 255 0
0.063836 0.394627 2.216361 255 255 0
0.060679 0.391932 2.201189 255 255 0
-0.304577 0.311672 2.137236 0 255 0
-0.280703 0.312176 2.143243 0 255 0
-0.270035 0.312706 2.147309 0 255 0
-0.210082 0.316948 2.175799 0 255 0
-0.214048 0.320424 2.191029 0 255 0
-0.218026 0.323892 2.206215 0 255 0
-0.177178 0.329495 2.237756 0 255 0
-0.175951 0.331960 2.249126 0 255 0
-0.172985 0.334095 2.259243 0 255 0
-0.155184 0.333435 2.258868 0 255 0
-0.116011 0.331520 2.255924 0 255 0
-0.108630 0.332873 2.263127 0 255 0
-0.104744 0.334881 2.272780 0 255 0
-0.101734 0.337052 2.283041 0 255 0
-0.092584 0.338096 2.289089 0 255 0
-0.381834 0.370911 2.118000 255 0 0
-0.374479 0.369357 2.109000 255 0 0
-0.367872 0.368504 2.104000 255 0 0
-0.361635 0.368001 2.101000 255 0 0
-0.355583 0.367673 2.099000 255 0 0
-0.349541 0.367344 2.097000 255 0 0
-0.343837 0.367365 2.097000 255 0 0
-0.337971 0.367212 2.096000 255 0 0
-0.332110 0.367058 2.095000 255 0 0
-0.326097 0.366728 2.093000 255 0 0
-0.320247 0.366573 2.092000 255 0 0
-0.314252 0.366243 2.090000 255 0 0
-0.307971 0.365563 2.086000 255 0 0
-0.302146 0.365407 2.085000 255 0 0
-0.297464 0.366654 2.092000 255 0 0
-0.292881 0.368075 2.100000 255 0 0
-0.288118 0.369322 2.107000 255 0 0
-0.283048 0.370217 2.112000 255 0 0
-0.277687 0.370762 2.115000 255 0 0
-0.271023 0.369553 2.108000 255 0 0
-0.264019 0.367818 2.098000 255 0 0
-0.257807 0.367135 2.094000 255 0 0
-0.251858 0.366801 2.092000 255 0 0
-0.246036 0.366643 2.091000 255 0 0
-0.239759 0.365783 2.086000 255 0 0
-0.233733 0.365274 2.083000 255 0 0
-0.227285 0.364062 2.076000 255 0 0
-0.221194 0.363377 2.072000 255 0 0
-0.215437 0.363217 2.071000 255 0 0
-0.209786 0.363232 2.071000 255 0 0
-0.203641 0.362369 2.066000 255 0 0
-0.197427 0.361331 2.060000 255 0 0
-0.191804 0.361345 2.060000 255 0 0
-0.186361 0.361710 2.062000 255 0 0
-0.180994 0.362249 2.065000 255 0 0
-0.175356 0.362262 2.065000 255 0 0
-0.169717 0.362275 2.065000 255 0 0
-0.164236 0.362638 2.067000 255 0 0
-0.158590 0.362649 2.067000 255 0 0
-0.153092 0.363012 2.069000 255 0 0
-0.147368 0.362847 2.068000 255 0 0
-0.141718 0.362858 2.068000 255 0 0
-0.135936 0.362517 2.066000 255 0 0
-0.130165 0.362176 2.064000 255 0 0
-0.124464 0.362010 2.063000 255 0 0
-0.118711 0.361668 2.061000 255 0 0
-0.112968 0.361326 2.059000 255 0 0
-0.107184 0.360808 2.056000 255 0 0
-0.101465 0.360465 2.054000 255 0 0
-0.095850 0.360472 2.054000 255 0 0
-0.090234 0.360479 2.054000 255 0 0
-0.084578 0.360310 2.053000 255 0 0
-0.078964 0.360316 2.053000 255 0 0
-0.073386 0.360498 2.054000 255 0 0
-0.067836 0.360854 2.056000 255 0 0
-0.062184 0.360683 2.055000 255 0 0
-0.056591 0.360863 2.056000 255 0 0
-0.050994 0.361043 2.057000 255 0 0
-0.045434 0.361573 2.060000 255 0 0
-0.039839 0.361927 2.062000 255 0 0
-0.034233 0.362281 2.064000 255 0 0
-0.028629 0.362810 2.067000 255 0 0
-0.023009 0.363339 2.070000 255 0 0
-0.017372 0.363867 2.073000 255 0 0
-0.011725 0.364570 2.077000 255 0 0
-0.006050 0.364922 2.079000 255 0 0
-0.000364 0.365624 2.083000 255 0 0
0.005338 0.365975 2.085000 255 0 0
0.011078 0.367203 2.092000 255 0 0
0.016856 0.368431 2.099000 255 0 0
0.022684 0.369833 2.107000 255 0 0
0.028541 0.371060 2.114000 255 0 0
0.034615 0.374217 2.132000 255 0 0
0.040901 0.378427 2.156000 255 0 0
0.047080 0.380705 2.169000 255 0 0
0.052939 0.380175 2.166000 255 0 0
0.058753 0.379469 2.162000 255 0 0
0.064606 0.379113 2.160000 255 0 0
0.070512 0.379108 2.160000 255 0 0
0.076242 0.378225 2.155000 255 0 0
0.082058 0.377868 2.153000 255 0 0
0.087700 0.376808 2.147000 255 0 0
0.093613 0.376977 2.148000 255 0 0
0.099393 0.376619 2.146000 255 0 0
0.105456 0.377313 2.150000 255 0 0
0.111437 0.377656 2.152000 255 0 0
0.117646 0.378700 2.158000 255 0 0
0.123659 0.379042 2.160000 255 0 0
0.129802 0.379735 2.164000 255 0 0
-0.102905 0.392066 2.261920 255 255 0
-0.094038 0.390861 2.255254 255 255 0
-0.074919 0.390984 2.256012 255 255 0
-0.057541 0.390903 2.255623 255 255 0
-0.047019 0.389948 2.250345 255 255 0
-0.043333 0.388109 2.240118 255 255 0
-0.037943 0.386494 2.231142 255 255 0
-0.028304 0.385444 2.225320 255 255 0
-0.008479 0.385755 2.227108 255 255 0
0.014707 0.386538 2.231525 255 255 0
0.038699 0.387456 2.236694 255 255 0
0.044859 0.385997 2.228569 255 255 0
0.060322 0.385803 2.227512 255 255 0
0.063079 0.383895 2.216867 255 255 0
0.058240 0.380947 2.200401 255 255 0
-0.298933 0.300101 2.133961 0 255 0
-0.290866 0.301120 2.139949 0 255 0
-0.274198 0.300385 2.139366 0 255 0
-0.261807 0.300546 2.142147 0 255 0
-0.198370 0.304013 2.168279 0 255 0
-0.212703 0.309581 2.191215 0 255 0
-0.215808 0.312901 2.205767 0 255 0
-0.188006 0.320969 2.246746 0 255 0
-0.178951 0.321922 2.252494 0 255 0
-0.172501 0.323386 2.260133 0 255 0
-0.153835 0.322517 2.259160 0 255 0
-0.132524 0.321169 2.256434 0 255 0
-0.117298 0.321006 2.258094 0 255 0
-0.108171 0.322016 2.264084 0 255 0
-0.104283 0.324023 2.273745 0 255 0
-0.098643 0.325704 2.282201 0 255 0
-0.085986 0.326078 2.285863 0 255 0
-0.381677 0.364980 2.117000 255 0 0
-0.374324 0.363451 2.108000 255 0 0
-0.367719 0.362611 2.103000 255 0 0
-0.361657 0.362288 2.101000 255 0 0
-0.355435 0.361793 2.098000 255 0 0
-0.349396 0.361470 2.096000 255 0 0
-0.343695 0.361491 2.096000 255 0 0
-0.338153 0.361685 2.097000 255 0 0
-0.332289 0.361533 2.096000 255 0 0
-0.326273 0.361209 2.094000 255 0 0
-0.320421 0.361057 2.093000 255 0 0
-0.314723 0.361077 2.093000 255 0 0
-0.308434 0.360407 2.089000 255 0 0
-0.302746 0.360427 2.089000 255 0 0
-0.297625 0.361136 2.093000 255 0 0
-0.293180 0.362709 2.102000 255 0 0
-0.288684 0.364281 2.111000 255 0 0
-0.283871 0.365508 2.118000 255 0 0
-0.278362 0.365872 2.120000 255 0 0
-0.272070 0.365200 2.116000 255 0 0
-0.265043 0.363492 2.106000 255 0 0
-0.258687 0.362647 2.101000 255 0 0
-0.252477 0.361973 2.097000 255 0 0
-0.246406 0.361473 2.094000 255 0 0
-0.240350 0.360971 2.091000 255 0 0
-0.234310 0.360470 2.088000 255 0 0
-0.228067 0.359623 2.083000 255 0 0
-0.221850 0.358775 2.078000 255 0 0
-0.216180 0.358790 2.078000 255 0 0
-0.210408 0.358633 2.077000 255 0 0
-0.204148 0.357611 2.071000 255 0 0
-0.197825 0.356417 2.064000 255 0 0
-0.192097 0.356258 2.063000 255 0 0
-0.186736 0.356789 2.066000 255 0 0
-0.181270 0.357148 2.068000 255 0 0
-0.175623 0.357161 2.068000 255 0 0
-0.169975 0.357173 2.068000 255 0 0
-0.164407 0.357358 2.069000 255 0 0
-0.158832 0.357543 2.070000 255 0 0
-0.153177 0.357554 2.070000 255 0 0
-0.147522 0.357565 2.070000 255 0 0
-0.141797 0.357403 2.069000 255 0 0
-0.135946 0.356895 2.066000 255 0 0
-0.130238 0.356732 2.065000 255 0 0
-0.124534 0.356568 2.064000 255 0 0
-0.118777 0.356232 2.062000 255 0 0
-0.113031 0.355895 2.060000 255 0 0
-0.107296 0.355557 2.058000 255 0 0
-0.101571 0.355220 2.056000 255 0 0
-0.095997 0.355400 2.057000 255 0 0
-0.090329 0.355234 2.056000 255 0 0
-0.084666 0.355068 2.055000 255 0 0
-0.079047 0.355074 2.055000 255 0 0
-0.073463 0.355252 2.056000 255 0 0
-0.067907 0.355603 2.058000 255 0 0
-0.062279 0.355608 2.058000 255 0 0
-0.056678 0.355785 2.059000 255 0 0
-0.051072 0.355962 2.060000 255 0 0
-0.045504 0.356484 2.063000 255 0 0
-0.039900 0.356833 2.065000 255 0 0
-0.034268 0.357009 2.066000 255 0 0
-0.028631 0.357184 2.067000 255 0 0
-0.023000 0.357531 2.069000 255 0 0
-0.017374 0.358224 2.073000 255 0 0
-0.011726 0.358916 2.077000 255 0 0
-0.006053 0.359436 2.080000 255 0 0
-0.000364 0.360127 2.084000 255 0 0
