ply
format ascii 1.0
element vertex 1328
property double x
property double y
property double z
property uchar red
property uchar green
property uchar blue
end_header
0.010895 0.479320 2.061000 255 0 0
0.016547 0.480017 2.064000 255 0 0
0.022204 0.480480 2.066000 255 0 0
0.027845 0.480478 2.066000 255 0 0
0.033535 0.481173 2.069000 255 0 0
0.039241 0.481868 2.072000 255 0 0
0.044984 0.482795 2.076000 255 0 0
0.050726 0.483488 2.079000 255 0 0
0.056429 0.483716 2.080000 255 0 0
0.062077 0.483479 2.079000 255 0 0
0.067785 0.483706 2.080000 255 0 0
0.073640 0.484863 2.085000 255 0 0
0.079560 0.486251 2.091000 255 0 0
0.085472 0.487407 2.096000 255 0 0
0.091062 0.486702 2.093000 255 0 0
0.096914 0.487392 2.096000 255 0 0
0.102879 0.488546 2.101000 255 0 0
-0.095987 0.608241 2.164159 255 255 0
-0.072242 0.605656 2.155798 255 255 0
-0.068548 0.603822 2.145546 255 255 0
-0.052852 0.602815 2.144380 255 255 0
-0.080861 0.598786 2.110050 255 255 0
-0.277567 0.515814 2.106345 0 255 0
-0.284245 0.519207 2.123691 0 255 0
-0.281356 0.521253 2.133584 0 255 0
-0.276722 0.523058 2.142133 0 255 0
-0.269469 0.524505 2.148689 0 255 0
-0.260461 0.525718 2.153937 0 255 0
-0.256690 0.527656 2.163186 0 255 0
-0.251167 0.529359 2.171118 0 255 0
-0.234255 0.529528 2.170526 0 255 0
-0.219073 0.529951 2.171321 0 255 0
-0.207379 0.530858 2.174789 0 255 0
-0.195671 0.531778 2.178305 0 255 0
-0.187465 0.533174 2.184453 0 255 0
-0.180129 0.534693 2.191273 0 255 0
-0.171026 0.535988 2.196832 0 255 0
-0.152220 0.536031 2.195399 0 255 0
-0.132507 0.535981 2.193419 0 255 0
-0.115412 0.536293 2.193434 0 255 0
-0.100945 0.536961 2.195420 0 255 0
-0.089111 0.537983 2.199355 0 255 0
-0.076377 0.538903 2.202713 0 255 0
-0.352082 0.485329 2.115000 255 0 0
-0.340929 0.477780 2.082000 255 0 0
-0.334303 0.476426 2.076000 255 0 0
-0.328342 0.475990 2.074000 255 0 0
-0.322858 0.476242 2.075000 255 0 0
-0.316756 0.475575 2.072000 255 0 0
-0.310370 0.474450 2.067000 255 0 0
-0.304157 0.473553 2.063000 255 0 0
-0.298400 0.473345 2.062000 255 0 0
-0.292506 0.472907 2.060000 255 0 0
-0.286761 0.472698 2.059000 255 0 0
-0.280885 0.472260 2.057000 255 0 0
-0.275420 0.472510 2.058000 255 0 0
-0.269818 0.472530 2.058000 255 0 0
-0.264600 0.473238 2.061000 255 0 0
-0.258989 0.473258 2.061000 255 0 0
-0.253376 0.473277 2.061000 255 0 0
-0.247523 0.472837 2.059000 255 0 0
-0.241445 0.471937 2.055000 255 0 0
-0.235733 0.471725 2.054000 255 0 0
-0.230138 0.471743 2.054000 255 0 0
-0.224651 0.471990 2.055000 255 0 0
-0.218838 0.471548 2.053000 255 0 0
-0.213244 0.471565 2.053000 255 0 0
-0.207548 0.471351 2.052000 255 0 0
-0.201955 0.471367 2.052000 255 0 0
-0.196266 0.471153 2.051000 255 0 0
-0.190768 0.471398 2.052000 255 0 0
-0.185354 0.471873 2.054000 255 0 0
-0.179928 0.472347 2.056000 255 0 0
-0.174407 0.472591 2.057000 255 0 0
-0.168633 0.472145 2.055000 255 0 0
-0.162949 0.471929 2.054000 255 0 0
-0.157424 0.472171 2.055000 255 0 0
-0.151818 0.472184 2.055000 255 0 0
-0.146141 0.471966 2.054000 255 0 0
-0.140469 0.471748 2.053000 255 0 0
-0.134868 0.471760 2.053000 255 0 0
-0.129203 0.471541 2.052000 255 0 0
-0.123484 0.471091 2.050000 255 0 0
-0.117660 0.470182 2.046000 255 0 0
-0.111966 0.469732 2.044000 255 0 0
-0.106440 0.469971 2.045000 255 0 0
-0.100859 0.469980 2.045000 255 0 0
-0.095323 0.470218 2.046000 255 0 0
-0.089651 0.469766 2.044000 255 0 0
-0.084030 0.469543 2.043000 255 0 0
-0.078376 0.469090 2.041000 255 0 0
-0.072840 0.469327 2.042000 255 0 0
-0.067298 0.469562 2.043000 255 0 0
-0.061751 0.469798 2.044000 255 0 0
-0.056197 0.470032 2.045000 255 0 0
-0.050713 0.470956 2.049000 255 0 0
-0.045184 0.471650 2.052000 255 0 0
-0.039620 0.472113 2.054000 255 0 0
-0.034028 0.472346 2.055000 255 0 0
-0.028416 0.472349 2.055000 255 0 0
-0.022816 0.472581 2.056000 255 0 0
-0.017210 0.472812 2.057000 255 0 0
-0.011593 0.472814 2.057000 255 0 0
-0.005982 0.473274 2.059000 255 0 0
-0.000359 0.473504 2.060000 255 0 0
0.005268 0.473734 2.061000 255 0 0
0.010902 0.473963 2.062000 255 0 0
0.016548 0.474422 2.064000 255 0 0
0.022195 0.474650 2.065000 255 0 0
0.027848 0.474878 2.066000 255 0 0
0.033554 0.475794 2.070000 255 0 0
0.039282 0.476711 2.074000 255 0 0
0.045075 0.478086 2.080000 255 0 0
0.050779 0.478312 2.081000 255 0 0
0.056461 0.478307 2.081000 255 0 0
0.062112 0.478073 2.080000 255 0 0
0.067824 0.478297 2.081000 255 0 0
0.073717 0.479670 2.087000 255 0 0
0.079681 0.481272 2.094000 255 0 0
0.085601 0.482415 2.099000 255 0 0
0.091331 0.482407 2.099000 255 0 0
0.097153 0.482859 2.101000 255 0 0
0.102985 0.483310 2.103000 255 0 0
-0.106483 0.598815 2.170603 255 255 0
-0.085552 0.598161 2.173050 255 255 0
-0.054105 0.596182 2.170521 255 255 0
-0.046140 0.594661 2.163547 255 255 0
-0.029614 0.593763 2.163082 255 255 0
-0.046501 0.590456 2.137302 255 255 0
-0.045387 0.588443 2.125125 255 255 0
-0.266027 0.501441 2.086233 0 255 0
-0.278761 0.505754 2.108386 0 255 0
-0.288042 0.509550 2.127746 0 255 0
-0.284284 0.511472 2.136960 0 255 0
-0.279653 0.513272 2.145506 0 255 0
-0.262807 0.513353 2.144733 0 255 0
-0.265146 0.516147 2.158635 0 255 0
-0.259630 0.517838 2.166554 0 255 0
-0.253235 0.519412 2.173824 0 255 0
-0.237208 0.519661 2.173898 0 255 0
-0.223786 0.520289 2.176004 0 255 0
-0.206840 0.520451 2.175565 0 255 0
-0.190748 0.520751 2.175853 0 255 0
-0.180782 0.521898 2.180733 0 255 0
-0.178716 0.524120 2.191438 0 255 0
-0.173132 0.525871 2.199572 0 255 0
-0.157859 0.526337 2.200701 0 255 0
-0.139922 0.526470 2.199994 0 255 0
-0.121959 0.526622 2.199369 0 255 0
-0.107502 0.527255 2.201350 0 255 0
-0.091260 0.527673 2.202139 0 255 0
-0.082953 0.529138 2.208628 0 255 0
-0.077294 0.530953 2.217013 0 255 0
-0.348775 0.475061 2.095000 255 0 0
-0.340952 0.472136 2.082000 255 0 0
-0.334486 0.471025 2.077000 255 0 0
-0.328522 0.470594 2.075000 255 0 0
-0.323036 0.470843 2.076000 255 0 0
-0.316931 0.470185 2.073000 255 0 0
-0.310542 0.469073 2.068000 255 0 0
-0.304179 0.467960 2.063000 255 0 0
-0.298421 0.467755 2.062000 255 0 0
-0.292811 0.467776 2.062000 255 0 0
-0.287200 0.467797 2.062000 255 0 0
-0.281042 0.466910 2.058000 255 0 0
-0.275440 0.466930 2.058000 255 0 0
-0.269837 0.466950 2.058000 255 0 0
-0.264620 0.467651 2.061000 255 0 0
-0.259134 0.467897 2.062000 255 0 0
-0.253518 0.467916 2.062000 255 0 0
-0.247542 0.467254 2.059000 255 0 0
-0.241464 0.466365 2.055000 255 0 0
-0.235636 0.465930 2.053000 255 0 0
-0.230155 0.466174 2.054000 255 0 0
-0.224559 0.466192 2.054000 255 0 0
-0.218855 0.465982 2.053000 255 0 0
-0.213261 0.465999 2.053000 255 0 0
-0.207463 0.465561 2.051000 255 0 0
-0.201675 0.465123 2.049000 255 0 0
-0.196090 0.465139 2.049000 255 0 0
-0.190690 0.465608 2.051000 255 0 0
-0.185278 0.466077 2.053000 255 0 0
-0.179855 0.466546 2.055000 255 0 0
-0.174336 0.466787 2.056000 255 0 0
-0.168647 0.466573 2.055000 255 0 0
-0.163121 0.466814 2.056000 255 0 0
-0.157513 0.466827 2.056000 255 0 0
-0.151904 0.466839 2.056000 255 0 0
-0.146295 0.466852 2.056000 255 0 0
-0.140618 0.466636 2.055000 255 0 0
-0.135010 0.466647 2.055000 255 0 0
-0.129277 0.466204 2.053000 255 0 0
-0.123554 0.465760 2.051000 255 0 0
-0.117727 0.464862 2.047000 255 0 0
-0.112030 0.464417 2.045000 255 0 0
-0.106397 0.464199 2.044000 255 0 0
-0.100818 0.464208 2.044000 255 0 0
-0.095192 0.463989 2.043000 255 0 0
-0.089571 0.463769 2.042000 255 0 0
-0.083955 0.463550 2.041000 255 0 0
-0.078421 0.463784 2.042000 255 0 0
-0.072882 0.464017 2.043000 255 0 0
-0.067304 0.464023 2.043000 255 0 0
-0.061726 0.464028 2.043000 255 0 0
-0.056230 0.464715 2.046000 255 0 0
-0.050717 0.465401 2.049000 255 0 0
-0.045188 0.466086 2.052000 255 0 0
-0.039604 0.466317 2.053000 255 0 0
-0.034064 0.467228 2.057000 255 0 0
-0.028433 0.467004 2.056000 255 0 0
-0.022829 0.467233 2.057000 255 0 0
-0.017203 0.467008 2.056000 255 0 0
-0.011594 0.467236 2.057000 255 0 0
-0.005982 0.467691 2.059000 255 0 0
-0.000360 0.467919 2.060000 255 0 0
0.005269 0.468146 2.061000 255 0 0
0.010897 0.468145 2.061000 255 0 0
0.016550 0.468825 2.064000 255 0 0
0.022197 0.469051 2.065000 255 0 0
0.027850 0.469276 2.066000 255 0 0
0.033557 0.470182 2.070000 255 0 0
0.039285 0.471087 2.074000 255 0 0
0.045057 0.472219 2.079000 255 0 0
0.050783 0.472669 2.081000 255 0 0
0.056520 0.473119 2.083000 255 0 0
0.062207 0.473114 2.083000 255 0 0
0.067992 0.473790 2.086000 255 0 0
0.073865 0.474920 2.091000 255 0 0
0.079878 0.476730 2.099000 255 0 0
0.085812 0.477859 2.104000 255 0 0
0.091556 0.477852 2.104000 255 0 0
0.097346 0.478071 2.105000 255 0 0
0.103288 0.478971 2.109000 255 0 0
-0.126754 0.590776 2.183039 255 255 0
-0.116124 0.589408 2.177740 255 255 0
-0.098621 0.588545 2.177561 255 255 0
-0.075126 0.588134 2.181928 255 255 0
-0.049954 0.587870 2.187690 255 255 0
-0.036843 0.586742 2.184577 255 255 0
-0.026325 0.585434 2.179583 255 255 0
-0.014964 0.584198 2.175275 255 255 0
0.001514 0.583359 2.174914 255 255 0
-0.290968 0.499778 2.131123 0 255 0
-0.283730 0.501190 2.137651 0 255 0
-0.274743 0.502357 2.142865 0 255 0
-0.264875 0.503407 2.147444 0 255 0
-0.264593 0.505842 2.159351 0 255 0
-0.262570 0.508025 2.169918 0 255 0
-0.251808 0.508969 2.173899 0 255 0
-0.237535 0.509430 2.175301 0 255 0
-0.225870 0.510274 2.178724 0 255 0
-0.210685 0.510641 2.179595 0 255 0
-0.196356 0.511145 2.181180 0 255 0
-0.186398 0.512271 2.186054 0 255 0
-0.182578 0.514252 2.195462 0 255 0
-0.175240 0.515754 2.202311 0 255 0
-0.161734 0.516424 2.204722 0 255 0
-0.144688 0.516632 2.204654 0 255 0
-0.125855 0.516620 2.203400 0 255 0
-0.112290 0.517338 2.206013 0 255 0
-0.102239 0.518539 2.211192 0 255 0
-0.092177 0.519751 2.216410 0 255 0
-0.081217 0.520855 2.221043 0 255 0
-0.069360 0.521854 2.225101 0 255 0
-0.056602 0.522749 2.228590 0 255 0
-0.348466 0.468932 2.093000 255 0 0
-0.341466 0.467163 2.085000 255 0 0
-0.334831 0.465842 2.079000 255 0 0
-0.328545 0.464968 2.075000 255 0 0
-0.322902 0.464990 2.075000 255 0 0
-0.316800 0.464340 2.072000 255 0 0
-0.310714 0.463690 2.069000 255 0 0
-0.304200 0.462367 2.063000 255 0 0
-0.298732 0.462612 2.064000 255 0 0
-0.292832 0.462185 2.062000 255 0 0
-0.287360 0.462430 2.063000 255 0 0
-0.281199 0.461554 2.059000 255 0 0
-0.275594 0.461574 2.059000 255 0 0
-0.270251 0.462043 2.061000 255 0 0
-0.264768 0.462287 2.062000 255 0 0
-0.259153 0.462306 2.062000 255 0 0
-0.253414 0.462101 2.061000 255 0 0
-0.247561 0.461671 2.059000 255 0 0
-0.241600 0.461017 2.056000 255 0 0
-0.235769 0.460587 2.054000 255 0 0
-0.230173 0.460605 2.054000 255 0 0
-0.224685 0.460846 2.055000 255 0 0
-0.218979 0.460639 2.054000 255 0 0
-0.213173 0.460207 2.052000 255 0 0
-0.207378 0.459775 2.050000 255 0 0
-0.201593 0.459343 2.048000 255 0 0
-0.196105 0.459583 2.049000 255 0 0
-0.190612 0.459822 2.050000 255 0 0
-0.185112 0.460061 2.051000 255 0 0
-0.179607 0.460300 2.052000 255 0 0
-0.174096 0.460539 2.053000 255 0 0
-0.168578 0.460777 2.054000 255 0 0
-0.163055 0.461014 2.055000 255 0 0
-0.157526 0.461251 2.056000 255 0 0
-0.151917 0.461264 2.056000 255 0 0
-0.146307 0.461276 2.056000 255 0 0
-0.140697 0.461288 2.056000 255 0 0
-0.135087 0.461299 2.056000 255 0 0
-0.129351 0.460861 2.054000 255 0 0
-0.123625 0.460423 2.052000 255 0 0
-0.117794 0.459535 2.048000 255 0 0
-0.112095 0.459096 2.046000 255 0 0
-0.106458 0.458881 2.045000 255 0 0
-0.100777 0.458440 2.043000 255 0 0
-0.095153 0.458224 2.042000 255 0 0
-0.089578 0.458232 2.042000 255 0 0
-0.083962 0.458015 2.041000 255 0 0
-0.078466 0.458470 2.043000 255 0 0
-0.072924 0.458701 2.044000 255 0 0
-0.067375 0.458931 2.045000 255 0 0
-0.061761 0.458712 2.044000 255 0 0
-0.056262 0.459391 2.047000 255 0 0
-0.050746 0.460068 2.050000 255 0 0
-0.045214 0.460746 2.053000 255 0 0
-0.039607 0.460749 2.053000 255 0 0
-0.034050 0.461426 2.056000 255 0 0
-0.028435 0.461428 2.056000 255 0 0
-0.022842 0.461879 2.058000 255 0 0
-0.017213 0.461657 2.057000 255 0 0
-0.011601 0.461882 2.058000 255 0 0
-0.005986 0.462332 2.060000 255 0 0
-0.000360 0.462556 2.061000 255 0 0
0.005272 0.462781 2.062000 255 0 0
0.010909 0.463004 2.063000 255 0 0
0.016551 0.463228 2.064000 255 0 0
0.022210 0.463675 2.066000 255 0 0
0.027879 0.464122 2.068000 255 0 0
0.033576 0.464792 2.071000 255 0 0
0.039307 0.465687 2.075000 255 0 0
0.045039 0.466357 2.078000 255 0 0
0.050738 0.466577 2.079000 255 0 0
0.056443 0.466797 2.080000 255 0 0
0.062153 0.467016 2.081000 255 0 0
0.068063 0.468582 2.088000 255 0 0
0.073977 0.469922 2.094000 255 0 0
0.080037 0.471936 2.103000 255 0 0
0.085942 0.472826 2.107000 255 0 0
0.091825 0.473492 2.110000 255 0 0
0.097632 0.473709 2.111000 255 0 0
0.103639 0.474822 2.116000 255 0 0
-0.116287 0.580665 2.191855 255 255 0
-0.107394 0.579194 2.185312 255 255 0
-0.086462 0.578634 2.187685 255 255 0
-0.070726 0.577702 2.186333 255 255 0
-0.049003 0.577243 2.189529 255 255 0
-0.030749 0.576539 2.190262 255 255 0
-0.019383 0.575320 2.185920 255 255 0
-0.008888 0.574043 2.180976 255 255 0
0.002448 0.572841 2.176721 255 255 0
0.013767 0.571648 2.172510 255 255 0
0.031044 0.570942 2.172926 255 255 0
0.042325 0.569771 2.168821 255 255 0
0.014420 0.565428 2.134407 255 255 0
-0.288965 0.486793 2.118542 0 255 0
-0.291286 0.489622 2.132480 0 255 0
-0.282310 0.490765 2.137675 0 255 0
-0.275936 0.492303 2.144903 0 255 0
-0.270427 0.493974 2.152812 0 255 0
-0.268403 0.496160 2.163381 0 255 0
-0.259399 0.497329 2.168664 0 255 0
-0.246018 0.497874 2.170693 0 255 0
-0.236117 0.498937 2.175397 0 255 0
-0.222704 0.499507 2.177532 0 255 0
-0.211025 0.500341 2.181022 0 255 0
-0.197579 0.500938 2.183268 0 255 0
-0.189379 0.502293 2.189435 0 255 0
-0.184682 0.504148 2.198197 0 255 0
-0.172074 0.504901 2.201214 0 255 0
-0.161209 0.505911 2.205557 0 255 0
-0.144170 0.506079 2.205506 0 255 0
-0.128869 0.506509 2.206796 0 255 0
-0.117075 0.507437 2.210671 0 255 0
-0.107913 0.508737 2.216472 0 255 0
-0.099624 0.510165 2.222930 0 255 0
-0.082487 0.510410 2.223205 0 255 0
-0.067980 0.511028 2.225415 0 255 0
-0.054340 0.511780 2.228305 0 255 0
-0.348656 0.463478 2.094000 255 0 0
-0.341980 0.462173 2.088000 255 0 0
-0.335015 0.460425 2.080000 255 0 0
-0.328884 0.459784 2.077000 255 0 0
-0.323080 0.459585 2.076000 255 0 0
-0.317281 0.459386 2.075000 255 0 0
-0.311036 0.458522 2.071000 255 0 0
-0.304664 0.457437 2.066000 255 0 0
-0.298898 0.457237 2.065000 255 0 0
-0.292995 0.456815 2.063000 255 0 0
-0.287241 0.456614 2.062000 255 0 0
-0.281356 0.456192 2.060000 255 0 0
-0.275882 0.456434 2.061000 255 0 0
-0.270402 0.456675 2.062000 255 0 0
-0.264787 0.456695 2.062000 255 0 0
-0.259172 0.456714 2.062000 255 0 0
-0.253187 0.456069 2.059000 255 0 0
-0.247459 0.455866 2.058000 255 0 0
-0.241500 0.455220 2.055000 255 0 0
-0.235787 0.455017 2.054000 255 0 0
-0.230078 0.454813 2.053000 255 0 0
-0.224484 0.454830 2.053000 255 0 0
-0.218889 0.454847 2.053000 255 0 0
-0.213190 0.454642 2.052000 255 0 0
-0.207495 0.454437 2.051000 255 0 0
-0.201707 0.454010 2.049000 255 0 0
-0.196216 0.454247 2.050000 255 0 0
-0.190534 0.454041 2.049000 255 0 0
-0.184856 0.453834 2.048000 255 0 0
-0.179271 0.453848 2.048000 255 0 0
-0.173940 0.454527 2.051000 255 0 0
-0.168592 0.455206 2.054000 255 0 0
-0.163147 0.455662 2.056000 255 0 0
-0.157538 0.455675 2.056000 255 0 0
-0.151929 0.455688 2.056000 255 0 0
-0.146248 0.455478 2.055000 255 0 0
-0.140572 0.455268 2.054000 255 0 0
-0.135033 0.455501 2.055000 255 0 0
-0.129361 0.455290 2.054000 255 0 0
-0.123695 0.455079 2.053000 255 0 0
-0.117804 0.453980 2.048000 255 0 0
-0.112049 0.453325 2.045000 255 0 0
-0.106362 0.452890 2.043000 255 0 0
-0.100686 0.452456 2.041000 255 0 0
-0.095161 0.452685 2.042000 255 0 0
-0.089629 0.452915 2.043000 255 0 0
-0.084051 0.452922 2.043000 255 0 0
-0.078511 0.453151 2.044000 255 0 0
-0.072965 0.453379 2.045000 255 0 0
-0.067414 0.453606 2.046000 255 0 0
-0.061827 0.453611 2.046000 255 0 0
-0.056294 0.454060 2.048000 255 0 0
-0.050750 0.454508 2.050000 255 0 0
-0.045196 0.454955 2.052000 255 0 0
-0.039591 0.454959 2.052000 255 0 0
-0.034020 0.455405 2.054000 255 0 0
-0.028424 0.455630 2.055000 255 0 0
-0.022833 0.456075 2.057000 255 0 0
-0.017215 0.456077 2.057000 255 0 0
-0.011602 0.456300 2.058000 255 0 0
-0.005980 0.456301 2.058000 255 0 0
-0.000360 0.456744 2.060000 255 0 0
0.005270 0.456966 2.061000 255 0 0
0.010910 0.457409 2.063000 255 0 0
0.016553 0.457629 2.064000 255 0 0
0.022222 0.458293 2.067000 255 0 0
0.027895 0.458734 2.069000 255 0 0
0.033611 0.459618 2.073000 255 0 0
0.039330 0.460280 2.076000 255 0 0
0.045043 0.460720 2.078000 255 0 0
0.050718 0.460716 2.078000 255 0 0
0.056421 0.460933 2.079000 255 0 0
0.062188 0.461594 2.082000 255 0 0
0.068102 0.463140 2.089000 255 0 0
0.074089 0.464908 2.097000 255 0 0
0.080082 0.466453 2.104000 255 0 0
0.086112 0.467998 2.111000 255 0 0
0.092007 0.468656 2.114000 255 0 0
0.097871 0.469091 2.116000 255 0 0
0.103795 0.469748 2.119000 255 0 0
0.110045 0.471734 2.128000 255 0 0
-0.112725 0.570075 2.195625 255 255 0
-0.096948 0.569155 2.194137 255 255 0
-0.077755 0.568516 2.195255 255 255 0
-0.065469 0.567354 2.191370 255 255 0
-0.050626 0.566405 2.189452 255 255 0
-0.032377 0.565744 2.190165 255 255 0
-0.015871 0.564960 2.189674 255 255 0
-0.002815 0.563913 2.186671 255 255 0
0.010221 0.562877 2.183722 255 255 0
0.039646 0.561119 2.180604 255 255 0
0.044099 0.559404 2.171261 255 255 0
0.040891 0.557046 2.155988 255 255 0
0.035148 0.554464 2.138689 255 255 0
-0.290158 0.476743 2.120576 0 255 0
-0.290738 0.479323 2.133167 0 255 0
-0.286110 0.481110 2.141719 0 255 0
-0.278869 0.482506 2.148276 0 255 0
-0.275105 0.484431 2.157510 0 255 0
-0.268725 0.485968 2.164760 0 255 0
-0.261468 0.487380 2.171369 0 255 0
-0.245475 0.487508 2.171435 0 255 0
-0.233829 0.488295 2.174844 0 255 0
-0.221293 0.488966 2.177649 0 255 0
-0.213118 0.490287 2.183749 0 255 0
-0.205810 0.491743 2.190523 0 255 0
-0.194989 0.492699 2.194745 0 255 0
-0.185909 0.493918 2.200291 0 255 0
-0.175063 0.494895 2.204594 0 255 0
-0.164204 0.495882 2.208938 0 255 0
-0.150693 0.496507 2.211427 0 255 0
-0.138045 0.497269 2.214605 0 255 0
-0.122737 0.497674 2.215951 0 255 0
-0.110055 0.498464 2.219243 0 255 0
-0.095590 0.499022 2.221343 0 255 0
-0.083758 0.499960 2.225368 0 255 0
-0.071910 0.500909 2.229442 0 255 0
-0.058278 0.501629 2.232334 0 255 0
-0.349012 0.458236 2.096000 255 0 0
-0.342167 0.456729 2.089000 255 0 0
-0.335521 0.455440 2.083000 255 0 0
-0.329223 0.454588 2.079000 255 0 0
-0.323258 0.454173 2.077000 255 0 0
-0.317303 0.453758 2.075000 255 0 0
-0.311358 0.453343 2.073000 255 0 0
-0.305276 0.452708 2.070000 255 0 0
-0.299498 0.452511 2.069000 255 0 0
-0.293584 0.452094 2.067000 255 0 0
-0.287540 0.451459 2.064000 255 0 0
-0.281649 0.451042 2.062000 255 0 0
-0.276036 0.451062 2.062000 255 0 0
-0.270684 0.451520 2.064000 255 0 0
-0.264935 0.451321 2.063000 255 0 0
-0.259317 0.451340 2.063000 255 0 0
-0.253206 0.450484 2.059000 255 0 0
-0.247357 0.450065 2.057000 255 0 0
-0.241401 0.449427 2.054000 255 0 0
-0.235690 0.449226 2.053000 255 0 0
-0.229984 0.449025 2.052000 255 0 0
-0.224392 0.449043 2.052000 255 0 0
-0.218906 0.449278 2.053000 255 0 0
-0.213310 0.449295 2.053000 255 0 0
-0.207612 0.449092 2.052000 255 0 0
-0.201723 0.448452 2.049000 255 0 0
-0.196040 0.448248 2.048000 255 0 0
-0.190456 0.448264 2.048000 255 0 0
-0.184871 0.448278 2.048000 255 0 0
-0.179285 0.448293 2.048000 255 0 0
-0.173784 0.448526 2.049000 255 0 0
-0.168523 0.449415 2.053000 255 0 0
-0.163081 0.449866 2.055000 255 0 0
-0.157474 0.449879 2.055000 255 0 0
-0.151793 0.449672 2.054000 255 0 0
-0.146118 0.449466 2.053000 255 0 0
-0.140447 0.449258 2.052000 255 0 0
-0.134978 0.449707 2.054000 255 0 0
-0.129372 0.449718 2.054000 255 0 0
-0.123645 0.449290 2.052000 255 0 0
-0.117928 0.448862 2.050000 255 0 0
-0.112113 0.447996 2.046000 255 0 0
-0.106527 0.448005 2.046000 255 0 0
-0.100843 0.447576 2.044000 255 0 0
-0.095308 0.447803 2.045000 255 0 0
-0.089593 0.447153 2.042000 255 0 0
-0.084017 0.447161 2.042000 255 0 0
-0.078479 0.447386 2.043000 255 0 0
-0.073007 0.448050 2.046000 255 0 0
-0.067453 0.448274 2.047000 255 0 0
-0.061832 0.448061 2.046000 255 0 0
-0.056299 0.448504 2.048000 255 0 0
-0.050755 0.448946 2.050000 255 0 0
-0.045199 0.449388 2.052000 255 0 0
-0.039575 0.449173 2.051000 255 0 0
-0.033957 0.448957 2.050000 255 0 0
-0.028371 0.449179 2.051000 255 0 0
-0.022802 0.449838 2.054000 255 0 0
-0.017208 0.450277 2.056000 255 0 0
-0.011591 0.450279 2.056000 255 0 0
-0.005978 0.450498 2.057000 255 0 0
-0.000359 0.450937 2.059000 255 0 0
0.005273 0.451593 2.062000 255 0 0
0.010916 0.452031 2.064000 255 0 0
0.016562 0.452249 2.065000 255 0 0
0.022235 0.452904 2.068000 255 0 0
0.027924 0.453559 2.071000 255 0 0
0.033646 0.454432 2.075000 255 0 0
0.039390 0.455305 2.079000 255 0 0
0.045112 0.455740 2.081000 255 0 0
0.050771 0.455517 2.080000 255 0 0
0.056452 0.455512 2.080000 255 0 0
0.062223 0.456164 2.083000 255 0 0
0.068173 0.457911 2.091000 255 0 0
0.074166 0.459657 2.099000 255 0 0
0.080126 0.460964 2.105000 255 0 0
0.086119 0.462271 2.111000 255 0 0
0.092101 0.463359 2.116000 255 0 0
0.098064 0.464227 2.120000 255 0 0
0.103999 0.464875 2.123000 255 0 0
0.110313 0.467056 2.133000 255 0 0
-0.107441 0.559634 2.200650 255 255 0
-0.089953 0.558890 2.200426 255 255 0
-0.069055 0.558440 2.202816 255 255 0
-0.059357 0.557096 2.197038 255 255 0
-0.047956 0.555901 2.192572 255 255 0
-0.028858 0.555355 2.193919 255 255 0
-0.011505 0.554683 2.194068 255 255 0
0.002398 0.553737 2.191713 255 255 0
0.013716 0.552586 2.187471 255 255 0
0.030992 0.551954 2.187831 255 255 0
0.039715 0.550604 2.181735 255 255 0
0.039912 0.548521 2.169107 255 255 0
0.037565 0.546212 2.154482 255 255 0
0.050525 0.545244 2.151719 255 255 0
0.052431 0.543308 2.140384 255 255 0
-0.287315 0.463549 2.107292 0 255 0
-0.289617 0.466417 2.121263 0 255 0
-0.289325 0.468876 2.133186 0 255 0
-0.289038 0.471332 2.145089 0 255 0
-0.283540 0.472983 2.152977 0 255 0
-0.278039 0.474638 2.160875 0 255 0
-0.269050 0.475766 2.166141 0 255 0
-0.258308 0.476639 2.170124 0 255 0
-0.244935 0.477126 2.172181 0 255 0
-0.235039 0.478153 2.176908 0 255 0
-0.226005 0.479319 2.182323 0 255 0
-0.215211 0.480234 2.186475 0 255 0
-0.201779 0.480770 2.188733 0 255 0
-0.192709 0.481966 2.194263 0 255 0
-0.182753 0.483041 2.199185 0 255 0
-0.178051 0.484894 2.207971 0 255 0
-0.167198 0.485858 2.212317 0 255 0
-0.155453 0.486706 2.216075 0 255 0
-0.137534 0.486681 2.215472 0 255 0
-0.125754 0.487555 2.219343 0 255 0
-0.107790 0.487565 2.218889 0 255 0
-0.095976 0.488467 2.222877 0 255 0
-0.085913 0.489629 2.228152 0 255 0
-0.077605 0.491048 2.234700 0 255 0
-0.062214 0.491489 2.236358 0 255 0
-0.045032 0.491701 2.236863 0 255 0
-0.349202 0.452767 2.097000 255 0 0
-0.342354 0.451279 2.090000 255 0 0
-0.336188 0.450654 2.087000 255 0 0
-0.329721 0.449597 2.082000 255 0 0
-0.323747 0.449187 2.080000 255 0 0
-0.317325 0.448129 2.075000 255 0 0
-0.311530 0.447935 2.074000 255 0 0
-0.305445 0.447309 2.071000 255 0 0
-0.299954 0.447546 2.072000 255 0 0
-0.294031 0.447135 2.070000 255 0 0
-0.287979 0.446508 2.067000 255 0 0
-0.281806 0.445665 2.063000 255 0 0
-0.276190 0.445685 2.063000 255 0 0
-0.270704 0.445921 2.064000 255 0 0
-0.265083 0.445940 2.064000 255 0 0
-0.259211 0.445528 2.062000 255 0 0
-0.253348 0.445114 2.060000 255 0 0
-0.247616 0.444917 2.059000 255 0 0
-0.241772 0.444503 2.057000 255 0 0
-0.235938 0.444089 2.055000 255 0 0
-0.230113 0.443674 2.053000 255 0 0
-0.224300 0.443259 2.051000 255 0 0
-0.218710 0.443276 2.051000 255 0 0
-0.213223 0.443509 2.052000 255 0 0
-0.207527 0.443309 2.051000 255 0 0
-0.201640 0.442677 2.048000 255 0 0
-0.195960 0.442476 2.047000 255 0 0
-0.190471 0.442707 2.048000 255 0 0
-0.184976 0.442938 2.049000 255 0 0
-0.179387 0.442952 2.049000 255 0 0
-0.173798 0.442966 2.049000 255 0 0
-0.168454 0.443629 2.052000 255 0 0
-0.163094 0.444290 2.055000 255 0 0
-0.157410 0.444087 2.054000 255 0 0
-0.151658 0.443667 2.052000 255 0 0
-0.145987 0.443463 2.051000 255 0 0
-0.140390 0.443474 2.051000 255 0 0
-0.134857 0.443702 2.052000 255 0 0
-0.129256 0.443712 2.052000 255 0 0
-0.123655 0.443723 2.052000 255 0 0
-0.117938 0.443300 2.050000 255 0 0
-0.112232 0.442877 2.048000 255 0 0
-0.106640 0.442886 2.048000 255 0 0
-0.101048 0.442894 2.048000 255 0 0
-0.095363 0.442470 2.046000 255 0 0
-0.089600 0.441613 2.042000 255 0 0
-0.083983 0.441404 2.041000 255 0 0
-0.078524 0.442059 2.044000 255 0 0
-0.073013 0.442498 2.046000 255 0 0
-0.067425 0.442504 2.046000 255 0 0
-0.061807 0.442293 2.045000 255 0 0
-0.056276 0.442730 2.047000 255 0 0
-0.050734 0.443167 2.049000 255 0 0
-0.045181 0.443604 2.051000 255 0 0
-0.039559 0.443391 2.050000 255 0 0
-0.033926 0.442962 2.048000 255 0 0
-0.028359 0.443397 2.050000 255 0 0
-0.022781 0.443832 2.052000 255 0 0
-0.017192 0.444266 2.054000 255 0 0
-0.011581 0.444267 2.054000 255 0 0
-0.005976 0.444700 2.056000 255 0 0
-0.000359 0.445349 2.059000 255 0 0
0.005273 0.445998 2.062000 255 0 0
0.010912 0.446214 2.063000 255 0 0
0.016571 0.446862 2.066000 255 0 0
0.022258 0.447725 2.070000 255 0 0
0.027954 0.448372 2.073000 255 0 0
0.033698 0.449451 2.078000 255 0 0
0.039431 0.450097 2.081000 255 0 0
0.045202 0.450958 2.085000 255 0 0
0.050873 0.450738 2.084000 255 0 0
0.056593 0.450950 2.085000 255 0 0
0.062407 0.451810 2.089000 255 0 0
0.068341 0.453318 2.096000 255 0 0
0.074313 0.454826 2.103000 255 0 0
0.080285 0.456118 2.109000 255 0 0
0.086249 0.457192 2.114000 255 0 0
0.092152 0.457834 2.117000 255 0 0
0.098118 0.458691 2.121000 255 0 0
0.104155 0.459764 2.126000 255 0 0
0.110477 0.461917 2.136000 255 0 0
-0.103884 0.549069 2.204414 255 255 0
-0.079523 0.548943 2.209229 255 255 0
-0.062939 0.548189 2.208469 255 255 0
-0.053249 0.546865 2.202700 255 255 0
-0.040142 0.545841 2.199517 255 255 0
-0.018490 0.545566 2.202793 255 255 0
0.002269 0.545237 2.205530 255 255 0
0.011026 0.543881 2.199332 255 255 0
0.017211 0.542306 2.191218 255 255 0
0.031919 0.541490 2.189623 255 255 0
0.042344 0.540306 2.184829 255 255 0
0.045094 0.538442 2.174172 255 255 0
0.043596 0.536193 2.160220 255 255 0
0.053150 0.534946 2.154823 255 255 0
0.057601 0.533239 2.145482 255 255 0
-0.288515 0.453468 2.109332 0 255 0
-0.296879 0.457319 2.128010 0 255 0
-0.292253 0.459096 2.136561 0 255 0
-0.291098 0.461423 2.147789 0 255 0
-0.288209 0.463476 2.157672 0 255 0
-0.282712 0.465123 2.165563 0 255 0
-0.271988 0.465961 2.169505 0 255 0
-0.260381 0.466676 2.172831 0 255 0
-0.245272 0.466864 2.173585 0 255 0
-0.237123 0.468139 2.179626 0 255 0
-0.231586 0.469821 2.187643 0 255 0
-0.220801 0.470711 2.191788 0 255 0
-0.207378 0.471215 2.194042 0 255 0
-0.193062 0.471601 2.195712 0 255 0
-0.183109 0.472658 2.200644 0 255 0
-0.181038 0.474899 2.211345 0 255 0
-0.170191 0.475840 2.215694 0 255 0
-0.156695 0.476403 2.218191 0 255 0
-0.138784 0.476335 2.217600 0 255 0
-0.126129 0.477056 2.220853 0 255 0
-0.109054 0.477152 2.221038 0 255 0
-0.096363 0.477901 2.224411 0 255 0
-0.087185 0.479171 2.230315 0 255 0
-0.077114 0.480323 2.235635 0 255 0
-0.062613 0.480856 2.237925 0 255 0
-0.045438 0.481028 2.238443 0 255 0
-0.358988 0.452171 2.121000 255 0 0
-0.348892 0.446652 2.095000 255 0 0
-0.342541 0.445822 2.091000 255 0 0
-0.336694 0.445631 2.090000 255 0 0
-0.330060 0.444375 2.084000 255 0 0
-0.323925 0.443757 2.081000 255 0 0
-0.317500 0.442713 2.076000 255 0 0
-0.311852 0.442735 2.076000 255 0 0
-0.305761 0.442117 2.073000 255 0 0
-0.300120 0.442138 2.073000 255 0 0
-0.294478 0.442159 2.073000 255 0 0
-0.288696 0.441967 2.072000 255 0 0
-0.282509 0.441134 2.068000 255 0 0
-0.276611 0.440727 2.066000 255 0 0
-0.270986 0.440747 2.066000 255 0 0
-0.265359 0.440767 2.066000 255 0 0
-0.259607 0.440573 2.065000 255 0 0
-0.253736 0.440165 2.063000 255 0 0
-0.247996 0.439970 2.062000 255 0 0
-0.241908 0.439135 2.058000 255 0 0
-0.235955 0.438513 2.055000 255 0 0
-0.230019 0.437890 2.052000 255 0 0
-0.224207 0.437481 2.050000 255 0 0
-0.218726 0.437711 2.051000 255 0 0
-0.213239 0.437941 2.052000 255 0 0
-0.207442 0.437530 2.050000 255 0 0
-0.201656 0.437119 2.048000 255 0 0
-0.195975 0.436921 2.047000 255 0 0
-0.190579 0.437363 2.049000 255 0 0
-0.185080 0.437591 2.050000 255 0 0
-0.179401 0.437392 2.049000 255 0 0
-0.173896 0.437620 2.050000 255 0 0
-0.168386 0.437847 2.051000 255 0 0
-0.163028 0.438500 2.054000 255 0 0
-0.157270 0.438086 2.052000 255 0 0
-0.151522 0.437671 2.050000 255 0 0
-0.145928 0.437683 2.050000 255 0 0
-0.140401 0.437908 2.051000 255 0 0
-0.134803 0.437919 2.051000 255 0 0
-0.129204 0.437930 2.051000 255 0 0
-0.123665 0.438154 2.052000 255 0 0
-0.118005 0.437950 2.051000 255 0 0
-0.112351 0.437746 2.050000 255 0 0
-0.106701 0.437541 2.049000 255 0 0
-0.101106 0.437550 2.049000 255 0 0
-0.095371 0.436917 2.046000 255 0 0
-0.089652 0.436284 2.043000 255 0 0
-0.083990 0.435864 2.041000 255 0 0
-0.078531 0.436512 2.044000 255 0 0
-0.073019 0.436945 2.046000 255 0 0
-0.067464 0.437165 2.047000 255 0 0
-0.061872 0.437170 2.047000 255 0 0
-0.056308 0.437388 2.048000 255 0 0
-0.050738 0.437606 2.049000 255 0 0
-0.045185 0.438038 2.051000 255 0 0
-0.039563 0.437827 2.050000 255 0 0
-0.033962 0.437831 2.050000 255 0 0
-0.028362 0.437833 2.050000 255 0 0
-0.022783 0.438262 2.052000 255 0 0
-0.017185 0.438478 2.053000 255 0 0
-0.011588 0.438906 2.055000 255 0 0
-0.005982 0.439547 2.058000 255 0 0
-0.000360 0.440188 2.061000 255 0 0
0.005276 0.440616 2.063000 255 0 0
0.010912 0.440615 2.063000 255 0 0
0.016581 0.441468 2.067000 255 0 0
0.022282 0.442534 2.072000 255 0 0
0.027983 0.443173 2.075000 255 0 0
0.033733 0.444238 2.080000 255 0 0
0.039491 0.445089 2.084000 255 0 0
0.045228 0.445513 2.086000 255 0 0
0.050926 0.445509 2.086000 255 0 0
0.056679 0.445932 2.088000 255 0 0
0.062592 0.447422 2.095000 255 0 0
0.068543 0.448911 2.102000 255 0 0
0.074567 0.450614 2.110000 255 0 0
0.080482 0.451462 2.114000 255 0 0
0.086419 0.452309 2.118000 255 0 0
0.092204 0.452302 2.118000 255 0 0
0.098219 0.453362 2.123000 255 0 0
0.104262 0.454421 2.128000 255 0 0
0.110538 0.456334 2.137000 255 0 0
-0.112657 0.539631 2.212236 255 255 0
-0.094303 0.539033 2.212566 255 255 0
-0.074260 0.538601 2.214242 255 255 0
-0.057686 0.537887 2.213483 255 255 0
-0.046288 0.536734 2.208990 255 255 0
-0.032334 0.535818 2.206453 255 255 0
-0.014122 0.535295 2.207176 255 255 0
0.004915 0.534865 2.208625 255 255 0
0.012813 0.533448 2.201781 255 255 0
0.016436 0.531646 2.191725 255 255 0
0.022617 0.530081 2.183618 255 255 0
0.036456 0.529226 2.181395 255 255 0
0.043468 0.527751 2.173992 255 255 0
0.047074 0.525962 2.163980 255 255 0
0.050680 0.524173 2.153965 255 255 0
0.054287 0.522386 2.143950 255 255 0
-0.291446 0.443664 2.112721 0 255 0
-0.298939 0.447409 2.130712 0 255 0
-0.293447 0.449041 2.138593 0 255 0
-0.293158 0.451514 2.150487 0 255 0
-0.288532 0.453290 2.159039 0 255 0
-0.286512 0.455484 2.169583 0 255 0
-0.274925 0.456161 2.172865 0 255 0
-0.260713 0.456438 2.174223 0 255 0
-0.247352 0.456866 2.176299 0 255 0
-0.233975 0.457308 2.178432 0 255 0
-0.228435 0.458986 2.186464 0 255 0
-0.216777 0.459722 2.189983 0 255 0
-0.205978 0.460603 2.194194 0 255 0
-0.194292 0.461361 2.197806 0 255 0
-0.190473 0.463334 2.207215 0 255 0
-0.187530 0.465442 2.217262 0 255 0
-0.173183 0.465827 2.219069 0 255 0
-0.157938 0.466095 2.220307 0 255 0
-0.136520 0.465458 2.217214 0 255 0
-0.127386 0.466678 2.222990 0 255 0
-0.106798 0.466211 2.220694 0 255 0
-0.098515 0.467585 2.227190 0 255 0
-0.088459 0.468708 2.232479 0 255 0
-0.077510 0.469712 2.237190 0 255 0
-0.063014 0.470213 2.239491 0 255 0
-0.357996 0.445153 2.115000 255 0 0
-0.348416 0.440336 2.092000 255 0 0
-0.342400 0.439938 2.090000 255 0 0
-0.336556 0.439750 2.089000 255 0 0
-0.330083 0.438720 2.084000 255 0 0
-0.323947 0.438111 2.081000 255 0 0
-0.317828 0.437501 2.078000 255 0 0
-0.312174 0.437523 2.078000 255 0 0
-0.306077 0.436913 2.075000 255 0 0
-0.299996 0.436302 2.072000 255 0 0
-0.294499 0.436534 2.073000 255 0 0
-0.288856 0.436555 2.073000 255 0 0
-0.283076 0.436365 2.072000 255 0 0
-0.276899 0.435542 2.068000 255 0 0
-0.271137 0.435352 2.067000 255 0 0
-0.265379 0.435160 2.066000 255 0 0
-0.259752 0.435180 2.066000 255 0 0
-0.254247 0.435409 2.067000 255 0 0
-0.248375 0.435007 2.065000 255 0 0
-0.242278 0.434182 2.061000 255 0 0
-0.236318 0.433568 2.058000 255 0 0
-0.230260 0.432743 2.054000 255 0 0
-0.224553 0.432550 2.053000 255 0 0
-0.218743 0.432145 2.051000 255 0 0
-0.213255 0.432372 2.052000 255 0 0
-0.207458 0.431967 2.050000 255 0 0
-0.201868 0.431983 2.050000 255 0 0
-0.196182 0.431787 2.049000 255 0 0
-0.190780 0.432224 2.051000 255 0 0
-0.185185 0.432238 2.051000 255 0 0
-0.179503 0.432042 2.050000 255 0 0
-0.173910 0.432056 2.050000 255 0 0
-0.168399 0.432280 2.051000 255 0 0
-0.163041 0.432925 2.054000 255 0 0
-0.157359 0.432727 2.053000 255 0 0
-0.151608 0.432318 2.051000 255 0 0
-0.146010 0.432330 2.051000 255 0 0
-0.140481 0.432552 2.052000 255 0 0
-0.134945 0.432774 2.053000 255 0 0
-0.129277 0.432574 2.052000 255 0 0
-0.123735 0.432795 2.053000 255 0 0
-0.118015 0.432383 2.051000 255 0 0
-0.112415 0.432393 2.051000 255 0 0
-0.106658 0.431769 2.048000 255 0 0
-0.101114 0.431988 2.049000 255 0 0
-0.095379 0.431364 2.046000 255 0 0
-0.089791 0.431371 2.046000 255 0 0
-0.084120 0.430957 2.044000 255 0 0
-0.078537 0.430963 2.044000 255 0 0
-0.072954 0.430970 2.044000 255 0 0
-0.067370 0.430976 2.044000 255 0 0
-0.061787 0.430981 2.044000 255 0 0
-0.056285 0.431618 2.047000 255 0 0
-0.050718 0.431834 2.048000 255 0 0
-0.045167 0.432259 2.050000 255 0 0
-0.039585 0.432474 2.051000 255 0 0
-0.034015 0.432898 2.053000 255 0 0
-0.028392 0.432690 2.052000 255 0 0
-0.022807 0.433114 2.054000 255 0 0
-0.017195 0.433116 2.054000 255 0 0
-0.011600 0.433749 2.057000 255 0 0
-0.005988 0.434383 2.060000 255 0 0
-0.000360 0.434805 2.062000 255 0 0
0.005274 0.434804 2.062000 255 0 0
0.010913 0.435015 2.063000 255 0 0
0.016582 0.435857 2.067000 255 0 0
0.022305 0.437331 2.074000 255 0 0
0.028026 0.438173 2.078000 255 0 0
0.033801 0.439435 2.084000 255 0 0
0.039513 0.439643 2.085000 255 0 0
0.045253 0.440061 2.087000 255 0 0
0.050931 0.439847 2.086000 255 0 0
0.056738 0.440686 2.090000 255 0 0
0.062687 0.442367 2.098000 255 0 0
0.068646 0.443838 2.105000 255 0 0
0.074714 0.445730 2.114000 255 0 0
0.080641 0.446567 2.118000 255 0 0
0.086590 0.447403 2.122000 255 0 0
0.092429 0.447607 2.123000 255 0 0
0.098366 0.448231 2.126000 255 0 0
0.104417 0.449277 2.131000 255 0 0
0.110495 0.450323 2.136000 255 0 0
-0.089031 0.528661 2.217574 255 255 0
-0.071577 0.528048 2.217361 255 255 0
-0.056729 0.527218 2.215333 255 255 0
-0.047906 0.525853 2.208931 255 255 0
-0.029672 0.525359 2.209561 255 255 0
-0.010612 0.524960 2.210916 255 255 0
0.009269 0.524657 2.213002 255 255 0
0.016308 0.523174 2.205519 255 255 0
0.022488 0.521614 2.197410 255 255 0
0.026958 0.519897 2.188015 255 255 0
0.037384 0.518750 2.183186 255 255 0
0.044396 0.517284 2.175780 255 255 0
0.053098 0.515987 2.169707 255 255 0
0.053306 0.513870 2.157069 255 255 0
0.052675 0.511668 2.143748 255 255 0
-0.290052 0.433148 2.112737 0 255 0
-0.296670 0.436784 2.130057 0 255 0
-0.293776 0.438839 2.139957 0 255 0
-0.292617 0.441179 2.151186 0 255 0
-0.287123 0.442811 2.159081 0 255 0
-0.282493 0.444588 2.167649 0 255 0
-0.273515 0.445665 2.172929 0 255 0
-0.259306 0.445911 2.174305 0 255 0
-0.242467 0.445753 2.173784 0 255 0
-0.228218 0.446030 2.175292 0 255 0
-0.219185 0.447152 2.180755 0 255 0
-0.210142 0.448283 2.186250 0 255 0
-0.202836 0.449696 2.193064 0 255 0
-0.195523 0.451116 2.199899 0 255 0
-0.192580 0.453223 2.209948 0 255 0
-0.187885 0.455060 2.218723 0 255 0
-0.170913 0.455008 2.218642 0 255 0
-0.156550 0.455378 2.220532 0 255 0
-0.139532 0.455360 2.220602 0 255 0
-0.131282 0.456696 2.227004 0 255 0
-0.108946 0.455911 2.223469 0 255 0
-0.098905 0.457005 2.228729 0 255 0
-0.084447 0.457449 2.230937 0 255 0
-0.073497 0.458434 2.235671 0 255 0
-0.059003 0.458905 2.237998 0 255 0
-0.355988 0.436921 2.103000 255 0 0
-0.348272 0.434451 2.091000 255 0 0
-0.342095 0.433851 2.088000 255 0 0
-0.336417 0.433873 2.088000 255 0 0
-0.330263 0.433272 2.085000 255 0 0
-0.323814 0.432256 2.080000 255 0 0
-0.318002 0.432070 2.079000 255 0 0
-0.312046 0.431676 2.077000 255 0 0
-0.306246 0.431490 2.076000 255 0 0
-0.300162 0.430887 2.073000 255 0 0
-0.294662 0.431116 2.074000 255 0 0
-0.289155 0.431344 2.075000 255 0 0
-0.283370 0.431157 2.074000 255 0 0
-0.277187 0.430346 2.070000 255 0 0
-0.271419 0.430157 2.069000 255 0 0
-0.265655 0.429969 2.068000 255 0 0
-0.260148 0.430196 2.069000 255 0 0
-0.254389 0.430007 2.068000 255 0 0
-0.248153 0.428986 2.063000 255 0 0
-0.242061 0.428172 2.059000 255 0 0
-0.236335 0.427982 2.058000 255 0 0
-0.230502 0.427584 2.056000 255 0 0
-0.224788 0.427393 2.055000 255 0 0
-0.218866 0.426786 2.052000 255 0 0
-0.213168 0.426594 2.051000 255 0 0
-0.207474 0.426402 2.050000 255 0 0
-0.201982 0.426626 2.051000 255 0 0
-0.196389 0.426641 2.051000 255 0 0
-0.190794 0.426656 2.051000 255 0 0
-0.185200 0.426671 2.051000 255 0 0
-0.179604 0.426685 2.051000 255 0 0
-0.174093 0.426907 2.052000 255 0 0
-0.168494 0.426920 2.052000 255 0 0
-0.162974 0.427141 2.053000 255 0 0
-0.157371 0.427154 2.053000 255 0 0
-0.151768 0.427166 2.053000 255 0 0
-0.146307 0.427594 2.055000 255 0 0
-0.140697 0.427606 2.055000 255 0 0
-0.135087 0.427617 2.055000 255 0 0
-0.129351 0.427211 2.053000 255 0 0
-0.123685 0.427013 2.052000 255 0 0
-0.117967 0.426607 2.050000 255 0 0
-0.112369 0.426616 2.050000 255 0 0
-0.106614 0.426001 2.047000 255 0 0
-0.100974 0.425801 2.046000 255 0 0
-0.095293 0.425393 2.044000 255 0 0
-0.089754 0.425608 2.045000 255 0 0
-0.084209 0.425824 2.046000 255 0 0
-0.078620 0.425830 2.046000 255 0 0
-0.073031 0.425836 2.046000 255 0 0
-0.067409 0.425634 2.045000 255 0 0
-0.061822 0.425639 2.045000 255 0 0
-0.056345 0.426477 2.049000 255 0 0
-0.050772 0.426689 2.050000 255 0 0
-0.045192 0.426901 2.051000 255 0 0
-0.039569 0.426697 2.050000 255 0 0
-0.034018 0.427324 2.053000 255 0 0
-0.028394 0.427119 2.052000 255 0 0
-0.022787 0.427121 2.052000 255 0 0
-0.017180 0.427123 2.052000 255 0 0
-0.011595 0.427956 2.056000 255 0 0
-0.005989 0.428790 2.060000 255 0 0
-0.000360 0.429206 2.062000 255 0 0
0.005277 0.429414 2.063000 255 0 0
0.010914 0.429413 2.063000 255 0 0
0.016584 0.430245 2.067000 255 0 0
0.022307 0.431700 2.074000 255 0 0
0.028028 0.432531 2.078000 255 0 0
0.033803 0.433777 2.084000 255 0 0
0.039517 0.433982 2.085000 255 0 0
0.045279 0.434603 2.088000 255 0 0
0.050984 0.434599 2.088000 255 0 0
0.056824 0.435636 2.093000 255 0 0
0.062811 0.437504 2.102000 255 0 0
0.068782 0.438955 2.109000 255 0 0
0.074826 0.440615 2.117000 255 0 0
0.080762 0.441441 2.121000 255 0 0
0.086719 0.442266 2.125000 255 0 0
0.092654 0.442883 2.128000 255 0 0
0.098559 0.443292 2.130000 255 0 0
0.104475 0.443700 2.132000 255 0 0
0.110452 0.444315 2.135000 255 0 0
0.116828 0.446387 2.145000 255 0 0
-0.111840 0.520120 2.228209 255 255 0
-0.096929 0.519287 2.225986 255 255 0
-0.082042 0.518467 2.223829 255 255 0
-0.071473 0.517260 2.218594 255 255 0
-0.057486 0.516382 2.215923 255 255 0
-0.046092 0.515274 2.211411 255 255 0
-0.027866 0.514824 2.212032 255 255 0
-0.010525 0.514308 2.212099 255 255 0
0.008495 0.513972 2.213528 255 255 0
0.019802 0.512910 2.209255 255 255 0
0.029388 0.511691 2.203733 255 255 0
0.035555 0.510146 2.195651 255 255 0
0.042567 0.508687 2.188235 255 255 0
0.046174 0.506896 2.178223 255 255 0
0.055722 0.505699 2.172802 255 255 0
0.058475 0.503828 2.162147 255 255 0
0.054453 0.501271 2.146195 255 255 0
-0.287799 0.422466 2.112083 0 255 0
-0.295273 0.426279 2.130077 0 255 0
-0.295839 0.428918 2.142658 0 255 0
-0.292946 0.430975 2.152553 0 255 0
-0.288319 0.432744 2.161116 0 255 0
-0.283691 0.434517 2.169686 0 255 0
-0.276453 0.435863 2.176288 0 255 0
-0.258774 0.435506 2.175047 0 255 0
-0.234109 0.434031 2.168667 0 255 0
-0.218117 0.433999 2.168913 0 255 0
-0.209949 0.435252 2.175063 0 255 0
-0.203517 0.436793 2.182529 0 255 0
-0.199700 0.438759 2.191940 0 255 0
-0.192386 0.440170 2.198793 0 255 0
-0.192062 0.442697 2.210768 0 255 0
-0.182989 0.443839 2.216376 0 255 0
-0.172154 0.444715 2.220752 0 255 0
-0.160428 0.445464 2.224541 0 255 0
-0.144299 0.445541 2.225242 0 255 0
-0.134297 0.446588 2.230390 0 255 0
-0.114612 0.446153 2.228733 0 255 0
-0.101939 0.446819 2.232127 0 255 0
-0.087488 0.447230 2.234341 0 255 0
-0.078307 0.448459 2.240306 0 255 0
-0.060293 0.448362 2.240185 0 255 0
-0.356688 0.432034 2.107000 255 0 0
-0.349295 0.430006 2.097000 255 0 0
-0.342937 0.429209 2.093000 255 0 0
-0.336762 0.428616 2.090000 255 0 0
-0.330603 0.428024 2.087000 255 0 0
-0.323992 0.426815 2.081000 255 0 0
-0.317871 0.426222 2.078000 255 0 0
-0.311917 0.425833 2.076000 255 0 0
-0.306268 0.425855 2.076000 255 0 0
-0.300473 0.425671 2.075000 255 0 0
-0.294967 0.425897 2.076000 255 0 0
-0.289455 0.426122 2.077000 255 0 0
-0.283800 0.426143 2.077000 255 0 0
-0.277475 0.425137 2.072000 255 0 0
-0.271438 0.424541 2.069000 255 0 0
-0.265674 0.424355 2.068000 255 0 0
-0.260167 0.424580 2.069000 255 0 0
-0.254530 0.424598 2.069000 255 0 0
-0.248412 0.423796 2.065000 255 0 0
-0.242432 0.423198 2.062000 255 0 0
-0.236583 0.422806 2.060000 255 0 0
-0.230968 0.422823 2.060000 255 0 0
-0.225133 0.422430 2.058000 255 0 0
-0.219096 0.421625 2.054000 255 0 0
-0.213184 0.421026 2.051000 255 0 0
-0.207591 0.421042 2.051000 255 0 0
-0.202096 0.421263 2.052000 255 0 0
-0.196404 0.421073 2.051000 255 0 0
-0.190809 0.421088 2.051000 255 0 0
-0.185124 0.420897 2.050000 255 0 0
-0.179706 0.421322 2.052000 255 0 0
-0.174107 0.421335 2.052000 255 0 0
-0.168590 0.421554 2.053000 255 0 0
-0.162987 0.421567 2.053000 255 0 0
-0.157461 0.421785 2.054000 255 0 0
-0.151780 0.421592 2.053000 255 0 0
-0.146247 0.421809 2.054000 255 0 0
-0.140708 0.422026 2.055000 255 0 0
-0.135098 0.422037 2.055000 255 0 0
-0.129424 0.421842 2.054000 255 0 0
-0.123755 0.421647 2.053000 255 0 0
-0.118034 0.421246 2.051000 255 0 0
-0.112433 0.421255 2.051000 255 0 0
-0.106675 0.420648 2.048000 255 0 0
-0.101081 0.420656 2.048000 255 0 0
-0.095394 0.420253 2.046000 255 0 0
-0.089849 0.420466 2.047000 255 0 0
-0.084299 0.420679 2.048000 255 0 0
-0.078704 0.420685 2.048000 255 0 0
-0.073073 0.420486 2.047000 255 0 0
-0.067447 0.420286 2.046000 255 0 0
-0.061888 0.420497 2.047000 255 0 0
-0.056377 0.421118 2.050000 255 0 0
-0.050751 0.420917 2.049000 255 0 0
-0.045152 0.420921 2.049000 255 0 0
-0.039515 0.420514 2.047000 255 0 0
-0.033971 0.421133 2.050000 255 0 0
-0.028369 0.421136 2.050000 255 0 0
-0.022789 0.421548 2.052000 255 0 0
-0.017190 0.421756 2.053000 255 0 0
-0.011596 0.422373 2.056000 255 0 0
-0.005989 0.423196 2.060000 255 0 0
-0.000360 0.423401 2.061000 255 0 0
0.005283 0.424223 2.065000 255 0 0
0.010936 0.424633 2.067000 255 0 0
0.016617 0.425454 2.071000 255 0 0
0.022320 0.426274 2.075000 255 0 0
0.028044 0.427093 2.079000 255 0 0
0.033806 0.428118 2.084000 255 0 0
0.039520 0.428320 2.085000 255 0 0
0.045326 0.429344 2.090000 255 0 0
0.051085 0.429751 2.092000 255 0 0
0.056964 0.430979 2.098000 255 0 0
0.062906 0.432412 2.105000 255 0 0
0.068951 0.434255 2.114000 255 0 0
0.074939 0.435482 2.120000 255 0 0
0.080959 0.436708 2.126000 255 0 0
0.086930 0.437523 2.130000 255 0 0
0.092879 0.438132 2.133000 255 0 0
0.098752 0.438330 2.134000 255 0 0
0.104728 0.438938 2.137000 255 0 0
0.110720 0.439545 2.140000 255 0 0
0.116891 0.440768 2.146000 255 0 0
-0.104834 0.509883 2.234440 255 255 0
-0.088215 0.509250 2.233471 255 255 0
-0.072482 0.508550 2.231952 255 255 0
-0.063641 0.507203 2.225480 255 255 0
-0.055668 0.505779 2.218406 255 255 0
-0.045135 0.504611 2.213257 255 255 0
-0.026060 0.504288 2.214501 255 255 0
-0.006163 0.504067 2.216474 255 255 0
0.011993 0.503694 2.217260 255 255 0
0.021588 0.502486 2.211701 255 255 0
0.028615 0.501029 2.204240 255 255 0
0.039038 0.499919 2.199390 255 255 0
0.048598 0.498732 2.193928 255 255 0
0.053898 0.497117 2.185236 255 255 0
0.059195 0.495504 2.176552 255 255 0
0.066183 0.494070 2.169194 255 255 0
-0.297643 0.413842 2.120853 0 255 0
-0.297337 0.416347 2.132782 0 255 0
-0.297902 0.418997 2.145359 0 255 0
-0.293277 0.420760 2.153922 0 255 0
-0.289517 0.422673 2.163152 0 255 0
-0.282286 0.424003 2.169744 0 255 0
-0.275049 0.425339 2.176358 0 255 0
-0.253901 0.424360 2.172519 0 255 0
-0.230982 0.423115 2.167479 0 255 0
-0.214123 0.422904 2.167100 0 255 0
-0.203340 0.423715 2.171328 0 255 0
-0.196903 0.425252 2.178821 0 255 0
-0.198316 0.428076 2.192108 0 255 0
-0.193622 0.429902 2.200891 0 255 0
-0.189800 0.431873 2.210319 0 255 0
-0.178102 0.432578 2.214039 0 255 0
-0.169893 0.433855 2.220335 0 255 0
-0.160798 0.435001 2.226030 0 255 0
-0.149062 0.435737 2.229877 0 255 0
-0.141701 0.437178 2.236894 0 255 0
-0.122909 0.436829 2.235855 0 255 0
-0.109368 0.437327 2.238618 0 255 0
-0.092288 0.437290 2.238976 0 255 0
-0.081352 0.438226 2.243709 0 255 0
-0.062466 0.437949 2.242984 0 255 0
-0.356373 0.425910 2.105000 255 0 0
-0.349984 0.425124 2.101000 255 0 0
-0.343124 0.423730 2.094000 255 0 0
-0.337107 0.423348 2.092000 255 0 0
-0.330783 0.422561 2.088000 255 0 0
-0.324481 0.421773 2.084000 255 0 0
-0.318046 0.420783 2.079000 255 0 0
-0.311938 0.420197 2.076000 255 0 0
-0.306584 0.420624 2.078000 255 0 0
-0.301073 0.420847 2.079000 255 0 0
-0.295556 0.421070 2.080000 255 0 0
-0.289754 0.420888 2.079000 255 0 0
-0.284230 0.421111 2.080000 255 0 0
-0.277896 0.420119 2.075000 255 0 0
-0.271851 0.419531 2.072000 255 0 0
-0.265822 0.418943 2.069000 255 0 0
-0.260186 0.418962 2.069000 255 0 0
-0.254549 0.418981 2.069000 255 0 0
-0.248430 0.418189 2.065000 255 0 0
-0.242450 0.417600 2.062000 255 0 0
-0.236600 0.417212 2.060000 255 0 0
-0.231097 0.417432 2.061000 255 0 0
-0.225150 0.416842 2.058000 255 0 0
-0.219113 0.416048 2.054000 255 0 0
-0.213200 0.415457 2.051000 255 0 0
-0.207607 0.415473 2.051000 255 0 0
-0.201915 0.415286 2.050000 255 0 0
-0.196419 0.415503 2.051000 255 0 0
-0.190731 0.415316 2.050000 255 0 0
-0.185048 0.415127 2.049000 255 0 0
-0.179632 0.415547 2.051000 255 0 0
-0.174121 0.415763 2.052000 255 0 0
-0.168603 0.415979 2.053000 255 0 0
-0.162841 0.415587 2.051000 255 0 0
-0.157320 0.415802 2.052000 255 0 0
-0.151718 0.415814 2.052000 255 0 0
-0.146188 0.416028 2.053000 255 0 0
-0.140583 0.416040 2.053000 255 0 0
-0.134977 0.416051 2.053000 255 0 0
-0.129434 0.416264 2.054000 255 0 0
-0.123765 0.416071 2.053000 255 0 0
-0.118158 0.416081 2.053000 255 0 0
-0.112497 0.415887 2.052000 255 0 0
-0.106840 0.415693 2.051000 255 0 0
-0.101188 0.415499 2.050000 255 0 0
-0.095448 0.414899 2.047000 255 0 0
-0.089813 0.414704 2.046000 255 0 0
-0.084264 0.414914 2.047000 255 0 0
-0.078749 0.415325 2.049000 255 0 0
-0.073150 0.415332 2.049000 255 0 0
-0.067519 0.415135 2.048000 255 0 0
-0.061923 0.415140 2.048000 255 0 0
-0.056382 0.415550 2.050000 255 0 0
-0.050780 0.415555 2.050000 255 0 0
-0.045156 0.415356 2.049000 255 0 0
-0.039518 0.414954 2.047000 255 0 0
-0.033957 0.415362 2.049000 255 0 0
-0.028371 0.415567 2.050000 255 0 0
-0.022802 0.416178 2.053000 255 0 0
-0.017208 0.416585 2.055000 255 0 0
-0.011603 0.416991 2.057000 255 0 0
-0.005987 0.417397 2.059000 255 0 0
-0.000360 0.418006 2.062000 255 0 0
0.005291 0.419222 2.068000 255 0 0
0.010958 0.419830 2.071000 255 0 0
0.016634 0.420234 2.073000 255 0 0
0.022332 0.420840 2.076000 255 0 0
0.028060 0.421649 2.080000 255 0 0
0.033825 0.422660 2.085000 255 0 0
0.039599 0.423468 2.089000 255 0 0
0.045394 0.424275 2.093000 255 0 0
0.051212 0.425082 2.097000 255 0 0
0.057078 0.426092 2.102000 255 0 0
0.063091 0.427911 2.111000 255 0 0
0.069185 0.429933 2.121000 255 0 0
0.075228 0.431346 2.128000 255 0 0
0.081194 0.432150 2.132000 255 0 0
0.087141 0.432751 2.135000 255 0 0
0.093061 0.433150 2.137000 255 0 0
0.098899 0.433142 2.137000 255 0 0
0.104835 0.433539 2.139000 255 0 0
0.110781 0.433936 2.141000 255 0 0
0.117010 0.435345 2.148000 255 0 0
-0.082946 0.498919 2.238458 255 255 0
-0.068940 0.498087 2.235692 255 255 0
-0.057530 0.497012 2.231103 255 255 0
-0.048708 0.495689 2.224670 255 255 0
-0.039040 0.494458 2.218899 255 255 0
-0.027674 0.493407 2.214433 255 255 0
-0.012054 0.492799 2.213197 255 255 0
