ply
format ascii 1.0
element vertex 1299
property double x
property double y
property double z
property uchar red
property uchar green
property uchar blue
end_header
0.048150 -0.253769 2.215000 255 0 0
0.054315 -0.254224 2.219000 255 0 0
-0.253568 -0.271049 2.313000 255 0 0
-0.246716 -0.270477 2.308000 255 0 0
-0.239787 -0.269786 2.302000 255 0 0
-0.233093 -0.269330 2.298000 255 0 0
-0.226419 -0.268874 2.294000 255 0 0
-0.220247 -0.269003 2.295000 255 0 0
-0.214441 -0.269601 2.300000 255 0 0
-0.208517 -0.270081 2.304000 255 0 0
-0.202482 -0.270444 2.307000 255 0 0
-0.196005 -0.270220 2.305000 255 0 0
-0.190031 -0.270700 2.309000 255 0 0
-0.184274 -0.271531 2.316000 255 0 0
-0.178248 -0.272009 2.320000 255 0 0
-0.172199 -0.272488 2.324000 255 0 0
-0.165842 -0.272497 2.324000 255 0 0
-0.159827 -0.273093 2.329000 255 0 0
-0.153587 -0.273336 2.331000 255 0 0
-0.147715 -0.274282 2.339000 255 0 0
-0.142099 -0.275815 2.352000 255 0 0
-0.136297 -0.277113 2.363000 255 0 0
-0.130380 -0.278293 2.373000 255 0 0
-0.088052 -0.268126 2.286000 255 0 0
-0.081112 -0.265902 2.267000 255 0 0
-0.074376 -0.264030 2.251000 255 0 0
-0.067848 -0.262626 2.239000 255 0 0
-0.061331 -0.260988 2.225000 255 0 0
-0.054964 -0.259701 2.214000 255 0 0
-0.048702 -0.258648 2.205000 255 0 0
-0.042586 -0.258182 2.201000 255 0 0
-0.036541 -0.258067 2.200000 255 0 0
-0.030432 -0.257365 2.194000 255 0 0
-0.024433 -0.257484 2.195000 255 0 0
-0.018430 -0.257602 2.196000 255 0 0
-0.012437 -0.258072 2.200000 255 0 0
-0.006411 -0.258073 2.200000 255 0 0
-0.000385 -0.258308 2.202000 255 0 0
0.005654 -0.258659 2.205000 255 0 0
0.011704 -0.258893 2.207000 255 0 0
0.017741 -0.258775 2.206000 255 0 0
0.023784 -0.258774 2.206000 255 0 0
0.029839 -0.258890 2.207000 255 0 0
0.035901 -0.259005 2.208000 255 0 0
0.041986 -0.259238 2.210000 255 0 0
0.048082 -0.259470 2.212000 255 0 0
-0.254322 -0.278203 2.320000 255 0 0
-0.246917 -0.277017 2.310000 255 0 0
-0.239670 -0.275951 2.301000 255 0 0
-0.233283 -0.275844 2.300000 255 0 0
-0.226604 -0.275377 2.296000 255 0 0
-0.220811 -0.275989 2.301000 255 0 0
-0.214709 -0.276241 2.303000 255 0 0
-0.209048 -0.277092 2.310000 255 0 0
-0.202822 -0.277223 2.311000 255 0 0
-0.196334 -0.276994 2.309000 255 0 0
-0.190021 -0.277005 2.309000 255 0 0
-0.184105 -0.277615 2.314000 255 0 0
-0.178161 -0.278225 2.319000 255 0 0
-0.172041 -0.278595 2.322000 255 0 0
-0.165975 -0.279085 2.326000 255 0 0
-0.159956 -0.279694 2.331000 255 0 0
-0.153974 -0.280423 2.337000 255 0 0
-0.148148 -0.281511 2.346000 255 0 0
-0.142273 -0.282599 2.355000 255 0 0
-0.136924 -0.284887 2.374000 255 0 0
-0.088316 -0.275211 2.293000 255 0 0
-0.081179 -0.272336 2.269000 255 0 0
-0.074438 -0.270420 2.253000 255 0 0
-0.067875 -0.268864 2.240000 255 0 0
-0.061465 -0.267667 2.230000 255 0 0
-0.055061 -0.266230 2.218000 255 0 0
-0.048743 -0.264913 2.207000 255 0 0
-0.042583 -0.264195 2.201000 255 0 0
-0.036505 -0.263837 2.198000 255 0 0
-0.030416 -0.263239 2.193000 255 0 0
-0.024421 -0.263361 2.194000 255 0 0
-0.018429 -0.263602 2.196000 255 0 0
-0.012442 -0.264203 2.201000 255 0 0
-0.006414 -0.264204 2.201000 255 0 0
-0.000385 -0.264204 2.201000 255 0 0
0.005641 -0.264084 2.200000 255 0 0
0.011677 -0.264323 2.202000 255 0 0
0.017740 -0.264803 2.206000 255 0 0
0.023804 -0.265041 2.208000 255 0 0
0.029838 -0.264920 2.207000 255 0 0
0.035866 -0.264798 2.206000 255 0 0
0.041908 -0.264796 2.206000 255 0 0
0.048080 -0.265513 2.212000 255 0 0
-0.252883 -0.282941 2.307000 255 0 0
-0.246903 -0.283323 2.310000 255 0 0
-0.240074 -0.282723 2.305000 255 0 0
-0.233777 -0.282736 2.305000 255 0 0
-0.226888 -0.282013 2.299000 255 0 0
-0.220702 -0.282148 2.300000 255 0 0
-0.214604 -0.282405 2.302000 255 0 0
-0.209036 -0.283399 2.310000 255 0 0
-0.202898 -0.283656 2.312000 255 0 0
-0.196663 -0.283790 2.313000 255 0 0
-0.190669 -0.284291 2.317000 255 0 0
-0.184572 -0.284670 2.320000 255 0 0
-0.178535 -0.285171 2.324000 255 0 0
-0.172328 -0.285427 2.326000 255 0 0
-0.166251 -0.285927 2.330000 255 0 0
-0.160152 -0.286428 2.334000 255 0 0
-0.153899 -0.286682 2.336000 255 0 0
-0.148203 -0.288041 2.347000 255 0 0
-0.142506 -0.289522 2.359000 255 0 0
-0.088927 -0.283439 2.309000 255 0 0
-0.081246 -0.278779 2.271000 255 0 0
-0.074566 -0.277065 2.257000 255 0 0
-0.068022 -0.275596 2.245000 255 0 0
-0.061599 -0.274372 2.235000 255 0 0
-0.055181 -0.272903 2.223000 255 0 0
-0.048895 -0.271801 2.214000 255 0 0
-0.042697 -0.270944 2.207000 255 0 0
-0.036570 -0.270333 2.202000 255 0 0
-0.030442 -0.269475 2.195000 255 0 0
-0.024442 -0.269600 2.196000 255 0 0
-0.018436 -0.269724 2.197000 255 0 0
-0.012441 -0.270216 2.201000 255 0 0
-0.006410 -0.270093 2.200000 255 0 0
-0.000385 -0.269848 2.198000 255 0 0
0.005638 -0.269971 2.199000 255 0 0
0.011671 -0.270216 2.201000 255 0 0
0.017747 -0.270951 2.207000 255 0 0
0.023802 -0.271073 2.208000 255 0 0
0.029877 -0.271317 2.210000 255 0 0
0.035864 -0.270824 2.206000 255 0 0
0.041924 -0.270944 2.207000 255 0 0
0.047968 -0.270942 2.207000 255 0 0
-0.246142 -0.288750 2.303000 255 0 0
-0.240164 -0.289139 2.306000 255 0 0
-0.234068 -0.289403 2.308000 255 0 0
-0.227369 -0.288915 2.304000 255 0 0
-0.220978 -0.288802 2.303000 255 0 0
-0.214685 -0.288815 2.303000 255 0 0
-0.208753 -0.289328 2.307000 255 0 0
-0.202799 -0.289842 2.311000 255 0 0
-0.196907 -0.290480 2.316000 255 0 0
-0.190905 -0.290993 2.320000 255 0 0
-0.184959 -0.291631 2.325000 255 0 0
-0.178755 -0.291893 2.327000 255 0 0
-0.172540 -0.292154 2.329000 255 0 0
-0.166598 -0.292916 2.335000 255 0 0
-0.160212 -0.292926 2.335000 255 0 0
-0.153890 -0.293060 2.336000 255 0 0
-0.147942 -0.293948 2.343000 255 0 0
-0.142135 -0.295211 2.353000 255 0 0
-0.134255 -0.292082 2.328000 255 0 0
-0.081241 -0.284981 2.271000 255 0 0
-0.074561 -0.283229 2.257000 255 0 0
-0.068079 -0.281978 2.247000 255 0 0
-0.061761 -0.281229 2.241000 255 0 0
-0.055451 -0.280354 2.234000 255 0 0
-0.049091 -0.278977 2.223000 255 0 0
-0.042772 -0.277474 2.211000 255 0 0
-0.036534 -0.276096 2.200000 255 0 0
-0.030482 -0.275847 2.198000 255 0 0
-0.024474 -0.275974 2.199000 255 0 0
-0.018460 -0.276101 2.200000 255 0 0
-0.012418 -0.275725 2.197000 255 0 0
-0.006395 -0.275475 2.195000 255 0 0
-0.000384 -0.275099 2.192000 255 0 0
0.005627 -0.275475 2.195000 255 0 0
0.011654 -0.275851 2.198000 255 0 0
0.017730 -0.276728 2.205000 255 0 0
0.023790 -0.276978 2.207000 255 0 0
0.029848 -0.277102 2.208000 255 0 0
0.035829 -0.276598 2.204000 255 0 0
0.041903 -0.276847 2.206000 255 0 0
0.048117 -0.277848 2.214000 255 0 0
-0.243883 -0.292344 2.282000 255 0 0
-0.240151 -0.295432 2.306000 255 0 0
-0.233548 -0.295061 2.303000 255 0 0
-0.227454 -0.295331 2.305000 255 0 0
-0.221253 -0.295472 2.306000 255 0 0
-0.215325 -0.295997 2.310000 255 0 0
-0.209103 -0.296137 2.311000 255 0 0
-0.203050 -0.296534 2.314000 255 0 0
-0.197150 -0.297186 2.319000 255 0 0
-0.191305 -0.297967 2.325000 255 0 0
-0.185108 -0.298234 2.327000 255 0 0
-0.178975 -0.298629 2.330000 255 0 0
-0.173048 -0.299409 2.336000 255 0 0
-0.167088 -0.300188 2.342000 255 0 0
-0.160957 -0.300710 2.346000 255 0 0
-0.154276 -0.300207 2.342000 255 0 0
-0.147996 -0.300472 2.344000 255 0 0
-0.141523 -0.300353 2.343000 255 0 0
-0.136727 -0.303951 2.371000 255 0 0
-0.074722 -0.290033 2.262000 255 0 0
-0.068257 -0.288884 2.253000 255 0 0
-0.061840 -0.287734 2.244000 255 0 0
-0.055497 -0.286711 2.236000 255 0 0
-0.049221 -0.285817 2.229000 255 0 0
-0.042885 -0.284281 2.217000 255 0 0
-0.036582 -0.282488 2.203000 255 0 0
-0.030466 -0.281721 2.197000 255 0 0
-0.024461 -0.281851 2.198000 255 0 0
-0.018459 -0.282109 2.200000 255 0 0
-0.012412 -0.281597 2.196000 255 0 0
-0.006389 -0.281213 2.193000 255 0 0
-0.000384 -0.281213 2.193000 255 0 0
0.005640 -0.282110 2.200000 255 0 0
0.011680 -0.282494 2.203000 255 0 0
0.017753 -0.283135 2.208000 255 0 0
0.023778 -0.282877 2.206000 255 0 0
0.029846 -0.283132 2.208000 255 0 0
0.035843 -0.282745 2.205000 255 0 0
0.041938 -0.283127 2.208000 255 0 0
0.048071 -0.283637 2.212000 255 0 0
-0.251884 -0.308382 2.357000 255 0 0
-0.240137 -0.301724 2.306000 255 0 0
-0.233839 -0.301738 2.306000 255 0 0
-0.227737 -0.302013 2.308000 255 0 0
-0.221912 -0.302680 2.313000 255 0 0
-0.215872 -0.303086 2.316000 255 0 0
-0.209634 -0.303229 2.317000 255 0 0
-0.203477 -0.303503 2.319000 255 0 0
-0.197734 -0.304431 2.326000 255 0 0
-0.191623 -0.304835 2.329000 255 0 0
-0.185494 -0.305239 2.332000 255 0 0
-0.179502 -0.305905 2.337000 255 0 0
-0.173631 -0.306832 2.344000 255 0 0
-0.167649 -0.307627 2.350000 255 0 0
-0.161496 -0.308161 2.354000 255 0 0
-0.155387 -0.308825 2.359000 255 0 0
-0.148871 -0.308703 2.358000 255 0 0
-0.142481 -0.308843 2.359000 255 0 0
-0.135854 -0.308459 2.356000 255 0 0
-0.074816 -0.296602 2.265000 255 0 0
-0.068373 -0.295558 2.257000 255 0 0
-0.061974 -0.294515 2.249000 255 0 0
-0.055693 -0.293864 2.244000 255 0 0
-0.049372 -0.292819 2.236000 255 0 0
-0.042979 -0.290989 2.222000 255 0 0
-0.036646 -0.289027 2.207000 255 0 0
-0.030520 -0.288243 2.201000 255 0 0
-0.024471 -0.287983 2.199000 255 0 0
-0.018458 -0.288115 2.200000 255 0 0
-0.012417 -0.287723 2.197000 255 0 0
-0.006403 -0.287855 2.198000 255 0 0
-0.000385 -0.287986 2.199000 255 0 0
0.005647 -0.288510 2.203000 255 0 0
0.011685 -0.288640 2.204000 255 0 0
0.017760 -0.289294 2.209000 255 0 0
0.023809 -0.289293 2.209000 255 0 0
0.029898 -0.289684 2.212000 255 0 0
0.035922 -0.289420 2.210000 255 0 0
0.042012 -0.289680 2.212000 255 0 0
0.048133 -0.290070 2.215000 255 0 0
-0.242101 -0.310552 2.325000 255 0 0
-0.234535 -0.308964 2.313000 255 0 0
-0.228513 -0.309378 2.316000 255 0 0
-0.222474 -0.309792 2.319000 255 0 0
-0.216325 -0.310073 2.321000 255 0 0
-0.210164 -0.310353 2.323000 255 0 0
-0.203728 -0.310231 2.322000 255 0 0
-0.197892 -0.311045 2.328000 255 0 0
-0.192022 -0.311859 2.334000 255 0 0
-0.186199 -0.312805 2.341000 255 0 0
-0.180336 -0.313752 2.348000 255 0 0
-0.174287 -0.314431 2.353000 255 0 0
-0.168352 -0.315377 2.360000 255 0 0
-0.162310 -0.316189 2.366000 255 0 0
-0.156300 -0.317134 2.373000 255 0 0
-0.150251 -0.318079 2.380000 255 0 0
-0.143922 -0.318489 2.383000 255 0 0
-0.137864 -0.319567 2.391000 255 0 0
-0.075274 -0.304656 2.279000 255 0 0
-0.068612 -0.302789 2.265000 255 0 0
-0.062080 -0.301189 2.253000 255 0 0
-0.055764 -0.300391 2.247000 255 0 0
-0.049479 -0.299592 2.241000 255 0 0
-0.043015 -0.297322 2.224000 255 0 0
-0.036677 -0.295319 2.209000 255 0 0
-0.030518 -0.294252 2.201000 255 0 0
-0.024480 -0.294120 2.200000 255 0 0
-0.018448 -0.293987 2.199000 255 0 0
-0.012416 -0.293721 2.197000 255 0 0
-0.006403 -0.293855 2.198000 255 0 0
-0.000385 -0.293856 2.198000 255 0 0
0.005636 -0.293989 2.199000 255 0 0
0.011663 -0.294122 2.200000 255 0 0
0.017743 -0.295057 2.207000 255 0 0
0.023840 -0.295724 2.212000 255 0 0
0.029977 -0.296525 2.218000 255 0 0
0.035985 -0.295988 2.214000 255 0 0
0.042085 -0.296253 2.216000 255 0 0
0.048261 -0.296918 2.221000 255 0 0
-0.235738 -0.316908 2.325000 255 0 0
-0.228993 -0.316377 2.321000 255 0 0
-0.222845 -0.316663 2.323000 255 0 0
-0.216126 -0.316131 2.319000 255 0 0
-0.209970 -0.316417 2.321000 255 0 0
-0.203804 -0.316702 2.323000 255 0 0
-0.198220 -0.317942 2.332000 255 0 0
-0.192422 -0.318908 2.339000 255 0 0
-0.186824 -0.320283 2.349000 255 0 0
-0.181017 -0.321385 2.357000 255 0 0
-0.174646 -0.321533 2.358000 255 0 0
-0.168484 -0.322089 2.362000 255 0 0
-0.162574 -0.323190 2.370000 255 0 0
-0.156751 -0.324564 2.380000 255 0 0
-0.150810 -0.325801 2.389000 255 0 0
-0.144818 -0.327037 2.398000 255 0 0
-0.138777 -0.328274 2.407000 255 0 0
-0.084547 -0.322465 2.364000 255 0 0
-0.075501 -0.311831 2.286000 255 0 0
-0.068910 -0.310335 2.275000 255 0 0
-0.062352 -0.308702 2.263000 255 0 0
-0.055959 -0.307615 2.255000 255 0 0
-0.049520 -0.305981 2.243000 255 0 0
-0.043012 -0.303392 2.224000 255 0 0
-0.036691 -0.301485 2.210000 255 0 0
-0.030557 -0.300668 2.204000 255 0 0
-0.024490 -0.300261 2.201000 255 0 0
-0.018447 -0.299989 2.199000 255 0 0
-0.012421 -0.299854 2.198000 255 0 0
-0.006406 -0.299991 2.199000 255 0 0
-0.000385 -0.299855 2.198000 255 0 0
0.005636 -0.299991 2.199000 255 0 0
0.011662 -0.300127 2.200000 255 0 0
0.017742 -0.301081 2.207000 255 0 0
0.023849 -0.301898 2.213000 255 0 0
0.030070 -0.303533 2.225000 255 0 0
0.036178 -0.303668 2.226000 255 0 0
0.042386 -0.304484 2.232000 255 0 0
0.048627 -0.305299 2.238000 255 0 0
-0.234811 -0.321998 2.316000 255 0 0
-0.228979 -0.322707 2.321000 255 0 0
-0.222927 -0.323138 2.324000 255 0 0
-0.216392 -0.322874 2.322000 255 0 0
-0.210048 -0.322887 2.322000 255 0 0
-0.203966 -0.323317 2.325000 255 0 0
-0.198548 -0.324859 2.336000 255 0 0
-0.192657 -0.325706 2.342000 255 0 0
-0.186892 -0.326830 2.350000 255 0 0
-0.180852 -0.327537 2.355000 255 0 0
-0.174710 -0.328104 2.359000 255 0 0
-0.168402 -0.328393 2.361000 255 0 0
-0.162564 -0.329656 2.370000 255 0 0
-0.156807 -0.331196 2.381000 255 0 0
-0.150863 -0.332458 2.390000 255 0 0
-0.144809 -0.333580 2.398000 255 0 0
-0.138769 -0.334841 2.407000 255 0 0
-0.075661 -0.318764 2.291000 255 0 0
-0.068966 -0.316821 2.277000 255 0 0
-0.062320 -0.314738 2.262000 255 0 0
-0.055880 -0.313351 2.252000 255 0 0
-0.049473 -0.311823 2.241000 255 0 0
-0.043010 -0.309461 2.224000 255 0 0
-0.036705 -0.307655 2.211000 255 0 0
-0.030569 -0.306822 2.205000 255 0 0
-0.024522 -0.306685 2.204000 255 0 0
-0.018479 -0.306547 2.203000 255 0 0
-0.012431 -0.306130 2.200000 255 0 0
-0.006405 -0.305992 2.199000 255 0 0
-0.000385 -0.305992 2.199000 255 0 0
0.005643 -0.306409 2.202000 255 0 0
0.011672 -0.306409 2.202000 255 0 0
0.017733 -0.306965 2.206000 255 0 0
0.023826 -0.307659 2.211000 255 0 0
0.030068 -0.309605 2.225000 255 0 0
0.036241 -0.310299 2.230000 255 0 0
0.042516 -0.311549 2.239000 255 0 0
-0.234796 -0.328313 2.316000 255 0 0
-0.228866 -0.328894 2.320000 255 0 0
-0.222721 -0.329192 2.322000 255 0 0
-0.216565 -0.329489 2.324000 255 0 0
-0.210487 -0.329928 2.327000 255 0 0
-0.204568 -0.330650 2.332000 255 0 0
-0.198705 -0.331513 2.338000 255 0 0
-0.192727 -0.332235 2.343000 255 0 0
-0.186641 -0.332814 2.347000 255 0 0
-0.180533 -0.333393 2.351000 255 0 0
-0.174254 -0.333688 2.353000 255 0 0
-0.167964 -0.333982 2.355000 255 0 0
-0.162005 -0.334986 2.362000 255 0 0
-0.156336 -0.336698 2.374000 255 0 0
-0.150538 -0.338268 2.385000 255 0 0
-0.144498 -0.339412 2.393000 255 0 0
-0.138241 -0.340130 2.398000 255 0 0
-0.075887 -0.326008 2.298000 255 0 0
-0.069022 -0.323317 2.279000 255 0 0
-0.062399 -0.321335 2.265000 255 0 0
-0.055902 -0.319637 2.253000 255 0 0
-0.049536 -0.318363 2.244000 255 0 0
-0.043142 -0.316522 2.231000 255 0 0
-0.036852 -0.314964 2.220000 255 0 0
-0.030664 -0.313831 2.212000 255 0 0
-0.024576 -0.313407 2.209000 255 0 0
-0.018512 -0.313125 2.207000 255 0 0
-0.012464 -0.312984 2.206000 255 0 0
-0.006422 -0.312843 2.205000 255 0 0
-0.000386 -0.312701 2.204000 255 0 0
0.005656 -0.313127 2.207000 255 0 0
0.011708 -0.313410 2.209000 255 0 0
0.017796 -0.314118 2.214000 255 0 0
0.023889 -0.314543 2.217000 255 0 0
0.030188 -0.316953 2.234000 255 0 0
0.036384 -0.317660 2.239000 255 0 0
0.042703 -0.319076 2.249000 255 0 0
-0.235491 -0.335638 2.323000 255 0 0
-0.229345 -0.335942 2.325000 255 0 0
-0.222803 -0.335667 2.323000 255 0 0
-0.216551 -0.335826 2.324000 255 0 0
-0.210383 -0.336128 2.326000 255 0 0
-0.204642 -0.337153 2.333000 255 0 0
-0.198863 -0.338178 2.340000 255 0 0
-0.192962 -0.339057 2.346000 255 0 0
-0.186868 -0.339648 2.350000 255 0 0
-0.180368 -0.339515 2.349000 255 0 0
-0.174095 -0.339815 2.351000 255 0 0
-0.167881 -0.340260 2.354000 255 0 0
-0.161720 -0.340849 2.358000 255 0 0
-0.156128 -0.342739 2.371000 255 0 0
-0.150276 -0.344194 2.381000 255 0 0
-0.144187 -0.345216 2.388000 255 0 0
-0.137483 -0.344791 2.385000 255 0 0
-0.076212 -0.333722 2.308000 255 0 0
-0.068987 -0.329389 2.278000 255 0 0
-0.062312 -0.327080 2.262000 255 0 0
-0.055873 -0.325638 2.252000 255 0 0
-0.049643 -0.325208 2.249000 255 0 0
-0.043294 -0.323765 2.239000 255 0 0
-0.036983 -0.322177 2.228000 255 0 0
-0.030787 -0.321167 2.221000 255 0 0
-0.024663 -0.320590 2.217000 255 0 0
-0.018578 -0.320303 2.215000 255 0 0
-0.012497 -0.319870 2.212000 255 0 0
-0.006436 -0.319581 2.210000 255 0 0
-0.000386 -0.319003 2.206000 255 0 0
0.005655 -0.319147 2.207000 255 0 0
0.011707 -0.319436 2.209000 255 0 0
0.017803 -0.320303 2.215000 255 0 0
0.023952 -0.321458 2.223000 255 0 0
0.030172 -0.322902 2.233000 255 0 0
0.036366 -0.323623 2.238000 255 0 0
0.042568 -0.324199 2.242000 255 0 0
-0.241819 -0.341955 2.323000 255 0 0
-0.236389 -0.343295 2.332000 255 0 0
-0.229824 -0.343016 2.330000 255 0 0
-0.222981 -0.342294 2.325000 255 0 0
-0.216537 -0.342161 2.324000 255 0 0
-0.210460 -0.342616 2.327000 255 0 0
-0.204629 -0.343513 2.333000 255 0 0
-0.198680 -0.344263 2.338000 255 0 0
-0.192867 -0.345306 2.345000 255 0 0
-0.186856 -0.346055 2.350000 255 0 0
-0.180586 -0.346361 2.352000 255 0 0
-0.174232 -0.346520 2.353000 255 0 0
-0.167728 -0.346384 2.352000 255 0 0
-0.161298 -0.346395 2.352000 255 0 0
-0.155723 -0.348320 2.365000 255 0 0
-0.149950 -0.349950 2.376000 255 0 0
-0.144117 -0.351580 2.387000 255 0 0
-0.137128 -0.350411 2.379000 255 0 0
-0.131115 -0.351746 2.388000 255 0 0
-0.069528 -0.338254 2.296000 255 0 0
-0.062721 -0.335459 2.277000 255 0 0
-0.056068 -0.332958 2.260000 255 0 0
-0.049750 -0.332078 2.254000 255 0 0
-0.043388 -0.330608 2.244000 255 0 0
-0.037080 -0.329137 2.234000 255 0 0
-0.030813 -0.327519 2.223000 255 0 0
-0.024672 -0.326784 2.218000 255 0 0
-0.018585 -0.326491 2.216000 255 0 0
-0.012519 -0.326492 2.216000 255 0 0
-0.006442 -0.325904 2.212000 255 0 0
-0.000386 -0.325314 2.208000 255 0 0
0.005645 -0.324578 2.203000 255 0 0
0.011685 -0.324872 2.205000 255 0 0
0.017777 -0.325902 2.212000 255 0 0
0.023961 -0.327669 2.224000 255 0 0
0.030211 -0.329435 2.236000 255 0 0
0.036396 -0.330022 2.240000 255 0 0
0.042622 -0.330756 2.245000 255 0 0
-0.238300 -0.352500 2.351000 255 0 0
-0.231091 -0.351315 2.343000 255 0 0
-0.224213 -0.350580 2.338000 255 0 0
-0.217362 -0.349845 2.333000 255 0 0
-0.210899 -0.349709 2.332000 255 0 0
-0.205055 -0.350622 2.338000 255 0 0
-0.199432 -0.351985 2.347000 255 0 0
-0.193265 -0.352448 2.350000 255 0 0
-0.187082 -0.352911 2.353000 255 0 0
-0.180498 -0.352623 2.351000 255 0 0
-0.174590 -0.353685 2.358000 255 0 0
-0.168287 -0.353996 2.360000 255 0 0
-0.161698 -0.353707 2.358000 255 0 0
-0.155713 -0.354768 2.365000 255 0 0
-0.149877 -0.356278 2.375000 255 0 0
-0.144047 -0.357938 2.386000 255 0 0
-0.137637 -0.358248 2.388000 255 0 0
-0.131765 -0.360057 2.400000 255 0 0
-0.069977 -0.346765 2.311000 255 0 0
-0.063020 -0.343319 2.288000 255 0 0
-0.056188 -0.339871 2.265000 255 0 0
-0.049791 -0.338525 2.256000 255 0 0
-0.043539 -0.337928 2.252000 255 0 0
-0.037243 -0.336730 2.244000 255 0 0
-0.030935 -0.334932 2.232000 255 0 0
-0.024749 -0.333883 2.225000 255 0 0
-0.018634 -0.333434 2.222000 255 0 0
-0.012535 -0.332985 2.219000 255 0 0
-0.006450 -0.332386 2.215000 255 0 0
-0.000387 -0.331786 2.211000 255 0 0
0.005647 -0.330735 2.204000 255 0 0
0.011658 -0.330134 2.200000 255 0 0
0.017728 -0.331034 2.206000 255 0 0
0.023927 -0.333283 2.221000 255 0 0
0.030168 -0.335082 2.233000 255 0 0
0.036312 -0.335380 2.235000 255 0 0
0.042467 -0.335677 2.237000 255 0 0
0.048480 -0.334924 2.232000 255 0 0
-0.237372 -0.357532 2.342000 255 0 0
-0.230977 -0.357547 2.342000 255 0 0
-0.224582 -0.357562 2.342000 255 0 0
-0.218559 -0.358187 2.346000 255 0 0
-0.212874 -0.359423 2.354000 255 0 0
-0.206620 -0.359742 2.356000 255 0 0
-0.200353 -0.360061 2.358000 255 0 0
-0.193746 -0.359769 2.356000 255 0 0
-0.187467 -0.360087 2.358000 255 0 0
-0.181023 -0.360100 2.358000 255 0 0
-0.175171 -0.361333 2.366000 255 0 0
-0.168918 -0.361803 2.369000 255 0 0
-0.162305 -0.361509 2.367000 255 0 0
-0.155965 -0.361825 2.369000 255 0 0
-0.149804 -0.362599 2.374000 255 0 0
-0.144218 -0.364900 2.389000 255 0 0
-0.137858 -0.365368 2.392000 255 0 0
-0.132195 -0.367821 2.408000 255 0 0
-0.070184 -0.354135 2.318000 255 0 0
-0.063236 -0.350779 2.296000 255 0 0
-0.056358 -0.347116 2.272000 255 0 0
-0.049964 -0.345898 2.264000 255 0 0
-0.043710 -0.345442 2.261000 255 0 0
-0.037490 -0.345140 2.259000 255 0 0
-0.031127 -0.343156 2.246000 255 0 0
-0.024903 -0.342088 2.239000 255 0 0
-0.018716 -0.341020 2.232000 255 0 0
-0.012568 -0.339952 2.225000 255 0 0
-0.006455 -0.338730 2.217000 255 0 0
-0.000387 -0.338425 2.215000 255 0 0
0.005667 -0.337966 2.212000 255 0 0
0.011679 -0.336744 2.204000 255 0 0
0.017711 -0.336742 2.204000 255 0 0
0.023818 -0.337811 2.211000 255 0 0
0.030085 -0.340253 2.227000 255 0 0
0.036277 -0.341168 2.233000 255 0 0
0.042540 -0.342387 2.241000 255 0 0
-0.242813 -0.362498 2.333000 255 0 0
-0.237052 -0.363446 2.339000 255 0 0
-0.230666 -0.363462 2.339000 255 0 0
-0.225430 -0.365342 2.351000 255 0 0
-0.219755 -0.366600 2.359000 255 0 0
-0.214036 -0.367857 2.367000 255 0 0
-0.207658 -0.368027 2.368000 255 0 0
-0.201274 -0.368196 2.369000 255 0 0
-0.194555 -0.367743 2.366000 255 0 0
-0.188329 -0.368222 2.369000 255 0 0
-0.182009 -0.368546 2.371000 255 0 0
-0.176047 -0.369646 2.378000 255 0 0
-0.169477 -0.369503 2.377000 255 0 0
-0.163185 -0.369980 2.380000 255 0 0
-0.156745 -0.370147 2.381000 255 0 0
-0.150551 -0.370935 2.386000 255 0 0
-0.144208 -0.371411 2.389000 255 0 0
-0.138022 -0.372354 2.395000 255 0 0
-0.131198 -0.371586 2.390000 255 0 0
-0.070028 -0.359676 2.313000 255 0 0
-0.063176 -0.356726 2.294000 255 0 0
-0.056527 -0.354398 2.279000 255 0 0
-0.050247 -0.354090 2.277000 255 0 0
-0.043939 -0.353472 2.273000 255 0 0
-0.037653 -0.352853 2.269000 255 0 0
-0.031291 -0.351144 2.258000 255 0 0
-0.025034 -0.350058 2.251000 255 0 0
-0.018782 -0.348349 2.240000 255 0 0
-0.012584 -0.346484 2.228000 255 0 0
-0.006464 -0.345240 2.220000 255 0 0
-0.000388 -0.344929 2.218000 255 0 0
0.005677 -0.344618 2.216000 255 0 0
0.011710 -0.343684 2.210000 255 0 0
0.017741 -0.343372 2.208000 255 0 0
0.023827 -0.343993 2.212000 255 0 0
0.030056 -0.346013 2.225000 255 0 0
0.036258 -0.347099 2.232000 255 0 0
0.042537 -0.348496 2.241000 255 0 0
-0.243630 -0.370118 2.341000 255 0 0
-0.236834 -0.369501 2.337000 255 0 0
-0.231341 -0.370940 2.346000 255 0 0
-0.225799 -0.372378 2.355000 255 0 0
-0.220113 -0.373659 2.363000 255 0 0
-0.214202 -0.374622 2.369000 255 0 0
-0.207995 -0.375111 2.372000 255 0 0
-0.201346 -0.374808 2.370000 255 0 0
-0.195118 -0.375296 2.373000 255 0 0
-0.189270 -0.376575 2.381000 255 0 0
-0.183148 -0.377378 2.386000 255 0 0
-0.176554 -0.377232 2.385000 255 0 0
-0.169536 -0.376137 2.378000 255 0 0
-0.163448 -0.377098 2.384000 255 0 0
-0.157195 -0.377742 2.388000 255 0 0
-0.150793 -0.378069 2.390000 255 0 0
-0.144078 -0.377604 2.387000 255 0 0
-0.137493 -0.377456 2.386000 255 0 0
-0.131299 -0.378415 2.392000 255 0 0
-0.069781 -0.364714 2.305000 255 0 0
-0.063227 -0.363294 2.296000 255 0 0
-0.056722 -0.361875 2.287000 255 0 0
-0.050354 -0.361087 2.282000 255 0 0
-0.043994 -0.360141 2.276000 255 0 0
-0.037683 -0.359353 2.271000 255 0 0
-0.031372 -0.358248 2.264000 255 0 0
-0.025133 -0.357617 2.260000 255 0 0
-0.018839 -0.355561 2.247000 255 0 0
-0.012623 -0.353664 2.235000 255 0 0
-0.006472 -0.351765 2.223000 255 0 0
-0.000388 -0.350974 2.218000 255 0 0
0.005682 -0.350974 2.218000 255 0 0
0.011735 -0.350499 2.215000 255 0 0
0.017788 -0.350340 2.214000 255 0 0
0.023868 -0.350655 2.216000 255 0 0
0.030027 -0.351760 2.223000 255 0 0
0.036256 -0.353182 2.232000 255 0 0
0.042477 -0.354129 2.238000 255 0 0
-0.238946 -0.379244 2.358000 255 0 0
-0.232312 -0.378938 2.356000 255 0 0
-0.226359 -0.379758 2.361000 255 0 0
-0.220191 -0.380255 2.364000 255 0 0
-0.214097 -0.380914 2.368000 255 0 0
-0.207718 -0.381089 2.369000 255 0 0
-0.201247 -0.381103 2.369000 255 0 0
-0.195433 -0.382404 2.377000 255 0 0
-0.189495 -0.383543 2.384000 255 0 0
-0.183519 -0.384682 2.391000 255 0 0
-0.176911 -0.384534 2.390000 255 0 0
-0.170023 -0.383742 2.385000 255 0 0
-0.163779 -0.384397 2.389000 255 0 0
-0.157249 -0.384408 2.389000 255 0 0
-0.151161 -0.385545 2.396000 255 0 0
-0.144309 -0.384751 2.391000 255 0 0
-0.137830 -0.384922 2.392000 255 0 0
-0.131070 -0.384288 2.388000 255 0 0
-0.076082 -0.370989 2.305000 255 0 0
-0.069625 -0.370189 2.300000 255 0 0
-0.063277 -0.369872 2.298000 255 0 0
-0.056941 -0.369555 2.296000 255 0 0
-0.050549 -0.368754 2.291000 255 0 0
-0.044088 -0.367148 2.281000 255 0 0
-0.037730 -0.366024 2.274000 255 0 0
-0.031453 -0.365383 2.270000 255 0 0
-0.025175 -0.364419 2.264000 255 0 0
-0.018880 -0.362489 2.252000 255 0 0
-0.012650 -0.360558 2.240000 255 0 0
-0.006483 -0.358467 2.227000 255 0 0
-0.000388 -0.357501 2.221000 255 0 0
0.005681 -0.357018 2.218000 255 0 0
0.011756 -0.357178 2.219000 255 0 0
0.017827 -0.357177 2.219000 255 0 0
0.023931 -0.357659 2.222000 255 0 0
0.030038 -0.357979 2.224000 255 0 0
0.036221 -0.358942 2.230000 255 0 0
0.042379 -0.359422 2.233000 255 0 0
-0.240146 -0.387627 2.370000 255 0 0
-0.233085 -0.386662 2.364000 255 0 0
-0.226152 -0.385860 2.359000 255 0 0
-0.219897 -0.386202 2.361000 255 0 0
-0.214083 -0.387362 2.368000 255 0 0
-0.207879 -0.387868 2.371000 255 0 0
-0.201318 -0.387718 2.370000 255 0 0
-0.195173 -0.388386 2.374000 255 0 0
-0.189085 -0.389218 2.379000 255 0 0
-0.183046 -0.390213 2.385000 255 0 0
-0.176455 -0.390062 2.384000 255 0 0
-0.170154 -0.390565 2.387000 255 0 0
-0.163973 -0.391395 2.392000 255 0 0
-0.157567 -0.391733 2.394000 255 0 0
-0.151213 -0.392235 2.397000 255 0 0
-0.144419 -0.391591 2.393000 255 0 0
-0.137647 -0.390947 2.389000 255 0 0
-0.130676 -0.389647 2.381000 255 0 0
-0.076142 -0.377596 2.307000 255 0 0
-0.069741 -0.377110 2.304000 255 0 0
-0.063438 -0.377115 2.304000 255 0 0
-0.057086 -0.376792 2.302000 255 0 0
-0.050589 -0.375323 2.293000 255 0 0
-0.044142 -0.373853 2.284000 255 0 0
-0.037794 -0.372874 2.278000 255 0 0
-0.031520 -0.372385 2.275000 255 0 0
-0.025207 -0.371078 2.267000 255 0 0
-0.018920 -0.369443 2.257000 255 0 0
-0.012694 -0.367970 2.248000 255 0 0
-0.006506 -0.365843 2.235000 255 0 0
-0.000389 -0.364370 2.226000 255 0 0
0.005688 -0.363552 2.221000 255 0 0
0.011771 -0.363715 2.222000 255 0 0
0.017842 -0.363550 2.221000 255 0 0
0.023951 -0.364040 2.224000 255 0 0
0.030063 -0.364365 2.226000 255 0 0
0.036332 -0.366163 2.237000 255 0 0
0.042547 -0.366979 2.242000 255 0 0
-0.240231 -0.394246 2.371000 255 0 0
-0.233759 -0.394262 2.371000 255 0 0
-0.226903 -0.393613 2.367000 255 0 0
-0.220813 -0.394293 2.371000 255 0 0
-0.214610 -0.394807 2.374000 255 0 0
-0.208303 -0.395155 2.376000 255 0 0
-0.201474 -0.394504 2.372000 255 0 0
-0.195159 -0.394851 2.374000 255 0 0
-0.189151 -0.395862 2.380000 255 0 0
-0.183186 -0.397040 2.387000 255 0 0
-0.176812 -0.397385 2.389000 255 0 0
-0.170356 -0.397564 2.390000 255 0 0
-0.164030 -0.398075 2.393000 255 0 0
-0.157622 -0.398419 2.395000 255 0 0
-0.151707 -0.400094 2.405000 255 0 0
-0.145193 -0.400271 2.406000 255 0 0
-0.138674 -0.400447 2.407000 255 0 0
-0.131819 -0.399625 2.402000 255 0 0
-0.083912 -0.390695 2.348000 255 0 0
-0.076500 -0.385710 2.318000 255 0 0
-0.069978 -0.384716 2.312000 255 0 0
-0.063571 -0.384222 2.309000 255 0 0
-0.057205 -0.383894 2.307000 255 0 0
-0.050718 -0.382567 2.299000 255 0 0
-0.044178 -0.380407 2.286000 255 0 0
-0.037791 -0.379079 2.278000 255 0 0
-0.031504 -0.378415 2.274000 255 0 0
-0.025238 -0.377752 2.270000 255 0 0
-0.018953 -0.376256 2.261000 255 0 0
-0.012733 -0.375259 2.255000 255 0 0
-0.006535 -0.373595 2.245000 255 0 0
-0.000391 -0.372264 2.237000 255 0 0
0.005714 -0.371265 2.231000 255 0 0
0.011812 -0.371098 2.230000 255 0 0
0.017881 -0.370432 2.226000 255 0 0
0.023939 -0.369931 2.223000 255 0 0
0.030061 -0.370428 2.226000 255 0 0
0.036313 -0.372090 2.236000 255 0 0
0.042600 -0.373584 2.245000 255 0 0
-0.241025 -0.402051 2.379000 255 0 0
-0.234926 -0.402744 2.383000 255 0 0
-0.227750 -0.401577 2.376000 255 0 0
-0.221170 -0.401424 2.375000 255 0 0
-0.214595 -0.401270 2.374000 255 0 0
-0.208463 -0.401961 2.378000 255 0 0
-0.201969 -0.401976 2.378000 255 0 0
-0.195639 -0.402328 2.380000 255 0 0
-0.189535 -0.403187 2.385000 255 0 0
-0.183173 -0.403538 2.387000 255 0 0
-0.176578 -0.403382 2.386000 255 0 0
-0.170272 -0.403902 2.389000 255 0 0
-0.164361 -0.405436 2.398000 255 0 0
-0.158203 -0.406462 2.404000 255 0 0
-0.152074 -0.407657 2.411000 255 0 0
-0.145485 -0.407667 2.411000 255 0 0
-0.138894 -0.407678 2.411000 255 0 0
-0.133017 -0.409886 2.424000 255 0 0
-0.127642 -0.413954 2.448000 255 0 0
-0.083512 -0.395229 2.337000 255 0 0
-0.076857 -0.393882 2.329000 255 0 0
-0.070305 -0.392873 2.323000 255 0 0
-0.063759 -0.391694 2.316000 255 0 0
-0.057226 -0.390345 2.308000 255 0 0
-0.050648 -0.388320 2.296000 255 0 0
-0.044194 -0.386801 2.287000 255 0 0
-0.037772 -0.385113 2.277000 255 0 0
-0.031529 -0.384946 2.276000 255 0 0
-0.025259 -0.384272 2.272000 255 0 0
-0.019010 -0.383597 2.268000 255 0 0
-0.012789 -0.383091 2.265000 255 0 0
-0.006566 -0.381569 2.256000 255 0 0
-0.000394 -0.380724 2.251000 255 0 0
0.005741 -0.379202 2.242000 255 0 0
0.011848 -0.378355 2.237000 255 0 0
0.017896 -0.376832 2.228000 255 0 0
0.023926 -0.375816 2.222000 255 0 0
0.030018 -0.375983 2.223000 255 0 0
0.036213 -0.377164 2.230000 255 0 0
0.042351 -0.377499 2.232000 255 0 0
0.048326 -0.376481 2.226000 255 0 0
-0.235106 -0.409573 2.385000 255 0 0
-0.228309 -0.409074 2.382000 255 0 0
-0.221806 -0.409090 2.382000 255 0 0
-0.214941 -0.408419 2.378000 255 0 0
-0.208711 -0.408949 2.381000 255 0 0
-0.202379 -0.409307 2.383000 255 0 0
-0.196200 -0.410008 2.387000 255 0 0
-0.190395 -0.411568 2.396000 255 0 0
-0.183851 -0.411582 2.396000 255 0 0
-0.177675 -0.412454 2.401000 255 0 0
-0.171115 -0.412467 2.401000 255 0 0
-0.165035 -0.413681 2.408000 255 0 0
-0.158455 -0.413693 2.408000 255 0 0
-0.152316 -0.414907 2.415000 255 0 0
-0.145655 -0.414746 2.414000 255 0 0
-0.139057 -0.414757 2.414000 255 0 0
-0.132897 -0.416141 2.422000 255 0 0
-0.127372 -0.419759 2.443000 255 0 0
-0.076950 -0.400739 2.332000 255 0 0
-0.070270 -0.399026 2.322000 255 0 0
-0.063644 -0.397312 2.312000 255 0 0
-0.057172 -0.396286 2.306000 255 0 0
-0.050666 -0.394743 2.297000 255 0 0
-0.044210 -0.393200 2.288000 255 0 0
-0.037802 -0.391656 2.279000 255 0 0
-0.031555 -0.391487 2.278000 255 0 0
-0.025312 -0.391317 2.277000 255 0 0
-0.019025 -0.390116 2.270000 255 0 0
-0.012799 -0.389602 2.267000 255 0 0
-0.006574 -0.388228 2.259000 255 0 0
-0.000395 -0.388056 2.258000 255 0 0
0.005769 -0.387196 2.253000 255 0 0
0.011911 -0.386508 2.249000 255 0 0
0.017999 -0.385132 2.241000 255 0 0
0.024000 -0.383069 2.229000 255 0 0
0.030002 -0.381864 2.222000 255 0 0
0.035999 -0.381002 2.217000 255 0 0
0.042101 -0.381343 2.219000 255 0 0
0.048062 -0.380480 2.214000 255 0 0
-0.234794 -0.415539 2.382000 255 0 0
-0.228101 -0.415207 2.380000 255 0 0
-0.221139 -0.414351 2.375000 255 0 0
-0.214926 -0.414890 2.378000 255 0 0
-0.208433 -0.414905 2.378000 255 0 0
-0.202535 -0.416141 2.385000 255 0 0
-0.196432 -0.417028 2.390000 255 0 0
-0.190779 -0.418961 2.401000 255 0 0
-0.184451 -0.419499 2.404000 255 0 0
-0.178254 -0.420384 2.409000 255 0 0
-0.171673 -0.420397 2.409000 255 0 0
-0.165502 -0.421457 2.415000 255 0 0
-0.158904 -0.421469 2.415000 255 0 0
-0.152241 -0.421306 2.414000 255 0 0
-0.145403 -0.420619 2.410000 255 0 0
-0.138528 -0.419756 2.405000 255 0 0
-0.132504 -0.421512 2.415000 255 0 0
-0.126476 -0.423441 2.426000 255 0 0
-0.121919 -0.430782 2.468000 255 0 0
-0.084322 -0.411968 2.360000 255 0 0
-0.077076 -0.407785 2.336000 255 0 0
-0.070325 -0.405696 2.324000 255 0 0
-0.063667 -0.403780 2.313000 255 0 0
-0.057118 -0.402214 2.304000 255 0 0
-0.050619 -0.400647 2.295000 255 0 0
-0.044284 -0.400127 2.292000 255 0 0
-0.037882 -0.398733 2.284000 255 0 0
-0.031649 -0.398910 2.285000 255 0 0
-0.025344 -0.398040 2.280000 255 0 0
-0.019074 -0.397343 2.276000 255 0 0
-0.012826 -0.396646 2.272000 255 0 0
-0.006594 -0.395599 2.266000 255 0 0
-0.000395 -0.394901 2.262000 255 0 0
0.005782 -0.394203 2.258000 255 0 0
0.011931 -0.393329 2.253000 255 0 0
0.018070 -0.392804 2.250000 255 0 0
0.024138 -0.391406 2.242000 255 0 0
0.030121 -0.389484 2.231000 255 0 0
0.036077 -0.387910 2.222000 255 0 0
0.042193 -0.388256 2.224000 255 0 0
0.048123 -0.387030 2.217000 255 0 0
-0.234186 -0.420957 2.376000 255 0 0
-0.228564 -0.422568 2.385000 255 0 0
-0.221588 -0.421698 2.380000 255 0 0
-0.215362 -0.422246 2.383000 255 0 0
-0.208857 -0.422261 2.383000 255 0 0
-0.203029 -0.423694 2.391000 255 0 0
-0.196911 -0.424594 2.396000 255 0 0
-0.191003 -0.426026 2.404000 255 0 0
-0.184898 -0.427103 2.410000 255 0 0
-0.178759 -0.428180 2.416000 255 0 0
-0.171945 -0.427661 2.413000 255 0 0
-0.165284 -0.427497 2.412000 255 0 0
-0.158760 -0.427686 2.413000 255 0 0
-0.152293 -0.428052 2.415000 255 0 0
-0.145875 -0.428595 2.418000 255 0 0
-0.139209 -0.428428 2.417000 255 0 0
-0.132768 -0.428970 2.420000 255 0 0
-0.126258 -0.429334 2.422000 255 0 0
-0.120181 -0.431294 2.433000 255 0 0
-0.084422 -0.418923 2.363000 255 0 0
-0.077071 -0.414142 2.336000 255 0 0
-0.070380 -0.412375 2.326000 255 0 0
-0.063717 -0.410430 2.315000 255 0 0
-0.057238 -0.409371 2.309000 255 0 0
-0.050725 -0.407779 2.300000 255 0 0
-0.044280 -0.406365 2.292000 255 0 0
-0.037896 -0.405127 2.285000 255 0 0
-0.031619 -0.404775 2.283000 255 0 0
-0.025331 -0.404068 2.279000 255 0 0
-0.019073 -0.403538 2.276000 255 0 0
-0.012808 -0.402298 2.269000 255 0 0
-0.006585 -0.401235 2.263000 255 0 0
-0.000394 -0.400171 2.257000 255 0 0
0.005771 -0.399639 2.254000 255 0 0
0.011930 -0.399461 2.253000 255 0 0
0.018100 -0.399637 2.254000 255 0 0
0.024211 -0.398749 2.249000 255 0 0
0.030308 -0.398038 2.245000 255 0 0
0.036318 -0.396617 2.237000 255 0 0
0.042398 -0.396259 2.235000 255 0 0
0.048988 -0.400156 2.257000 255 0 0
-0.228452 -0.428876 2.384000 255 0 0
-0.221293 -0.427633 2.377000 255 0 0
-0.215347 -0.428728 2.383000 255 0 0
-0.209192 -0.429463 2.387000 255 0 0
-0.203609 -0.431457 2.398000 255 0 0
-0.197225 -0.431832 2.400000 255 0 0
-0.190592 -0.431666 2.399000 255 0 0
-0.184731 -0.433300 2.408000 255 0 0
-0.178524 -0.434213 2.413000 255 0 0
-0.172289 -0.435126 2.418000 255 0 0
-0.165341 -0.434239 2.413000 255 0 0
-0.158814 -0.434431 2.414000 255 0 0
-0.152345 -0.434802 2.416000 255 0 0
-0.146226 -0.436253 2.424000 255 0 0
-0.139544 -0.436084 2.423000 255 0 0
-0.133087 -0.436634 2.426000 255 0 0
-0.125883 -0.434665 2.415000 255 0 0
-0.119431 -0.435214 2.418000 255 0 0
-0.083773 -0.422113 2.345000 255 0 0
-0.077065 -0.420499 2.336000 255 0 0
-0.070496 -0.419424 2.330000 255 0 0
-0.063822 -0.417449 2.319000 255 0 0
-0.057333 -0.416374 2.313000 255 0 0
-0.050787 -0.414578 2.303000 255 0 0
-0.044316 -0.412962 2.294000 255 0 0
-0.037893 -0.411345 2.285000 255 0 0
-0.031631 -0.411167 2.284000 255 0 0
-0.025373 -0.410989 2.283000 255 0 0
-0.019121 -0.410811 2.282000 255 0 0
-0.012835 -0.409372 2.274000 255 0 0
-0.006596 -0.408113 2.267000 255 0 0
-0.000395 -0.406853 2.260000 255 0 0
0.005776 -0.406133 2.256000 255 0 0
0.011935 -0.405772 2.254000 255 0 0
0.018107 -0.405951 2.255000 255 0 0
0.024274 -0.405949 2.255000 255 0 0
0.030441 -0.405947 2.255000 255 0 0
0.036543 -0.405224 2.251000 255 0 0
0.042660 -0.404861 2.249000 255 0 0
-0.228339 -0.435177 2.383000 255 0 0
-0.221370 -0.434280 2.378000 255 0 0
-0.215602 -0.435757 2.386000 255 0 0
-0.209702 -0.437051 2.393000 255 0 0
-0.204103 -0.439075 2.404000 255 0 0
-0.197786 -0.439638 2.407000 255 0 0
-0.190896 -0.438922 2.403000 255 0 0
-0.184947 -0.440397 2.411000 255 0 0
-0.178806 -0.441507 2.417000 255 0 0
-0.172703 -0.442799 2.424000 255 0 0
-0.165808 -0.442081 2.420000 255 0 0
-0.159328 -0.442459 2.422000 255 0 0
-0.153027 -0.443384 2.427000 255 0 0
-0.146697 -0.444309 2.432000 255 0 0
-0.140052 -0.444320 2.432000 255 0 0
-0.132967 -0.442869 2.424000 255 0 0
-0.125717 -0.440686 2.412000 255 0 0
-0.118730 -0.439234 2.404000 255 0 0
-0.076993 -0.426488 2.334000 255 0 0
-0.070400 -0.425215 2.327000 255 0 0
-0.063817 -0.423758 2.319000 255 0 0
-0.057402 -0.423215 2.316000 255 0 0
-0.050894 -0.421757 2.308000 255 0 0
-0.044389 -0.419934 2.298000 255 0 0
-0.037940 -0.418109 2.288000 255 0 0
-0.031656 -0.417747 2.286000 255 0 0
-0.025360 -0.417018 2.282000 255 0 0
-0.019095 -0.416471 2.279000 255 0 0
-0.012817 -0.415011 2.271000 255 0 0
-0.006578 -0.413184 2.261000 255 0 0
-0.000395 -0.412636 2.258000 255 0 0
0.005773 -0.412088 2.255000 255 0 0
0.011934 -0.411904 2.254000 255 0 0
0.018090 -0.411720 2.253000 255 0 0
0.024261 -0.411901 2.254000 255 0 0
0.030479 -0.412630 2.258000 255 0 0
0.036653 -0.412628 2.258000 255 0 0
0.042866 -0.412990 2.260000 255 0 0
-0.228227 -0.441471 2.382000 255 0 0
-0.222098 -0.442229 2.386000 255 0 0
-0.216399 -0.443913 2.395000 255 0 0
-0.210563 -0.445412 2.403000 255 0 0
-0.204428 -0.446354 2.408000 255 0 0
-0.197853 -0.446369 2.408000 255 0 0
-0.190961 -0.445642 2.404000 255 0 0
-0.185010 -0.447140 2.412000 255 0 0
-0.178941 -0.448451 2.419000 255 0 0
-0.173118 -0.450503 2.430000 255 0 0
-0.166617 -0.450887 2.432000 255 0 0
-0.160237 -0.451641 2.436000 255 0 0
-0.153709 -0.452024 2.438000 255 0 0
-0.147169 -0.452406 2.440000 255 0 0
-0.140099 -0.451119 2.433000 255 0 0
-0.133122 -0.450017 2.427000 255 0 0
-0.126125 -0.448729 2.420000 255 0 0
-0.084474 -0.438579 2.365000 255 0 0
-0.076921 -0.432466 2.332000 255 0 0
-0.070273 -0.430803 2.323000 255 0 0
-0.063730 -0.429510 2.316000 255 0 0
-0.057274 -0.428587 2.311000 255 0 0
-0.050823 -0.427479 2.305000 255 0 0
-0.044405 -0.426370 2.299000 255 0 0
-0.038053 -0.425631 2.295000 255 0 0
-0.031750 -0.425263 2.293000 255 0 0
-0.025436 -0.424523 2.289000 255 0 0
-0.019127 -0.423412 2.283000 255 0 0
-0.012839 -0.421930 2.275000 255 0 0
-0.006592 -0.420261 2.266000 255 0 0
-0.000395 -0.419520 2.262000 255 0 0
0.005787 -0.419334 2.261000 255 0 0
0.011965 -0.419148 2.260000 255 0 0
0.018136 -0.418961 2.259000 255 0 0
0.024302 -0.418774 2.258000 255 0 0
0.030490 -0.418958 2.259000 255 0 0
0.036683 -0.419140 2.260000 255 0 0
0.042976 -0.420250 2.266000 255 0 0
-0.233671 -0.458666 2.439000 255 0 0
-0.223478 -0.451537 2.401000 255 0 0
-0.217196 -0.452117 2.404000 255 0 0
-0.211073 -0.453074 2.409000 255 0 0
-0.205006 -0.454218 2.415000 255 0 0
-0.198660 -0.454797 2.418000 255 0 0
-0.191979 -0.454624 2.417000 255 0 0
-0.185763 -0.455579 2.422000 255 0 0
-0.179297 -0.455969 2.424000 255 0 0
-0.173318 -0.457675 2.433000 255 0 0
-0.167016 -0.458629 2.438000 255 0 0
-0.160685 -0.459582 2.443000 255 0 0
-0.154012 -0.459594 2.443000 255 0 0
-0.147398 -0.459794 2.444000 255 0 0
-0.140779 -0.459993 2.445000 255 0 0
-0.133989 -0.459627 2.443000 255 0 0
-0.127366 -0.459826 2.444000 255 0 0
-0.122070 -0.465103 2.472000 255 0 0
-0.084111 -0.443129 2.355000 255 0 0
-0.077113 -0.439937 2.338000 255 0 0
-0.070298 -0.437308 2.324000 255 0 0
-0.063780 -0.436184 2.318000 255 0 0
-0.057220 -0.434496 2.309000 255 0 0
-0.050819 -0.433747 2.305000 255 0 0
-0.044363 -0.432246 2.297000 255 0 0
-0.038100 -0.432437 2.298000 255 0 0
-0.031762 -0.431687 2.294000 255 0 0
-0.025467 -0.431313 2.292000 255 0 0
-0.019117 -0.429433 2.282000 255 0 0
-0.012855 -0.428681 2.278000 255 0 0
-0.006600 -0.426988 2.269000 255 0 0
-0.000396 -0.426801 2.268000 255 0 0
0.005800 -0.426424 2.266000 255 0 0
0.011995 -0.426423 2.266000 255 0 0
0.018167 -0.425858 2.263000 255 0 0
0.024300 -0.424915 2.258000 255 0 0
0.030474 -0.424913 2.258000 255 0 0
0.036777 -0.426416 2.266000 255 0 0
0.043314 -0.429800 2.284000 255 0 0
-0.223741 -0.458635 2.404000 255 0 0
-0.216999 -0.458270 2.402000 255 0 0
-0.210882 -0.459240 2.407000 255 0 0
-0.204482 -0.459638 2.409000 255 0 0
-0.198563 -0.461179 2.417000 255 0 0
-0.192282 -0.461957 2.421000 255 0 0
-0.185902 -0.462544 2.424000 255 0 0
-0.179283 -0.462558 2.424000 255 0 0
-0.173234 -0.464099 2.432000 255 0 0
-0.167208 -0.465829 2.441000 255 0 0
-0.161002 -0.467178 2.448000 255 0 0
-0.154315 -0.467190 2.448000 255 0 0
-0.147749 -0.467583 2.450000 255 0 0
-0.141401 -0.468740 2.456000 255 0 0
-0.134691 -0.468750 2.456000 255 0 0
-0.128346 -0.470097 2.463000 255 0 0
-0.122455 -0.473351 2.480000 255 0 0
-0.090540 -0.449525 2.355000 255 0 0
-0.084283 -0.450487 2.360000 255 0 0
-0.077271 -0.447248 2.343000 255 0 0
-0.070504 -0.444963 2.331000 255 0 0
-0.063830 -0.442869 2.320000 255 0 0
-0.057265 -0.441155 2.311000 255 0 0
-0.050749 -0.439442 2.302000 255 0 0
-0.044302 -0.437918 2.294000 255 0 0
-0.038047 -0.438112 2.295000 255 0 0
-0.031759 -0.437924 2.294000 255 0 0
-0.025521 -0.438499 2.297000 255 0 0
-0.019174 -0.436974 2.289000 255 0 0
-0.012882 -0.435830 2.283000 255 0 0
-0.006620 -0.434494 2.276000 255 0 0
-0.000398 -0.434494 2.276000 255 0 0
0.005822 -0.434303 2.275000 255 0 0
0.012021 -0.433539 2.271000 255 0 0
0.018198 -0.432774 2.267000 255 0 0
0.024309 -0.431245 2.259000 255 0 0
0.030485 -0.431243 2.259000 255 0 0
0.036775 -0.432577 2.266000 255 0 0
0.043330 -0.436201 2.285000 255 0 0
-0.216622 -0.464024 2.398000 255 0 0
-0.210165 -0.464234 2.399000 255 0 0
-0.204127 -0.465411 2.405000 255 0 0
-0.198548 -0.467748 2.417000 255 0 0
-0.192982 -0.470279 2.430000 255 0 0
-0.186731 -0.471262 2.435000 255 0 0
-0.179787 -0.470501 2.431000 255 0 0
-0.173363 -0.471096 2.434000 255 0 0
-0.167264 -0.472657 2.442000 255 0 0
-0.160924 -0.473638 2.447000 255 0 0
-0.154808 -0.475392 2.456000 255 0 0
-0.148340 -0.476178 2.460000 255 0 0
-0.142139 -0.477932 2.469000 255 0 0
-0.135229 -0.477362 2.466000 255 0 0
-0.128440 -0.477179 2.465000 255 0 0
-0.121656 -0.476995 2.464000 255 0 0
-0.114425 -0.504503 2.606000 255 0 0
-0.090918 -0.457863 2.365000 255 0 0
-0.084026 -0.455547 2.353000 255 0 0
-0.077430 -0.454585 2.348000 255 0 0
-0.070559 -0.451687 2.333000 255 0 0
-0.063907 -0.449756 2.323000 255 0 0
-0.057236 -0.447244 2.310000 255 0 0
-0.050789 -0.446087 2.304000 255 0 0
-0.044356 -0.444735 2.297000 255 0 0
-0.038044 -0.444351 2.295000 255 0 0
-0.031729 -0.443773 2.292000 255 0 0
-0.025485 -0.444163 2.294000 255 0 0
-0.019172 -0.443196 2.289000 255 0 0
-0.012881 -0.442036 2.283000 255 0 0
-0.006625 -0.441069 2.278000 255 0 0
-0.000398 -0.441650 2.281000 255 0 0
0.005840 -0.441843 2.282000 255 0 0
0.012046 -0.440681 2.276000 255 0 0
0.018212 -0.439324 2.269000 255 0 0
0.024372 -0.438548 2.265000 255 0 0
0.030523 -0.437965 2.262000 255 0 0
0.036772 -0.438737 2.266000 255 0 0
0.042833 -0.437378 2.259000 255 0 0
-0.216154 -0.469559 2.393000 255 0 0
-0.209886 -0.470164 2.396000 255 0 0
-0.203687 -0.470965 2.400000 255 0 0
-0.198204 -0.473531 2.413000 255 0 0
-0.192729 -0.476294 2.427000 255 0 0
-0.186487 -0.477290 2.432000 255 0 0
-0.180069 -0.477893 2.435000 255 0 0
-0.173492 -0.478103 2.436000 255 0 0
-0.167662 -0.480471 2.448000 255 0 0
-0.161437 -0.481858 2.455000 255 0 0
-0.155426 -0.484029 2.466000 255 0 0
-0.148751 -0.484238 2.467000 255 0 0
-0.142243 -0.485034 2.471000 255 0 0
-0.135109 -0.483671 2.464000 255 0 0
-0.128221 -0.483093 2.461000 255 0 0
-0.121251 -0.482121 2.456000 255 0 0
-0.116220 -0.489198 2.492000 255 0 0
-0.090911 -0.464291 2.365000 255 0 0
-0.083983 -0.461745 2.352000 255 0 0
-0.077325 -0.460378 2.345000 255 0 0
-0.070493 -0.457635 2.331000 255 0 0
-0.063792 -0.455285 2.319000 255 0 0
-0.057231 -0.453522 2.310000 255 0 0
-0.050895 -0.453330 2.309000 255 0 0
-0.044468 -0.452156 2.303000 255 0 0
-0.038091 -0.451178 2.298000 255 0 0
-0.031740 -0.450199 2.293000 255 0 0
-0.025472 -0.450201 2.293000 255 0 0
-0.019221 -0.450596 2.295000 255 0 0
-0.012897 -0.448830 2.286000 255 0 0
-0.006637 -0.448046 2.282000 255 0 0
-0.000398 -0.447260 2.278000 255 0 0
0.005832 -0.447457 2.279000 255 0 0
0.012035 -0.446474 2.274000 255 0 0
0.018203 -0.445295 2.268000 255 0 0
0.024370 -0.444704 2.265000 255 0 0
0.030521 -0.444113 2.262000 255 0 0
0.036639 -0.443325 2.258000 255 0 0
0.042697 -0.442144 2.252000 255 0 0
-0.210571 -0.478265 2.404000 255 0 0
-0.204350 -0.479077 2.408000 255 0 0
-0.198271 -0.480286 2.414000 255 0 0
-0.192317 -0.481893 2.422000 255 0 0
-0.186012 -0.482703 2.426000 255 0 0
-0.179981 -0.484309 2.434000 255 0 0
-0.173834 -0.485716 2.441000 255 0 0
-0.167923 -0.487918 2.452000 255 0 0
-0.161490 -0.488727 2.456000 255 0 0
-0.155098 -0.489735 2.461000 255 0 0
-0.148618 -0.490543 2.465000 255 0 0
-0.142059 -0.491151 2.468000 255 0 0
-0.135318 -0.491162 2.468000 255 0 0
-0.128628 -0.491372 2.469000 255 0 0
-0.121933 -0.491581 2.470000 255 0 0
-0.116957 -0.499153 2.508000 255 0 0
-0.102635 -0.496185 2.493000 255 0 0
-0.091172 -0.472110 2.372000 255 0 0
-0.083763 -0.466942 2.346000 255 0 0
-0.077187 -0.465954 2.341000 255 0 0
-0.070306 -0.462775 2.325000 255 0 0
-0.063677 -0.460790 2.315000 255 0 0
-0.057078 -0.458605 2.304000 255 0 0
-0.050825 -0.459008 2.306000 255 0 0
-0.044484 -0.458613 2.304000 255 0 0
-0.038104 -0.457621 2.299000 255 0 0
-0.031765 -0.456828 2.295000 255 0 0
-0.025448 -0.456034 2.291000 255 0 0
-0.019195 -0.456235 2.292000 255 0 0
-0.012913 -0.455639 2.289000 255 0 0
-0.006639 -0.454446 2.283000 255 0 0
-0.000398 -0.453849 2.280000 255 0 0
0.005829 -0.453451 2.278000 255 0 0
0.012055 -0.453450 2.278000 255 0 0
0.018241 -0.452453 2.273000 255 0 0
0.024443 -0.452252 2.272000 255 0 0
0.030559 -0.450857 2.265000 255 0 0
0.036668 -0.449859 2.260000 255 0 0
0.043016 -0.451647 2.269000 255 0 0
-0.211956 -0.488021 2.420000 255 0 0
-0.205098 -0.487433 2.417000 255 0 0
-0.198502 -0.487448 2.417000 255 0 0
-0.191826 -0.487262 2.416000 255 0 0
-0.185155 -0.487075 2.415000 255 0 0
-0.179228 -0.488904 2.424000 255 0 0
-0.173678 -0.491944 2.439000 255 0 0
-0.167909 -0.494579 2.452000 255 0 0
-0.161543 -0.495601 2.457000 255 0 0
-0.155023 -0.496218 2.460000 255 0 0
-0.148546 -0.497037 2.464000 255 0 0
-0.141817 -0.497049 2.464000 255 0 0
-0.135416 -0.498270 2.470000 255 0 0
-0.129139 -0.500096 2.479000 255 0 0
-0.123058 -0.502931 2.493000 255 0 0
-0.116808 -0.505361 2.505000 255 0 0
-0.091011 -0.477747 2.368000 255 0 0
-0.083649 -0.472711 2.343000 255 0 0
-0.076950 -0.470901 2.334000 255 0 0
-0.070240 -0.468688 2.323000 255 0 0
-0.063589 -0.466474 2.312000 255 0 0
-0.057172 -0.465672 2.308000 255 0 0
-0.050887 -0.465878 2.309000 255 0 0
-0.044519 -0.465277 2.306000 255 0 0
-0.038184 -0.464876 2.304000 255 0 0
-0.031804 -0.463669 2.298000 255 0 0
-0.025479 -0.462864 2.294000 255 0 0
-0.019185 -0.462260 2.291000 255 0 0
-0.012906 -0.461656 2.288000 255 0 0
-0.006644 -0.461052 2.285000 255 0 0
-0.000398 -0.459438 2.277000 255 0 0
0.005820 -0.459034 2.275000 255 0 0
0.012038 -0.459033 2.275000 255 0 0
0.018224 -0.458225 2.271000 255 0 0
0.024388 -0.457416 2.267000 255 0 0
0.030543 -0.456809 2.264000 255 0 0
0.036633 -0.455595 2.258000 255 0 0
0.042918 -0.456803 2.264000 255 0 0
-0.214830 -0.501338 2.453000 255 0 0
-0.205676 -0.495427 2.424000 255 0 0
-0.198568 -0.494217 2.418000 255 0 0
-0.191811 -0.493823 2.416000 255 0 0
-0.184910 -0.493020 2.412000 255 0 0
-0.178918 -0.494670 2.420000 255 0 0
-0.173451 -0.497955 2.436000 255 0 0
-0.167485 -0.500012 2.446000 255 0 0
-0.161070 -0.500843 2.450000 255 0 0
-0.154570 -0.501469 2.453000 255 0 0
-0.148414 -0.503321 2.462000 255 0 0
-0.142209 -0.505172 2.471000 255 0 0
-0.135954 -0.507024 2.480000 255 0 0
-0.129858 -0.509692 2.493000 255 0 0
-0.123542 -0.511747 2.503000 255 0 0
-0.116891 -0.512574 2.507000 255 0 0
-0.110394 -0.514219 2.515000 255 0 0
-0.102701 -0.510139 2.495000 255 0 0
-0.090350 -0.480703 2.351000 255 0 0
-0.083463 -0.478052 2.338000 255 0 0
-0.076746 -0.476014 2.328000 255 0 0
-0.070143 -0.474384 2.320000 255 0 0
-0.063584 -0.472754 2.312000 255 0 0
-0.057168 -0.471941 2.308000 255 0 0
-0.050795 -0.471332 2.305000 255 0 0
-0.044515 -0.471540 2.306000 255 0 0
-0.038214 -0.471544 2.306000 255 0 0
-0.031857 -0.470729 2.302000 255 0 0
-0.025455 -0.468686 2.292000 255 0 0
-0.019166 -0.468075 2.289000 255 0 0
-0.012911 -0.468076 2.289000 255 0 0
-0.006661 -0.468486 2.291000 255 0 0
-0.000399 -0.467054 2.284000 255 0 0
0.005830 -0.466032 2.279000 255 0 0
0.012058 -0.466031 2.279000 255 0 0
0.018270 -0.465621 2.277000 255 0 0
0.024450 -0.464801 2.273000 255 0 0
0.030554 -0.463163 2.265000 255 0 0
0.036743 -0.463160 2.265000 255 0 0
0.043085 -0.464793 2.273000 255 0 0
-0.206339 -0.503666 2.432000 255 0 0
-0.199456 -0.503061 2.429000 255 0 0
-0.192272 -0.501626 2.422000 255 0 0
-0.185662 -0.501641 2.422000 255 0 0
