ply
format ascii 1.0
comment VCGLIB generated
element vertex 1210
property float x
property float y
property float z
property uchar red
property uchar green
property uchar blue
property uchar alpha
element face 0
property list uchar int vertex_indices
end_header
0.134837 -0.00532 2.349 255 0 0 255 
0.141033 -0.005311 2.345 255 0 0 255 
0.147457 -0.00531 2.345 255 0 0 255 
-0.211453 -0.321263 2.53912 255 255 0 255 
-0.09516 -0.311813 2.49445 255 255 0 255 
-0.060391 -0.303511 2.50409 255 255 0 255 
-0.029869 -0.296551 2.51117 255 255 0 255 
-0.001076 -0.290113 2.51731 255 255 0 255 
0.003467 -0.291655 2.50755 255 255 0 255 
-0.002826 -0.296789 2.49056 255 255 0 255 
0.01005 -0.295565 2.48636 255 255 0 255 
0.018747 -0.295717 2.47942 255 255 0 255 
0.024111 -0.296975 2.47025 255 255 0 255 
0.037768 -0.295449 2.46675 255 255 0 255 
0.029852 -0.301158 2.44853 255 255 0 255 
-0.220188 -0.357095 2.45103 0 255 0 255 
-0.226427 -0.351295 2.46746 0 255 0 255 
-0.242328 -0.338409 2.50235 0 255 0 255 
-0.246088 -0.333635 2.51695 0 255 0 255 
-0.237191 -0.333803 2.52332 0 255 0 255 
-0.229975 -0.333306 2.53082 0 255 0 255 
-0.212598 -0.336738 2.53185 0 255 0 255 
-0.207898 -0.335243 2.54104 0 255 0 255 
-0.193024 -0.337667 2.54381 0 255 0 255 
-0.173039 -0.342033 2.54345 0 255 0 255 
-0.159818 -0.343773 2.54744 0 255 0 255 
-0.033744 -0.374891 2.53205 0 255 0 255 
-0.028897 -0.373291 2.54174 0 255 0 255 
-0.04455 -0.363961 2.56375 0 255 0 255 
-0.03231 -0.361738 2.58155 0 255 0 255 
-0.366392 -0.01078 2.158 255 0 0 255 
-0.363689 -0.010875 2.177 255 0 0 255 
-0.360225 -0.010951 2.192 255 0 0 255 
-0.355708 -0.010997 2.201 255 0 0 255 
-0.350187 -0.011013 2.204 255 0 0 255 
-0.343712 -0.010999 2.201 255 0 0 255 
-0.337099 -0.010979 2.197 255 0 0 255 
-0.33126 -0.010985 2.198 255 0 0 255 
-0.325414 -0.010991 2.199 255 0 0 255 
-0.319998 -0.011012 2.203 255 0 0 255 
-0.314131 -0.011017 2.204 255 0 0 255 
-0.308398 -0.011028 2.206 255 0 0 255 
-0.303611 -0.011074 2.215 255 0 0 255 
-0.285716 -0.011577 2.315 255 0 0 255 
-0.278065 -0.011523 2.304 255 0 0 255 
-0.271062 -0.011494 2.298 255 0 0 255 
-0.264437 -0.011479 2.295 255 0 0 255 
-0.257602 -0.011455 2.29 255 0 0 255 
-0.250794 -0.011431 2.285 255 0 0 255 
-0.244333 -0.011421 2.283 255 0 0 255 
-0.237778 -0.011407 2.28 255 0 0 255 
-0.231645 -0.011412 2.281 255 0 0 255 
-0.225209 -0.011403 2.279 255 0 0 255 
-0.21859 -0.011383 2.275 255 0 0 255 
-0.211993 -0.011364 2.271 255 0 0 255 
-0.20587 -0.011369 2.272 255 0 0 255 
-0.199828 -0.01138 2.274 255 0 0 255 
-0.193349 -0.011365 2.271 255 0 0 255 
-0.186968 -0.011356 2.269 255 0 0 255 
-0.180677 -0.011351 2.268 255 0 0 255 
-0.174313 -0.011342 2.266 255 0 0 255 
-0.16796 -0.011332 2.264 255 0 0 255 
-0.161831 -0.011338 2.265 255 0 0 255 
-0.155903 -0.011358 2.269 255 0 0 255 
-0.150018 -0.011384 2.274 255 0 0 255 
-0.144105 -0.011409 2.279 255 0 0 255 
-0.137619 -0.011389 2.275 255 0 0 255 
-0.130981 -0.011355 2.268 255 0 0 255 
-0.124382 -0.01132 2.261 255 0 0 255 
-0.118133 -0.011315 2.26 255 0 0 255 
-0.11194 -0.011316 2.26 255 0 0 255 
-0.105886 -0.011331 2.263 255 0 0 255 
-0.099683 -0.011331 2.263 255 0 0 255 
-0.093604 -0.011346 2.266 255 0 0 255 
-0.087199 -0.011322 2.261 255 0 0 255 
-0.080893 -0.011307 2.258 255 0 0 255 
-0.07447 -0.011272 2.251 255 0 0 255 
-0.068329 -0.011277 2.252 255 0 0 255 
-0.062044 -0.011257 2.248 255 0 0 255 
-0.05573 -0.011227 2.242 255 0 0 255 
-0.049383 -0.011182 2.233 255 0 0 255 
-0.043124 -0.011148 2.226 255 0 0 255 
-0.03702 -0.011148 2.226 255 0 0 255 
-0.030887 -0.011138 2.224 255 0 0 255 
-0.02481 -0.011148 2.226 255 0 0 255 
-0.018714 -0.011153 2.227 255 0 0 255 
-0.012623 -0.011168 2.23 255 0 0 255 
-0.006513 -0.011178 2.232 255 0 0 255 
-0.000392 -0.011198 2.236 255 0 0 255 
0.005761 -0.011238 2.244 255 0 0 255 
0.011958 -0.011278 2.252 255 0 0 255 
0.01815 -0.011288 2.254 255 0 0 255 
0.024408 -0.011323 2.261 255 0 0 255 
0.030757 -0.011378 2.272 255 0 0 255 
0.037184 -0.011438 2.284 255 0 0 255 
0.043523 -0.011458 2.288 255 0 0 255 
0.050037 -0.011513 2.299 255 0 0 255 
0.09061 -0.011872 2.371 255 0 0 255 
0.095963 -0.011732 2.343 255 0 0 255 
0.102299 -0.011722 2.341 255 0 0 255 
0.109133 -0.011766 2.35 255 0 0 255 
0.116263 -0.011836 2.364 255 0 0 255 
0.123105 -0.011871 2.371 255 0 0 255 
0.129165 -0.011831 2.363 255 0 0 255 
0.134779 -0.011755 2.348 255 0 0 255 
0.141032 -0.01174 2.345 255 0 0 255 
0.147457 -0.011739 2.345 255 0 0 255 
-0.198538 -0.328998 2.54856 255 255 0 255 
-0.201414 -0.333085 2.53358 255 255 0 255 
-0.058946 -0.311481 2.51933 255 255 0 255 
-0.046818 -0.310551 2.51432 255 255 0 255 
-0.01883 -0.304333 2.51977 255 255 0 255 
0.004096 -0.299759 2.52207 255 255 0 255 
0.009469 -0.301016 2.51287 255 255 0 255 
0.013173 -0.30283 2.50257 255 255 0 255 
0.019371 -0.303804 2.49394 255 255 0 255 
0.023902 -0.305336 2.48421 255 255 0 255 
0.021788 -0.309111 2.46998 255 255 0 255 
0.023834 -0.311486 2.45855 255 255 0 255 
-0.212789 -0.374724 2.43514 0 255 0 255 
-0.240012 -0.360528 2.46558 0 255 0 255 
-0.243267 -0.35257 2.49217 0 255 0 255 
-0.231846 -0.353754 2.4969 0 255 0 255 
-0.234748 -0.349284 2.51098 0 255 0 255 
-0.241036 -0.343495 2.52722 0 255 0 255 
-0.224531 -0.346654 2.52874 0 255 0 255 
-0.224913 -0.343187 2.54115 0 255 0 255 
-0.2143 -0.344013 2.54655 0 255 0 255 
-0.194354 -0.348452 2.5461 0 255 0 255 
-0.176076 -0.352213 2.54683 0 255 0 255 
-0.149284 -0.359237 2.54234 0 255 0 255 
-0.046244 -0.371584 2.57889 0 255 0 255 
-0.365025 -0.016893 2.185 255 0 0 255 
-0.36121 -0.016995 2.198 255 0 0 255 
-0.355868 -0.017027 2.202 255 0 0 255 
-0.350027 -0.017036 2.203 255 0 0 255 
-0.343711 -0.017022 2.201 255 0 0 255 
-0.337098 -0.016992 2.197 255 0 0 255 
-0.331108 -0.016993 2.197 255 0 0 255 
-0.325413 -0.01701 2.199 255 0 0 255 
-0.320433 -0.017065 2.206 255 0 0 255 
-0.314415 -0.017066 2.206 255 0 0 255 
-0.308536 -0.017075 2.207 255 0 0 255 
-0.303062 -0.017107 2.211 255 0 0 255 
-0.298774 -0.017209 2.224 255 0 0 255 
-0.287443 -0.018026 2.329 255 0 0 255 
-0.27915 -0.017903 2.313 255 0 0 255 
-0.271651 -0.017827 2.303 255 0 0 255 
-0.264551 -0.017774 2.296 255 0 0 255 
-0.257602 -0.017728 2.29 255 0 0 255 
-0.251013 -0.017706 2.287 255 0 0 255 
-0.244654 -0.017699 2.286 255 0 0 255 
-0.237986 -0.017669 2.282 255 0 0 255 
-0.231543 -0.017654 2.28 255 0 0 255 
-0.225307 -0.017655 2.28 255 0 0 255 
-0.21907 -0.017656 2.28 255 0 0 255 
-0.212552 -0.017634 2.277 255 0 0 255 
-0.20605 -0.017611 2.274 255 0 0 255 
-0.199915 -0.01762 2.275 255 0 0 255 
-0.193519 -0.017605 2.273 255 0 0 255 
-0.186885 -0.017567 2.268 255 0 0 255 
-0.180676 -0.017568 2.268 255 0 0 255 
-0.174082 -0.01753 2.263 255 0 0 255 
-0.167737 -0.017515 2.261 255 0 0 255 
-0.161402 -0.0175 2.259 255 0 0 255 
-0.155696 -0.017555 2.266 255 0 0 255 
-0.150017 -0.017618 2.274 255 0 0 255 
-0.144104 -0.017657 2.279 255 0 0 255 
-0.137679 -0.017634 2.276 255 0 0 255 
-0.131039 -0.017581 2.269 255 0 0 255 
-0.124656 -0.017558 2.266 255 0 0 255 
-0.118604 -0.017582 2.269 255 0 0 255 
-0.112831 -0.017652 2.278 255 0 0 255 
-0.106915 -0.017707 2.285 255 0 0 255 
-0.100652 -0.017707 2.285 255 0 0 255 
-0.09414 -0.017661 2.279 255 0 0 255 
-0.087623 -0.017607 2.272 255 0 0 255 
-0.081251 -0.017576 2.268 255 0 0 255 
-0.074801 -0.017522 2.261 255 0 0 255 
-0.06848 -0.017492 2.257 255 0 0 255 
-0.062071 -0.01743 2.249 255 0 0 255 
-0.055705 -0.017368 2.241 255 0 0 255 
-0.049383 -0.017306 2.233 255 0 0 255 
-0.043105 -0.017245 2.225 255 0 0 255 
-0.037003 -0.017245 2.225 255 0 0 255 
-0.030873 -0.017229 2.223 255 0 0 255 
-0.024799 -0.017245 2.225 255 0 0 255 
-0.018705 -0.017253 2.226 255 0 0 255 
-0.012617 -0.017276 2.229 255 0 0 255 
-0.006516 -0.017307 2.233 255 0 0 255 
-0.000392 -0.017338 2.237 255 0 0 255 
0.005769 -0.017416 2.247 255 0 0 255 
0.011953 -0.017447 2.251 255 0 0 255 
0.018158 -0.017478 2.255 255 0 0 255 
0.024429 -0.01754 2.263 255 0 0 255 
0.030771 -0.017617 2.273 255 0 0 255 
0.037184 -0.017702 2.284 255 0 0 255 
0.043504 -0.017725 2.287 255 0 0 255 
0.050037 -0.017818 2.299 255 0 0 255 
0.096086 -0.01818 2.346 255 0 0 255 
0.102429 -0.018164 2.344 255 0 0 255 
0.109133 -0.01821 2.35 255 0 0 255 
0.115967 -0.018272 2.358 255 0 0 255 
0.122534 -0.018287 2.36 255 0 0 255 
0.128837 -0.018263 2.357 255 0 0 255 
0.134721 -0.018185 2.347 255 0 0 255 
0.141152 -0.018184 2.347 255 0 0 255 
-0.205073 -0.343002 2.54604 255 255 0 255 
-0.205403 -0.346286 2.53261 255 255 0 255 
-0.238325 -0.3667 2.47204 255 255 0 255 
-0.099844 -0.330412 2.5203 255 255 0 255 
-0.054147 -0.318319 2.53672 255 255 0 255 
-0.019044 -0.312758 2.5338 255 255 0 255 
-0.016153 -0.314862 2.52289 255 255 0 255 
8.7e-05 -0.312473 2.52077 255 255 0 255 
0.009632 -0.312321 2.51432 255 255 0 255 
0.015002 -0.313571 2.50512 255 255 0 255 
0.029516 -0.311715 2.50207 255 255 0 255 
0.022407 -0.317195 2.48452 255 255 0 255 
0.0203 -0.320989 2.47029 255 255 0 255 
0.027323 -0.32167 2.46223 255 255 0 255 
-0.243857 -0.37025 2.46951 0 255 0 255 
-0.260189 -0.360373 2.49252 0 255 0 255 
-0.242902 -0.363946 2.49332 0 255 0 255 
-0.231485 -0.365155 2.49806 0 255 0 255 
-0.23101 -0.362004 2.50996 0 255 0 255 
-0.236443 -0.356517 2.52566 0 255 0 255 
-0.229228 -0.356045 2.53318 0 255 0 255 
-0.222005 -0.355567 2.54072 0 255 0 255 
-0.217313 -0.354087 2.5499 0 255 0 255 
-0.197379 -0.358579 2.54947 0 255 0 255 
-0.172333 -0.365038 2.54595 0 255 0 255 
-0.152336 -0.369484 2.54574 0 255 0 255 
-0.020318 -0.393184 2.56502 0 255 0 255 
-0.006059 -0.395174 2.56919 0 255 0 255 
-0.020011 -0.386407 2.59005 0 255 0 255 
-0.366389 -0.022586 2.158 255 0 0 255 
-0.36519 -0.022881 2.186 255 0 0 255 
-0.361373 -0.023019 2.199 255 0 0 255 
-0.35619 -0.023073 2.204 255 0 0 255 
-0.350344 -0.023085 2.205 255 0 0 255 
-0.343866 -0.023055 2.202 255 0 0 255 
-0.33725 -0.023015 2.198 255 0 0 255 
-0.331408 -0.023027 2.199 255 0 0 255 
-0.326004 -0.023071 2.203 255 0 0 255 
-0.321158 -0.023156 2.211 255 0 0 255 
-0.315554 -0.023189 2.214 255 0 0 255 
-0.309374 -0.02318 2.213 255 0 0 255 
-0.303472 -0.023192 2.214 255 0 0 255 
-0.298907 -0.023309 2.225 255 0 0 255 
-0.285837 -0.024268 2.316 255 0 0 255 
-0.278666 -0.024196 2.309 255 0 0 255 
-0.27106 -0.024082 2.298 255 0 0 255 
-0.264435 -0.024052 2.295 255 0 0 255 
-0.2576 -0.024001 2.29 255 0 0 255 
-0.251561 -0.024023 2.292 255 0 0 255 
-0.244974 -0.023993 2.289 255 0 0 255 
-0.238089 -0.023932 2.283 255 0 0 255 
-0.231542 -0.023901 2.28 255 0 0 255 
-0.225207 -0.023892 2.279 255 0 0 255 
-0.219261 -0.023925 2.282 255 0 0 255 
-0.212925 -0.023915 2.281 255 0 0 255 
-0.206684 -0.023916 2.281 255 0 0 255 
-0.200178 -0.023886 2.278 255 0 0 255 
-0.193773 -0.023866 2.276 255 0 0 255 
-0.187296 -0.023836 2.273 255 0 0 255 
-0.180914 -0.023816 2.271 255 0 0 255 
-0.174235 -0.023754 2.265 255 0 0 255 
-0.16781 -0.023723 2.262 255 0 0 255 
-0.161473 -0.023703 2.26 255 0 0 255 
-0.155696 -0.023767 2.266 255 0 0 255 
-0.150017 -0.023852 2.274 255 0 0 255 
-0.144103 -0.023905 2.279 255 0 0 255 
-0.137618 -0.023864 2.275 255 0 0 255 
-0.131154 -0.023822 2.271 255 0 0 255 
-0.124876 -0.023813 2.27 255 0 0 255 
-0.119073 -0.023897 2.278 255 0 0 255 
-0.113524 -0.024045 2.292 255 0 0 255 
-0.107757 -0.024161 2.303 255 0 0 255 
-0.10118 -0.024098 2.297 255 0 0 255 
-0.094429 -0.023984 2.286 255 0 0 255 
-0.087931 -0.023921 2.28 255 0 0 255 
-0.08143 -0.023848 2.273 255 0 0 255 
-0.074933 -0.023765 2.265 255 0 0 255 
-0.068389 -0.02365 2.254 255 0 0 255 
-0.06196 -0.023556 2.245 255 0 0 255 
-0.055705 -0.023514 2.241 255 0 0 255 
-0.049471 -0.023472 2.237 255 0 0 255 
-0.04324 -0.02342 2.232 255 0 0 255 
-0.037053 -0.023378 2.228 255 0 0 255 
-0.030915 -0.023357 2.226 255 0 0 255 
-0.024799 -0.023347 2.225 255 0 0 255 
-0.018714 -0.023368 2.227 255 0 0 255 
-0.012611 -0.023379 2.228 255 0 0 255 
-0.006513 -0.023421 2.232 255 0 0 255 
-0.000392 -0.023452 2.235 255 0 0 255 
0.005759 -0.023536 2.243 255 0 0 255 
0.011953 -0.02362 2.251 255 0 0 255 
0.018174 -0.023683 2.257 255 0 0 255 
0.024472 -0.023788 2.267 255 0 0 255 
0.030825 -0.023893 2.277 255 0 0 255 
0.0372 -0.023976 2.285 255 0 0 255 
0.043599 -0.02405 2.292 255 0 0 255 
0.050211 -0.024207 2.307 255 0 0 255 
0.096249 -0.024655 2.35 255 0 0 255 
0.102691 -0.024655 2.35 255 0 0 255 
0.109318 -0.024696 2.354 255 0 0 255 
0.115967 -0.024737 2.358 255 0 0 255 
0.122429 -0.024737 2.358 255 0 0 255 
0.128672 -0.024694 2.354 255 0 0 255 
0.134836 -0.024641 2.349 255 0 0 255 
0.141151 -0.024619 2.347 255 0 0 255 
-0.201969 -0.350707 2.56264 255 255 0 255 
-0.185413 -0.348435 2.55962 255 255 0 255 
-0.221795 -0.370046 2.4973 255 255 0 255 
-0.066947 -0.33103 2.54278 255 255 0 255 
-0.048104 -0.327803 2.542 255 255 0 255 
-0.019256 -0.321175 2.54782 255 255 0 255 
-0.004668 -0.319323 2.54453 255 255 0 255 
-0.010973 -0.324536 2.52765 255 255 0 255 
-0.00892 -0.326924 2.51619 255 255 0 255 
0.003134 -0.325906 2.51135 255 255 0 255 
0.020993 -0.32289 2.51045 255 255 0 255 
0.023028 -0.325269 2.49904 255 255 0 255 
0.023406 -0.32822 2.48652 255 255 0 255 
0.032085 -0.328317 2.47959 255 255 0 255 
-0.225543 -0.392301 2.44641 0 255 0 255 
-0.250217 -0.378945 2.4751 0 255 0 255 
-0.2657 -0.36935 2.49753 0 255 0 255 
-0.233652 -0.375557 2.50088 0 255 0 255 
-0.235701 -0.371388 2.51442 0 255 0 255 
-0.244504 -0.364531 2.53228 0 255 0 255 
-0.227172 -0.368109 2.53328 0 255 0 255 
-0.22417 -0.365965 2.54354 0 255 0 255 
-0.211026 -0.36784 2.54735 0 255 0 255 
-0.197019 -0.370038 2.5507 0 255 0 255 
-0.189765 -0.36955 2.55836 0 255 0 255 
-0.157928 -0.378726 2.55072 0 255 0 255 
-0.134522 -0.384538 2.54851 0 255 0 255 
-0.023989 -0.396641 2.59401 0 255 0 255 
-0.011137 -0.391215 2.62422 0 255 0 255 
-0.36736 -0.029033 2.199 255 0 0 255 
-0.362192 -0.029101 2.204 255 0 0 255 
-0.356673 -0.029143 2.207 255 0 0 255 
-0.350342 -0.029119 2.205 255 0 0 255 
-0.343708 -0.029068 2.201 255 0 0 255 
-0.337402 -0.029044 2.199 255 0 0 255 
-0.331407 -0.029046 2.199 255 0 0 255 
-0.326446 -0.02914 2.206 255 0 0 255 
-0.322463 -0.029327 2.22 255 0 0 255 
-0.316693 -0.029355 2.222 255 0 0 255 
-0.309512 -0.029252 2.214 255 0 0 255 
-0.303333 -0.02924 2.213 255 0 0 255 
-0.298771 -0.029388 2.224 255 0 0 255 
-0.285342 -0.030558 2.312 255 0 0 255 
-0.277095 -0.030348 2.296 255 0 0 255 
-0.270233 -0.030284 2.291 255 0 0 255 
-0.264203 -0.030312 2.293 255 0 0 255 
-0.258161 -0.03034 2.295 255 0 0 255 
-0.251998 -0.030355 2.296 255 0 0 255 
-0.245186 -0.030291 2.291 255 0 0 255 
-0.238296 -0.030213 2.285 255 0 0 255 
-0.231642 -0.030162 2.281 255 0 0 255 
-0.225206 -0.030137 2.279 255 0 0 255 
-0.21926 -0.030178 2.282 255 0 0 255 
-0.213017 -0.030179 2.282 255 0 0 255 
-0.206864 -0.030194 2.283 255 0 0 255 
-0.200616 -0.030195 2.283 255 0 0 255 
-0.194453 -0.03021 2.284 255 0 0 255 
-0.188119 -0.030198 2.283 255 0 0 255 
-0.18155 -0.030146 2.279 255 0 0 255 
-0.174772 -0.030055 2.272 255 0 0 255 
-0.16818 -0.02999 2.267 255 0 0 255 
-0.161901 -0.029978 2.266 255 0 0 255 
-0.155901 -0.030018 2.269 255 0 0 255 
-0.150148 -0.030112 2.276 255 0 0 255 
-0.143976 -0.030126 2.277 255 0 0 255 
-0.137678 -0.030114 2.276 255 0 0 255 
-0.131268 -0.030075 2.273 255 0 0 255 
-0.125095 -0.030089 2.274 255 0 0 255 
-0.119491 -0.030249 2.286 255 0 0 255 
-0.114068 -0.030475 2.303 255 0 0 255 
-0.108411 -0.030661 2.317 255 0 0 255 
-0.101576 -0.030516 2.306 255 0 0 255 
-0.094759 -0.030358 2.294 255 0 0 255 
-0.088085 -0.030226 2.284 255 0 0 255 
-0.081501 -0.030108 2.275 255 0 0 255 
-0.075032 -0.030015 2.268 255 0 0 255 
-0.068571 -0.02991 2.26 255 0 0 255 
-0.062126 -0.029791 2.251 255 0 0 255 
-0.055779 -0.029699 2.244 255 0 0 255 
-0.049493 -0.02962 2.238 255 0 0 255 
-0.04324 -0.029541 2.232 255 0 0 255 
-0.037019 -0.029462 2.226 255 0 0 255 
-0.030887 -0.029436 2.224 255 0 0 255 
-0.024776 -0.029423 2.223 255 0 0 255 
-0.018697 -0.029449 2.225 255 0 0 255 
-0.012611 -0.029489 2.228 255 0 0 255 
-0.00651 -0.029529 2.231 255 0 0 255 
-0.000391 -0.029555 2.233 255 0 0 255 
0.005746 -0.029622 2.238 255 0 0 255 
0.011921 -0.029714 2.245 255 0 0 255 
0.018142 -0.02982 2.253 255 0 0 255 
0.024451 -0.029979 2.265 255 0 0 255 
0.030784 -0.030098 2.274 255 0 0 255 
0.037167 -0.030216 2.283 255 0 0 255 
0.043599 -0.030335 2.292 255 0 0 255 
0.050232 -0.030547 2.308 255 0 0 255 
0.12889 -0.031201 2.358 255 0 0 255 
-0.064248 -0.341674 2.54591 255 255 0 255 
-0.038717 -0.336124 2.54944 255 255 0 255 
-0.01658 -0.33169 2.55093 255 255 0 255 
-0.001999 -0.329803 2.54764 255 255 0 255 
-0.009135 -0.335331 2.53021 255 255 0 255 
-0.013747 -0.340012 2.51437 255 255 0 255 
-0.009184 -0.34155 2.50455 255 255 0 255 
0.005356 -0.339643 2.50137 255 255 0 255 
0.012396 -0.340311 2.49325 255 255 0 255 
0.012789 -0.343278 2.48069 255 255 0 255 
0.028938 -0.340772 2.47877 255 255 0 255 
0.040092 -0.339984 2.47355 255 255 0 255 
-0.262443 -0.38522 2.48459 0 255 0 255 
-0.271208 -0.378306 2.50254 0 255 0 255 
-0.237141 -0.388787 2.49234 0 255 0 255 
-0.22909 -0.388682 2.49931 0 255 0 255 
-0.237864 -0.381775 2.51723 0 255 0 255 
-0.244133 -0.375901 2.53345 0 255 0 255 
-0.236083 -0.375797 2.54043 0 255 0 255 
-0.222116 -0.378053 2.54366 0 255 0 255 
-0.199683 -0.383671 2.54161 0 255 0 255 
-0.200043 -0.380164 2.55407 0 255 0 255 
-0.191947 -0.380027 2.5612 0 255 0 255 
-0.16775 -0.386267 2.55833 0 255 0 255 
-0.13843 -0.394494 2.55244 0 255 0 255 
-0.064092 -0.399736 2.59428 0 255 0 255 
-0.375383 -0.035238 2.211 255 0 0 255 
-0.369195 -0.035224 2.21 255 0 0 255 
-0.363176 -0.035227 2.21 255 0 0 255 
-0.356832 -0.035198 2.208 255 0 0 255 
-0.349704 -0.035089 2.201 255 0 0 255 
-0.342925 -0.035011 2.196 255 0 0 255 
-0.336632 -0.034982 2.194 255 0 0 255 
-0.331254 -0.035048 2.198 255 0 0 255 
-0.327184 -0.035258 2.211 255 0 0 255 
-0.323042 -0.035468 2.224 255 0 0 255 
-0.318116 -0.035597 2.232 255 0 0 255 
-0.30965 -0.035329 2.215 255 0 0 255 
-0.303468 -0.035315 2.214 255 0 0 255 
-0.299038 -0.035509 2.226 255 0 0 255 
-0.286204 -0.037001 2.319 255 0 0 255 
-0.277093 -0.036637 2.296 255 0 0 255 
-0.269995 -0.036527 2.289 255 0 0 255 
-0.264201 -0.036593 2.293 255 0 0 255 
-0.258272 -0.036643 2.296 255 0 0 255 
-0.251777 -0.036613 2.294 255 0 0 255 
-0.245077 -0.036551 2.29 255 0 0 255 
-0.238295 -0.036473 2.285 255 0 0 255 
-0.232046 -0.036475 2.285 255 0 0 255 
-0.225599 -0.036445 2.283 255 0 0 255 
-0.219546 -0.036478 2.285 255 0 0 255 
-0.212922 -0.036416 2.281 255 0 0 255 
-0.206862 -0.03645 2.283 255 0 0 255 
-0.200527 -0.036436 2.282 255 0 0 255 
-0.194537 -0.036485 2.285 255 0 0 255 
-0.188365 -0.036503 2.286 255 0 0 255 
-0.181868 -0.036456 2.283 255 0 0 255 
-0.17554 -0.036442 2.282 255 0 0 255 
-0.168847 -0.036347 2.276 255 0 0 255 
-0.162542 -0.036333 2.275 255 0 0 255 
-0.156106 -0.036286 2.272 255 0 0 255 
-0.150344 -0.036399 2.279 255 0 0 255 
-0.144165 -0.036416 2.28 255 0 0 255 
-0.1381 -0.036465 2.283 255 0 0 255 
-0.131729 -0.036435 2.281 255 0 0 255 
-0.125534 -0.036452 2.282 255 0 0 255 
-0.11996 -0.03666 2.295 255 0 0 255 
-0.114315 -0.036869 2.308 255 0 0 255 
-0.108363 -0.036998 2.316 255 0 0 255 
-0.101619 -0.036855 2.307 255 0 0 255 
-0.094965 -0.036728 2.299 255 0 0 255 
-0.088277 -0.036569 2.289 255 0 0 255 
-0.081464 -0.03633 2.274 255 0 0 255 
-0.074965 -0.036203 2.266 255 0 0 255 
-0.06857 -0.036108 2.26 255 0 0 255 
-0.062318 -0.036076 2.258 255 0 0 255 
-0.055829 -0.035885 2.246 255 0 0 255 
-0.049515 -0.035773 2.239 255 0 0 255 
-0.043239 -0.035662 2.232 255 0 0 255 
-0.037069 -0.035614 2.229 255 0 0 255 
-0.030914 -0.035567 2.226 255 0 0 255 
-0.024787 -0.035535 2.224 255 0 0 255 
-0.018688 -0.035535 2.224 255 0 0 255 
-0.0126 -0.035567 2.226 255 0 0 255 
-0.00651 -0.035647 2.231 255 0 0 255 
-0.000391 -0.035679 2.233 255 0 0 255 
0.005733 -0.035679 2.233 255 0 0 255 
0.011899 -0.035807 2.241 255 0 0 255 
0.018126 -0.035967 2.251 255 0 0 255 
0.024461 -0.036206 2.266 255 0 0 255 
0.03077 -0.036318 2.273 255 0 0 255 
0.037134 -0.036445 2.281 255 0 0 255 
0.043541 -0.036573 2.289 255 0 0 255 
0.050014 -0.036716 2.298 255 0 0 255 
-0.166273 -0.372099 2.54813 255 255 0 255 
-0.074958 -0.350628 2.5663 255 255 0 255 
-0.06364 -0.349898 2.56059 255 255 0 255 
-0.047312 -0.347441 2.55815 255 255 0 255 
-0.035195 -0.346405 2.5531 255 255 0 255 
-0.024769 -0.345935 2.54701 255 255 0 255 
-0.013523 -0.34517 2.54151 255 255 0 255 
-0.014801 -0.34872 2.52787 255 255 0 255 
-0.010239 -0.350255 2.51804 255 255 0 255 
-0.009006 -0.352945 2.50602 255 255 0 255 
-0.006938 -0.355348 2.49453 255 255 0 255 
0.003436 -0.354852 2.4886 255 255 0 255 
0.008819 -0.356092 2.47935 255 255 0 255 
0.005913 -0.360238 2.46451 255 255 0 255 
-0.22604 -0.41141 2.46185 0 255 0 255 
-0.274194 -0.388273 2.50589 0 255 0 255 
-0.203201 -0.413959 2.4715 0 255 0 255 
-0.216133 -0.405276 2.49228 0 255 0 255 
-0.234981 -0.394216 2.51678 0 255 0 255 
-0.244606 -0.386944 2.53518 0 255 0 255 
-0.229817 -0.389585 2.53784 0 255 0 255 
-0.216693 -0.391529 2.54165 0 255 0 255 
-0.201863 -0.394141 2.54445 0 255 0 255 
-0.199686 -0.391643 2.55531 0 255 0 255 
-0.199202 -0.388468 2.56722 0 255 0 255 
-0.17333 -0.395454 2.56329 0 255 0 255 
-0.142336 -0.40444 2.55636 0 255 0 255 
-0.042183 -0.413078 2.60794 0 255 0 255 
-0.378606 -0.04164 2.23 255 0 0 255 
-0.371531 -0.041531 2.224 255 0 0 255 
-0.364652 -0.041441 2.219 255 0 0 255 
-0.357476 -0.041313 2.212 255 0 0 255 
-0.350178 -0.041167 2.204 255 0 0 255 
-0.343078 -0.041039 2.197 255 0 0 255 
-0.336783 -0.041005 2.195 255 0 0 255 
-0.331854 -0.041138 2.202 255 0 0 255 
-0.328809 -0.041515 2.222 255 0 0 255 
-0.327397 -0.042116 2.254 255 0 0 255 
-0.319538 -0.041894 2.242 255 0 0 255 
-0.309927 -0.04143 2.217 255 0 0 255 
-0.303192 -0.041339 2.212 255 0 0 255 
-0.298767 -0.041566 2.224 255 0 0 255 
-0.287436 -0.043539 2.329 255 0 0 255 
-0.278057 -0.043074 2.304 255 0 0 255 
-0.271172 -0.042983 2.299 255 0 0 255 
-0.265351 -0.04306 2.303 255 0 0 255 
-0.25917 -0.043081 2.304 255 0 0 255 
-0.252104 -0.042953 2.297 255 0 0 255 
-0.245182 -0.042843 2.291 255 0 0 255 
-0.238501 -0.04277 2.287 255 0 0 255 
-0.232247 -0.042773 2.287 255 0 0 255 
-0.225696 -0.042719 2.284 255 0 0 255 
-0.219352 -0.042702 2.283 255 0 0 255 
-0.212827 -0.042648 2.28 255 0 0 255 
-0.206588 -0.04265 2.28 255 0 0 255 
-0.200437 -0.042671 2.281 255 0 0 255 
-0.19428 -0.042691 2.282 255 0 0 255 
-0.188116 -0.042712 2.283 255 0 0 255 
-0.181786 -0.042695 2.282 255 0 0 255 
-0.175693 -0.042734 2.284 255 0 0 255 
-0.169439 -0.042735 2.284 255 0 0 255 
-0.162898 -0.042662 2.28 255 0 0 255 
-0.156448 -0.042608 2.277 255 0 0 255 
-0.150409 -0.042665 2.28 255 0 0 255 
-0.14429 -0.042704 2.282 255 0 0 255 
-0.13822 -0.042762 2.285 255 0 0 255 
-0.131959 -0.042763 2.285 255 0 0 255 
-0.125863 -0.04282 2.288 255 0 0 255 
-0.120273 -0.043065 2.301 255 0 0 255 
-0.114561 -0.043291 2.313 255 0 0 255 
-0.108596 -0.043441 2.321 255 0 0 255 
-0.101838 -0.043274 2.312 255 0 0 255 
-0.095253 -0.043163 2.306 255 0 0 255 
-0.088546 -0.042976 2.296 255 0 0 255 
-0.081786 -0.042734 2.283 255 0 0 255 
-0.075196 -0.042547 2.273 255 0 0 255 
-0.068691 -0.04238 2.264 255 0 0 255 
-0.062373 -0.042305 2.26 255 0 0 255 
-0.055803 -0.042025 2.245 255 0 0 255 
-0.049514 -0.041913 2.239 255 0 0 255 
-0.043239 -0.041783 2.232 255 0 0 255 
-0.037118 -0.041783 2.232 255 0 0 255 
-0.030914 -0.041671 2.226 255 0 0 255 
-0.024809 -0.041672 2.226 255 0 0 255 
-0.018713 -0.04169 2.227 255 0 0 255 
-0.012623 -0.041747 2.23 255 0 0 255 
-0.006518 -0.041822 2.234 255 0 0 255 
-0.000392 -0.041878 2.237 255 0 0 255 
0.005746 -0.041897 2.238 255 0 0 255 
0.01191 -0.04199 2.243 255 0 0 255 
0.018134 -0.042159 2.252 255 0 0 255 
0.024429 -0.042364 2.263 255 0 0 255 
0.030716 -0.042476 2.269 255 0 0 255 
0.037069 -0.042626 2.277 255 0 0 255 
0.043503 -0.042813 2.287 255 0 0 255 
0.049905 -0.042924 2.293 255 0 0 255 
-0.178838 -0.381806 2.56815 255 255 0 255 
-0.172441 -0.382837 2.55894 255 255 0 255 
-0.185405 -0.390464 2.53774 255 255 0 255 
-0.088626 -0.363754 2.57202 255 255 0 255 
-0.066385 -0.359264 2.57314 255 255 0 255 
-0.023697 -0.350801 2.57465 255 255 0 255 
-0.022478 -0.353491 2.56266 255 255 0 255 
-0.030442 -0.359373 2.54473 255 255 0 255 
-0.027535 -0.361492 2.53378 255 255 0 255 
-0.002958 -0.356048 2.53699 255 255 0 255 
-0.002569 -0.359031 2.52445 255 255 0 255 
-0.003005 -0.362308 2.51134 255 255 0 255 
-0.009248 -0.367635 2.49435 255 255 0 255 
0.001127 -0.367119 2.48839 255 255 0 255 
0.003198 -0.369527 2.4769 255 255 0 255 
-0.226873 -0.419023 2.47612 0 255 0 255 
-0.209587 -0.422747 2.4771 0 255 0 255 
-0.215792 -0.416781 2.49348 0 255 0 255 
-0.221174 -0.411172 2.50925 0 255 0 255 
-0.213949 -0.410739 2.51686 0 255 0 255 
-0.206222 -0.407111 2.53643 0 255 0 255 
-0.195607 -0.408038 2.54194 0 255 0 255 
-0.199332 -0.403138 2.55655 0 255 0 255 
-0.200535 -0.399271 2.56952 0 255 0 255 
-0.172986 -0.407009 2.56457 0 255 0 255 
-0.133857 -0.415931 2.56502 0 255 0 255 
-0.035364 -0.43445 2.58039 0 255 0 255 
-0.062359 -0.416867 2.6214 0 255 0 255 
-0.384545 -0.04849 2.265 255 0 0 255 
-0.37253 -0.047744 2.23 255 0 0 255 
-0.364813 -0.047533 2.22 255 0 0 255 
-0.357473 -0.047365 2.212 255 0 0 255 
-0.350492 -0.04724 2.206 255 0 0 255 
-0.3437 -0.047137 2.201 255 0 0 255 
-0.337087 -0.047054 2.197 255 0 0 255 
-0.332152 -0.047207 2.204 255 0 0 255 
-0.32925 -0.04766 2.225 255 0 0 255 
-0.327685 -0.048328 2.256 255 0 0 255 
-0.320818 -0.048224 2.251 255 0 0 255 
-0.311042 -0.04767 2.225 255 0 0 255 
-0.303463 -0.047437 2.214 255 0 0 255 
-0.298495 -0.047612 2.222 255 0 0 255 
-0.292693 -0.047658 2.224 255 0 0 255 
-0.287309 -0.049895 2.328 255 0 0 255 
-0.279502 -0.049641 2.316 255 0 0 255 
-0.272821 -0.04958 2.313 255 0 0 255 
-0.266155 -0.049518 2.31 255 0 0 255 
-0.259392 -0.049435 2.306 255 0 0 255 
-0.252211 -0.049266 2.298 255 0 0 255 
-0.245394 -0.049162 2.293 255 0 0 255 
-0.238707 -0.049079 2.289 255 0 0 255 
-0.23255 -0.049103 2.29 255 0 0 255 
-0.226287 -0.049105 2.29 255 0 0 255 
-0.219638 -0.049022 2.286 255 0 0 255 
-0.213011 -0.048938 2.282 255 0 0 255 
-0.206496 -0.048876 2.279 255 0 0 255 
-0.200699 -0.048986 2.284 255 0 0 255 
-0.194448 -0.048988 2.284 255 0 0 255 
-0.188196 -0.04899 2.284 255 0 0 255 
-0.181705 -0.048927 2.281 255 0 0 255 
-0.175691 -0.048994 2.284 255 0 0 255 
-0.169659 -0.04906 2.287 255 0 0 255 
-0.163397 -0.049062 2.287 255 0 0 255 
-0.156858 -0.048978 2.283 255 0 0 255 
-0.150473 -0.048937 2.281 255 0 0 255 
-0.144415 -0.049003 2.284 255 0 0 255 
-0.138339 -0.049069 2.287 255 0 0 255 
-0.132189 -0.049113 2.289 255 0 0 255 
-0.126192 -0.049222 2.294 255 0 0 255 
-0.120428 -0.049438 2.304 255 0 0 255 
-0.114659 -0.049675 2.315 255 0 0 255 
-0.108548 -0.049783 2.32 255 0 0 255 
-0.102013 -0.049699 2.316 255 0 0 255 
-0.095335 -0.049528 2.308 255 0 0 255 
-0.088776 -0.049401 2.302 255 0 0 255 
-0.082107 -0.049187 2.292 255 0 0 255 
-0.07546 -0.048952 2.281 255 0 0 255 
-0.068812 -0.048674 2.268 255 0 0 255 
-0.062345 -0.048481 2.259 255 0 0 255 
-0.055852 -0.048224 2.247 255 0 0 255 
-0.04958 -0.048118 2.242 255 0 0 255 
-0.043316 -0.047989 2.236 255 0 0 255 
-0.037118 -0.047904 2.232 255 0 0 255 
-0.0309 -0.047754 2.225 255 0 0 255 
-0.024787 -0.047733 2.224 255 0 0 255 
-0.018721 -0.047819 2.228 255 0 0 255 
-0.012634 -0.047905 2.232 255 0 0 255 
-0.006524 -0.047991 2.236 255 0 0 255 
-0.000392 -0.048055 2.239 255 0 0 255 
0.005753 -0.048098 2.241 255 0 0 255 
0.01191 -0.048141 2.243 255 0 0 255 
0.018126 -0.048313 2.251 255 0 0 255 
0.024396 -0.048506 2.26 255 0 0 255 
0.030702 -0.048677 2.268 255 0 0 255 
0.037036 -0.048827 2.275 255 0 0 255 
0.043464 -0.049041 2.285 255 0 0 255 
0.049861 -0.049169 2.291 255 0 0 255 
0.056682 -0.049641 2.313 255 0 0 255 
-0.197675 -0.396895 2.57131 255 255 0 255 
-0.196315 -0.39966 2.55894 255 255 0 255 
-0.200003 -0.404162 2.54344 255 255 0 255 
-0.143477 -0.391151 2.55215 255 255 0 255 
-0.069971 -0.368925 2.58517 255 255 0 255 
-0.046081 -0.363786 2.58738 255 255 0 255 
-0.02391 -0.359207 2.58866 255 255 0 255 
-0.009308 -0.357234 2.58523 255 255 0 255 
-0.016459 -0.362846 2.56792 255 255 0 255 
-0.02776 -0.369932 2.54785 255 255 0 255 
-0.017348 -0.369414 2.54178 255 255 0 255 
-0.006952 -0.368889 2.53575 255 255 0 255 
0.00759 -0.366887 2.53249 255 255 0 255 
0.008809 -0.369584 2.52051 255 255 0 255 
0.012524 -0.371398 2.51017 255 255 0 255 
0.002139 -0.378232 2.49041 255 255 0 255 
-0.025614 -0.391289 2.45888 255 255 0 255 
-0.239448 -0.42175 2.49805 0 255 0 255 
-0.207061 -0.431781 2.48922 0 255 0 255 
-0.217469 -0.424055 2.50828 0 255 0 255 
-0.204356 -0.426061 2.51212 0 255 0 255 
-0.205732 -0.411889 2.56204 0 255 0 255 
-0.195112 -0.412832 2.5676 0 255 0 255 
-0.182787 -0.414453 2.57216 0 255 0 255 
-0.161986 -0.419495 2.57154 0 255 0 255 
-0.153008 -0.419717 2.57832 0 255 0 255 
-0.13724 -0.422669 2.58098 0 255 0 255 
-0.041035 -0.44398 2.58536 0 255 0 255 
-0.05664 -0.434283 2.60715 0 255 0 255 
-0.062899 -0.428333 2.62332 0 255 0 255 
-0.05125 -0.42949 2.62899 0 255 0 255 
-0.041294 -0.429962 2.63569 0 255 0 255 
-0.374698 -0.054158 2.243 255 0 0 255 
-0.365631 -0.053727 2.225 255 0 0 255 
-0.358115 -0.053514 2.216 255 0 0 255 
-0.351124 -0.053373 2.21 255 0 0 255 
-0.344633 -0.053304 2.207 255 0 0 255 
-0.33785 -0.053187 2.202 255 0 0 255 
-0.332752 -0.053336 2.208 255 0 0 255 
-0.329394 -0.053774 2.226 255 0 0 255 
-0.327536 -0.054478 2.255 255 0 0 255 
-0.321527 -0.054506 2.256 255 0 0 255 
-0.311878 -0.053906 2.231 255 0 0 255 
-0.304008 -0.053595 2.218 255 0 0 255 
-0.298626 -0.053719 2.223 255 0 0 255 
-0.296506 -0.054448 2.253 255 0 0 255 
-0.279982 -0.05608 2.32 255 0 0 255 
-0.27329 -0.056011 2.317 255 0 0 255 
-0.266152 -0.055845 2.31 255 0 0 255 
-0.259389 -0.055751 2.306 255 0 0 255 
-0.252428 -0.055609 2.3 255 0 0 255 
-0.245819 -0.05554 2.297 255 0 0 255 
-0.239122 -0.055446 2.293 255 0 0 255 
-0.23275 -0.055425 2.292 255 0 0 255 
-0.226185 -0.055355 2.289 255 0 0 255 
-0.219732 -0.055309 2.287 255 0 0 255 
-0.213009 -0.055191 2.282 255 0 0 255 
-0.206675 -0.055169 2.281 255 0 0 255 
-0.20096 -0.055317 2.287 255 0 0 255 
-0.194871 -0.055368 2.289 255 0 0 255 
-0.188688 -0.055394 2.29 255 0 0 255 
-0.182101 -0.0553 2.286 255 0 0 255 
-0.176227 -0.055423 2.291 255 0 0 255 
-0.170028 -0.055449 2.292 255 0 0 255 
-0.163895 -0.0555 2.294 255 0 0 255 
-0.157475 -0.055453 2.292 255 0 0 255 
-0.151131 -0.055431 2.291 255 0 0 255 
-0.144856 -0.055433 2.291 255 0 0 255 
-0.138338 -0.055338 2.287 255 0 0 255 
-0.132129 -0.055364 2.288 255 0 0 255 
-0.126135 -0.055486 2.293 255 0 0 255 
-0.120427 -0.055754 2.304 255 0 0 255 
-0.114757 -0.05607 2.317 255 0 0 255 
-0.108781 -0.056265 2.325 255 0 0 255 
-0.10188 -0.055976 2.313 255 0 0 255 
-0.095251 -0.055808 2.306 255 0 0 255 
-0.088775 -0.055712 2.302 255 0 0 255 
-0.082357 -0.055641 2.299 255 0 0 255 
-0.07569 -0.055375 2.288 255 0 0 255 
-0.068962 -0.055013 2.273 255 0 0 255 
-0.062344 -0.054675 2.259 255 0 0 255 
-0.055951 -0.054482 2.251 255 0 0 255 
-0.049646 -0.054338 2.245 255 0 0 255 
-0.043374 -0.054193 2.239 255 0 0 255 
-0.037134 -0.054049 2.233 255 0 0 255 
-0.030927 -0.053904 2.227 255 0 0 255 
-0.024764 -0.053783 2.222 255 0 0 255 
-0.018696 -0.053856 2.225 255 0 0 255 
-0.012617 -0.053953 2.229 255 0 0 255 
-0.006527 -0.054147 2.237 255 0 0 255 
-0.000393 -0.054244 2.241 255 0 0 255 
0.005761 -0.054316 2.244 255 0 0 255 
0.011936 -0.054413 2.248 255 0 0 255 
0.018141 -0.054534 2.253 255 0 0 255 
0.024396 -0.054703 2.26 255 0 0 255 
0.030661 -0.054824 2.265 255 0 0 255 
0.037003 -0.055017 2.273 255 0 0 255 
0.043407 -0.055234 2.282 255 0 0 255 
0.049882 -0.055476 2.292 255 0 0 255 
0.056633 -0.055935 2.311 255 0 0 255 
-0.199451 -0.412683 2.55853 255 255 0 255 
-0.183774 -0.410501 2.55494 255 255 0 255 
-0.077758 -0.38006 2.59459 255 255 0 255 
-0.046301 -0.372233 2.60145 255 255 0 255 
-0.027473 -0.368779 2.60054 255 255 0 255 
-0.014537 -0.367366 2.59601 255 255 0 255 
-0.016672 -0.371241 2.58193 255 255 0 255 
-0.019631 -0.375416 2.56728 255 255 0 255 
0.00283 -0.373736 2.55626 255 255 0 255 
0.00571 -0.375844 2.54539 255 255 0 255 
0.00277 -0.380029 2.53069 255 255 0 255 
0.020612 -0.376797 2.52966 255 255 0 255 
0.026806 -0.377713 2.52101 255 255 0 255 
-0.208093 -0.446212 2.47896 0 255 0 255 
-0.202539 -0.445095 2.4877 0 255 0 255 
-0.203696 -0.441175 2.50081 0 255 0 255 
-0.235953 -0.424329 2.53388 0 255 0 255 
-0.2422 -0.418345 2.55006 0 255 0 255 
-0.24257 -0.414813 2.56244 0 255 0 255 
-0.222725 -0.419634 2.56202 0 255 0 255 
-0.198634 -0.426172 2.55905 0 255 0 255 
-0.199826 -0.422277 2.57203 0 255 0 255 
-0.182442 -0.426007 2.57344 0 255 0 255 
-0.171795 -0.426953 2.57911 0 255 0 255 
-0.162828 -0.427199 2.58587 0 255 0 255 
-0.144534 -0.431229 2.58697 0 255 0 255 
-0.061736 -0.450927 2.58672 0 255 0 255 
-0.055209 -0.450067 2.59538 0 255 0 255 
-0.046121 -0.450227 2.60255 0 255 0 255 
-0.045825 -0.443374 2.62745 0 255 0 255 
-0.039282 -0.442503 2.63616 0 255 0 255 
-0.365791 -0.059841 2.226 255 0 0 255 
-0.358273 -0.059603 2.217 255 0 0 255 
-0.351438 -0.059473 2.212 255 0 0 255 
-0.344785 -0.05937 2.208 255 0 0 255 
-0.338307 -0.059293 2.205 255 0 0 255 
-0.332597 -0.059351 2.207 255 0 0 255 
-0.328947 -0.059785 2.223 255 0 0 255 
-0.326806 -0.060516 2.25 255 0 0 255 
-0.321666 -0.060708 2.257 255 0 0 255 
-0.312573 -0.060147 2.236 255 0 0 255 
-0.304416 -0.059747 2.221 255 0 0 255 
-0.299026 -0.059886 2.226 255 0 0 255 
-0.28034 -0.062514 2.323 255 0 0 255 
-0.272932 -0.062276 2.314 255 0 0 255 
-0.265112 -0.061929 2.301 255 0 0 255 
-0.258149 -0.061771 2.295 255 0 0 255 
-0.251547 -0.061694 2.292 255 0 0 255 
-0.245388 -0.061724 2.293 255 0 0 255 
-0.239119 -0.061727 2.293 255 0 0 255 
-0.23295 -0.061757 2.294 255 0 0 255 
-0.22638 -0.06168 2.291 255 0 0 255 
-0.220114 -0.061683 2.291 255 0 0 255 
-0.213566 -0.061605 2.288 255 0 0 255 
-0.207487 -0.061662 2.29 255 0 0 255 
-0.201397 -0.061718 2.292 255 0 0 255 
-0.195294 -0.061775 2.294 255 0 0 255 
-0.189098 -0.061804 2.295 255 0 0 255 
-0.182577 -0.061726 2.292 255 0 0 255 
-0.176763 -0.06189 2.298 255 0 0 255 
-0.170471 -0.061892 2.298 255 0 0 255 
-0.164321 -0.061949 2.3 255 0 0 255 
-0.157954 -0.061924 2.299 255 0 0 255 
-0.151789 -0.06198 2.301 255 0 0 255 
-0.145233 -0.061874 2.297 255 0 0 255 
-0.138699 -0.061768 2.293 255 0 0 255 
-0.132416 -0.06177 2.293 255 0 0 255 
-0.126134 -0.061772 2.293 255 0 0 255 
-0.12006 -0.061882 2.297 255 0 0 255 
-0.114359 -0.062207 2.309 255 0 0 255 
-0.108639 -0.062558 2.322 255 0 0 255 
-0.101791 -0.062263 2.311 255 0 0 255 
-0.095167 -0.062076 2.304 255 0 0 255 
-0.08862 -0.061916 2.298 255 0 0 255 
-0.082213 -0.061836 2.295 255 0 0 255 
-0.075689 -0.061649 2.288 255 0 0 255 
-0.069083 -0.061353 2.277 255 0 0 255 
-0.062509 -0.061031 2.265 255 0 0 255 
-0.056075 -0.060789 2.256 255 0 0 255 
-0.049645 -0.060494 2.245 255 0 0 255 
-0.043373 -0.060333 2.239 255 0 0 255 
-0.037117 -0.060145 2.232 255 0 0 255 
-0.030982 -0.060118 2.231 255 0 0 255 
-0.024797 -0.059957 2.225 255 0 0 255 
-0.018704 -0.059984 2.226 255 0 0 255 
-0.012622 -0.060092 2.23 255 0 0 255 
-0.00653 -0.060308 2.238 255 0 0 255 
-0.000393 -0.060416 2.242 255 0 0 255 
0.005753 -0.060389 2.241 255 0 0 255 
0.011925 -0.060523 2.246 255 0 0 255 
0.018125 -0.060658 2.251 255 0 0 255 
0.024385 -0.060873 2.259 255 0 0 255 
0.03062 -0.060954 2.262 255 0 0 255 
0.036904 -0.061088 2.267 255 0 0 255 
0.043235 -0.061249 2.273 255 0 0 255 
0.049664 -0.061491 2.282 255 0 0 255 
0.056313 -0.061921 2.298 255 0 0 255 
-0.192153 -0.418845 2.5777 255 255 0 255 
-0.184899 -0.419566 2.56895 255 255 0 255 
-0.166718 -0.416457 2.56695 255 255 0 255 
-0.141847 -0.410974 2.5692 255 255 0 255 
-0.034392 -0.379543 2.61034 255 255 0 255 
-0.018095 -0.376924 2.60787 255 255 0 255 
-0.013539 -0.378442 2.59805 255 255 0 255 
-0.018178 -0.383226 2.58237 255 255 0 255 
-0.012781 -0.384449 2.57307 255 255 0 255 
0.005119 -0.381204 2.57185 255 255 0 255 
0.01216 -0.38182 2.56369 255 255 0 255 
0.006711 -0.386913 2.54741 255 255 0 255 
0.004607 -0.39082 2.53326 255 255 0 255 
0.005835 -0.393533 2.52126 255 255 0 255 
0.023657 -0.390249 2.52026 255 255 0 255 
0.028192 -0.391757 2.5105 255 255 0 255 
-0.186289 -0.463394 2.47857 0 255 0 255 
-0.195817 -0.455924 2.49715 0 255 0 255 
-0.267896 -0.418884 2.56792 0 255 0 255 
-0.229586 -0.431504 2.55564 0 255 0 255 
-0.210581 -0.436017 2.5558 0 255 0 255 
-0.222729 -0.427563 2.57566 0 255 0 255 
-0.19779 -0.434502 2.57224 0 255 0 255 
-0.185476 -0.436181 2.57682 0 255 0 255 
-0.171456 -0.438544 2.58041 0 255 0 255 
-0.159107 -0.440198 2.5851 0 255 0 255 
-0.151821 -0.439757 2.59295 0 255 0 255 
-0.016192 -0.484727 2.54843 0 255 0 255 
-0.050934 -0.460054 2.607 0 255 0 255 
-0.04099 -0.46057 2.61371 0 255 0 255 
-0.042968 -0.456275 2.62741 0 255 0 255 
-0.044101 -0.452329 2.64059 0 255 0 255 
-0.359077 -0.065816 2.222 255 0 0 255 
-0.352069 -0.065643 2.216 255 0 0 255 
-0.345562 -0.065559 2.213 255 0 0 255 
-0.338763 -0.065415 2.208 255 0 0 255 
-0.333045 -0.065479 2.21 255 0 0 255 
-0.328794 -0.065839 2.222 255 0 0 255 
-0.32593 -0.066496 2.244 255 0 0 255 
-0.321377 -0.066826 2.255 255 0 0 255 
-0.313268 -0.066416 2.241 255 0 0 255 
-0.305645 -0.066094 2.23 255 0 0 255 
-0.300365 -0.066276 2.236 255 0 0 255 
-0.297157 -0.066932 2.258 255 0 0 255 
-0.279854 -0.068757 2.319 255 0 0 255 
-0.272221 -0.068435 2.308 255 0 0 255 
-0.264993 -0.068201 2.3 255 0 0 255 
-0.258258 -0.068087 2.296 255 0 0 255 
-0.251982 -0.06809 2.296 255 0 0 255 
-0.245492 -0.068035 2.294 255 0 0 255 
-0.239324 -0.068068 2.295 255 0 0 255 
-0.233049 -0.068071 2.295 255 0 0 255 
-0.226377 -0.067956 2.291 255 0 0 255 
-0.220206 -0.067989 2.292 255 0 0 255 
-0.213656 -0.067903 2.289 255 0 0 255 
-0.207937 -0.068084 2.295 255 0 0 255 
-0.20157 -0.068058 2.294 255 0 0 255 
-0.195462 -0.06812 2.296 255 0 0 255 
-0.189178 -0.068123 2.296 255 0 0 255 
-0.182813 -0.068096 2.295 255 0 0 255 
-0.177068 -0.068306 2.302 255 0 0 255 
-0.170914 -0.068368 2.304 255 0 0 255 
-0.164748 -0.06843 2.306 255 0 0 255 
-0.158432 -0.068433 2.306 255 0 0 255 
-0.152051 -0.068405 2.305 255 0 0 255 
-0.14561 -0.068348 2.303 255 0 0 255 
-0.138939 -0.068172 2.297 255 0 0 255 
-0.132588 -0.068145 2.296 255 0 0 255 
-0.126242 -0.068117 2.295 255 0 0 255 
-0.120267 -0.068297 2.301 255 0 0 255 
-0.114457 -0.068596 2.311 255 0 0 255 
-0.109012 -0.069161 2.33 255 0 0 255 
-0.101569 -0.068451 2.306 255 0 0 255 
-0.095083 -0.068333 2.302 255 0 0 255 
-0.088464 -0.068097 2.294 255 0 0 255 
-0.082068 -0.06801 2.291 255 0 0 255 
-0.075622 -0.067862 2.286 255 0 0 255 
-0.069082 -0.067596 2.277 255 0 0 255 
-0.062618 -0.06736 2.269 255 0 0 255 
-0.056173 -0.067094 2.26 255 0 0 255 
-0.049799 -0.066857 2.252 255 0 0 255 
-0.04345 -0.066591 2.243 255 0 0 255 
-0.037183 -0.066383 2.236 255 0 0 255 
-0.031051 -0.066384 2.236 255 0 0 255 
-0.024853 -0.066206 2.23 255 0 0 255 
-0.018737 -0.066207 2.23 255 0 0 255 
-0.012645 -0.066326 2.234 255 0 0 255 
-0.006541 -0.066563 2.242 255 0 0 255 
-0.000393 -0.066652 2.245 255 0 0 255 
0.005761 -0.066623 2.244 255 0 0 255 
0.011952 -0.06683 2.251 255 0 0 255 
0.018165 -0.066978 2.256 255 0 0 255 
0.024438 -0.067216 2.264 255 0 0 255 
0.030606 -0.067126 2.261 255 0 0 255 
0.036806 -0.067126 2.261 255 0 0 255 
0.043101 -0.067273 2.266 255 0 0 255 
0.049532 -0.06757 2.276 255 0 0 255 
0.056116 -0.067984 2.29 255 0 0 255 
-0.19581 -0.428804 2.59018 255 255 0 255 
-0.191079 -0.430404 2.57987 255 255 0 255 
-0.179618 -0.429631 2.57369 255 255 0 255 
-0.148839 -0.42202 2.57945 255 255 0 255 
-0.104681 -0.409624 2.59369 255 255 0 255 
-0.048867 -0.393015 2.61548 255 255 0 255 
-0.026684 -0.388281 2.6166 255 255 0 255 
-0.017097 -0.388008 2.60991 255 255 0 255 
-0.014212 -0.390121 2.59903 255 255 0 255 
-0.012162 -0.392535 2.58761 255 255 0 255 
-0.005937 -0.393451 2.57885 255 255 0 255 
0.010283 -0.390757 2.57657 255 255 0 255 
0.021481 -0.389856 2.57111 255 255 0 255 
0.003555 -0.399494 2.54672 255 255 0 255 
0.008935 -0.400704 2.53746 255 255 0 255 
0.001864 -0.406446 2.52 255 255 0 255 
-0.221164 -0.460108 2.50266 0 255 0 255 
-0.200528 -0.465407 2.50164 0 255 0 255 
-0.200842 -0.461817 2.51419 0 255 0 255 
-0.228042 -0.4469 2.5439 0 255 0 255 
-0.211918 -0.446839 2.55811 0 255 0 255 
-0.215634 -0.441863 2.57267 0 255 0 255 
-0.217676 -0.4376 2.58614 0 255 0 255 
-0.194415 -0.443888 2.58386 0 255 0 255 
-0.176185 -0.448045 2.58483 0 255 0 255 
-0.157929 -0.452183 2.5859 0 255 0 255 
-0.137107 -0.457351 2.58551 0 255 0 255 
-0.122182 -0.460052 2.58882 0 255 0 255 
-0.030589 -0.487191 2.57135 0 255 0 255 
-0.058006 -0.461948 2.6378 0 255 0 255 
-0.04721 -0.462829 2.64403 0 255 0 255 
-0.032135 -0.465424 2.64785 0 255 0 255 
-0.036683 -0.46009 2.66297 0 255 0 255 
-0.362142 -0.072509 2.241 255 0 0 255 
-0.353017 -0.0719 2.222 255 0 0 255 
-0.345869 -0.071678 2.215 255 0 0 255 
-0.339372 -0.071586 2.212 255 0 0 255 
-0.333191 -0.071559 2.211 255 0 0 255 
-0.328346 -0.071823 2.219 255 0 0 255 
-0.324328 -0.072281 2.233 255 0 0 255 
-0.319804 -0.072642 2.244 255 0 0 255 
-0.313543 -0.072614 2.243 255 0 0 255 
-0.307011 -0.072522 2.24 255 0 0 255 
-0.302376 -0.072882 2.251 255 0 0 255 
-0.279488 -0.07501 2.316 255 0 0 255 
-0.272335 -0.074787 2.309 255 0 0 255 
-0.26545 -0.07463 2.304 255 0 0 255 
-0.258479 -0.074439 2.298 255 0 0 255 
-0.252198 -0.074443 2.298 255 0 0 255 
-0.245167 -0.074221 2.291 255 0 0 255 
-0.239112 -0.074289 2.293 255 0 0 255 
-0.233045 -0.074358 2.295 255 0 0 255 
-0.226966 -0.074426 2.297 255 0 0 255 
-0.220587 -0.074398 2.296 255 0 0 255 
-0.214213 -0.074369 2.295 255 0 0 255 
-0.208206 -0.074469 2.298 255 0 0 255 
-0.20183 -0.07444 2.297 255 0 0 255 
-0.195459 -0.074411 2.296 255 0 0 255 
-0.18901 -0.074349 2.294 255 0 0 255 
-0.18281 -0.074385 2.295 255 0 0 255 
-0.176604 -0.07442 2.296 255 0 0 255 
-0.170911 -0.074682 2.304 255 0 0 255 
-0.164888 -0.074815 2.308 255 0 0 255 
-0.158773 -0.074915 2.311 255 0 0 255 
-0.152312 -0.074852 2.309 255 0 0 255 
-0.146114 -0.07492 2.311 255 0 0 255 
-0.139723 -0.07489 2.31 255 0 0 255 
-0.133336 -0.07486 2.309 255 0 0 255 
-0.126955 -0.074829 2.308 255 0 0 255 
-0.120683 -0.074864 2.309 255 0 0 255 
-0.114554 -0.074996 2.313 255 0 0 255 
-0.108496 -0.075192 2.319 255 0 0 255 
-0.101743 -0.074902 2.31 255 0 0 255 
-0.095164 -0.074709 2.304 255 0 0 255 
-0.088463 -0.074386 2.294 255 0 0 255 
-0.081995 -0.074226 2.289 255 0 0 255 
-0.075621 -0.07413 2.286 255 0 0 255 
-0.069111 -0.073872 2.278 255 0 0 255 
-0.0627 -0.073678 2.272 255 0 0 255 
-0.056247 -0.073387 2.263 255 0 0 255 
-0.049931 -0.073226 2.258 255 0 0 255 
-0.043507 -0.072838 2.246 255 0 0 255 
-0.037149 -0.072449 2.234 255 0 0 255 
-0.030981 -0.072352 2.231 255 0 0 255 
-0.024852 -0.07232 2.23 255 0 0 255 
-0.018754 -0.072386 2.232 255 0 0 255 
-0.012656 -0.072516 2.236 255 0 0 255 
-0.006533 -0.072613 2.239 255 0 0 255 
-0.000393 -0.072646 2.24 255 0 0 255 
0.00575 -0.072646 2.24 255 0 0 255 
0.011941 -0.072937 2.249 255 0 0 255 
0.018165 -0.073164 2.256 255 0 0 255 
0.024395 -0.073293 2.26 255 0 0 255 
0.030565 -0.073228 2.258 255 0 0 255 
0.036789 -0.073292 2.26 255 0 0 255 
0.043063 -0.073421 2.264 255 0 0 255 
0.049466 -0.073713 2.273 255 0 0 255 
0.055944 -0.074036 2.283 255 0 0 255 
-0.200637 -0.442457 2.5888 255 255 0 255 
-0.193373 -0.443162 2.58 255 255 0 255 
-0.168453 -0.437581 2.58203 255 255 0 255 
-0.038634 -0.400876 2.62329 255 255 0 255 
-0.02987 -0.400893 2.61603 255 255 0 255 
-0.025301 -0.402411 2.60616 255 255 0 255 
-0.012377 -0.400911 2.6016 255 255 0 255 
0.002196 -0.398796 2.59816 255 255 0 255 
0.012576 -0.398183 2.59211 255 255 0 255 
-0.002922 -0.413321 2.54388 255 255 0 255 
0.009939 -0.41179 2.53949 255 255 0 255 
-0.00459 -0.420309 2.51711 255 255 0 255 
-0.226696 -0.46916 2.50768 0 255 0 255 
-0.20775 -0.4738 2.50774 0 255 0 255 
-0.211421 -0.468776 2.52243 0 255 0 255 
-0.219301 -0.461976 2.53976 0 255 0 255 
-0.217119 -0.459464 2.55063 0 255 0 255 
-0.209893 -0.459088 2.5583 0 255 0 255 
-0.201817 -0.459061 2.56547 0 255 0 255 
-0.228272 -0.444491 2.59423 0 255 0 255 
-0.210934 -0.448368 2.5956 0 255 0 255 
-0.195258 -0.45152 2.59811 0 255 0 255 
-0.166891 -0.459951 2.59292 0 255 0 255 
-0.134251 -0.470113 2.5853 0 255 0 255 
-0.119329 -0.472847 2.58864 0 255 0 255 
-0.053446 -0.475552 2.63677 0 255 0 255 
-0.050318 -0.473324 2.64746 0 255 0 255 
-0.033546 -0.47665 2.65031 0 255 0 255 
-0.033821 -0.473026 2.663 0 255 0 255 
-0.348518 -0.078335 2.232 255 0 0 255 
-0.341361 -0.078095 2.225 255 0 0 255 
-0.335145 -0.078065 2.224 255 0 0 255 
-0.328785 -0.078 2.222 255 0 0 255 
-0.323887 -0.078286 2.23 255 0 0 255 
-0.319657 -0.078748 2.243 255 0 0 255 
-0.315075 -0.079139 2.254 255 0 0 255 
-0.278518 -0.08107 2.308 255 0 0 255 
-0.271977 -0.081005 2.306 255 0 0 255 
-0.266137 -0.08115 2.31 255 0 0 255 
-0.259599 -0.081084 2.308 255 0 0 255 
-0.253181 -0.081053 2.307 255 0 0 255 
-0.245912 -0.080741 2.298 255 0 0 255 
-0.239421 -0.080675 2.296 255 0 0 255 
-0.233143 -0.080679 2.296 255 0 0 255 
-0.227061 -0.080754 2.298 255 0 0 255 
-0.220488 -0.080652 2.295 255 0 0 255 
-0.214116 -0.080621 2.294 255 0 0 255 
-0.207749 -0.080589 2.293 255 0 0 255 
-0.201563 -0.080628 2.294 255 0 0 255 
-0.1952 -0.080596 2.293 255 0 0 255 
-0.188924 -0.0806 2.293 255 0 0 255 
-0.182727 -0.080638 2.294 255 0 0 255 
-0.176524 -0.080677 2.295 255 0 0 255 
-0.17076 -0.080926 2.302 255 0 0 255 
-0.164885 -0.08114 2.308 255 0 0 255 
-0.158977 -0.081354 2.314 255 0 0 255 
-0.152507 -0.081286 2.312 255 0 0 255 
-0.146175 -0.081289 2.312 255 0 0 255 
-0.13972 -0.081221 2.31 255 0 0 255 
-0.133449 -0.081259 2.311 255 0 0 255 
-0.127338 -0.081402 2.315 255 0 0 255 
-0.121047 -0.081439 2.316 255 0 0 255 
-0.114799 -0.081512 2.318 255 0 0 255 
-0.1084 -0.081478 2.317 255 0 0 255 
-0.10183 -0.081305 2.312 255 0 0 255 
-0.095121 -0.08099 2.303 255 0 0 255 
-0.088577 -0.080781 2.297 255 0 0 255 
-0.08203 -0.080536 2.29 255 0 0 255 
-0.075653 -0.080432 2.287 255 0 0 255 
-0.06911 -0.080117 2.278 255 0 0 255 
-0.062726 -0.079942 2.273 255 0 0 255 
-0.056345 -0.079732 2.267 255 0 0 255 
-0.050063 -0.079628 2.264 255 0 0 255 
-0.043603 -0.079171 2.251 255 0 0 255 
-0.037232 -0.07875 2.239 255 0 0 255 
-0.031009 -0.078539 2.233 255 0 0 255 
-0.024863 -0.07847 2.231 255 0 0 255 
-0.018762 -0.07854 2.233 255 0 0 255 
-0.01265 -0.078611 2.235 255 0 0 255 
-0.006535 -0.078787 2.24 255 0 0 255 
-0.000392 -0.078717 2.238 255 0 0 255 
0.005755 -0.078857 2.242 255 0 0 255 
0.011946 -0.079139 2.25 255 0 0 255 
0.018173 -0.079385 2.257 255 0 0 255 
0.024394 -0.07949 2.26 255 0 0 255 
0.030591 -0.079489 2.26 255 0 0 255 
0.036886 -0.0797 2.266 255 0 0 255 
0.043176 -0.07984 2.27 255 0 0 255 
0.049574 -0.08012 2.278 255 0 0 255 
0.055992 -0.080365 2.285 255 0 0 255 
-0.161999 -0.443894 2.60058 255 255 0 255 
-0.094656 -0.426201 2.61573 255 255 0 255 
-0.039304 -0.412624 2.62431 255 255 0 255 
-0.038074 -0.415357 2.61233 255 255 0 255 
-0.037675 -0.418397 2.5998 255 255 0 255 
-0.026412 -0.417483 2.59413 255 255 0 255 
-0.001815 -0.411684 2.59701 255 255 0 255 
0.011901 -0.409831 2.59307 255 255 0 255 
0.008112 -0.414387 2.57794 255 255 0 255 
-0.008969 -0.423848 2.55414 255 255 0 255 
0.00141 -0.423214 2.54808 255 255 0 255 
-0.004823 -0.428714 2.53119 255 255 0 255 
-0.009378 -0.433609 2.51533 255 255 0 255 
-0.203241 -0.487207 2.50628 0 255 0 255 
-0.210575 -0.477118 2.53565 0 255 0 255 
-0.201665 -0.477467 2.54229 0 255 0 255 
-0.193067 -0.47421 2.56147 0 255 0 255 
-0.176876 -0.474157 2.57598 0 255 0 255 
-0.179731 -0.469492 2.59004 0 255 0 255 
-0.171622 -0.469456 2.59734 0 255 0 255 
-0.139849 -0.479355 2.59026 0 255 0 255 
-0.129165 -0.480356 2.59615 0 255 0 255 
-0.056831 -0.482412 2.65287 0 255 0 255 
-0.045185 -0.483684 2.65865 0 255 0 255 
-0.037789 -0.4832 2.66692 0 255 0 255 
-0.331738 -0.084837 2.242 255 0 0 255 
-0.325189 -0.084729 2.239 255 0 0 255 
-0.319082 -0.084735 2.239 255 0 0 255 
-0.277909 -0.0872 2.303 255 0 0 255 
-0.271736 -0.087243 2.304 255 0 0 255 
