ply
format ascii 1.0
comment VCGLIB generated
element vertex 1239
property float x
property float y
property float z
property uchar red
property uchar green
property uchar blue
property uchar alpha
element face 0
property list uchar int vertex_indices
end_header
-0.160653 -0.319372 2.342 255 0 0 255 
-0.15517 -0.321291 2.356 255 0 0 255 
-0.149231 -0.322391 2.364 255 0 0 255 
-0.143188 -0.323355 2.371 255 0 0 255 
-0.137221 -0.324591 2.38 255 0 0 255 
-0.047789 -0.337087 2.471 255 0 0 255 
-0.040925 -0.336271 2.465 255 0 0 255 
-0.034245 -0.336956 2.47 255 0 0 255 
-0.027505 -0.337231 2.472 255 0 0 255 
-0.020754 -0.337505 2.474 255 0 0 255 
-0.013941 -0.336551 2.467 255 0 0 255 
-0.007163 -0.335461 2.459 255 0 0 255 
-0.000428 -0.33396 2.448 255 0 0 255 
0.006243 -0.332323 2.436 255 0 0 255 
0.012855 -0.330822 2.425 255 0 0 255 
0.019462 -0.330275 2.421 255 0 0 255 
0.026069 -0.330001 2.419 255 0 0 255 
0.032651 -0.32959 2.416 255 0 0 255 
0.039266 -0.329587 2.416 255 0 0 255 
0.046184 -0.331767 2.432 255 0 0 255 
0.053168 -0.33381 2.447 255 0 0 255 
-0.237699 -0.317396 2.283 255 0 0 255 
-0.233391 -0.320051 2.302 255 0 0 255 
-0.2274 -0.320483 2.305 255 0 0 255 
-0.220433 -0.319523 2.298 255 0 0 255 
-0.214062 -0.319397 2.297 255 0 0 255 
-0.207786 -0.31941 2.297 255 0 0 255 
-0.201685 -0.319701 2.299 255 0 0 255 
-0.195233 -0.319435 2.297 255 0 0 255 
-0.188873 -0.319308 2.296 255 0 0 255 
-0.183233 -0.320432 2.304 255 0 0 255 
-0.177626 -0.321696 2.313 255 0 0 255 
-0.171969 -0.322958 2.322 255 0 0 255 
-0.166334 -0.32436 2.332 255 0 0 255 
-0.160712 -0.3259 2.343 255 0 0 255 
-0.155226 -0.327858 2.357 255 0 0 255 
-0.149348 -0.329119 2.366 255 0 0 255 
-0.143239 -0.329963 2.372 255 0 0 255 
-0.137154 -0.330946 2.379 255 0 0 255 
-0.13136 -0.332763 2.392 255 0 0 255 
-0.04798 -0.345222 2.481 255 0 0 255 
-0.041121 -0.344668 2.477 255 0 0 255 
-0.034354 -0.34481 2.478 255 0 0 255 
-0.027581 -0.344951 2.479 255 0 0 255 
-0.02082 -0.34537 2.482 255 0 0 255 
-0.013996 -0.344675 2.477 255 0 0 255 
-0.007186 -0.343284 2.467 255 0 0 255 
-0.00043 -0.342171 2.459 255 0 0 255 
0.006279 -0.340919 2.45 255 0 0 255 
0.012933 -0.339527 2.44 255 0 0 255 
0.019517 -0.337856 2.428 255 0 0 255 
0.026089 -0.33688 2.421 255 0 0 255 
0.032703 -0.336739 2.42 255 0 0 255 
0.039345 -0.336876 2.421 255 0 0 255 
0.046314 -0.339378 2.439 255 0 0 255 
0.053295 -0.341323 2.453 255 0 0 255 
-0.237789 -0.323762 2.284 255 0 0 255 
-0.232769 -0.325478 2.296 255 0 0 255 
-0.226992 -0.326201 2.301 255 0 0 255 
-0.220707 -0.326215 2.301 255 0 0 255 
-0.214328 -0.326087 2.3 255 0 0 255 
-0.208226 -0.326383 2.302 255 0 0 255 
-0.201761 -0.326113 2.3 255 0 0 255 
-0.195306 -0.325842 2.298 255 0 0 255 
-0.189108 -0.325996 2.299 255 0 0 255 
-0.18354 -0.327284 2.308 255 0 0 255 
-0.178153 -0.328997 2.32 255 0 0 255 
-0.172329 -0.330001 2.327 255 0 0 255 
-0.166609 -0.331288 2.336 255 0 0 255 
-0.16077 -0.332433 2.344 255 0 0 255 
-0.155151 -0.334145 2.356 255 0 0 255 
-0.149276 -0.335431 2.365 255 0 0 255 
-0.14329 -0.336575 2.373 255 0 0 255 
-0.137261 -0.337719 2.381 255 0 0 255 
-0.131187 -0.338863 2.389 255 0 0 255 
-0.054746 -0.351845 2.48 255 0 0 255 
-0.048247 -0.353977 2.495 255 0 0 255 
-0.041368 -0.353554 2.492 255 0 0 255 
-0.034504 -0.353131 2.489 255 0 0 255 
-0.027613 -0.35214 2.482 255 0 0 255 
-0.020818 -0.352142 2.482 255 0 0 255 
-0.014001 -0.351575 2.478 255 0 0 255 
-0.007194 -0.350441 2.47 255 0 0 255 
-0.000431 -0.349732 2.465 255 0 0 255 
0.006307 -0.349164 2.461 255 0 0 255 
0.012986 -0.347603 2.45 255 0 0 255 
0.019572 -0.345474 2.435 255 0 0 255 
0.02613 -0.344053 2.425 255 0 0 255 
0.032728 -0.343626 2.422 255 0 0 255 
0.039391 -0.343907 2.424 255 0 0 255 
0.046292 -0.34589 2.438 255 0 0 255 
0.053031 -0.346313 2.441 255 0 0 255 
-0.238711 -0.331289 2.293 255 0 0 255 
-0.232856 -0.331882 2.297 255 0 0 255 
-0.227372 -0.333052 2.305 255 0 0 255 
-0.221365 -0.3335 2.308 255 0 0 255 
-0.215153 -0.333658 2.309 255 0 0 255 
-0.208665 -0.333383 2.307 255 0 0 255 
-0.202011 -0.332818 2.303 255 0 0 255 
-0.195803 -0.332975 2.304 255 0 0 255 
-0.189836 -0.333565 2.308 255 0 0 255 
-0.184164 -0.334734 2.316 255 0 0 255 
-0.178679 -0.336335 2.327 255 0 0 255 
-0.172466 -0.336636 2.329 255 0 0 255 
-0.166455 -0.337369 2.334 255 0 0 255 
-0.160417 -0.338103 2.339 255 0 0 255 
-0.15468 -0.339558 2.349 255 0 0 255 
-0.148887 -0.341014 2.359 255 0 0 255 
-0.1431 -0.342614 2.37 255 0 0 255 
-0.137944 -0.345948 2.393 255 0 0 255 
-0.048244 -0.360783 2.495 255 0 0 255 
-0.041464 -0.36122 2.498 255 0 0 255 
-0.034571 -0.360644 2.494 255 0 0 255 
-0.027678 -0.359778 2.488 255 0 0 255 
-0.020876 -0.359925 2.489 255 0 0 255 
-0.01404 -0.359347 2.485 255 0 0 255 
-0.007223 -0.358625 2.48 255 0 0 255 
-0.000433 -0.358047 2.476 255 0 0 255 
0.006334 -0.357468 2.472 255 0 0 255 
0.013038 -0.355732 2.46 255 0 0 255 
0.019659 -0.353707 2.446 255 0 0 255 
0.026236 -0.352115 2.435 255 0 0 255 
0.032848 -0.351534 2.431 255 0 0 255 
0.039469 -0.351242 2.429 255 0 0 255 
0.046194 -0.351818 2.433 255 0 0 255 
-0.239217 -0.338275 2.298 255 0 0 255 
-0.233652 -0.339321 2.305 255 0 0 255 
-0.227851 -0.340072 2.31 255 0 0 255 
-0.221734 -0.34038 2.312 255 0 0 255 
-0.215326 -0.340247 2.311 255 0 0 255 
-0.208923 -0.340113 2.31 255 0 0 255 
-0.202524 -0.33998 2.309 255 0 0 255 
-0.196555 -0.340581 2.313 255 0 0 255 
-0.190482 -0.341036 2.316 255 0 0 255 
-0.184311 -0.341343 2.318 255 0 0 255 
-0.17859 -0.342532 2.326 255 0 0 255 
-0.172232 -0.342544 2.326 255 0 0 255 
-0.166088 -0.342997 2.329 255 0 0 255 
-0.1602 -0.344039 2.336 255 0 0 255 
-0.15434 -0.345227 2.344 255 0 0 255 
-0.148499 -0.346563 2.353 255 0 0 255 
-0.142849 -0.348487 2.366 255 0 0 255 
-0.138107 -0.352915 2.396 255 0 0 255 
-0.133311 -0.357638 2.428 255 0 0 255 
-0.055246 -0.368763 2.503 255 0 0 255 
-0.048453 -0.369208 2.506 255 0 0 255 
-0.041495 -0.368327 2.5 255 0 0 255 
-0.034611 -0.367888 2.497 255 0 0 255 
-0.027698 -0.366859 2.49 255 0 0 255 
-0.020908 -0.367303 2.493 255 0 0 255 
-0.014061 -0.366714 2.489 255 0 0 255 
-0.007231 -0.365831 2.483 255 0 0 255 
-0.000433 -0.364947 2.477 255 0 0 255 
0.006331 -0.364063 2.471 255 0 0 255 
0.013053 -0.362884 2.463 255 0 0 255 
0.01973 -0.361704 2.455 255 0 0 255 
0.026385 -0.360818 2.449 255 0 0 255 
0.033035 -0.360227 2.445 255 0 0 255 
0.039613 -0.359193 2.438 255 0 0 255 
0.046305 -0.359338 2.439 255 0 0 255 
0.053024 -0.359629 2.441 255 0 0 255 
-0.241075 -0.347237 2.316 255 0 0 255 
-0.234955 -0.347552 2.318 255 0 0 255 
-0.228724 -0.347717 2.319 255 0 0 255 
-0.222487 -0.347881 2.32 255 0 0 255 
-0.215871 -0.347446 2.317 255 0 0 255 
-0.209542 -0.347459 2.317 255 0 0 255 
-0.20295 -0.347023 2.314 255 0 0 255 
-0.196967 -0.347636 2.318 255 0 0 255 
-0.19088 -0.348099 2.321 255 0 0 255 
-0.184617 -0.348261 2.322 255 0 0 255 
-0.178502 -0.348723 2.325 255 0 0 255 
-0.172073 -0.348585 2.324 255 0 0 255 
-0.166148 -0.349496 2.33 255 0 0 255 
-0.160258 -0.350557 2.337 255 0 0 255 
-0.154396 -0.351767 2.345 255 0 0 255 
-0.148615 -0.353278 2.355 255 0 0 255 
-0.142839 -0.354938 2.366 255 0 0 255 
-0.138041 -0.359298 2.395 255 0 0 255 
-0.132643 -0.362457 2.416 255 0 0 255 
-0.055308 -0.376038 2.506 255 0 0 255 
-0.048469 -0.376192 2.507 255 0 0 255 
-0.041575 -0.375895 2.505 255 0 0 255 
-0.034594 -0.374547 2.496 255 0 0 255 
-0.027707 -0.373799 2.491 255 0 0 255 
-0.020881 -0.373651 2.49 255 0 0 255 
-0.014055 -0.373352 2.488 255 0 0 255 
-0.007227 -0.372452 2.482 255 0 0 255 
-0.000433 -0.371102 2.473 255 0 0 255 
0.006326 -0.370501 2.469 255 0 0 255 
0.013068 -0.37005 2.466 255 0 0 255 
0.019793 -0.369599 2.463 255 0 0 255 
0.02648 -0.368847 2.458 255 0 0 255 
0.033086 -0.367495 2.449 255 0 0 255 
0.039724 -0.366892 2.445 255 0 0 255 
0.046359 -0.366439 2.442 255 0 0 255 
0.053129 -0.367036 2.446 255 0 0 255 
-0.241476 -0.354158 2.32 255 0 0 255 
-0.23494 -0.353868 2.318 255 0 0 255 
-0.228413 -0.353578 2.316 255 0 0 255 
-0.222377 -0.354051 2.319 255 0 0 255 
-0.215764 -0.353607 2.316 255 0 0 255 
-0.209981 -0.354537 2.322 255 0 0 255 
-0.203375 -0.354093 2.319 255 0 0 255 
-0.197379 -0.354717 2.323 255 0 0 255 
-0.191114 -0.354883 2.324 255 0 0 255 
-0.184923 -0.355201 2.326 255 0 0 255 
-0.17872 -0.355518 2.328 255 0 0 255 
-0.172357 -0.35553 2.328 255 0 0 255 
-0.166279 -0.356152 2.332 255 0 0 255 
-0.160316 -0.35708 2.338 255 0 0 255 
-0.154385 -0.358159 2.345 255 0 0 255 
-0.148984 -0.360613 2.361 255 0 0 255 
-0.143433 -0.362915 2.376 255 0 0 255 
-0.138089 -0.365979 2.396 255 0 0 255 
-0.132031 -0.367363 2.405 255 0 0 255 
-0.055481 -0.384093 2.514 255 0 0 255 
-0.048601 -0.384097 2.514 255 0 0 255 
-0.041672 -0.383641 2.511 255 0 0 255 
-0.034675 -0.382269 2.502 255 0 0 255 
-0.027739 -0.381049 2.494 255 0 0 255 
-0.020905 -0.380898 2.493 255 0 0 255 
-0.014065 -0.380441 2.49 255 0 0 255 
-0.007233 -0.379525 2.484 255 0 0 255 
-0.000432 -0.377691 2.472 255 0 0 255 
0.006313 -0.376469 2.464 255 0 0 255 
0.013046 -0.376163 2.462 255 0 0 255 
0.019784 -0.376162 2.462 255 0 0 255 
0.026489 -0.375702 2.459 255 0 0 255 
0.033152 -0.374936 2.454 255 0 0 255 
0.039786 -0.374169 2.449 255 0 0 255 
0.046469 -0.374013 2.448 255 0 0 255 
0.05306 -0.373246 2.443 255 0 0 255 
-0.241356 -0.360323 2.319 255 0 0 255 
-0.23533 -0.360805 2.322 255 0 0 255 
-0.229187 -0.361131 2.324 255 0 0 255 
-0.223129 -0.361612 2.327 255 0 0 255 
-0.216215 -0.360694 2.321 255 0 0 255 
-0.210057 -0.361019 2.323 255 0 0 255 
-0.203712 -0.361033 2.323 255 0 0 255 
-0.197706 -0.361668 2.327 255 0 0 255 
-0.191595 -0.362148 2.33 255 0 0 255 
-0.185388 -0.362471 2.332 255 0 0 255 
-0.179092 -0.362639 2.333 255 0 0 255 
-0.172642 -0.362496 2.332 255 0 0 255 
-0.166696 -0.36344 2.338 255 0 0 255 
-0.160717 -0.364384 2.344 255 0 0 255 
-0.15477 -0.365483 2.351 255 0 0 255 
-0.149415 -0.368136 2.368 255 0 0 255 
-0.143786 -0.370323 2.382 255 0 0 255 
-0.138252 -0.372976 2.399 255 0 0 255 
-0.131967 -0.373762 2.404 255 0 0 255 
-0.062133 -0.389542 2.505 255 0 0 255 
-0.055411 -0.390479 2.511 255 0 0 255 
-0.04854 -0.390483 2.511 255 0 0 255 
-0.041719 -0.390953 2.514 255 0 0 255 
-0.034728 -0.389711 2.506 255 0 0 255 
-0.027792 -0.388625 2.499 255 0 0 255 
-0.020903 -0.387693 2.493 255 0 0 255 
-0.01407 -0.387384 2.491 255 0 0 255 
-0.007232 -0.386296 2.484 255 0 0 255 
-0.000432 -0.384585 2.473 255 0 0 255 
0.006312 -0.383186 2.464 255 0 0 255 
0.01305 -0.383029 2.463 255 0 0 255 
0.019782 -0.382873 2.462 255 0 0 255 
0.026498 -0.38256 2.46 255 0 0 255 
0.033163 -0.38178 2.455 255 0 0 255 
0.039848 -0.381467 2.453 255 0 0 255 
0.046466 -0.380686 2.448 255 0 0 255 
0.053056 -0.379905 2.443 255 0 0 255 
-0.241548 -0.366956 2.321 255 0 0 255 
-0.235719 -0.367762 2.326 255 0 0 255 
-0.229566 -0.368094 2.328 255 0 0 255 
-0.223306 -0.368267 2.329 255 0 0 255 
-0.216387 -0.367333 2.323 255 0 0 255 
-0.210133 -0.367506 2.324 255 0 0 255 
-0.204137 -0.368152 2.328 255 0 0 255 
-0.198372 -0.369273 2.335 255 0 0 255 
-0.191993 -0.369286 2.335 255 0 0 255 
-0.185772 -0.369616 2.337 255 0 0 255 
-0.179387 -0.369628 2.337 255 0 0 255 
-0.173296 -0.370273 2.341 255 0 0 255 
-0.166898 -0.370285 2.341 255 0 0 255 
-0.160911 -0.371245 2.347 255 0 0 255 
-0.154957 -0.372363 2.354 255 0 0 255 
-0.149657 -0.375221 2.372 255 0 0 255 
-0.144138 -0.377763 2.388 255 0 0 255 
-0.138819 -0.381095 2.409 255 0 0 255 
-0.132616 -0.382211 2.416 255 0 0 255 
-0.062153 -0.396527 2.506 255 0 0 255 
-0.055517 -0.398114 2.516 255 0 0 255 
-0.048556 -0.397484 2.512 255 0 0 255 
-0.041716 -0.397804 2.514 255 0 0 255 
-0.03474 -0.396699 2.507 255 0 0 255 
-0.027879 -0.396701 2.507 255 0 0 255 
-0.020986 -0.39607 2.503 255 0 0 255 
-0.014097 -0.394964 2.496 255 0 0 255 
-0.00724 -0.39354 2.487 255 0 0 255 
-0.000433 -0.3918 2.476 255 0 0 255 
0.006325 -0.390692 2.469 255 0 0 255 
0.013054 -0.3899 2.464 255 0 0 255 
0.019789 -0.389741 2.463 255 0 0 255 
0.026518 -0.389581 2.462 255 0 0 255 
0.033228 -0.389262 2.46 255 0 0 255 
0.039943 -0.389102 2.459 255 0 0 255 
0.04669 -0.389257 2.46 255 0 0 255 
0.053226 -0.387829 2.451 255 0 0 255 
-0.243509 -0.376332 2.34 255 0 0 255 
-0.23621 -0.374901 2.331 255 0 0 255 
-0.229748 -0.374756 2.33 255 0 0 255 
-0.223387 -0.374771 2.33 255 0 0 255 
-0.217025 -0.374786 2.33 255 0 0 255 
-0.2103 -0.374158 2.326 255 0 0 255 
-0.204035 -0.374333 2.327 255 0 0 255 
-0.197934 -0.374829 2.33 255 0 0 255 
-0.19198 -0.375647 2.335 255 0 0 255 
-0.185839 -0.376143 2.338 255 0 0 255 
-0.179758 -0.376799 2.342 255 0 0 255 
-0.173728 -0.377615 2.347 255 0 0 255 
-0.167315 -0.377627 2.347 255 0 0 255 
-0.16138 -0.378765 2.354 255 0 0 255 
-0.155406 -0.379903 2.361 255 0 0 255 
-0.149836 -0.382166 2.375 255 0 0 255 
-0.144067 -0.384107 2.387 255 0 0 255 
-0.138809 -0.387658 2.409 255 0 0 255 
-0.132936 -0.389759 2.422 255 0 0 255 
-0.127304 -0.392826 2.441 255 0 0 255 
-0.068482 -0.400293 2.487 255 0 0 255 
-0.062174 -0.403516 2.507 255 0 0 255 
-0.055469 -0.404647 2.514 255 0 0 255 
-0.048552 -0.404329 2.512 255 0 0 255 
-0.041729 -0.404815 2.515 255 0 0 255 
-0.034765 -0.403852 2.509 255 0 0 255 
-0.027889 -0.403694 2.508 255 0 0 255 
-0.021009 -0.403373 2.506 255 0 0 255 
-0.014124 -0.40257 2.501 255 0 0 255 
-0.007249 -0.4008 2.49 255 0 0 255 
-0.000435 -0.399996 2.485 255 0 0 255 
0.006357 -0.399512 2.482 255 0 0 255 
0.013106 -0.398224 2.474 255 0 0 255 
0.019852 -0.39774 2.471 255 0 0 255 
0.026602 -0.397577 2.47 255 0 0 255 
0.033374 -0.397736 2.471 255 0 0 255 
0.040151 -0.397894 2.472 255 0 0 255 
0.046896 -0.39773 2.471 255 0 0 255 
0.053678 -0.397888 2.472 255 0 0 255 
-0.237106 -0.38272 2.34 255 0 0 255 
-0.230226 -0.381918 2.335 255 0 0 255 
-0.224138 -0.382425 2.338 255 0 0 255 
-0.217569 -0.382113 2.336 255 0 0 255 
-0.210738 -0.38131 2.331 255 0 0 255 
-0.204021 -0.38067 2.327 255 0 0 255 
-0.198175 -0.381665 2.333 255 0 0 255 
-0.192213 -0.382497 2.338 255 0 0 255 
-0.186382 -0.383655 2.345 255 0 0 255 
-0.180359 -0.384486 2.35 255 0 0 255 
-0.174456 -0.385644 2.357 255 0 0 255 
-0.168087 -0.38582 2.358 255 0 0 255 
-0.161985 -0.386649 2.363 255 0 0 255 
-0.155922 -0.387643 2.369 255 0 0 255 
-0.150204 -0.389617 2.381 255 0 0 255 
-0.1446 -0.392082 2.396 255 0 0 255 
-0.139203 -0.395365 2.416 255 0 0 255 
-0.133201 -0.397175 2.427 255 0 0 255 
-0.127973 -0.401603 2.454 255 0 0 255 
-0.123091 -0.407667 2.491 255 0 0 255 
-0.069 -0.410178 2.506 255 0 0 255 
-0.062541 -0.412801 2.522 255 0 0 255 
-0.05573 -0.41346 2.526 255 0 0 255 
-0.048665 -0.412155 2.518 255 0 0 255 
-0.041759 -0.411994 2.517 255 0 0 255 
-0.034831 -0.411506 2.514 255 0 0 255 
-0.027964 -0.411672 2.515 255 0 0 255 
-0.021083 -0.411674 2.515 255 0 0 255 
-0.014174 -0.410857 2.51 255 0 0 255 
-0.007283 -0.409548 2.502 255 0 0 255 
-0.000436 -0.407748 2.491 255 0 0 255 
0.006365 -0.406765 2.485 255 0 0 255 
0.013121 -0.405455 2.477 255 0 0 255 
0.019883 -0.405127 2.475 255 0 0 255 
0.026665 -0.405289 2.476 255 0 0 255 
0.033493 -0.405941 2.48 255 0 0 255 
0.040278 -0.405938 2.48 255 0 0 255 
0.047082 -0.406099 2.481 255 0 0 255 
0.054 -0.407077 2.487 255 0 0 255 
-0.237596 -0.389922 2.345 255 0 0 255 
-0.230703 -0.389107 2.34 255 0 0 255 
-0.224411 -0.389289 2.341 255 0 0 255 
-0.217926 -0.389138 2.34 255 0 0 255 
-0.211265 -0.388654 2.337 255 0 0 255 
-0.204357 -0.387671 2.331 255 0 0 255 
-0.198331 -0.38835 2.335 255 0 0 255 
-0.192611 -0.389695 2.343 255 0 0 255 
-0.187005 -0.391371 2.353 255 0 0 255 
-0.180961 -0.392216 2.358 255 0 0 255 
-0.174962 -0.393227 2.364 255 0 0 255 
-0.168503 -0.393239 2.364 255 0 0 255 
-0.162385 -0.394082 2.369 255 0 0 255 
-0.156174 -0.394759 2.373 255 0 0 255 
-0.150319 -0.396434 2.383 255 0 0 255 
-0.144469 -0.398274 2.394 255 0 0 255 
-0.138789 -0.40078 2.409 255 0 0 255 
-0.132972 -0.403119 2.423 255 0 0 255 
-0.127286 -0.406123 2.441 255 0 0 255 
-0.069821 -0.421995 2.536 255 0 0 255 
-0.062933 -0.422333 2.538 255 0 0 255 
-0.055947 -0.422005 2.536 255 0 0 255 
-0.048835 -0.420511 2.527 255 0 0 255 
-0.041856 -0.419849 2.523 255 0 0 255 
-0.034926 -0.419519 2.521 255 0 0 255 
-0.027996 -0.419022 2.518 255 0 0 255 
-0.021073 -0.418358 2.514 255 0 0 255 
-0.014173 -0.417694 2.51 255 0 0 255 
-0.007288 -0.416696 2.504 255 0 0 255 
-0.000437 -0.415531 2.497 255 0 0 255 
0.006387 -0.415032 2.494 255 0 0 255 
0.013163 -0.413533 2.485 255 0 0 255 
0.019961 -0.413532 2.485 255 0 0 255 
0.026738 -0.413198 2.483 255 0 0 255 
0.033572 -0.413695 2.486 255 0 0 255 
0.040357 -0.413525 2.485 255 0 0 255 
0.047136 -0.413356 2.484 255 0 0 255 
-0.231377 -0.39666 2.347 255 0 0 255 
-0.225162 -0.397014 2.349 255 0 0 255 
-0.218376 -0.396353 2.345 255 0 0 255 
-0.211793 -0.39603 2.343 255 0 0 255 
-0.204957 -0.3952 2.338 255 0 0 255 
-0.199166 -0.396397 2.345 255 0 0 255 
-0.193337 -0.397595 2.352 255 0 0 255 
-0.187469 -0.398792 2.359 255 0 0 255 
-0.181408 -0.39965 2.364 255 0 0 255 
-0.17532 -0.400508 2.369 255 0 0 255 
-0.168847 -0.400521 2.369 255 0 0 255 
-0.162168 -0.400025 2.366 255 0 0 255 
-0.156097 -0.401051 2.372 255 0 0 255 
-0.150371 -0.403091 2.384 255 0 0 255 
-0.144761 -0.405638 2.399 255 0 0 255 
-0.138837 -0.407509 2.41 255 0 0 255 
-0.133127 -0.410224 2.426 255 0 0 255 
-0.12712 -0.412263 2.438 255 0 0 255 
-0.070201 -0.431269 2.55 255 0 0 255 
-0.063201 -0.431105 2.549 255 0 0 255 
-0.056097 -0.430095 2.543 255 0 0 255 
-0.048967 -0.428576 2.534 255 0 0 255 
-0.041952 -0.427734 2.529 255 0 0 255 
-0.03502 -0.427568 2.528 255 0 0 255 
-0.028027 -0.426386 2.521 255 0 0 255 
-0.021063 -0.425035 2.513 255 0 0 255 
-0.014138 -0.423514 2.504 255 0 0 255 
-0.007276 -0.422838 2.5 255 0 0 255 
-0.000436 -0.421824 2.494 255 0 0 255 
0.006382 -0.421485 2.492 255 0 0 255 
0.013178 -0.420808 2.488 255 0 0 255 
0.02 -0.421145 2.49 255 0 0 255 
0.026779 -0.420636 2.487 255 0 0 255 
0.033583 -0.420634 2.487 255 0 0 255 
0.04037 -0.420462 2.486 255 0 0 255 
0.047208 -0.420797 2.488 255 0 0 255 
-0.231065 -0.402532 2.344 255 0 0 255 
-0.22505 -0.403235 2.348 255 0 0 255 
-0.218454 -0.402907 2.346 255 0 0 255 
-0.212049 -0.402923 2.346 255 0 0 255 
-0.20503 -0.401735 2.339 255 0 0 255 
-0.199322 -0.403124 2.347 255 0 0 255 
-0.193487 -0.40434 2.354 255 0 0 255 
-0.187455 -0.405213 2.359 255 0 0 255 
-0.181318 -0.405913 2.363 255 0 0 255 
-0.175381 -0.407129 2.37 255 0 0 255 
-0.16912 -0.407656 2.373 255 0 0 255 
-0.162567 -0.407497 2.372 255 0 0 255 
-0.156415 -0.408367 2.377 255 0 0 255 
-0.150802 -0.410784 2.391 255 0 0 255 
-0.144871 -0.412513 2.401 255 0 0 255 
-0.138884 -0.414241 2.411 255 0 0 255 
-0.133227 -0.417172 2.428 255 0 0 255 
-0.12758 -0.420446 2.447 255 0 0 255 
-0.0697 -0.435119 2.532 255 0 0 255 
-0.063098 -0.437358 2.545 255 0 0 255 
-0.056115 -0.43719 2.544 255 0 0 255 
-0.049098 -0.436679 2.541 255 0 0 255 
-0.042015 -0.435307 2.533 255 0 0 255 
-0.035045 -0.434795 2.53 255 0 0 255 
-0.027991 -0.432735 2.518 255 0 0 255 
-0.020995 -0.430503 2.505 255 0 0 255 
-0.014109 -0.429473 2.499 255 0 0 255 
-0.007281 -0.429989 2.502 255 0 0 255 
-0.000437 -0.429989 2.502 255 0 0 255 
0.006404 -0.429817 2.501 255 0 0 255 
0.013203 -0.428442 2.493 255 0 0 255 
0.020023 -0.42844 2.493 255 0 0 255 
0.026777 -0.427408 2.487 255 0 0 255 
0.033621 -0.427921 2.49 255 0 0 255 
0.040513 -0.428777 2.495 255 0 0 255 
0.04747 -0.429977 2.502 255 0 0 255 
-0.231443 -0.409608 2.348 255 0 0 255 
-0.225034 -0.409624 2.348 255 0 0 255 
-0.218345 -0.409117 2.345 255 0 0 255 
-0.212034 -0.409307 2.346 255 0 0 255 
-0.205541 -0.409147 2.345 255 0 0 255 
-0.199817 -0.410558 2.353 255 0 0 255 
-0.193884 -0.411619 2.359 255 0 0 255 
-0.187362 -0.411458 2.358 255 0 0 255 
-0.181152 -0.411995 2.361 255 0 0 255 
-0.17522 -0.41323 2.368 255 0 0 255 
-0.16925 -0.414464 2.375 255 0 0 255 
-0.16283 -0.414651 2.376 255 0 0 255 
-0.156601 -0.41536 2.38 255 0 0 255 
-0.150854 -0.417466 2.392 255 0 0 255 
-0.145101 -0.419746 2.405 255 0 0 255 
-0.139277 -0.422025 2.418 255 0 0 255 
-0.13382 -0.425701 2.439 255 0 0 255 
-0.12804 -0.428678 2.456 255 0 0 255 
-0.075712 -0.436769 2.502 255 0 0 255 
-0.06964 -0.441662 2.53 255 0 0 255 
-0.062969 -0.443413 2.54 255 0 0 255 
-0.056088 -0.443941 2.543 255 0 0 255 
-0.049075 -0.443421 2.54 255 0 0 255 
-0.041979 -0.441854 2.531 255 0 0 255 
-0.035001 -0.441158 2.527 255 0 0 255 
-0.027956 -0.439066 2.515 255 0 0 255 
-0.020951 -0.436449 2.5 255 0 0 255 
-0.014119 -0.436625 2.501 255 0 0 255 
-0.00729 -0.437324 2.505 255 0 0 255 
-0.000438 -0.437324 2.505 255 0 0 255 
0.006399 -0.436276 2.499 255 0 0 255 
0.013218 -0.435752 2.496 255 0 0 255 
0.020069 -0.436274 2.499 255 0 0 255 
0.026883 -0.435924 2.497 255 0 0 255 
0.033726 -0.436096 2.498 255 0 0 255 
0.040737 -0.438013 2.509 255 0 0 255 
0.047732 -0.439232 2.516 255 0 0 255 
0.055134 -0.443418 2.54 255 0 0 255 
-0.231426 -0.415996 2.348 255 0 0 255 
-0.224922 -0.415835 2.347 255 0 0 255 
-0.218423 -0.415674 2.346 255 0 0 255 
-0.212651 -0.41693 2.353 255 0 0 255 
-0.206315 -0.417122 2.354 255 0 0 255 
-0.200397 -0.4182 2.36 255 0 0 255 
-0.194117 -0.418569 2.362 255 0 0 255 
-0.187746 -0.41876 2.363 255 0 0 255 
-0.181369 -0.418951 2.364 255 0 0 255 
-0.175281 -0.41985 2.369 255 0 0 255 
-0.169237 -0.420926 2.375 255 0 0 255 
-0.16316 -0.422002 2.381 255 0 0 255 
-0.157247 -0.423609 2.39 255 0 0 255 
-0.151347 -0.425393 2.4 255 0 0 255 
-0.145332 -0.427 2.409 255 0 0 255 
-0.13967 -0.429846 2.425 255 0 0 255 
-0.134249 -0.433756 2.447 255 0 0 255 
-0.128187 -0.435893 2.459 255 0 0 255 
-0.069938 -0.450498 2.541 255 0 0 255 
-0.063212 -0.452099 2.55 255 0 0 255 
-0.056172 -0.451571 2.547 255 0 0 255 
-0.049091 -0.450512 2.541 255 0 0 255 
-0.041959 -0.448565 2.53 255 0 0 255 
-0.034985 -0.447859 2.526 255 0 0 255 
-0.027943 -0.445733 2.514 255 0 0 255 
-0.021008 -0.444494 2.507 255 0 0 255 
-0.014146 -0.444318 2.506 255 0 0 255 
-0.007298 -0.444674 2.508 255 0 0 255 
-0.000438 -0.444674 2.508 255 0 0 255 
0.006403 -0.443433 2.501 255 0 0 255 
0.013244 -0.443432 2.501 255 0 0 255 
0.020084 -0.443431 2.501 255 0 0 255 
0.026924 -0.443429 2.501 255 0 0 255 
0.033832 -0.444313 2.506 255 0 0 255 
0.040864 -0.44626 2.517 255 0 0 255 
-0.234366 -0.427779 2.378 255 0 0 255 
-0.224618 -0.42168 2.344 255 0 0 255 
-0.218872 -0.422955 2.351 255 0 0 255 
-0.21372 -0.425489 2.365 255 0 0 255 
-0.207877 -0.426764 2.372 255 0 0 255 
-0.201486 -0.426959 2.373 255 0 0 255 
-0.194924 -0.426794 2.372 255 0 0 255 
-0.188526 -0.426988 2.373 255 0 0 255 
-0.181969 -0.426822 2.372 255 0 0 255 
-0.175416 -0.426655 2.371 255 0 0 255 
-0.169367 -0.427748 2.377 255 0 0 255 
-0.163354 -0.42902 2.384 255 0 0 255 
-0.157301 -0.430292 2.391 255 0 0 255 
-0.151084 -0.431203 2.396 255 0 0 255 
-0.14514 -0.433014 2.406 255 0 0 255 
-0.139487 -0.435904 2.422 255 0 0 255 
-0.134075 -0.439874 2.444 255 0 0 255 
-0.128073 -0.442224 2.457 255 0 0 255 
-0.076698 -0.456327 2.535 255 0 0 255 
-0.070372 -0.460293 2.557 255 0 0 255 
-0.063356 -0.460118 2.556 255 0 0 255 
-0.056278 -0.459402 2.552 255 0 0 255 
-0.049068 -0.457246 2.54 255 0 0 255 
-0.041923 -0.455089 2.528 255 0 0 255 
-0.034885 -0.453472 2.519 255 0 0 255 
-0.027963 -0.452934 2.516 255 0 0 255 
-0.021065 -0.452576 2.514 255 0 0 255 
-0.014196 -0.452758 2.515 255 0 0 255 
-0.007297 -0.451498 2.508 255 0 0 255 
-0.000438 -0.451139 2.506 255 0 0 255 
0.00641 -0.450778 2.504 255 0 0 255 
0.013274 -0.451318 2.507 255 0 0 255 
0.020114 -0.450956 2.505 255 0 0 255 
0.027019 -0.451855 2.51 255 0 0 255 
0.033951 -0.452752 2.515 255 0 0 255 
0.040958 -0.45419 2.523 255 0 0 255 
-0.224985 -0.428785 2.348 255 0 0 255 
-0.219508 -0.430627 2.358 255 0 0 255 
-0.214427 -0.433383 2.373 255 0 0 255 
-0.2083 -0.434129 2.377 255 0 0 255 
-0.20215 -0.434875 2.381 255 0 0 255 
-0.195239 -0.433976 2.376 255 0 0 255 
-0.18883 -0.434173 2.377 255 0 0 255 
-0.182339 -0.434187 2.377 255 0 0 255 
-0.176143 -0.434931 2.381 255 0 0 255 
-0.170067 -0.43604 2.387 255 0 0 255 
-0.164095 -0.437514 2.395 255 0 0 255 
-0.157947 -0.438622 2.401 255 0 0 255 
-0.151513 -0.438999 2.403 255 0 0 255 
-0.14537 -0.440289 2.41 255 0 0 255 
-0.139534 -0.442675 2.423 255 0 0 255 
-0.13401 -0.44634 2.443 255 0 0 255 
-0.128063 -0.448908 2.457 255 0 0 255 
-0.077116 -0.465781 2.549 255 0 0 255 
-0.070229 -0.466335 2.552 255 0 0 255 
-0.063301 -0.466706 2.554 255 0 0 255 
-0.056318 -0.466711 2.554 255 0 0 255 
-0.049122 -0.464705 2.543 255 0 0 255 
-0.042003 -0.462881 2.533 255 0 0 255 
-0.034938 -0.461056 2.523 255 0 0 255 
-0.027961 -0.45978 2.516 255 0 0 255 
-0.021106 -0.46033 2.519 255 0 0 255 
-0.014206 -0.459966 2.517 255 0 0 255 
-0.007314 -0.459418 2.514 255 0 0 255 
-0.000439 -0.459053 2.512 255 0 0 255 
0.006428 -0.45887 2.511 255 0 0 255 
0.0133 -0.459052 2.512 255 0 0 255 
0.020137 -0.45832 2.508 255 0 0 255 
0.027049 -0.459232 2.513 255 0 0 255 
0.034029 -0.460691 2.521 255 0 0 255 
0.041052 -0.46215 2.529 255 0 0 255 
-0.224969 -0.435169 2.348 255 0 0 255 
-0.219771 -0.437595 2.361 255 0 0 255 
-0.214592 -0.440206 2.375 255 0 0 255 
-0.208898 -0.44189 2.384 255 0 0 255 
-0.202645 -0.442462 2.387 255 0 0 255 
-0.195717 -0.44155 2.382 255 0 0 255 
-0.189054 -0.441193 2.38 255 0 0 255 
-0.182402 -0.440837 2.378 255 0 0 255 
-0.176278 -0.441777 2.383 255 0 0 255 
-0.17041 -0.443459 2.392 255 0 0 255 
-0.164494 -0.44514 2.401 255 0 0 255 
-0.158067 -0.445523 2.403 255 0 0 255 
-0.151502 -0.445535 2.403 255 0 0 255 
-0.144997 -0.445732 2.404 255 0 0 255 
-0.13912 -0.447967 2.416 255 0 0 255 
-0.133615 -0.451686 2.436 255 0 0 255 
-0.128157 -0.455961 2.459 255 0 0 255 
-0.077685 -0.476238 2.568 255 0 0 255 
-0.070031 -0.471979 2.545 255 0 0 255 
-0.063098 -0.472169 2.546 255 0 0 255 
-0.056181 -0.472545 2.548 255 0 0 255 
-0.04906 -0.471065 2.54 255 0 0 255 
-0.041999 -0.469771 2.533 255 0 0 255 
-0.034935 -0.467919 2.523 255 0 0 255 
-0.028014 -0.467551 2.521 255 0 0 255 
-0.021112 -0.467367 2.52 255 0 0 255 
-0.014239 -0.467925 2.523 255 0 0 255 
-0.007328 -0.467184 2.519 255 0 0 255 
-0.00044 -0.466999 2.518 255 0 0 255 
0.00644 -0.466627 2.516 255 0 0 255 
0.013336 -0.467183 2.519 255 0 0 255 
0.020224 -0.467182 2.519 255 0 0 255 
0.027176 -0.468293 2.525 255 0 0 255 
0.034161 -0.469403 2.531 255 0 0 255 
0.041212 -0.470884 2.539 255 0 0 255 
-0.225815 -0.443245 2.357 255 0 0 255 
-0.219941 -0.44439 2.363 255 0 0 255 
-0.214486 -0.446475 2.374 255 0 0 255 
-0.208707 -0.447996 2.382 255 0 0 255 
-0.202375 -0.448387 2.384 255 0 0 255 
-0.19562 -0.447838 2.381 255 0 0 255 
-0.189278 -0.448229 2.383 255 0 0 255 
-0.183002 -0.448807 2.386 255 0 0 255 
-0.177004 -0.450137 2.393 255 0 0 255 
-0.170754 -0.450903 2.397 255 0 0 255 
-0.164892 -0.452797 2.407 255 0 0 255 
-0.158712 -0.453938 2.413 255 0 0 255 
-0.152247 -0.454326 2.415 255 0 0 255 
-0.145529 -0.453962 2.413 255 0 0 255 
-0.139167 -0.454725 2.417 255 0 0 255 
-0.13355 -0.458122 2.435 255 0 0 255 
-0.128043 -0.462271 2.457 255 0 0 255 
-0.122465 -0.466609 2.48 255 0 0 255 
-0.077134 -0.479835 2.55 255 0 0 255 
-0.070081 -0.479276 2.547 255 0 0 255 
-0.063068 -0.478905 2.545 255 0 0 255 
-0.056111 -0.47891 2.545 255 0 0 255 
-0.048979 -0.47722 2.536 255 0 0 255 
-0.041996 -0.476659 2.533 255 0 0 255 
-0.035015 -0.47591 2.529 255 0 0 255 
-0.028101 -0.475912 2.529 255 0 0 255 
-0.021161 -0.475349 2.526 255 0 0 255 
-0.01426 -0.475539 2.527 255 0 0 255 
-0.007362 -0.476293 2.531 255 0 0 255 
-0.000441 -0.475352 2.526 255 0 0 255 
0.006455 -0.474599 2.522 255 0 0 255 
0.013351 -0.474598 2.522 255 0 0 255 
0.020294 -0.475726 2.528 255 0 0 255 
0.02726 -0.476665 2.533 255 0 0 255 
0.034226 -0.477227 2.536 255 0 0 255 
-0.227618 -0.453277 2.376 255 0 0 255 
-0.220855 -0.452721 2.373 255 0 0 255 
-0.214651 -0.45331 2.376 255 0 0 255 
-0.208604 -0.45428 2.381 255 0 0 255 
-0.202445 -0.455058 2.385 255 0 0 255 
-0.196263 -0.455837 2.389 255 0 0 255 
-0.189899 -0.456233 2.391 255 0 0 255 
-0.183678 -0.457011 2.395 255 0 0 255 
-0.177212 -0.457215 2.396 255 0 0 255 
-0.171026 -0.458183 2.401 255 0 0 255 
-0.165016 -0.459722 2.409 255 0 0 255 
-0.158897 -0.461071 2.416 255 0 0 255 
-0.152235 -0.460892 2.415 255 0 0 255 
-0.145397 -0.46014 2.411 255 0 0 255 
-0.139098 -0.461105 2.416 255 0 0 255 
-0.13354 -0.464742 2.435 255 0 0 255 
-0.127877 -0.468379 2.454 255 0 0 255 
-0.121912 -0.471252 2.469 255 0 0 255 
-0.07734 -0.488104 2.557 255 0 0 255 
-0.070185 -0.486965 2.551 255 0 0 255 
-0.063212 -0.48697 2.551 255 0 0 255 
-0.056195 -0.486593 2.549 255 0 0 255 
-0.049052 -0.484879 2.54 255 0 0 255 
-0.042009 -0.483737 2.534 255 0 0 255 
-0.035096 -0.483931 2.535 255 0 0 255 
-0.028176 -0.484125 2.536 255 0 0 255 
-0.021184 -0.48279 2.529 255 0 0 255 
-0.014265 -0.482601 2.528 255 0 0 255 
-0.007353 -0.482602 2.528 255 0 0 255 
-0.000442 -0.482793 2.529 255 0 0 255 
0.006452 -0.481265 2.521 255 0 0 255 
0.013365 -0.482028 2.525 255 0 0 255 
0.020317 -0.483172 2.531 255 0 0 255 
0.027312 -0.484507 2.538 255 0 0 255 
0.034318 -0.485459 2.543 255 0 0 255 
0.0414 -0.486983 2.551 255 0 0 255 
-0.221211 -0.459944 2.377 255 0 0 255 
-0.214273 -0.458993 2.372 255 0 0 255 
-0.2078 -0.459009 2.372 255 0 0 255 
-0.202175 -0.46096 2.382 255 0 0 255 
-0.196905 -0.463878 2.397 255 0 0 255 
-0.191076 -0.465635 2.406 255 0 0 255 
-0.184891 -0.466617 2.411 255 0 0 255 
-0.178382 -0.466824 2.412 255 0 0 255 
-0.171725 -0.466644 2.411 255 0 0 255 
-0.165552 -0.467819 2.417 255 0 0 255 
-0.159345 -0.468992 2.423 255 0 0 255 
-0.152854 -0.469392 2.425 255 0 0 255 
-0.145928 -0.468436 2.42 255 0 0 255 
-0.139548 -0.469221 2.424 255 0 0 255 
-0.133749 -0.472135 2.439 255 0 0 255 
-0.127658 -0.474275 2.45 255 0 0 255 
-0.121113 -0.474866 2.453 255 0 0 255 
-0.077485 -0.496023 2.562 255 0 0 255 
-0.070262 -0.49448 2.554 255 0 0 255 
-0.063306 -0.494679 2.555 255 0 0 255 
-0.056278 -0.494297 2.553 255 0 0 255 
-0.049203 -0.493333 2.548 255 0 0 255 
-0.042122 -0.491981 2.541 255 0 0 255 
-0.035162 -0.491791 2.54 255 0 0 255 
-0.028207 -0.4916 2.539 255 0 0 255 
-0.021191 -0.489859 2.53 255 0 0 255 
-0.014263 -0.489473 2.528 255 0 0 255 
-0.007361 -0.490055 2.531 255 0 0 255 
-0.000442 -0.490055 2.531 255 0 0 255 
0.006467 -0.48928 2.527 255 0 0 255 
0.01338 -0.489473 2.528 255 0 0 255 
0.020331 -0.49044 2.533 255 0 0 255 
0.02732 -0.4916 2.539 255 0 0 255 
0.034329 -0.492565 2.544 255 0 0 255 
0.041056 -0.489852 2.53 255 0 0 255 
-0.22166 -0.467384 2.382 255 0 0 255 
-0.214979 -0.467008 2.38 255 0 0 255 
-0.208222 -0.466436 2.377 255 0 0 255 
-0.202499 -0.468217 2.386 255 0 0 255 
-0.196972 -0.470588 2.398 255 0 0 255 
-0.191061 -0.472173 2.406 255 0 0 255 
-0.184953 -0.473365 2.412 255 0 0 255 
-0.178442 -0.473575 2.413 255 0 0 255 
-0.171925 -0.473785 2.414 255 0 0 255 
-0.165539 -0.474387 2.417 255 0 0 255 
-0.159267 -0.475381 2.422 255 0 0 255 
-0.152905 -0.476178 2.426 255 0 0 255 
-0.146158 -0.475797 2.424 255 0 0 255 
-0.140055 -0.477575 2.433 255 0 0 255 
-0.134012 -0.479745 2.444 255 0 0 255 
-0.128169 -0.482896 2.46 255 0 0 255 
-0.12214 -0.485655 2.474 255 0 0 255 
-0.091732 -0.504347 2.569 255 0 0 255 
-0.085569 -0.509458 2.595 255 0 0 255 
-0.077509 -0.503183 2.563 255 0 0 255 
-0.070312 -0.501814 2.556 255 0 0 255 
-0.063425 -0.502605 2.56 255 0 0 255 
-0.056406 -0.502413 2.559 255 0 0 255 
-0.049354 -0.501829 2.556 255 0 0 255 
-0.042201 -0.499869 2.546 255 0 0 255 
-0.035228 -0.499676 2.545 255 0 0 255 
-0.028227 -0.498893 2.541 255 0 0 255 
-0.021215 -0.497324 2.533 255 0 0 255 
-0.014285 -0.497129 2.532 255 0 0 255 
-0.007361 -0.496934 2.531 255 0 0 255 
-0.000443 -0.497523 2.534 255 0 0 255 
0.006469 -0.496345 2.528 255 0 0 255 
0.01339 -0.496737 2.53 255 0 0 255 
0.02033 -0.497325 2.533 255 0 0 255 
0.02735 -0.49909 2.542 255 0 0 255 
0.034339 -0.499676 2.545 255 0 0 255 
-0.22155 -0.473656 2.381 255 0 0 255 
-0.215053 -0.473673 2.381 255 0 0 255 
-0.208732 -0.474087 2.383 255 0 0 255 
-0.202738 -0.475297 2.389 255 0 0 255 
-0.196792 -0.476705 2.396 255 0 0 255 
-0.190808 -0.478112 2.403 255 0 0 255 
-0.185092 -0.480316 2.414 255 0 0 255 
-0.178872 -0.481325 2.419 255 0 0 255 
-0.172481 -0.481935 2.422 255 0 0 255 
-0.165937 -0.482148 2.423 255 0 0 255 
-0.159452 -0.482558 2.425 255 0 0 255 
-0.153208 -0.483765 2.431 255 0 0 255 
-0.146569 -0.483777 2.431 255 0 0 255 
-0.140505 -0.485778 2.441 255 0 0 255 
-0.134111 -0.486784 2.446 255 0 0 255 
-0.128263 -0.489979 2.462 255 0 0 255 
-0.122179 -0.492576 2.475 255 0 0 255 
-0.11663 -0.49776 2.501 255 0 0 255 
-0.084738 -0.511534 2.57 255 0 0 255 
-0.077684 -0.511341 2.569 255 0 0 255 
-0.070526 -0.510352 2.564 255 0 0 255 
-0.063569 -0.510756 2.566 255 0 0 255 
-0.056423 -0.509566 2.56 255 0 0 255 
-0.049427 -0.50957 2.56 255 0 0 255 
-0.042314 -0.508181 2.553 255 0 0 255 
-0.035336 -0.508184 2.553 255 0 0 255 
-0.028292 -0.506992 2.547 255 0 0 255 
-0.021288 -0.505999 2.542 255 0 0 255 
-0.014329 -0.505602 2.54 255 0 0 255 
-0.007398 -0.506399 2.544 255 0 0 255 
-0.000444 -0.506002 2.542 255 0 0 255 
0.006499 -0.505603 2.54 255 0 0 255 
0.013415 -0.504607 2.535 255 0 0 255 
0.020368 -0.505203 2.538 255 0 0 255 
0.027327 -0.505599 2.54 255 0 0 255 
0.034404 -0.507587 2.55 255 0 0 255 
-0.22237 -0.481938 2.39 255 0 0 255 
-0.216301 -0.482963 2.395 255 0 0 255 
-0.209766 -0.48298 2.395 255 0 0 255 
-0.203146 -0.482794 2.394 255 0 0 255 
-0.196202 -0.481801 2.389 255 0 0 255 
-0.19 -0.482623 2.393 255 0 0 255 
-0.184388 -0.485058 2.405 255 0 0 255 
-0.178562 -0.487089 2.415 255 0 0 255 
-0.172254 -0.48791 2.419 255 0 0 255 
-0.165718 -0.488125 2.42 255 0 0 255 
-0.159439 -0.489146 2.425 255 0 0 255 
-0.153385 -0.490974 2.434 255 0 0 255 
-0.146858 -0.491389 2.436 255 0 0 255 
-0.140724 -0.493216 2.445 255 0 0 255 
-0.134155 -0.493631 2.447 255 0 0 255 
-0.128253 -0.496667 2.462 255 0 0 255 
-0.122071 -0.498896 2.473 255 0 0 255 
-0.116295 -0.503142 2.494 255 0 0 255 
-0.084566 -0.517507 2.565 255 0 0 255 
-0.077648 -0.518119 2.568 255 0 0 255 
-0.070603 -0.517923 2.567 255 0 0 255 
-0.063662 -0.518534 2.57 255 0 0 255 
-0.056485 -0.517127 2.563 255 0 0 255 
-0.049519 -0.517534 2.565 255 0 0 255 
-0.042427 -0.516529 2.56 255 0 0 255 
-0.03543 -0.516533 2.56 255 0 0 255 
-0.028334 -0.514719 2.551 255 0 0 255 
-0.021295 -0.513107 2.543 255 0 0 255 
-0.014339 -0.512907 2.542 255 0 0 255 
-0.0074 -0.513513 2.545 255 0 0 255 
-0.000445 -0.514522 2.55 255 0 0 255 
0.006509 -0.513311 2.544 255 0 0 255 
0.013446 -0.512705 2.541 255 0 0 255 
0.020366 -0.512098 2.538 255 0 0 255 
0.027357 -0.513105 2.543 255 0 0 255 
-0.216465 -0.489876 2.397 255 0 0 255 
-0.209925 -0.489893 2.397 255 0 0 255 
-0.202961 -0.488887 2.392 255 0 0 255 
-0.195858 -0.487472 2.385 255 0 0 255 
-0.189905 -0.488918 2.392 255 0 0 255 
-0.184373 -0.49159 2.405 255 0 0 255 
-0.178844 -0.494466 2.419 255 0 0 255 
-0.172312 -0.494684 2.42 255 0 0 255 
-0.165705 -0.494697 2.42 255 0 0 255 
-0.159558 -0.496141 2.427 255 0 0 255 
-0.153687 -0.498607 2.439 255 0 0 255 
-0.147449 -0.50005 2.446 255 0 0 255 
-0.141 -0.500879 2.45 255 0 0 255 
-0.134419 -0.501299 2.452 255 0 0 255 
-0.128399 -0.503967 2.465 255 0 0 255 
-0.122209 -0.506227 2.476 255 0 0 255 
-0.116145 -0.509303 2.491 255 0 0 255 
-0.084955 -0.526928 2.577 255 0 0 255 
-0.077913 -0.526935 2.577 255 0 0 255 
-0.070845 -0.526736 2.576 255 0 0 255 
-0.063806 -0.526742 2.576 255 0 0 255 
-0.056657 -0.525724 2.571 255 0 0 255 
-0.049689 -0.526342 2.574 255 0 0 255 
-0.042622 -0.525937 2.572 255 0 0 255 
-0.035538 -0.525122 2.568 255 0 0 255 
-0.028454 -0.523898 2.562 255 0 0 255 
-0.021385 -0.522264 2.554 255 0 0 255 
-0.014389 -0.521652 2.551 255 0 0 255 
-0.00742 -0.521857 2.552 255 0 0 255 
-0.000446 -0.522267 2.554 255 0 0 255 
0.006523 -0.521448 2.55 255 0 0 255 
0.013476 -0.520834 2.547 255 0 0 255 
0.020437 -0.520833 2.547 255 0 0 255 
0.027408 -0.521035 2.548 255 0 0 255 
0.035235 -0.53412 2.612 255 0 0 255 
-0.21699 -0.497627 2.403 255 0 0 255 
-0.209909 -0.496401 2.397 255 0 0 255 
-0.20286 -0.495175 2.391 255 0 0 255 
-0.195679 -0.493534 2.383 255 0 0 255 
-0.18997 -0.49562 2.393 255 0 0 255 
-0.184206 -0.497706 2.403 255 0 0 255 
-0.17846 -0.499998 2.414 255 0 0 255 
-0.172013 -0.500427 2.416 255 0 0 255 
-0.165829 -0.501683 2.422 255 0 0 255 
-0.160006 -0.504182 2.434 255 0 0 255 
-0.154305 -0.507301 2.449 255 0 0 255 
-0.148462 -0.510214 2.463 255 0 0 255 
-0.141737 -0.510225 2.463 255 0 0 255 
-0.135121 -0.510651 2.465 255 0 0 255 
-0.128805 -0.512319 2.473 255 0 0 255 
-0.122495 -0.514193 2.482 255 0 0 255 
-0.115996 -0.515446 2.488 255 0 0 255 
-0.109727 -0.517941 2.5 255 0 0 255 
-0.093059 -0.540135 2.607 255 0 0 255 
-0.085244 -0.535791 2.586 255 0 0 255 
-0.078149 -0.535591 2.585 255 0 0 255 
-0.070921 -0.534354 2.579 255 0 0 255 
-0.063776 -0.53353 2.575 255 0 0 255 
-0.056696 -0.533121 2.573 255 0 0 255 
-0.049704 -0.53354 2.575 255 0 0 255 
-0.042652 -0.533336 2.574 255 0 0 255 
-0.035549 -0.532303 2.569 255 0 0 255 
-0.028507 -0.531892 2.567 255 0 0 255 
-0.021459 -0.531065 2.563 255 0 0 255 
-0.014466 -0.531481 2.565 255 0 0 255 
-0.007446 -0.530653 2.561 255 0 0 255 
-0.000447 -0.530239 2.559 255 0 0 255 
0.006526 -0.528581 2.551 255 0 0 255 
0.013491 -0.528373 2.55 255 0 0 255 
0.020459 -0.528372 2.55 255 0 0 255 
0.027427 -0.528369 2.55 255 0 0 255 
-0.216161 -0.502263 2.394 255 0 0 255 
-0.20998 -0.503118 2.398 255 0 0 255 
-0.203099 -0.502295 2.394 255 0 0 255 
-0.196156 -0.501262 2.389 255 0 0 255 
-0.190114 -0.502536 2.395 255 0 0 255 
-0.184344 -0.504649 2.405 255 0 0 255 
-0.17852 -0.506762 2.415 255 0 0 255 
-0.17264 -0.508875 2.425 255 0 0 255 
-0.1665 -0.510357 2.432 255 0 0 255 
-0.160453 -0.512259 2.441 255 0 0 255 
-0.154356 -0.51416 2.45 255 0 0 255 
-0.148571 -0.51732 2.465 255 0 0 255 
-0.142243 -0.518801 2.472 255 0 0 255 
-0.135932 -0.520492 2.48 255 0 0 255 
-0.129524 -0.521971 2.487 255 0 0 255 
-0.12293 -0.522821 2.491 255 0 0 255 
-0.116173 -0.523041 2.492 255 0 0 255 
-0.109499 -0.52368 2.495 255 0 0 255 
-0.101056 -0.552033 2.63 255 0 0 255 
-0.09323 -0.548263 2.612 255 0 0 255 
-0.085962 -0.54743 2.608 255 0 0 255 
-0.078596 -0.545758 2.6 255 0 0 255 
-0.071245 -0.543875 2.591 255 0 0 255 
-0.063845 -0.541152 2.578 255 0 0 255 
-0.056735 -0.540527 2.575 255 0 0 255 
-0.0497 -0.540531 2.575 255 0 0 255 
-0.042747 -0.541585 2.58 255 0 0 255 
-0.035615 -0.540329 2.574 255 0 0 255 
-0.028593 -0.540541 2.575 255 0 0 255 
-0.021541 -0.540123 2.573 255 0 0 255 
-0.014538 -0.541174 2.578 255 0 0 255 
-0.007494 -0.541175 2.578 255 0 0 255 
-0.000449 -0.539286 2.569 255 0 0 255 
0.006556 -0.538027 2.563 255 0 0 255 
0.013532 -0.536976 2.558 255 0 0 255 
0.020506 -0.536555 2.556 255 0 0 255 
0.027457 -0.535923 2.553 255 0 0 255 
-0.217227 -0.511311 2.406 255 0 0 255 
-0.210839 -0.511753 2.408 255 0 0 255 
-0.203846 -0.510706 2.403 255 0 0 255 
-0.196715 -0.509234 2.396 255 0 0 255 
-0.190337 -0.509675 2.398 255 0 0 255 
-0.184176 -0.510752 2.403 255 0 0 255 
-0.178284 -0.51268 2.412 255 0 0 255 
-0.172626 -0.515457 2.425 255 0 0 255 
-0.167034 -0.518659 2.44 255 0 0 255 
-0.160966 -0.520585 2.449 255 0 0 255 
-0.154658 -0.521874 2.455 255 0 0 255 
-0.148619 -0.524224 2.466 255 0 0 255 
-0.142577 -0.526787 2.478 255 0 0 255 
-0.136359 -0.528924 2.488 255 0 0 255 
-0.129722 -0.529573 2.491 255 0 0 255 
-0.12287 -0.529371 2.49 255 0 0 255 
-0.116257 -0.530231 2.494 255 0 0 255 
-0.109841 -0.532154 2.503 255 0 0 255 
-0.100856 -0.558109 2.625 255 0 0 255 
-0.093971 -0.559818 2.633 255 0 0 255 
-0.08645 -0.5577 2.623 255 0 0 255 
-0.078801 -0.554304 2.607 255 0 0 255 
-0.07135 -0.551759 2.595 255 0 0 255 
-0.063939 -0.549001 2.582 255 0 0 255 
-0.056731 -0.547517 2.575 255 0 0 255 
-0.049619 -0.546671 2.571 255 0 0 255 
-0.042661 -0.547526 2.575 255 0 0 255 
-0.035612 -0.547316 2.574 255 0 0 255 
-0.028558 -0.546894 2.572 255 0 0 255 
-0.021522 -0.546683 2.571 255 0 0 255 
-0.014543 -0.548386 2.579 255 0 0 255 
-0.007517 -0.549875 2.586 255 0 0 255 
-0.000451 -0.54945 2.584 255 0 0 255 
0.006588 -0.547749 2.576 255 0 0 255 
0.013568 -0.545409 2.565 255 0 0 255 
0.02052 -0.543919 2.558 255 0 0 255 
0.02738 -0.541365 2.546 255 0 0 255 
-0.219919 -0.524297 2.436 255 0 0 255 
-0.212574 -0.522592 2.428 255 0 0 255 
-0.204848 -0.51981 2.415 255 0 0 255 
-0.197521 -0.517889 2.406 255 0 0 255 
-0.190877 -0.517689 2.405 255 0 0 255 
-0.184468 -0.518135 2.407 255 0 0 255 
-0.178491 -0.519871 2.415 255 0 0 255 
-0.172541 -0.521823 2.424 255 0 0 255 
-0.167089 -0.525496 2.441 255 0 0 255 
-0.160887 -0.527017 2.448 255 0 0 255 
-0.154709 -0.528752 2.456 255 0 0 255 
-0.148426 -0.530271 2.463 255 0 0 255 
-0.14245 -0.533082 2.476 255 0 0 255 
-0.136348 -0.535677 2.488 255 0 0 255 
-0.129919 -0.537195 2.495 255 0 0 255 
-0.123206 -0.537636 2.497 255 0 0 255 
-0.11648 -0.538076 2.499 255 0 0 255 
-0.110051 -0.540024 2.508 255 0 0 255 
-0.104313 -0.545846 2.535 255 0 0 255 
-0.100348 -0.562435 2.612 255 0 0 255 
-0.093928 -0.566749 2.632 255 0 0 255 
-0.086344 -0.564173 2.62 255 0 0 255 
-0.078704 -0.560734 2.604 255 0 0 255 
-0.071316 -0.558587 2.594 255 0 0 255 
-0.063933 -0.556009 2.582 255 0 0 255 
-0.056704 -0.554291 2.574 255 0 0 255 
-0.049557 -0.553003 2.568 255 0 0 255 
-0.042558 -0.553222 2.569 255 0 0 255 
-0.03554 -0.553226 2.569 255 0 0 255 
-0.028533 -0.553444 2.57 255 0 0 255 
-0.021537 -0.554092 2.573 255 0 0 255 
-0.014536 -0.55517 2.578 255 0 0 255 
-0.007511 -0.556463 2.584 255 0 0 255 
-0.000451 -0.556894 2.586 255 0 0 255 
0.006603 -0.556033 2.582 255 0 0 255 
0.013615 -0.554309 2.574 255 0 0 255 
0.020575 -0.552369 2.565 255 0 0 255 
0.027507 -0.55086 2.558 255 0 0 255 
-0.230078 -0.53917 2.474 255 0 0 255 
-0.221346 -0.534393 2.452 255 0 0 255 
-0.213257 -0.530923 2.436 255 0 0 255 
-0.205086 -0.527017 2.418 255 0 0 255 
-0.197751 -0.525071 2.409 255 0 0 255 
-0.191179 -0.525087 2.409 255 0 0 255 
-0.18453 -0.524884 2.408 255 0 0 255 
-0.178181 -0.525552 2.411 255 0 0 255 
-0.171887 -0.526438 2.415 255 0 0 255 
-0.166734 -0.53103 2.436 255 0 0 255 
-0.160611 -0.532787 2.444 255 0 0 255 
-0.154822 -0.535852 2.458 255 0 0 255 
-0.148535 -0.53739 2.465 255 0 0 255 
-0.142496 -0.540018 2.477 255 0 0 255 
-0.136172 -0.541774 2.485 255 0 0 255 
-0.129909 -0.543965 2.495 255 0 0 255 
-0.123442 -0.545502 2.502 255 0 0 255 
-0.116844 -0.546602 2.507 255 0 0 255 
-0.110174 -0.547483 2.511 255 0 0 255 
-0.103769 -0.549891 2.522 255 0 0 255 
-0.093313 -0.570185 2.615 255 0 0 255 
-0.085743 -0.567358 2.602 255 0 0 255 
-0.078153 -0.563876 2.586 255 0 0 255 
-0.071063 -0.563664 2.585 255 0 0 255 
-0.063804 -0.561925 2.577 255 0 0 255 
-0.056699 -0.561276 2.574 255 0 0 255 
-0.049591 -0.560408 2.57 255 0 0 255 
-0.042538 -0.559976 2.568 255 0 0 255 
-0.035523 -0.559979 2.568 255 0 0 255 
-0.02852 -0.5602 2.569 255 0 0 255 
-0.021527 -0.560856 2.572 255 0 0 255 
-0.014507 -0.561076 2.573 255 0 0 255 
-0.00749 -0.561949 2.577 255 0 0 255 
-0.000451 -0.563258 2.583 255 0 0 255 
0.006613 -0.563912 2.586 255 0 0 255 
0.013656 -0.563038 2.582 255 0 0 255 
0.020637 -0.561074 2.573 255 0 0 255 
-0.228294 -0.541689 2.455 255 0 0 255 
-0.220877 -0.539942 2.447 255 0 0 255 
-0.213503 -0.538194 2.439 255 0 0 255 
-0.205409 -0.534459 2.422 255 0 0 255 
-0.198228 -0.532931 2.415 255 0 0 255 
-0.191481 -0.532505 2.413 255 0 0 255 
-0.185128 -0.533182 2.416 255 0 0 255 
-0.17861 -0.533417 2.417 255 0 0 255 
-0.172229 -0.534094 2.42 255 0 0 255 
-0.16631 -0.536314 2.43 255 0 0 255 
-0.160335 -0.538535 2.44 255 0 0 255 
-0.154369 -0.540975 2.451 255 0 0 255 
-0.148402 -0.543637 2.463 255 0 0 255 
-0.142369 -0.546297 2.475 255 0 0 255 
-0.136271 -0.548957 2.487 255 0 0 255 
-0.130054 -0.551396 2.498 255 0 0 255 
-0.123827 -0.554056 2.51 255 0 0 255 
-0.11716 -0.554949 2.514 255 0 0 255 
-0.110515 -0.556062 2.519 255 0 0 255 
-0.10372 -0.556512 2.521 255 0 0 255 
-0.092663 -0.573306 2.597 255 0 0 255 
-0.085341 -0.571768 2.59 255 0 0 255 
-0.077996 -0.569788 2.581 255 0 0 255 
-0.070974 -0.570015 2.582 255 0 0 255 
-0.063774 -0.568696 2.576 255 0 0 255 
-0.056761 -0.568922 2.577 255 0 0 255 
-0.049684 -0.568485 2.575 255 0 0 255 
-0.042601 -0.567826 2.572 255 0 0 255 
-0.03552 -0.566947 2.568 255 0 0 255 
-0.028539 -0.567612 2.571 255 0 0 255 
-0.021559 -0.568718 2.576 255 0 0 255 
-0.0145 -0.567836 2.572 255 0 0 255 
-0.007469 -0.567395 2.57 255 0 0 255 
-0.000449 -0.5685 2.575 255 0 0 255 
0.006615 -0.571149 2.587 255 0 0 255 
0.013718 -0.572693 2.594 255 0 0 255 
0.02082 -0.573133 2.596 255 0 0 255 
-0.227346 -0.546115 2.445 255 0 0 255 
-0.220589 -0.545909 2.444 255 0 0 255 
-0.213574 -0.545033 2.44 255 0 0 255 
-0.205732 -0.541922 2.426 255 0 0 255 
-0.198294 -0.539704 2.416 255 0 0 255 
-0.191625 -0.539497 2.415 255 0 0 255 
-0.18542 -0.540629 2.42 255 0 0 255 
-0.17867 -0.540197 2.418 255 0 0 255 
-0.172001 -0.539988 2.417 255 0 0 255 
-0.165817 -0.541342 2.423 255 0 0 255 
-0.159928 -0.543813 2.434 255 0 0 255 
-0.154041 -0.546507 2.446 255 0 0 255 
-0.148028 -0.548977 2.457 255 0 0 255 
-0.142013 -0.55167 2.469 255 0 0 255 
-0.135767 -0.553692 2.478 255 0 0 255 
-0.129523 -0.555938 2.488 255 0 0 255 
-0.123471 -0.5593 2.503 255 0 0 255 
-0.117057 -0.561321 2.512 255 0 0 255 
-0.110506 -0.562895 2.519 255 0 0 255 
-0.103711 -0.563351 2.521 255 0 0 255 
-0.092299 -0.578116 2.587 255 0 0 255 
-0.085169 -0.577676 2.585 255 0 0 255 
-0.07805 -0.577236 2.583 255 0 0 255 
-0.071106 -0.578136 2.587 255 0 0 255 
-0.063942 -0.577248 2.583 255 0 0 255 
-0.056844 -0.576806 2.581 255 0 0 255 
-0.049814 -0.577034 2.582 255 0 0 255 
-0.042713 -0.576368 2.579 255 0 0 255 
-0.035642 -0.575924 2.577 255 0 0 255 
-0.028615 -0.57615 2.578 255 0 0 255 
-0.021565 -0.575929 2.577 255 0 0 255 
-0.014504 -0.575036 2.573 255 0 0 255 
-0.007462 -0.57392 2.568 255 0 0 255 
-0.000449 -0.575038 2.573 255 0 0 255 
0.00663 -0.579507 2.593 255 0 0 255 
0.013759 -0.581518 2.602 255 0 0 255 
-0.235716 -0.556796 2.463 255 0 0 255 
-0.228908 -0.556588 2.462 255 0 0 255 
-0.221474 -0.554797 2.454 255 0 0 255 
-0.214169 -0.553232 2.447 255 0 0 255 
-0.206394 -0.55031 2.434 255 0 0 255 
-0.198935 -0.548065 2.424 255 0 0 255 
-0.192403 -0.548307 2.425 255 0 0 255 
-0.185864 -0.548548 2.426 255 0 0 255 
-0.179172 -0.548337 2.425 255 0 0 255 
-0.172557 -0.548351 2.425 255 0 0 255 
-0.16594 -0.548365 2.425 255 0 0 255 
-0.159849 -0.550187 2.433 255 0 0 255 
-0.153714 -0.552009 2.441 255 0 0 255 
-0.147655 -0.554283 2.451 255 0 0 255 
-0.141426 -0.556104 2.459 255 0 0 255 
-0.135153 -0.557925 2.467 255 0 0 255 
-0.128835 -0.559745 2.475 255 0 0 255 
-0.12277 -0.562922 2.489 255 0 0 255 
-0.116628 -0.566098 2.503 255 0 0 255 
-0.11019 -0.568143 2.512 255 0 0 255 
-0.10362 -0.569735 2.519 255 0 0 255 
-0.097972 -0.576981 2.551 255 0 0 255 
-0.092363 -0.585584 2.589 255 0 0 255 
-0.085294 -0.585592 2.589 255 0 0 255 
-0.078285 -0.586051 2.591 255 0 0 255 
-0.071182 -0.585831 2.59 255 0 0 255 
-0.064011 -0.584932 2.586 255 0 0 255 
-0.056817 -0.58358 2.58 255 0 0 255 
-0.049733 -0.583132 2.578 255 0 0 255 
-0.042627 -0.582231 2.574 255 0 0 255 
-0.03557 -0.581782 2.572 255 0 0 255 
-0.028579 -0.582463 2.575 255 0 0 255 
-0.021555 -0.582692 2.576 255 0 0 255 
-0.014497 -0.581788 2.572 255 0 0 255 
-0.007473 -0.581789 2.572 255 0 0 255 
-0.000451 -0.584278 2.583 255 0 0 255 
0.006711 -0.593778 2.625 255 0 0 255 
-0.216953 -0.567188 2.479 255 0 0 255 
-0.206971 -0.558511 2.441 255 0 0 255 
-0.199822 -0.557154 2.435 255 0 0 255 
-0.193339 -0.557628 2.437 255 0 0 255 
-0.186539 -0.557186 2.435 255 0 0 255 
-0.179453 -0.555828 2.429 255 0 0 255 
-0.172685 -0.555384 2.427 255 0 0 255 
-0.166064 -0.555398 2.427 255 0 0 255 
-0.159639 -0.556098 2.43 255 0 0 255 
-0.153449 -0.557713 2.437 255 0 0 255 
-0.147281 -0.559556 2.445 255 0 0 255 
-0.141184 -0.561857 2.455 255 0 0 255 
-0.134594 -0.562326 2.457 255 0 0 255 
-0.128252 -0.563939 2.464 255 0 0 255 
-0.121971 -0.566009 2.473 255 0 0 255 
-0.116013 -0.56991 2.49 255 0 0 255 
-0.109786 -0.572895 2.503 255 0 0 255 
-0.103365 -0.575192 2.513 255 0 0 255 
-0.097349 -0.580236 2.535 255 0 0 255 
-0.092105 -0.591002 2.582 255 0 0 255 
-0.085286 -0.592612 2.589 255 0 0 255 
-0.078278 -0.593077 2.591 255 0 0 255 
-0.071121 -0.592396 2.588 255 0 0 255 
