ply
format ascii 1.0
comment VCGLIB generated
element vertex 1238
property float x
property float y
property float z
property uchar red
property uchar green
property uchar blue
property uchar alpha
element face 0
property list uchar int vertex_indices
end_header
0.069406 -0.138518 2.315 255 0 0 255 
0.076242 -0.139414 2.33 255 0 0 255 
0.083018 -0.140069 2.341 255 0 0 255 
0.089854 -0.140725 2.352 255 0 0 255 
-0.046066 -0.519361 2.6332 255 255 0 255 
-0.054797 -0.526094 2.61495 255 255 0 255 
-0.049354 -0.527272 2.60547 255 255 0 255 
-0.031393 -0.530139 2.57815 255 255 0 255 
-0.006912 -0.523737 2.58092 255 255 0 255 
0.003453 -0.522916 2.57476 255 255 0 255 
0.002229 -0.526711 2.56114 255 255 0 255 
0.015486 -0.528026 2.54409 255 255 0 255 
-0.261675 -0.145456 2.327 255 0 0 255 
-0.254548 -0.145026 2.32 255 0 0 255 
-0.24703 -0.144346 2.309 255 0 0 255 
-0.239468 -0.143603 2.297 255 0 0 255 
-0.232579 -0.143235 2.291 255 0 0 255 
-0.226315 -0.143242 2.291 255 0 0 255 
-0.219762 -0.143061 2.288 255 0 0 255 
-0.213598 -0.143131 2.289 255 0 0 255 
-0.207156 -0.143012 2.287 255 0 0 255 
-0.200723 -0.142893 2.285 255 0 0 255 
-0.194216 -0.142712 2.282 255 0 0 255 
-0.18789 -0.142655 2.281 255 0 0 255 
-0.181488 -0.142536 2.279 255 0 0 255 
-0.175097 -0.142416 2.277 255 0 0 255 
-0.168864 -0.142422 2.277 255 0 0 255 
-0.162987 -0.14274 2.282 255 0 0 255 
-0.157083 -0.143057 2.287 255 0 0 255 
-0.15115 -0.143375 2.292 255 0 0 255 
-0.145253 -0.143755 2.298 255 0 0 255 
-0.139262 -0.144072 2.303 255 0 0 255 
-0.133301 -0.144452 2.309 255 0 0 255 
-0.127526 -0.145082 2.319 255 0 0 255 
-0.121957 -0.146024 2.334 255 0 0 255 
-0.116157 -0.146779 2.346 255 0 0 255 
-0.11001 -0.147158 2.352 255 0 0 255 
-0.103918 -0.147662 2.36 255 0 0 255 
-0.065056 -0.147553 2.358 255 0 0 255 
-0.058493 -0.147305 2.354 255 0 0 255 
-0.051952 -0.147056 2.35 255 0 0 255 
-0.045432 -0.146807 2.346 255 0 0 255 
-0.038901 -0.146433 2.34 255 0 0 255 
-0.032361 -0.145871 2.331 255 0 0 255 
-0.025826 -0.145059 2.318 255 0 0 255 
-0.019429 -0.144746 2.313 255 0 0 255 
-0.013082 -0.144684 2.312 255 0 0 255 
-0.006735 -0.144497 2.309 255 0 0 255 
-0.000402 -0.143746 2.297 255 0 0 255 
0.005872 -0.143183 2.288 255 0 0 255 
0.012155 -0.143308 2.29 255 0 0 255 
0.018474 -0.14362 2.295 255 0 0 255 
0.024798 -0.143807 2.298 255 0 0 255 
0.031084 -0.143744 2.297 255 0 0 255 
0.037414 -0.143868 2.299 255 0 0 255 
0.043735 -0.143929 2.3 255 0 0 255 
0.050214 -0.144428 2.308 255 0 0 255 
0.056615 -0.144614 2.311 255 0 0 255 
0.063085 -0.144925 2.316 255 0 0 255 
0.069463 -0.144985 2.317 255 0 0 255 
0.076207 -0.145734 2.329 255 0 0 255 
0.08298 -0.14642 2.34 255 0 0 255 
0.089889 -0.14723 2.353 255 0 0 255 
-0.031709 -0.525336 2.64354 255 255 0 255 
-0.035451 -0.530122 2.62843 255 255 0 255 
-0.020418 -0.537416 2.58656 255 255 0 255 
-0.007552 -0.535588 2.58193 255 255 0 255 
-0.004633 -0.537738 2.57096 255 255 0 255 
0.007378 -0.536229 2.56588 255 255 0 255 
0.016067 -0.536044 2.55869 255 255 0 255 
-0.261329 -0.151628 2.324 255 0 0 255 
-0.25465 -0.15144 2.321 255 0 0 255 
-0.24713 -0.15073 2.31 255 0 0 255 
-0.239878 -0.150151 2.301 255 0 0 255 
-0.232877 -0.149701 2.294 255 0 0 255 
-0.226407 -0.149578 2.292 255 0 0 255 
-0.219851 -0.149389 2.289 255 0 0 255 
-0.213591 -0.149396 2.289 255 0 0 255 
-0.207149 -0.149273 2.287 255 0 0 255 
-0.200893 -0.149279 2.287 255 0 0 255 
-0.194465 -0.149155 2.285 255 0 0 255 
-0.188213 -0.149161 2.285 255 0 0 255 
-0.181721 -0.148971 2.282 255 0 0 255 
-0.175322 -0.148847 2.28 255 0 0 255 
-0.169155 -0.148917 2.281 255 0 0 255 
-0.163268 -0.149249 2.286 255 0 0 255 
-0.157421 -0.149646 2.292 255 0 0 255 
-0.151541 -0.150043 2.298 255 0 0 255 
-0.145565 -0.150374 2.303 255 0 0 255 
-0.139499 -0.15064 2.307 255 0 0 255 
-0.13347 -0.150971 2.312 255 0 0 255 
-0.127687 -0.151629 2.322 255 0 0 255 
-0.121901 -0.152351 2.333 255 0 0 255 
-0.116054 -0.153073 2.344 255 0 0 255 
-0.110006 -0.1536 2.352 255 0 0 255 
-0.103914 -0.154126 2.36 255 0 0 255 
-0.065412 -0.154861 2.371 255 0 0 255 
-0.058615 -0.154079 2.359 255 0 0 255 
-0.052038 -0.153755 2.354 255 0 0 255 
-0.045527 -0.15356 2.351 255 0 0 255 
-0.038966 -0.153105 2.344 255 0 0 255 
-0.03236 -0.152257 2.331 255 0 0 255 
-0.025836 -0.151474 2.319 255 0 0 255 
-0.019437 -0.151148 2.314 255 0 0 255 
-0.013093 -0.151149 2.314 255 0 0 255 
-0.006738 -0.150888 2.31 255 0 0 255 
-0.000403 -0.150235 2.3 255 0 0 255 
0.005882 -0.149712 2.292 255 0 0 255 
0.01216 -0.149646 2.291 255 0 0 255 
0.018489 -0.150038 2.297 255 0 0 255 
0.024797 -0.150102 2.298 255 0 0 255 
0.031083 -0.150036 2.297 255 0 0 255 
0.03738 -0.150035 2.297 255 0 0 255 
0.043772 -0.15036 2.302 255 0 0 255 
0.050169 -0.15062 2.306 255 0 0 255 
0.056564 -0.150814 2.309 255 0 0 255 
0.06292 -0.150877 2.31 255 0 0 255 
0.069371 -0.151136 2.314 255 0 0 255 
0.076204 -0.152113 2.329 255 0 0 255 
0.083084 -0.153025 2.343 255 0 0 255 
0.089963 -0.153806 2.355 255 0 0 255 
-0.022783 -0.536699 2.63776 255 255 0 255 
-0.026517 -0.54151 2.62265 255 255 0 255 
-0.006968 -0.543632 2.59655 255 255 0 255 
-0.016467 -0.550799 2.57765 255 255 0 255 
-0.008574 -0.550947 2.56984 255 255 0 255 
0.004263 -0.549079 2.56526 255 255 0 255 
0.017516 -0.550356 2.54819 255 255 0 255 
-0.260534 -0.157511 2.317 255 0 0 255 
-0.253764 -0.157247 2.313 255 0 0 255 
-0.247015 -0.156984 2.309 255 0 0 255 
-0.239974 -0.156516 2.302 255 0 0 255 
-0.233174 -0.156183 2.297 255 0 0 255 
-0.226498 -0.155919 2.293 255 0 0 255 
-0.219748 -0.155586 2.288 255 0 0 255 
-0.213398 -0.155526 2.287 255 0 0 255 
-0.206961 -0.155397 2.285 255 0 0 255 
-0.201062 -0.155675 2.289 255 0 0 255 
-0.194544 -0.155478 2.286 255 0 0 255 
-0.188372 -0.155552 2.287 255 0 0 255 
-0.181874 -0.155355 2.284 255 0 0 255 
-0.175777 -0.155497 2.286 255 0 0 255 
-0.169594 -0.155571 2.287 255 0 0 255 
-0.163619 -0.155848 2.291 255 0 0 255 
-0.157759 -0.156262 2.297 255 0 0 255 
-0.151668 -0.156471 2.3 255 0 0 255 
-0.145686 -0.156817 2.305 255 0 0 255 
-0.139676 -0.157162 2.31 255 0 0 255 
-0.133754 -0.157643 2.317 255 0 0 255 
-0.127902 -0.158259 2.326 255 0 0 255 
-0.122001 -0.158876 2.335 255 0 0 255 
-0.115951 -0.159357 2.342 255 0 0 255 
-0.109909 -0.159905 2.35 255 0 0 255 
-0.065161 -0.160743 2.362 255 0 0 255 
-0.058638 -0.160609 2.36 255 0 0 255 
-0.052014 -0.160134 2.353 255 0 0 255 
-0.045487 -0.159864 2.349 255 0 0 255 
-0.038965 -0.159525 2.344 255 0 0 255 
-0.032359 -0.158642 2.331 255 0 0 255 
-0.02588 -0.158098 2.323 255 0 0 255 
-0.019478 -0.157827 2.319 255 0 0 255 
-0.013104 -0.157623 2.316 255 0 0 255 
-0.006734 -0.157147 2.309 255 0 0 255 
-0.000403 -0.156603 2.301 255 0 0 255 
0.005897 -0.156398 2.298 255 0 0 255 
0.012186 -0.156262 2.296 255 0 0 255 
0.018489 -0.156329 2.297 255 0 0 255 
0.024775 -0.156261 2.296 255 0 0 255 
0.031082 -0.156328 2.297 255 0 0 255 
0.037444 -0.156599 2.301 255 0 0 255 
0.043828 -0.15687 2.305 255 0 0 255 
0.050211 -0.157072 2.308 255 0 0 255 
0.056513 -0.157002 2.307 255 0 0 255 
0.062891 -0.157136 2.309 255 0 0 255 
0.069549 -0.157882 2.32 255 0 0 255 
0.076496 -0.159105 2.338 255 0 0 255 
0.083364 -0.159987 2.351 255 0 0 255 
0.090189 -0.160664 2.361 255 0 0 255 
-0.043004 -0.553102 2.6395 255 255 0 255 
-0.017611 -0.546221 2.64242 255 255 0 255 
-0.013868 -0.548035 2.632 255 255 0 255 
-0.016764 -0.552536 2.6174 255 255 0 255 
0.00025 -0.548974 2.61533 255 255 0 255 
-0.008438 -0.555834 2.59704 255 255 0 255 
-0.260188 -0.163638 2.314 255 0 0 255 
-0.253646 -0.163505 2.312 255 0 0 255 
-0.247007 -0.163302 2.309 255 0 0 255 
-0.239966 -0.162815 2.302 255 0 0 255 
-0.23347 -0.162681 2.3 255 0 0 255 
-0.226787 -0.162406 2.296 255 0 0 255 
-0.220029 -0.16206 2.291 255 0 0 255 
-0.213297 -0.161714 2.286 255 0 0 255 
-0.207226 -0.161863 2.288 255 0 0 255 
-0.201143 -0.162011 2.29 255 0 0 255 
-0.194793 -0.161947 2.289 255 0 0 255 
-0.188283 -0.161742 2.286 255 0 0 255 
-0.182107 -0.161819 2.287 255 0 0 255 
-0.175848 -0.161825 2.287 255 0 0 255 
-0.169588 -0.161831 2.287 255 0 0 255 
-0.163685 -0.162191 2.292 255 0 0 255 
-0.157823 -0.162621 2.298 255 0 0 255 
-0.152058 -0.163193 2.306 255 0 0 255 
-0.145997 -0.163481 2.31 255 0 0 255 
-0.139974 -0.16384 2.315 255 0 0 255 
-0.13398 -0.16427 2.321 255 0 0 255 
-0.128118 -0.164912 2.33 255 0 0 255 
-0.121997 -0.16527 2.335 255 0 0 255 
-0.115798 -0.165557 2.339 255 0 0 255 
-0.109718 -0.166057 2.346 255 0 0 255 
-0.065876 -0.169052 2.388 255 0 0 255 
-0.058487 -0.166647 2.354 255 0 0 255 
-0.051924 -0.166295 2.349 255 0 0 255 
-0.045408 -0.166014 2.345 255 0 0 255 
-0.038964 -0.165945 2.344 255 0 0 255 
-0.032455 -0.165521 2.338 255 0 0 255 
-0.025968 -0.165027 2.331 255 0 0 255 
-0.019511 -0.164461 2.323 255 0 0 255 
-0.013109 -0.164037 2.317 255 0 0 255 
-0.006728 -0.163329 2.307 255 0 0 255 
-0.000403 -0.162692 2.298 255 0 0 255 
0.005892 -0.162551 2.296 255 0 0 255 
0.012181 -0.16248 2.295 255 0 0 255 
0.01848 -0.16255 2.296 255 0 0 255 
0.024752 -0.162407 2.294 255 0 0 255 
0.031068 -0.162548 2.296 255 0 0 255 
0.037443 -0.162901 2.301 255 0 0 255 
0.043883 -0.163395 2.308 255 0 0 255 
0.050231 -0.163464 2.309 255 0 0 255 
0.056535 -0.163391 2.308 255 0 0 255 
0.062997 -0.163743 2.313 255 0 0 255 
0.069786 -0.164802 2.328 255 0 0 255 
0.076788 -0.166145 2.347 255 0 0 255 
0.08361 -0.166921 2.358 255 0 0 255 
-0.053633 -0.569076 2.63442 255 255 0 255 
-0.014089 -0.563066 2.62053 255 255 0 255 
-0.005369 -0.56285 2.61322 255 255 0 255 
0.002512 -0.562967 2.60542 255 255 0 255 
-0.261191 -0.170629 2.323 255 0 0 255 
-0.254186 -0.170198 2.317 255 0 0 255 
-0.247105 -0.169692 2.31 255 0 0 255 
-0.239854 -0.16904 2.301 255 0 0 255 
-0.233361 -0.168901 2.299 255 0 0 255 
-0.226779 -0.168689 2.296 255 0 0 255 
-0.219829 -0.168182 2.289 255 0 0 255 
-0.213383 -0.168043 2.287 255 0 0 255 
-0.207037 -0.167977 2.286 255 0 0 255 
-0.201048 -0.168205 2.289 255 0 0 255 
-0.194616 -0.168065 2.287 255 0 0 255 
-0.188194 -0.167925 2.285 255 0 0 255 
-0.181941 -0.167932 2.285 255 0 0 255 
-0.175919 -0.168159 2.288 255 0 0 255 
-0.169731 -0.168239 2.289 255 0 0 255 
-0.163822 -0.168612 2.294 255 0 0 255 
-0.157886 -0.168986 2.299 255 0 0 255 
-0.152251 -0.169726 2.309 255 0 0 255 
-0.146181 -0.170026 2.313 255 0 0 255 
-0.14015 -0.170399 2.318 255 0 0 255 
-0.134206 -0.170918 2.325 255 0 0 255 
-0.128278 -0.171511 2.333 255 0 0 255 
-0.122149 -0.171884 2.338 255 0 0 255 
-0.115794 -0.171962 2.339 255 0 0 255 
-0.109574 -0.17226 2.343 255 0 0 255 
-0.065488 -0.174562 2.374 255 0 0 255 
-0.058559 -0.173314 2.357 255 0 0 255 
-0.051988 -0.172949 2.352 255 0 0 255 
-0.045464 -0.172656 2.348 255 0 0 255 
-0.038995 -0.172511 2.346 255 0 0 255 
-0.032482 -0.172071 2.34 255 0 0 255 
-0.026034 -0.171852 2.337 255 0 0 255 
-0.019544 -0.171117 2.327 255 0 0 255 
-0.013131 -0.170677 2.321 255 0 0 255 
-0.006746 -0.170089 2.313 255 0 0 255 
-0.000404 -0.169574 2.306 255 0 0 255 
0.005904 -0.169206 2.301 255 0 0 255 
0.012196 -0.168985 2.298 255 0 0 255 
0.018487 -0.168911 2.297 255 0 0 255 
0.024794 -0.168984 2.298 255 0 0 255 
0.031107 -0.169056 2.299 255 0 0 255 
0.037474 -0.169349 2.303 255 0 0 255 
0.043843 -0.169568 2.306 255 0 0 255 
0.050251 -0.169861 2.31 255 0 0 255 
0.056656 -0.170079 2.313 255 0 0 255 
0.063186 -0.170592 2.32 255 0 0 255 
0.069903 -0.171472 2.332 255 0 0 255 
0.076883 -0.172792 2.35 255 0 0 255 
0.083677 -0.173525 2.36 255 0 0 255 
-0.03553 -0.576763 2.63424 255 255 0 255 
-0.020973 -0.57416 2.63047 255 255 0 255 
-0.019706 -0.577001 2.61845 255 255 0 255 
-0.261856 -0.177441 2.329 255 0 0 255 
-0.254725 -0.176917 2.322 255 0 0 255 
-0.247524 -0.176316 2.314 255 0 0 255 
-0.240366 -0.175716 2.306 255 0 0 255 
-0.233657 -0.17542 2.302 255 0 0 255 
-0.227265 -0.175352 2.301 255 0 0 255 
-0.220397 -0.174903 2.295 255 0 0 255 
-0.213748 -0.174606 2.291 255 0 0 255 
-0.207211 -0.174385 2.288 255 0 0 255 
-0.200953 -0.174393 2.288 255 0 0 255 
-0.194779 -0.174476 2.289 255 0 0 255 
-0.188352 -0.174331 2.287 255 0 0 255 
-0.182253 -0.17449 2.289 255 0 0 255 
-0.176066 -0.174573 2.29 255 0 0 255 
-0.169798 -0.17458 2.29 255 0 0 255 
-0.163745 -0.174815 2.293 255 0 0 255 
-0.15788 -0.175278 2.299 255 0 0 255 
-0.152377 -0.176199 2.311 255 0 0 255 
-0.146239 -0.176434 2.314 255 0 0 255 
-0.140024 -0.176592 2.316 255 0 0 255 
-0.13397 -0.176978 2.321 255 0 0 255 
-0.128108 -0.177669 2.33 255 0 0 255 
-0.121988 -0.178055 2.335 255 0 0 255 
-0.115839 -0.178441 2.34 255 0 0 255 
-0.058805 -0.180531 2.367 255 0 0 255 
-0.052252 -0.180304 2.364 255 0 0 255 
-0.045598 -0.17962 2.355 255 0 0 255 
-0.03906 -0.17924 2.35 255 0 0 255 
-0.032522 -0.178707 2.343 255 0 0 255 
-0.0261 -0.178709 2.343 255 0 0 255 
-0.019594 -0.177947 2.333 255 0 0 255 
-0.013165 -0.17749 2.327 255 0 0 255 
-0.006763 -0.17688 2.319 255 0 0 255 
-0.000406 -0.176575 2.315 255 0 0 255 
0.005927 -0.176194 2.31 255 0 0 255 
0.012238 -0.175888 2.306 255 0 0 255 
0.018543 -0.175735 2.304 255 0 0 255 
0.024815 -0.175429 2.3 255 0 0 255 
0.031106 -0.175352 2.299 255 0 0 255 
0.037407 -0.17535 2.299 255 0 0 255 
0.043861 -0.175959 2.307 255 0 0 255 
0.050292 -0.176338 2.312 255 0 0 255 
0.056751 -0.176718 2.317 255 0 0 255 
0.063156 -0.176868 2.319 255 0 0 255 
0.069841 -0.177704 2.33 255 0 0 255 
0.076782 -0.178998 2.347 255 0 0 255 
0.083816 -0.180291 2.364 255 0 0 255 
-0.057395 -0.594071 2.63507 255 255 0 255 
-0.032846 -0.587336 2.63737 255 255 0 255 
-0.011618 -0.588676 2.61216 255 255 0 255 
-0.030541 -0.603348 2.5744 255 255 0 255 
-0.262634 -0.184363 2.336 255 0 0 255 
-0.255484 -0.183821 2.329 255 0 0 255 
-0.24805 -0.183041 2.319 255 0 0 255 
-0.240774 -0.18234 2.31 255 0 0 255 
-0.233953 -0.181954 2.305 255 0 0 255 
-0.227553 -0.181884 2.304 255 0 0 255 
-0.220581 -0.18134 2.297 255 0 0 255 
-0.21374 -0.180874 2.291 255 0 0 255 
-0.206931 -0.180408 2.285 255 0 0 255 
-0.200857 -0.180574 2.287 255 0 0 255 
-0.194856 -0.180819 2.29 255 0 0 255 
-0.188674 -0.180905 2.291 255 0 0 255 
-0.182485 -0.180991 2.292 255 0 0 255 
-0.176213 -0.180998 2.292 255 0 0 255 
-0.170163 -0.181242 2.295 255 0 0 255 
-0.164024 -0.181406 2.297 255 0 0 255 
-0.15808 -0.181807 2.302 255 0 0 255 
-0.152239 -0.182366 2.309 255 0 0 255 
-0.146297 -0.182846 2.315 255 0 0 255 
-0.140139 -0.183089 2.318 255 0 0 255 
-0.134022 -0.18341 2.322 255 0 0 255 
-0.128048 -0.183968 2.329 255 0 0 255 
-0.121826 -0.18421 2.332 255 0 0 255 
-0.115884 -0.184926 2.341 255 0 0 255 
-0.058877 -0.187248 2.37 255 0 0 255 
-0.052382 -0.187251 2.37 255 0 0 255 
-0.045751 -0.186699 2.363 255 0 0 255 
-0.039125 -0.18599 2.354 255 0 0 255 
-0.032507 -0.185043 2.342 255 0 0 255 
-0.026065 -0.184887 2.34 255 0 0 255 
-0.019568 -0.184097 2.33 255 0 0 255 
-0.013159 -0.183782 2.326 255 0 0 255 
-0.006766 -0.183308 2.32 255 0 0 255 
-0.000407 -0.183625 2.324 255 0 0 255 
0.005953 -0.183308 2.32 255 0 0 255 
0.012285 -0.182913 2.315 255 0 0 255 
0.018598 -0.182596 2.311 255 0 0 255 
0.024911 -0.182437 2.309 255 0 0 255 
0.031213 -0.182278 2.307 255 0 0 255 
0.037471 -0.181961 2.303 255 0 0 255 
0.043859 -0.182275 2.307 255 0 0 255 
0.050247 -0.18251 2.31 255 0 0 255 
0.056749 -0.183061 2.317 255 0 0 255 
0.063208 -0.183375 2.321 255 0 0 255 
0.070018 -0.184557 2.336 255 0 0 255 
0.076975 -0.185897 2.353 255 0 0 255 
0.084061 -0.187316 2.371 255 0 0 255 
-0.016885 -0.592378 2.64872 255 255 0 255 
-0.0264 -0.599726 2.63001 255 255 0 255 
-0.020151 -0.600508 2.62108 255 255 0 255 
0.000155 -0.595395 2.62103 255 255 0 255 
-0.019952 -0.614051 2.56966 255 255 0 255 
-0.027708 -0.620757 2.55171 255 255 0 255 
-0.263074 -0.191079 2.34 255 0 0 255 
-0.256022 -0.190599 2.334 255 0 0 255 
-0.248468 -0.18971 2.323 255 0 0 255 
-0.241078 -0.188903 2.313 255 0 0 255 
-0.234147 -0.188422 2.307 255 0 0 255 
-0.227643 -0.188268 2.305 255 0 0 255 
-0.220957 -0.18795 2.301 255 0 0 255 
-0.214012 -0.187387 2.294 255 0 0 255 
-0.207467 -0.18715 2.291 255 0 0 255 
-0.200849 -0.186831 2.287 255 0 0 255 
-0.195104 -0.187329 2.293 255 0 0 255 
-0.188749 -0.187255 2.292 255 0 0 255 
-0.182796 -0.187589 2.296 255 0 0 255 
-0.17636 -0.187433 2.294 255 0 0 255 
-0.170304 -0.187685 2.297 255 0 0 255 
-0.164089 -0.187774 2.298 255 0 0 255 
-0.158073 -0.188107 2.302 255 0 0 255 
-0.152101 -0.188522 2.307 255 0 0 255 
-0.146164 -0.189018 2.313 255 0 0 255 
-0.140073 -0.189351 2.317 255 0 0 255 
-0.133959 -0.189683 2.321 255 0 0 255 
-0.127988 -0.190261 2.328 255 0 0 255 
-0.12203 -0.19092 2.336 255 0 0 255 
-0.116226 -0.191905 2.348 255 0 0 255 
-0.05895 -0.193981 2.373 255 0 0 255 
-0.052424 -0.193902 2.372 255 0 0 255 
-0.045749 -0.193168 2.363 255 0 0 255 
-0.03914 -0.192516 2.355 255 0 0 255 
-0.032505 -0.191455 2.342 255 0 0 255 
-0.026042 -0.191129 2.338 255 0 0 255 
-0.019575 -0.190558 2.331 255 0 0 255 
-0.013158 -0.19015 2.326 255 0 0 255 
-0.006768 -0.189741 2.321 255 0 0 255 
-0.000407 -0.189905 2.323 255 0 0 255 
0.005958 -0.189823 2.322 255 0 0 255 
0.012317 -0.189741 2.321 255 0 0 255 
0.018678 -0.18974 2.321 255 0 0 255 
0.024964 -0.189167 2.314 255 0 0 255 
0.031279 -0.189003 2.312 255 0 0 255 
0.0376 -0.188919 2.311 255 0 0 255 
0.044028 -0.189326 2.316 255 0 0 255 
0.050462 -0.189652 2.32 255 0 0 255 
0.056869 -0.189813 2.322 255 0 0 255 
0.063396 -0.190301 2.328 255 0 0 255 
0.070075 -0.191115 2.338 255 0 0 255 
0.077168 -0.192829 2.359 255 0 0 255 
0.084093 -0.193888 2.372 255 0 0 255 
-0.263288 -0.197646 2.342 255 0 0 255 
-0.256232 -0.19715 2.336 255 0 0 255 
-0.248566 -0.196147 2.324 255 0 0 255 
-0.240755 -0.194975 2.31 255 0 0 255 
-0.233934 -0.194563 2.305 255 0 0 255 
-0.227436 -0.194403 2.303 255 0 0 255 
-0.220948 -0.194244 2.301 255 0 0 255 
-0.214097 -0.193746 2.295 255 0 0 255 
-0.20773 -0.19367 2.294 255 0 0 255 
-0.201456 -0.193678 2.294 255 0 0 255 
-0.195522 -0.194024 2.298 255 0 0 255 
-0.18907 -0.193863 2.296 255 0 0 255 
-0.182789 -0.193871 2.296 255 0 0 255 
-0.176199 -0.193541 2.292 255 0 0 255 
-0.170297 -0.19397 2.297 255 0 0 255 
-0.164154 -0.194146 2.299 255 0 0 255 
-0.158204 -0.194575 2.304 255 0 0 255 
-0.152095 -0.194835 2.307 255 0 0 255 
-0.146222 -0.195432 2.314 255 0 0 255 
-0.140188 -0.19586 2.319 255 0 0 255 
-0.134242 -0.196457 2.326 255 0 0 255 
-0.128478 -0.197392 2.337 255 0 0 255 
-0.122809 -0.19858 2.351 255 0 0 255 
-0.117112 -0.199852 2.366 255 0 0 255 
-0.067573 -0.206979 2.45 255 0 0 255 
-0.058823 -0.200054 2.368 255 0 0 255 
-0.052356 -0.200141 2.369 255 0 0 255 
-0.045806 -0.19989 2.366 255 0 0 255 
-0.039189 -0.199216 2.358 255 0 0 255 
-0.032587 -0.198372 2.348 255 0 0 255 
-0.026063 -0.197698 2.34 255 0 0 255 
-0.019591 -0.197107 2.333 255 0 0 255 
-0.013157 -0.196517 2.326 255 0 0 255 
-0.006762 -0.195926 2.319 255 0 0 255 
-0.000407 -0.196264 2.323 255 0 0 255 
0.005963 -0.196348 2.324 255 0 0 255 
0.012337 -0.196432 2.325 255 0 0 255 
0.018702 -0.196347 2.324 255 0 0 255 
0.025039 -0.196093 2.321 255 0 0 255 
0.0314 -0.196092 2.321 255 0 0 255 
0.037728 -0.195921 2.319 255 0 0 255 
0.044102 -0.196004 2.32 255 0 0 255 
0.05046 -0.196002 2.32 255 0 0 255 
0.056842 -0.196084 2.321 255 0 0 255 
0.063448 -0.196842 2.33 255 0 0 255 
0.070072 -0.197515 2.338 255 0 0 255 
0.076936 -0.198694 2.352 255 0 0 255 
0.083948 -0.200043 2.368 255 0 0 255 
-0.263053 -0.203875 2.34 255 0 0 255 
-0.255892 -0.203276 2.333 255 0 0 255 
-0.248769 -0.202676 2.326 255 0 0 255 
-0.241058 -0.201554 2.313 255 0 0 255 
-0.234128 -0.201041 2.307 255 0 0 255 
-0.227624 -0.200876 2.305 255 0 0 255 
-0.221323 -0.200885 2.305 255 0 0 255 
-0.214648 -0.200546 2.301 255 0 0 255 
-0.208265 -0.200467 2.3 255 0 0 255 
-0.202062 -0.200563 2.301 255 0 0 255 
-0.196024 -0.200833 2.304 255 0 0 255 
-0.189474 -0.20058 2.301 255 0 0 255 
-0.182781 -0.200152 2.296 255 0 0 255 
-0.176268 -0.199898 2.293 255 0 0 255 
-0.170216 -0.200167 2.296 255 0 0 255 
-0.164075 -0.200348 2.298 255 0 0 255 
-0.15806 -0.200704 2.302 255 0 0 255 
-0.151891 -0.200885 2.304 255 0 0 255 
-0.145899 -0.201327 2.309 255 0 0 255 
-0.140001 -0.201944 2.316 255 0 0 255 
-0.134294 -0.202909 2.327 255 0 0 255 
-0.129022 -0.204659 2.347 255 0 0 255 
-0.123535 -0.206234 2.365 255 0 0 255 
-0.117701 -0.207373 2.378 255 0 0 255 
-0.059168 -0.207756 2.382 255 0 0 255 
-0.05253 -0.207323 2.377 255 0 0 255 
-0.045881 -0.206714 2.37 255 0 0 255 
-0.039253 -0.206018 2.362 255 0 0 255 
-0.032628 -0.205061 2.351 255 0 0 255 
-0.026129 -0.204626 2.346 255 0 0 255 
-0.019616 -0.203754 2.336 255 0 0 255 
-0.013174 -0.203145 2.329 255 0 0 255 
-0.006768 -0.202447 2.321 255 0 0 255 
-0.000407 -0.202622 2.323 255 0 0 255 
0.005965 -0.202796 2.325 255 0 0 255 
0.012347 -0.20297 2.327 255 0 0 255 
0.018709 -0.202795 2.325 255 0 0 255 
0.025005 -0.202184 2.318 255 0 0 255 
0.031344 -0.202095 2.317 255 0 0 255 
0.037743 -0.202355 2.32 255 0 0 255 
0.044215 -0.202877 2.326 255 0 0 255 
0.050545 -0.2027 2.324 255 0 0 255 
0.056938 -0.202785 2.325 255 0 0 255 
0.063363 -0.202957 2.327 255 0 0 255 
0.070099 -0.204001 2.339 255 0 0 255 
0.076966 -0.205218 2.353 255 0 0 255 
-0.262255 -0.209644 2.333 255 0 0 255 
-0.255772 -0.209565 2.332 255 0 0 255 
-0.248652 -0.208946 2.325 255 0 0 255 
-0.241361 -0.208148 2.316 255 0 0 255 
-0.23422 -0.207439 2.308 255 0 0 255 
-0.227812 -0.207359 2.307 255 0 0 255 
-0.22141 -0.207278 2.306 255 0 0 255 
-0.214918 -0.207108 2.304 255 0 0 255 
-0.208347 -0.206847 2.301 255 0 0 255 
-0.202229 -0.207036 2.303 255 0 0 255 
-0.195931 -0.207045 2.303 255 0 0 255 
-0.189549 -0.206963 2.302 255 0 0 255 
-0.182853 -0.206522 2.297 255 0 0 255 
-0.176491 -0.20644 2.296 255 0 0 255 
-0.170431 -0.206717 2.299 255 0 0 255 
-0.164354 -0.206994 2.302 255 0 0 255 
-0.158191 -0.207181 2.304 255 0 0 255 
-0.152082 -0.207458 2.307 255 0 0 255 
-0.146019 -0.207824 2.311 255 0 0 255 
-0.140478 -0.208999 2.324 255 0 0 255 
-0.134923 -0.210265 2.338 255 0 0 255 
-0.129896 -0.212519 2.363 255 0 0 255 
-0.124156 -0.213784 2.377 255 0 0 255 
-0.117943 -0.214329 2.383 255 0 0 255 
-0.05924 -0.214544 2.385 255 0 0 255 
-0.05255 -0.213917 2.378 255 0 0 255 
-0.045937 -0.21347 2.373 255 0 0 255 
-0.039318 -0.212842 2.366 255 0 0 255 
-0.032751 -0.212304 2.36 255 0 0 255 
-0.026217 -0.211765 2.354 255 0 0 255 
-0.019665 -0.210687 2.342 255 0 0 255 
-0.013202 -0.209968 2.334 255 0 0 255 
-0.006773 -0.208979 2.323 255 0 0 255 
-0.000407 -0.209159 2.325 255 0 0 255 
0.00597 -0.209339 2.327 255 0 0 255 
0.012358 -0.209518 2.329 255 0 0 255 
0.0187 -0.209068 2.324 255 0 0 255 
0.025004 -0.208527 2.318 255 0 0 255 
0.031316 -0.208256 2.315 255 0 0 255 
0.037676 -0.208344 2.316 255 0 0 255 
0.044042 -0.208432 2.317 255 0 0 255 
0.050412 -0.20852 2.318 255 0 0 255 
0.056911 -0.209057 2.324 255 0 0 255 
0.063469 -0.209684 2.331 255 0 0 255 
0.070366 -0.211211 2.348 255 0 0 255 
0.077191 -0.212287 2.36 255 0 0 255 
0.084224 -0.213722 2.376 255 0 0 255 
-0.262244 -0.216021 2.333 255 0 0 255 
-0.255761 -0.21594 2.332 255 0 0 255 
-0.248534 -0.21521 2.324 255 0 0 255 
-0.241351 -0.214479 2.316 255 0 0 255 
-0.234412 -0.213934 2.31 255 0 0 255 
-0.228395 -0.214222 2.313 255 0 0 255 
-0.221976 -0.214139 2.312 255 0 0 255 
-0.215282 -0.213778 2.308 255 0 0 255 
-0.208156 -0.212954 2.299 255 0 0 255 
-0.201869 -0.212963 2.299 255 0 0 255 
-0.195412 -0.212787 2.297 255 0 0 255 
-0.189458 -0.213166 2.301 255 0 0 255 
-0.183084 -0.213082 2.3 255 0 0 255 
-0.177022 -0.213368 2.303 255 0 0 255 
-0.170572 -0.21319 2.301 255 0 0 255 
-0.164632 -0.213661 2.306 255 0 0 255 
-0.158321 -0.213668 2.306 255 0 0 255 
-0.152273 -0.214046 2.31 255 0 0 255 
-0.146392 -0.214701 2.317 255 0 0 255 
-0.140956 -0.216098 2.332 255 0 0 255 
-0.13561 -0.217772 2.35 255 0 0 255 
-0.130165 -0.219446 2.368 255 0 0 255 
-0.124151 -0.220286 2.377 255 0 0 255 
-0.117889 -0.220755 2.382 255 0 0 255 
-0.059386 -0.221626 2.391 255 0 0 255 
-0.05268 -0.22098 2.384 255 0 0 255 
-0.045954 -0.220055 2.374 255 0 0 255 
-0.039349 -0.219501 2.368 255 0 0 255 
-0.03275 -0.218761 2.36 255 0 0 255 
-0.026182 -0.217928 2.351 255 0 0 255 
-0.019673 -0.217188 2.343 255 0 0 255 
-0.013229 -0.216818 2.339 255 0 0 255 
-0.006802 -0.216262 2.333 255 0 0 255 
-0.000408 -0.215892 2.329 255 0 0 255 
0.005967 -0.215613 2.326 255 0 0 255 
0.012341 -0.215613 2.326 255 0 0 255 
0.018683 -0.215241 2.322 255 0 0 255 
0.025003 -0.21487 2.318 255 0 0 255 
0.031301 -0.214498 2.314 255 0 0 255 
0.037691 -0.214774 2.317 255 0 0 255 
0.044059 -0.214865 2.318 255 0 0 255 
0.050475 -0.215141 2.321 255 0 0 255 
0.057006 -0.215787 2.328 255 0 0 255 
0.063684 -0.216804 2.339 255 0 0 255 
0.070812 -0.219025 2.363 255 0 0 255 
0.077711 -0.220227 2.376 255 0 0 255 
0.08539 -0.223282 2.409 255 0 0 255 
-0.263581 -0.223541 2.345 255 0 0 255 
-0.25586 -0.222409 2.333 255 0 0 255 
-0.248524 -0.221562 2.324 255 0 0 255 
-0.241653 -0.221096 2.319 255 0 0 255 
-0.234605 -0.22044 2.312 255 0 0 255 
-0.228385 -0.220545 2.313 255 0 0 255 
-0.22187 -0.220365 2.311 255 0 0 255 
-0.215272 -0.220089 2.308 255 0 0 255 
-0.208238 -0.219335 2.3 255 0 0 255 
-0.20186 -0.219249 2.299 255 0 0 255 
-0.195403 -0.219068 2.297 255 0 0 255 
-0.189449 -0.219458 2.301 255 0 0 255 
-0.183155 -0.219466 2.301 255 0 0 255 
-0.17709 -0.219761 2.304 255 0 0 255 
-0.170638 -0.219578 2.302 255 0 0 255 
-0.164767 -0.220158 2.308 255 0 0 255 
-0.158588 -0.220357 2.31 255 0 0 255 
-0.152859 -0.221222 2.319 255 0 0 255 
-0.146827 -0.221706 2.324 255 0 0 255 
-0.141614 -0.223526 2.343 255 0 0 255 
-0.136065 -0.224963 2.358 255 0 0 255 
-0.130433 -0.2264 2.373 255 0 0 255 
-0.124354 -0.22717 2.381 255 0 0 255 
-0.118329 -0.22813 2.391 255 0 0 255 
-0.059284 -0.227786 2.387 255 0 0 255 
-0.052435 -0.226452 2.373 255 0 0 255 
-0.045855 -0.226073 2.369 255 0 0 255 
-0.039281 -0.225598 2.364 255 0 0 255 
-0.032734 -0.225123 2.359 255 0 0 255 
-0.026192 -0.224456 2.352 255 0 0 255 
-0.01973 -0.224266 2.35 255 0 0 255 
-0.013279 -0.224076 2.348 255 0 0 255 
-0.006822 -0.223313 2.34 255 0 0 255 
-0.000409 -0.222741 2.334 255 0 0 255 
0.005974 -0.222263 2.329 255 0 0 255 
0.012356 -0.222263 2.329 255 0 0 255 
0.018698 -0.221785 2.324 255 0 0 255 
0.025056 -0.221689 2.323 255 0 0 255 
0.031367 -0.221305 2.319 255 0 0 255 
0.037738 -0.221399 2.32 255 0 0 255 
0.044056 -0.221206 2.318 255 0 0 255 
0.05056 -0.221872 2.325 255 0 0 255 
0.057126 -0.222633 2.333 255 0 0 255 
0.06409 -0.224634 2.354 255 0 0 255 
0.070958 -0.225967 2.368 255 0 0 255 
0.077642 -0.226536 2.374 255 0 0 255 
-0.264356 -0.230636 2.352 255 0 0 255 
-0.256177 -0.229079 2.336 255 0 0 255 
-0.249047 -0.228404 2.329 255 0 0 255 
-0.242267 -0.228023 2.325 255 0 0 255 
-0.235305 -0.227446 2.319 255 0 0 255 
-0.228572 -0.227064 2.315 255 0 0 255 
-0.221956 -0.22678 2.312 255 0 0 255 
-0.215449 -0.226594 2.31 255 0 0 255 
-0.20859 -0.226015 2.304 255 0 0 255 
-0.202202 -0.225927 2.303 255 0 0 255 
-0.195564 -0.225544 2.299 255 0 0 255 
-0.18944 -0.225749 2.301 255 0 0 255 
-0.183067 -0.22566 2.3 255 0 0 255 
-0.177005 -0.225962 2.303 255 0 0 255 
-0.170704 -0.225971 2.303 255 0 0 255 
-0.164831 -0.226567 2.309 255 0 0 255 
-0.158855 -0.227066 2.314 255 0 0 255 
-0.153181 -0.228054 2.324 255 0 0 255 
-0.147136 -0.228552 2.329 255 0 0 255 
-0.141728 -0.230129 2.345 255 0 0 255 
-0.136059 -0.231412 2.358 255 0 0 255 
-0.130207 -0.232498 2.369 255 0 0 255 
-0.124139 -0.233289 2.377 255 0 0 255 
-0.11857 -0.23516 2.396 255 0 0 255 
-0.052454 -0.233042 2.374 255 0 0 255 
-0.045892 -0.23275 2.371 255 0 0 255 
-0.039296 -0.232163 2.365 255 0 0 255 
-0.032746 -0.231674 2.36 255 0 0 255 
-0.026224 -0.231184 2.355 255 0 0 255 
-0.019788 -0.231382 2.357 255 0 0 255 
-0.013324 -0.231284 2.356 255 0 0 255 
-0.006842 -0.230401 2.347 255 0 0 255 
-0.000409 -0.22942 2.337 255 0 0 255 
0.005974 -0.228634 2.329 255 0 0 255 
0.01235 -0.228536 2.328 255 0 0 255 
0.018713 -0.228339 2.326 255 0 0 255 
0.025108 -0.228534 2.328 255 0 0 255 
0.031474 -0.228434 2.327 255 0 0 255 
0.037882 -0.228629 2.329 255 0 0 255 
0.044282 -0.228725 2.33 255 0 0 255 
0.05071 -0.228919 2.332 255 0 0 255 
0.05727 -0.229604 2.339 255 0 0 255 
0.064141 -0.231269 2.356 255 0 0 255 
0.071045 -0.232739 2.371 255 0 0 255 
-0.264794 -0.237466 2.356 255 0 0 255 
-0.257043 -0.236269 2.344 255 0 0 255 
-0.249784 -0.235474 2.336 255 0 0 255 
-0.242568 -0.234679 2.328 255 0 0 255 
-0.235497 -0.233985 2.321 255 0 0 255 
-0.228462 -0.23329 2.314 255 0 0 255 
-0.221754 -0.232898 2.31 255 0 0 255 
-0.215346 -0.232807 2.309 255 0 0 255 
-0.20858 -0.232313 2.304 255 0 0 255 
-0.202105 -0.232121 2.302 255 0 0 255 
-0.19564 -0.231929 2.3 255 0 0 255 
-0.189431 -0.232039 2.301 255 0 0 255 
-0.183217 -0.232149 2.302 255 0 0 255 
-0.177227 -0.232561 2.306 255 0 0 255 
-0.171067 -0.232771 2.308 255 0 0 255 
-0.165108 -0.233284 2.313 255 0 0 255 
-0.158916 -0.233493 2.315 255 0 0 255 
-0.153438 -0.234812 2.328 255 0 0 255 
-0.147319 -0.235223 2.332 255 0 0 255 
-0.141963 -0.236945 2.349 255 0 0 255 
-0.135937 -0.237658 2.356 255 0 0 255 
-0.130201 -0.238976 2.369 255 0 0 255 
-0.124133 -0.239789 2.377 255 0 0 255 
-0.052562 -0.240039 2.379 255 0 0 255 
-0.045967 -0.239638 2.375 255 0 0 255 
-0.039327 -0.238833 2.367 255 0 0 255 
-0.032773 -0.23833 2.362 255 0 0 255 
-0.026279 -0.23813 2.36 255 0 0 255 
-0.019829 -0.238333 2.362 255 0 0 255 
-0.013346 -0.238132 2.36 255 0 0 255 
-0.006848 -0.237023 2.349 255 0 0 255 
-0.00041 -0.236014 2.339 255 0 0 255 
0.005987 -0.235509 2.334 255 0 0 255 
0.012387 -0.235609 2.335 255 0 0 255 
0.018769 -0.235407 2.333 255 0 0 255 
0.025161 -0.235406 2.333 255 0 0 255 
0.031526 -0.235203 2.331 255 0 0 255 
0.037945 -0.235403 2.333 255 0 0 255 
0.044375 -0.235602 2.335 255 0 0 255 
0.050881 -0.236104 2.34 255 0 0 255 
0.057463 -0.236808 2.347 255 0 0 255 
0.064274 -0.238218 2.361 255 0 0 255 
0.071131 -0.239526 2.374 255 0 0 255 
-0.26613 -0.245146 2.368 255 0 0 255 
-0.257908 -0.243502 2.352 255 0 0 255 
-0.250307 -0.242375 2.341 255 0 0 255 
-0.242869 -0.241351 2.331 255 0 0 255 
-0.235587 -0.240431 2.322 255 0 0 255 
-0.22855 -0.239717 2.315 255 0 0 255 
-0.221743 -0.23921 2.31 255 0 0 255 
-0.215335 -0.239117 2.309 255 0 0 255 
-0.208299 -0.238299 2.301 255 0 0 255 
-0.201744 -0.237999 2.298 255 0 0 255 
-0.195375 -0.237905 2.297 255 0 0 255 
-0.18934 -0.238225 2.3 255 0 0 255 
-0.183367 -0.238648 2.304 255 0 0 255 
-0.177449 -0.239175 2.309 255 0 0 255 
-0.171503 -0.239702 2.314 255 0 0 255 
-0.165529 -0.240228 2.319 255 0 0 255 
-0.159389 -0.240547 2.322 255 0 0 255 
-0.153891 -0.241902 2.335 255 0 0 255 
-0.14788 -0.242531 2.341 255 0 0 255 
-0.142077 -0.243574 2.351 255 0 0 255 
-0.135872 -0.243996 2.355 255 0 0 255 
-0.12992 -0.244935 2.364 255 0 0 255 
-0.12397 -0.245977 2.374 255 0 0 255 
-0.052913 -0.248203 2.395 255 0 0 255 
-0.046236 -0.247584 2.389 255 0 0 255 
-0.039508 -0.246446 2.378 255 0 0 255 
-0.032896 -0.245722 2.371 255 0 0 255 
-0.0263 -0.244791 2.362 255 0 0 255 
-0.01982 -0.244689 2.361 255 0 0 255 
-0.013334 -0.244379 2.358 255 0 0 255 
-0.00685 -0.24355 2.35 255 0 0 255 
-0.00041 -0.242721 2.342 255 0 0 255 
0.005991 -0.242099 2.336 255 0 0 255 
0.012386 -0.241995 2.335 255 0 0 255 
0.01876 -0.241683 2.332 255 0 0 255 
0.025138 -0.241579 2.331 255 0 0 255 
0.031552 -0.241784 2.333 255 0 0 255 
0.037992 -0.242094 2.336 255 0 0 255 
0.044487 -0.24261 2.341 255 0 0 255 
0.0509 -0.242607 2.341 255 0 0 255 
0.057362 -0.242812 2.343 255 0 0 255 
0.06389 -0.243223 2.347 255 0 0 255 
0.070918 -0.245292 2.367 255 0 0 255 
-0.258444 -0.250458 2.357 255 0 0 255 
-0.250829 -0.249302 2.346 255 0 0 255 
-0.243066 -0.247932 2.333 255 0 0 255 
-0.235778 -0.246988 2.324 255 0 0 255 
-0.228638 -0.246149 2.316 255 0 0 255 
-0.221636 -0.245416 2.309 255 0 0 255 
-0.214952 -0.245002 2.305 255 0 0 255 
-0.208107 -0.244374 2.299 255 0 0 255 
-0.201646 -0.244172 2.297 255 0 0 255 
-0.19562 -0.244501 2.3 255 0 0 255 
-0.18966 -0.244936 2.304 255 0 0 255 
-0.183517 -0.245158 2.306 255 0 0 255 
-0.17744 -0.245486 2.309 255 0 0 255 
-0.171568 -0.246133 2.315 255 0 0 255 
-0.165663 -0.246779 2.321 255 0 0 255 
-0.159312 -0.246788 2.321 255 0 0 255 
-0.15395 -0.248391 2.336 255 0 0 255 
-0.147999 -0.249143 2.343 255 0 0 255 
-0.14219 -0.250213 2.353 255 0 0 255 
-0.135923 -0.25054 2.356 255 0 0 255 
-0.130133 -0.251823 2.368 255 0 0 255 
-0.124381 -0.253318 2.382 255 0 0 255 
-0.053286 -0.25656 2.412 255 0 0 255 
-0.046272 -0.254329 2.391 255 0 0 255 
-0.039589 -0.25348 2.383 255 0 0 255 
-0.03295 -0.252631 2.375 255 0 0 255 
-0.026354 -0.251781 2.367 255 0 0 255 
-0.019819 -0.251144 2.361 255 0 0 255 
-0.013322 -0.250613 2.356 255 0 0 255 
-0.006847 -0.249869 2.349 255 0 0 255 
-0.00041 -0.249231 2.343 255 0 0 255 
0.006004 -0.249018 2.341 255 0 0 255 
0.012412 -0.248912 2.34 255 0 0 255 
0.018791 -0.248485 2.336 255 0 0 255 
0.025137 -0.247952 2.331 255 0 0 255 
0.031536 -0.248057 2.332 255 0 0 255 
0.037974 -0.248374 2.335 255 0 0 255 
0.044523 -0.249223 2.343 255 0 0 255 
0.050941 -0.249221 2.343 255 0 0 255 
0.057433 -0.249537 2.346 255 0 0 255 
0.063913 -0.249747 2.348 255 0 0 255 
0.070195 -0.249211 2.343 255 0 0 255 
-0.258541 -0.257006 2.358 255 0 0 255 
-0.250603 -0.255492 2.344 255 0 0 255 
-0.24295 -0.254197 2.332 255 0 0 255 
-0.235564 -0.253118 2.322 255 0 0 255 
-0.228231 -0.25204 2.312 255 0 0 255 
-0.221337 -0.251397 2.306 255 0 0 255 
-0.214941 -0.251299 2.305 255 0 0 255 
-0.208368 -0.250983 2.302 255 0 0 255 
-0.202075 -0.250994 2.302 255 0 0 255 
-0.195866 -0.251113 2.303 255 0 0 255 
-0.18965 -0.251232 2.304 255 0 0 255 
-0.183428 -0.25135 2.305 255 0 0 255 
-0.177047 -0.251251 2.304 255 0 0 255 
-0.171411 -0.252241 2.313 255 0 0 255 
-0.16544 -0.252795 2.318 255 0 0 255 
-0.15951 -0.253458 2.324 255 0 0 255 
-0.15381 -0.254557 2.334 255 0 0 255 
-0.147928 -0.255437 2.342 255 0 0 255 
-0.142123 -0.256536 2.352 255 0 0 255 
-0.136089 -0.257306 2.359 255 0 0 255 
-0.130401 -0.25884 2.373 255 0 0 255 
-0.125001 -0.261138 2.394 255 0 0 255 
-0.053106 -0.262281 2.404 255 0 0 255 
-0.046327 -0.261193 2.394 255 0 0 255 
-0.039686 -0.260649 2.389 255 0 0 255 
-0.033003 -0.25956 2.379 255 0 0 255 
-0.026419 -0.258907 2.373 255 0 0 255 
-0.019851 -0.258036 2.365 255 0 0 255 
-0.01335 -0.2576 2.361 255 0 0 255 
-0.006847 -0.256291 2.349 255 0 0 255 
-0.00041 -0.255528 2.342 255 0 0 255 
0.005993 -0.254982 2.337 255 0 0 255 
0.012396 -0.254982 2.337 255 0 0 255 
0.018774 -0.254653 2.334 255 0 0 255 
0.025103 -0.253998 2.328 255 0 0 255 
0.031481 -0.253996 2.328 255 0 0 255 
0.037923 -0.254431 2.332 255 0 0 255 
0.04452 -0.255629 2.343 255 0 0 255 
0.050917 -0.255517 2.342 255 0 0 255 
0.057405 -0.255841 2.345 255 0 0 255 
0.063856 -0.255947 2.346 255 0 0 255 
0.070701 -0.257471 2.36 255 0 0 255 
-0.249949 -0.261224 2.338 255 0 0 255 
-0.242208 -0.259784 2.325 255 0 0 255 
-0.235349 -0.259237 2.32 255 0 0 255 
-0.228319 -0.258467 2.313 255 0 0 255 
-0.221614 -0.258032 2.309 255 0 0 255 
-0.215023 -0.257708 2.306 255 0 0 255 
-0.20881 -0.257831 2.307 255 0 0 255 
-0.202854 -0.258288 2.311 255 0 0 255 
-0.196451 -0.258187 2.31 255 0 0 255 
-0.189969 -0.257974 2.308 255 0 0 255 
-0.183498 -0.25776 2.306 255 0 0 255 
-0.177268 -0.257881 2.307 255 0 0 255 
-0.171773 -0.25912 2.318 255 0 0 255 
-0.165789 -0.259688 2.323 255 0 0 255 
-0.159776 -0.260256 2.328 255 0 0 255 
-0.153538 -0.260488 2.33 255 0 0 255 
-0.147731 -0.261502 2.339 255 0 0 255 
-0.142357 -0.26341 2.356 255 0 0 255 
-0.136601 -0.264759 2.368 255 0 0 255 
-0.131108 -0.266779 2.386 255 0 0 255 
-0.125412 -0.268575 2.402 255 0 0 255 
-0.053015 -0.268405 2.4 255 0 0 255 
-0.046286 -0.267513 2.392 255 0 0 255 
-0.039701 -0.267291 2.39 255 0 0 255 
-0.033001 -0.266063 2.379 255 0 0 255 
-0.026407 -0.265282 2.372 255 0 0 255 
-0.019833 -0.264277 2.363 255 0 0 255 
-0.013326 -0.263607 2.357 255 0 0 255 
-0.00684 -0.262489 2.347 255 0 0 255 
-0.000409 -0.261594 2.339 255 0 0 255 
0.00599 -0.261258 2.336 255 0 0 255 
0.012395 -0.26137 2.337 255 0 0 255 
0.018805 -0.261481 2.338 255 0 0 255 
0.025167 -0.261032 2.334 255 0 0 255 
0.03156 -0.261031 2.334 255 0 0 255 
0.037986 -0.261252 2.336 255 0 0 255 
0.044537 -0.262145 2.344 255 0 0 255 
0.050957 -0.262142 2.344 255 0 0 255 
0.057549 -0.262922 2.351 255 0 0 255 
0.064124 -0.263478 2.356 255 0 0 255 
0.070128 -0.261797 2.341 255 0 0 255 
-0.250685 -0.26841 2.345 255 0 0 255 
-0.242196 -0.266133 2.325 255 0 0 255 
-0.235337 -0.265573 2.32 255 0 0 255 
-0.228504 -0.265013 2.315 255 0 0 255 
-0.22189 -0.264682 2.312 255 0 0 255 
-0.215571 -0.264693 2.312 255 0 0 255 
-0.209342 -0.264819 2.313 255 0 0 255 
-0.20337 -0.265288 2.317 255 0 0 255 
-0.196695 -0.264841 2.313 255 0 0 255 
-0.190206 -0.264622 2.311 255 0 0 255 
-0.183807 -0.264517 2.31 255 0 0 255 
-0.17795 -0.265214 2.316 255 0 0 255 
-0.172282 -0.266254 2.325 255 0 0 255 
-0.166279 -0.266836 2.33 255 0 0 255 
-0.160179 -0.267303 2.334 255 0 0 255 
-0.153859 -0.267426 2.335 255 0 0 255 
-0.148038 -0.268465 2.344 255 0 0 255 
-0.142712 -0.270535 2.362 255 0 0 255 
-0.137286 -0.272604 2.38 255 0 0 255 
-0.131431 -0.273986 2.392 255 0 0 255 
-0.125667 -0.275711 2.407 255 0 0 255 
-0.053167 -0.275766 2.407 255 0 0 255 
-0.046361 -0.274508 2.396 255 0 0 255 
-0.039782 -0.274396 2.395 255 0 0 255 
-0.033027 -0.272794 2.381 255 0 0 255 
-0.026439 -0.272108 2.375 255 0 0 255 
-0.019841 -0.270849 2.364 255 0 0 255 
-0.013348 -0.270507 2.361 255 0 0 255 
-0.006857 -0.269591 2.353 255 0 0 255 
-0.00041 -0.268674 2.345 255 0 0 255 
0.006 -0.268101 2.34 255 0 0 255 
0.0124 -0.267872 2.338 255 0 0 255 
0.018796 -0.267756 2.337 255 0 0 255 
0.025187 -0.26764 2.336 255 0 0 255 
0.031612 -0.267868 2.338 255 0 0 255 
0.038065 -0.26821 2.341 255 0 0 255 
0.044553 -0.268666 2.345 255 0 0 255 
0.051042 -0.269007 2.348 255 0 0 255 
0.05757 -0.269462 2.352 255 0 0 255 
0.064094 -0.269802 2.355 255 0 0 255 
-0.246558 -0.277404 2.367 255 0 0 255 
-0.236947 -0.273784 2.336 255 0 0 255 
-0.229874 -0.272976 2.329 255 0 0 255 
-0.222646 -0.271933 2.32 255 0 0 255 
-0.216119 -0.271711 2.318 255 0 0 255 
-0.209784 -0.271722 2.318 255 0 0 255 
-0.203623 -0.271968 2.32 255 0 0 255 
-0.197195 -0.271861 2.319 255 0 0 255 
-0.190772 -0.271755 2.318 255 0 0 255 
-0.184354 -0.271648 2.317 255 0 0 255 
-0.178632 -0.272596 2.325 255 0 0 255 
-0.172866 -0.273543 2.333 255 0 0 255 
-0.166912 -0.274256 2.339 255 0 0 255 
-0.160651 -0.2745 2.341 255 0 0 255 
-0.15451 -0.274978 2.345 255 0 0 255 
-0.148662 -0.276041 2.354 255 0 0 255 
-0.143368 -0.278278 2.373 255 0 0 255 
-0.137912 -0.280396 2.391 255 0 0 255 
-0.131973 -0.281694 2.402 255 0 0 255 
-0.126077 -0.283226 2.415 255 0 0 255 
-0.046571 -0.282346 2.407 255 0 0 255 
-0.039846 -0.28141 2.399 255 0 0 255 
-0.033095 -0.279887 2.386 255 0 0 255 
-0.026415 -0.278364 2.373 255 0 0 255 
-0.019831 -0.277192 2.363 255 0 0 255 
-0.013319 -0.276372 2.356 255 0 0 255 
-0.006851 -0.275786 2.351 255 0 0 255 
-0.000411 -0.275317 2.347 255 0 0 255 
0.006015 -0.275199 2.346 255 0 0 255 
0.01242 -0.27473 2.342 255 0 0 255 
0.018843 -0.274846 2.343 255 0 0 255 
0.02525 -0.274728 2.342 255 0 0 255 
0.031759 -0.275547 2.349 255 0 0 255 
0.038274 -0.276132 2.354 255 0 0 255 
0.044798 -0.276598 2.358 255 0 0 255 
0.051343 -0.277065 2.362 255 0 0 255 
0.05791 -0.277531 2.366 255 0 0 255 
0.064498 -0.277997 2.37 255 0 0 255 
-0.239571 -0.28328 2.362 255 0 0 255 
-0.230059 -0.279575 2.331 255 0 0 255 
-0.222922 -0.278628 2.323 255 0 0 255 
-0.216294 -0.27828 2.32 255 0 0 255 
-0.209863 -0.278172 2.319 255 0 0 255 
-0.203436 -0.278063 2.318 255 0 0 255 
-0.197354 -0.278434 2.321 255 0 0 255 
-0.191338 -0.278925 2.325 255 0 0 255 
-0.185378 -0.279535 2.33 255 0 0 255 
-0.179851 -0.280865 2.341 255 0 0 255 
-0.173523 -0.280995 2.342 255 0 0 255 
-0.16726 -0.281244 2.344 255 0 0 255 
-0.160916 -0.281374 2.345 255 0 0 255 
-0.155226 -0.282702 2.356 255 0 0 255 
-0.149285 -0.283671 2.364 255 0 0 255 
-0.143783 -0.285599 2.38 255 0 0 255 
-0.138135 -0.287407 2.395 255 0 0 255 
-0.132075 -0.288495 2.404 255 0 0 255 
-0.126175 -0.290063 2.417 255 0 0 255 
-0.120202 -0.29163 2.43 255 0 0 255 
-0.047091 -0.292163 2.434 255 0 0 255 
-0.04001 -0.289165 2.409 255 0 0 255 
-0.03319 -0.287246 2.393 255 0 0 255 
-0.026569 -0.286528 2.387 255 0 0 255 
-0.019922 -0.284969 2.374 255 0 0 255 
-0.013364 -0.283769 2.364 255 0 0 255 
-0.00686 -0.282569 2.354 255 0 0 255 
-0.000411 -0.281849 2.348 255 0 0 255 
0.006018 -0.281729 2.347 255 0 0 255 
0.012435 -0.281489 2.345 255 0 0 255 
0.018874 -0.281728 2.347 255 0 0 255 
0.025324 -0.281967 2.349 255 0 0 255 
0.031852 -0.282805 2.356 255 0 0 255 
0.038451 -0.283883 2.365 255 0 0 255 
0.045023 -0.284481 2.37 255 0 0 255 
0.051536 -0.284598 2.371 255 0 0 255 
0.05798 -0.284355 2.369 255 0 0 255 
0.064739 -0.285552 2.379 255 0 0 255 
-0.238341 -0.288256 2.35 255 0 0 255 
-0.231033 -0.287165 2.341 255 0 0 255 
-0.223869 -0.286196 2.333 255 0 0 255 
-0.217307 -0.285963 2.331 255 0 0 255 
-0.210394 -0.285239 2.325 255 0 0 255 
-0.203951 -0.285128 2.324 255 0 0 255 
-0.198023 -0.285753 2.329 255 0 0 255 
-0.192232 -0.286623 2.336 255 0 0 255 
-0.186481 -0.287615 2.344 255 0 0 255 
-0.18084 -0.288853 2.354 255 0 0 255 
-0.174847 -0.289599 2.36 255 0 0 255 
-0.168463 -0.289732 2.361 255 0 0 255 
-0.162211 -0.290109 2.364 255 0 0 255 
-0.156337 -0.291223 2.373 255 0 0 255 
-0.15035 -0.292213 2.381 255 0 0 255 
-0.1445 -0.293572 2.392 255 0 0 255 
-0.138531 -0.294808 2.402 255 0 0 255 
-0.132562 -0.296166 2.413 255 0 0 255 
-0.126428 -0.297278 2.422 255 0 0 255 
-0.119305 -0.296057 2.412 255 0 0 255 
-0.047069 -0.298689 2.433 255 0 0 255 
-0.040041 -0.295991 2.411 255 0 0 255 
-0.033257 -0.294397 2.398 255 0 0 255 
-0.026612 -0.293539 2.391 255 0 0 255 
-0.019946 -0.291822 2.377 255 0 0 255 
-0.013335 -0.289613 2.359 255 0 0 255 
-0.006847 -0.288509 2.35 255 0 0 255 
-0.00041 -0.28765 2.343 255 0 0 255 
0.006015 -0.288018 2.346 255 0 0 255 
0.01244 -0.288017 2.346 255 0 0 255 
0.018913 -0.288753 2.352 255 0 0 255 
0.025398 -0.289243 2.356 255 0 0 255 
0.031999 -0.290592 2.367 255 0 0 255 
0.038628 -0.291694 2.376 255 0 0 255 
0.045135 -0.291692 2.376 255 0 0 255 
0.051533 -0.291075 2.371 255 0 0 255 
0.058001 -0.290949 2.37 255 0 0 255 
0.064845 -0.292541 2.383 255 0 0 255 
-0.237618 -0.293792 2.343 255 0 0 255 
-0.231809 -0.294558 2.349 255 0 0 255 
-0.2252 -0.29432 2.347 255 0 0 255 
-0.218507 -0.293956 2.344 255 0 0 255 
-0.21183 -0.293592 2.341 255 0 0 255 
-0.204993 -0.292977 2.336 255 0 0 255 
-0.198607 -0.292989 2.336 255 0 0 255 
-0.192468 -0.293376 2.339 255 0 0 255 
-0.187028 -0.294892 2.351 255 0 0 255 
-0.181905 -0.297036 2.368 255 0 0 255 
-0.176022 -0.29805 2.376 255 0 0 255 
-0.169738 -0.298436 2.379 255 0 0 255 
-0.163094 -0.298195 2.377 255 0 0 255 
-0.157118 -0.299208 2.385 255 0 0 255 
-0.150846 -0.299719 2.389 255 0 0 255 
-0.144914 -0.300982 2.399 255 0 0 255 
-0.138638 -0.301618 2.404 255 0 0 255 
-0.132719 -0.303131 2.416 255 0 0 255 
-0.126316 -0.303641 2.42 255 0 0 255 
-0.119644 -0.303523 2.419 255 0 0 255 
-0.047047 -0.305209 2.432 255 0 0 255 
-0.040121 -0.303203 2.416 255 0 0 255 
-0.033408 -0.302327 2.409 255 0 0 255 
-0.026755 -0.301701 2.404 255 0 0 255 
-0.020063 -0.300071 2.391 255 0 0 255 
-0.013413 -0.297813 2.373 255 0 0 255 
-0.006865 -0.29568 2.356 255 0 0 255 
-0.000411 -0.294677 2.348 255 0 0 255 
0.006012 -0.2943 2.345 255 0 0 255 
0.012423 -0.294048 2.343 255 0 0 255 
0.018888 -0.294801 2.349 255 0 0 255 
0.025396 -0.295678 2.356 255 0 0 255 
0.03197 -0.296805 2.365 255 0 0 255 
0.038577 -0.297807 2.373 255 0 0 255 
0.045151 -0.298307 2.377 255 0 0 255 
0.051595 -0.297927 2.374 255 0 0 255 
0.058071 -0.297799 2.373 255 0 0 255 
0.064895 -0.299301 2.385 255 0 0 255 
-0.239024 -0.30198 2.357 255 0 0 255 
-0.23298 -0.302506 2.361 255 0 0 255 
-0.226242 -0.302135 2.358 255 0 0 255 
-0.219799 -0.302148 2.358 255 0 0 255 
-0.213175 -0.301904 2.356 255 0 0 255 
-0.206648 -0.301788 2.355 255 0 0 255 
-0.199701 -0.301031 2.349 255 0 0 255 
-0.193197 -0.300914 2.348 255 0 0 255 
-0.187255 -0.301694 2.354 255 0 0 255 
-0.181971 -0.303628 2.369 255 0 0 255 
-0.176456 -0.305305 2.382 255 0 0 255 
-0.170655 -0.306597 2.392 255 0 0 255 
-0.16425 -0.306863 2.394 255 0 0 255 
-0.1579 -0.307257 2.397 255 0 0 255 
-0.151406 -0.307394 2.398 255 0 0 255 
-0.145208 -0.308172 2.404 255 0 0 255 
-0.138976 -0.30895 2.41 255 0 0 255 
-0.132766 -0.309856 2.417 255 0 0 255 
-0.126361 -0.310376 2.421 255 0 0 255 
-0.119439 -0.309615 2.415 255 0 0 255 
-0.111988 -0.307314 2.397 255 0 0 255 
-0.047257 -0.31326 2.443 255 0 0 255 
-0.040318 -0.31134 2.428 255 0 0 255 
-0.033517 -0.309931 2.417 255 0 0 255 
-0.026832 -0.309164 2.411 255 0 0 255 
-0.020187 -0.308524 2.406 255 0 0 255 
-0.013469 -0.305576 2.383 255 0 0 255 
-0.006908 -0.304038 2.371 255 0 0 255 
-0.000413 -0.302499 2.359 255 0 0 255 
0.006032 -0.30173 2.353 255 0 0 255 
0.012438 -0.300831 2.346 255 0 0 255 
0.018887 -0.301215 2.349 255 0 0 255 
0.025373 -0.301855 2.354 255 0 0 255 
0.031901 -0.302623 2.36 255 0 0 255 
0.038444 -0.303262 2.365 255 0 0 255 
0.045148 -0.304798 2.377 255 0 0 255 
0.051809 -0.305692 2.384 255 0 0 255 
0.058483 -0.306458 2.39 255 0 0 255 
0.065354 -0.307993 2.402 255 0 0 255 
-0.241647 -0.311813 2.383 255 0 0 255 
-0.233362 -0.309472 2.365 255 0 0 255 
-0.226421 -0.308831 2.36 255 0 0 255 
-0.220066 -0.308975 2.361 255 0 0 255 
-0.213886 -0.30938 2.364 255 0 0 255 
-0.207338 -0.309262 2.363 255 0 0 255 
-0.199859 -0.307703 2.351 255 0 0 255 
-0.193515 -0.307846 2.352 255 0 0 255 
-0.187483 -0.308512 2.357 255 0 0 255 
-0.182191 -0.310486 2.372 255 0 0 255 
-0.176446 -0.311806 2.382 255 0 0 255 
-0.17093 -0.313649 2.396 255 0 0 255 
-0.164583 -0.314052 2.399 255 0 0 255 
-0.158022 -0.314062 2.399 255 0 0 255 
-0.15146 -0.314071 2.399 255 0 0 255 
-0.145259 -0.314866 2.405 255 0 0 255 
-0.139025 -0.31566 2.411 255 0 0 255 
-0.132703 -0.316323 2.416 255 0 0 255 
-0.12604 -0.3162 2.415 255 0 0 255 
-0.119481 -0.316338 2.416 255 0 0 255 
-0.112309 -0.314774 2.404 255 0 0 255 
-0.047737 -0.323205 2.468 255 0 0 255 
-0.040614 -0.320326 2.446 255 0 0 255 
-0.033667 -0.317971 2.428 255 0 0 255 
-0.026941 -0.317056 2.421 255 0 0 255 
-0.020295 -0.316796 2.419 255 0 0 255 
-0.013598 -0.315095 2.406 255 0 0 255 
-0.006951 -0.312476 2.386 255 0 0 255 
-0.000416 -0.311036 2.375 255 0 0 255 
0.006052 -0.309202 2.361 255 0 0 255 
0.012475 -0.308154 2.353 255 0 0 255 
0.018902 -0.307891 2.351 255 0 0 255 
0.025361 -0.308151 2.353 255 0 0 255 
0.03179 -0.308019 2.352 255 0 0 255 
0.038361 -0.309064 2.36 255 0 0 255 
0.045164 -0.311419 2.378 255 0 0 255 
0.051958 -0.313118 2.391 255 0 0 255 
0.058627 -0.313769 2.396 255 0 0 255 
0.065295 -0.314289 2.4 255 0 0 255 
-0.234039 -0.316859 2.372 255 0 0 255 
-0.226887 -0.315937 2.365 255 0 0 255 
-0.220612 -0.316218 2.367 255 0 0 255 
-0.214326 -0.316498 2.369 255 0 0 255 
-0.20794 -0.316644 2.37 255 0 0 255 
-0.201122 -0.316122 2.366 255 0 0 255 
-0.19482 -0.316402 2.368 255 0 0 255 
-0.188346 -0.316413 2.368 255 0 0 255 
-0.182257 -0.317093 2.373 255 0 0 255 
-0.176287 -0.318039 2.38 255 0 0 255 
-0.170635 -0.319653 2.392 255 0 0 255 
-0.164642 -0.320733 2.4 255 0 0 255 
-0.158276 -0.321143 2.403 255 0 0 255 
-0.152018 -0.321821 2.408 255 0 0 255 
-0.145733 -0.322499 2.413 255 0 0 255 
-0.139536 -0.323443 2.42 255 0 0 255 
-0.132915 -0.323451 2.42 255 0 0 255 
-0.125928 -0.322524 2.413 255 0 0 255 
-0.118979 -0.321596 2.406 255 0 0 255 
-0.055132 -0.333815 2.497 255 0 0 255 
-0.047792 -0.330343 2.471 255 0 0 255 
-0.040795 -0.328474 2.457 255 0 0 255 
-0.033859 -0.326471 2.442 255 0 0 255 
-0.027062 -0.325136 2.432 255 0 0 255 
-0.020378 -0.324736 2.429 255 0 0 255 
-0.013665 -0.323267 2.418 255 0 0 255 
-0.007015 -0.321931 2.408 255 0 0 255 
-0.000418 -0.319391 2.389 255 0 0 255 
0.006085 -0.317385 2.374 255 0 0 255 
0.012527 -0.315914 2.363 255 0 0 255 
0.018949 -0.315111 2.357 255 0 0 255 
0.025413 -0.315243 2.358 255 0 0 255 
0.031842 -0.314974 2.356 255 0 0 255 
0.038472 -0.316442 2.367 255 0 0 255 
0.045162 -0.31791 2.378 255 0 0 255 
0.051889 -0.319244 2.388 255 0 0 255 
0.058501 -0.319642 2.391 255 0 0 255 
0.065074 -0.319771 2.392 255 0 0 255 
-0.228409 -0.32457 2.381 255 0 0 255 
