ply
format ascii 1.0
comment VCGLIB generated
element vertex 1261
property float x
property float y
property float z
property uchar red
property uchar green
property uchar blue
property uchar alpha
element face 0
property list uchar int vertex_indices
end_header
-0.163915 0.567572 2.142 255 0 0 255 
-0.15793 0.567055 2.14 255 0 0 255 
-0.152027 0.566802 2.139 255 0 0 255 
-0.146266 0.56708 2.14 255 0 0 255 
-0.140236 0.566296 2.137 255 0 0 255 
-0.133593 0.562862 2.124 255 0 0 255 
-0.127382 0.561018 2.117 255 0 0 255 
-0.121669 0.561293 2.118 255 0 0 255 
-0.116387 0.563688 2.127 255 0 0 255 
-0.111004 0.565818 2.135 255 0 0 255 
-0.10538 0.566887 2.139 255 0 0 255 
-0.099641 0.567426 2.141 255 0 0 255 
-0.093715 0.566904 2.139 255 0 0 255 
-0.087759 0.566116 2.136 255 0 0 255 
-0.081896 0.565858 2.135 255 0 0 255 
-0.076038 0.5656 2.134 255 0 0 255 
-0.070153 0.565076 2.132 255 0 0 255 
-0.064248 0.564286 2.129 255 0 0 255 
-0.058414 0.564026 2.128 255 0 0 255 
-0.052635 0.564296 2.129 255 0 0 255 
-0.046828 0.5643 2.129 255 0 0 255 
-0.04106 0.564834 2.131 255 0 0 255 
-0.035313 0.565898 2.135 255 0 0 255 
-0.029531 0.566695 2.138 255 0 0 255 
-0.023733 0.567493 2.141 255 0 0 255 
-0.017876 0.566965 2.139 255 0 0 255 
-0.011997 0.564845 2.131 255 0 0 255 
-0.006138 0.560605 2.115 255 0 0 255 
-0.000367 0.558485 2.107 255 0 0 255 
0.005383 0.55875 2.108 255 0 0 255 
0.011185 0.5614 2.118 255 0 0 255 
0.017019 0.563254 2.125 255 0 0 255 
0.022858 0.564313 2.129 255 0 0 255 
0.028665 0.56431 2.129 255 0 0 255 
0.034456 0.564043 2.128 255 0 0 255 
0.040241 0.563774 2.127 255 0 0 255 
0.046064 0.564036 2.128 255 0 0 255 
0.051893 0.564297 2.129 255 0 0 255 
0.057672 0.564027 2.128 255 0 0 255 
0.063476 0.564022 2.128 255 0 0 255 
0.069312 0.564281 2.129 255 0 0 255 
0.075083 0.56401 2.128 255 0 0 255 
0.08081 0.563474 2.126 255 0 0 255 
0.086567 0.563202 2.125 255 0 0 255 
0.092361 0.563194 2.125 255 0 0 255 
0.098156 0.563186 2.125 255 0 0 255 
0.103999 0.563443 2.126 255 0 0 255 
0.10995 0.564229 2.129 255 0 0 255 
0.116026 0.565545 2.134 255 0 0 255 
0.122244 0.56739 2.141 255 0 0 255 
-0.068964 0.647715 2.09507 0 255 0 255 
-0.07038 0.650279 2.10863 0 255 0 255 
-0.072693 0.652922 2.12282 0 255 0 255 
-0.078475 0.663118 2.17668 0 255 0 255 
-0.070136 0.664765 2.1831 0 255 0 255 
-0.262673 0.573311 2.187 255 0 0 255 
-0.255429 0.570447 2.176 255 0 0 255 
-0.248933 0.569155 2.171 255 0 0 255 
-0.242799 0.568649 2.169 255 0 0 255 
-0.236348 0.567357 2.164 255 0 0 255 
-0.23003 0.566326 2.16 255 0 0 255 
-0.223837 0.565557 2.157 255 0 0 255 
-0.218064 0.565836 2.158 255 0 0 255 
-0.212285 0.566115 2.159 255 0 0 255 
-0.206309 0.565869 2.158 255 0 0 255 
-0.200524 0.566147 2.159 255 0 0 255 
-0.194372 0.565376 2.156 255 0 0 255 
-0.188411 0.565129 2.155 255 0 0 255 
-0.182201 0.564095 2.151 255 0 0 255 
-0.176176 0.563585 2.149 255 0 0 255 
-0.170083 0.562812 2.146 255 0 0 255 
-0.163928 0.561776 2.142 255 0 0 255 
-0.157722 0.560478 2.137 255 0 0 255 
-0.151613 0.559441 2.133 255 0 0 255 
-0.145868 0.559716 2.134 255 0 0 255 
-0.139919 0.559203 2.132 255 0 0 255 
-0.133604 0.557116 2.124 255 0 0 255 
-0.127333 0.555028 2.116 255 0 0 255 
-0.121506 0.554776 2.115 255 0 0 255 
-0.116232 0.557147 2.124 255 0 0 255 
-0.110909 0.559517 2.133 255 0 0 255 
-0.105438 0.561362 2.14 255 0 0 255 
-0.099603 0.561371 2.14 255 0 0 255 
-0.093679 0.560854 2.138 255 0 0 255 
-0.087726 0.560075 2.135 255 0 0 255 
-0.081903 0.560082 2.135 255 0 0 255 
-0.07608 0.560088 2.135 255 0 0 255 
-0.070257 0.560095 2.135 255 0 0 255 
-0.064314 0.559051 2.131 255 0 0 255 
-0.058446 0.558532 2.129 255 0 0 255 
-0.052614 0.558274 2.128 255 0 0 255 
-0.04681 0.558278 2.128 255 0 0 255 
-0.041063 0.559069 2.131 255 0 0 255 
-0.0353 0.559859 2.134 255 0 0 255 
-0.029548 0.561174 2.139 255 0 0 255 
-0.023724 0.561438 2.14 255 0 0 255 
-0.017845 0.560128 2.135 255 0 0 255 
-0.011959 0.557244 2.124 255 0 0 255 
-0.006118 0.553047 2.108 255 0 0 255 
-0.000366 0.55121 2.101 255 0 0 255 
0.005375 0.55226 2.105 255 0 0 255 
0.01117 0.554882 2.115 255 0 0 255 
0.016988 0.556455 2.121 255 0 0 255 
0.022795 0.556979 2.123 255 0 0 255 
0.028587 0.556976 2.123 255 0 0 255 
0.03441 0.557498 2.125 255 0 0 255 
0.040207 0.557495 2.125 255 0 0 255 
0.046025 0.557754 2.126 255 0 0 255 
0.051848 0.558012 2.127 255 0 0 255 
0.057623 0.557745 2.126 255 0 0 255 
0.063392 0.557478 2.125 255 0 0 255 
0.069188 0.557472 2.125 255 0 0 255 
0.074983 0.557466 2.125 255 0 0 255 
0.080703 0.556935 2.123 255 0 0 255 
0.086452 0.556665 2.122 255 0 0 255 
0.092239 0.556658 2.122 255 0 0 255 
0.097979 0.556388 2.121 255 0 0 255 
0.103714 0.556117 2.12 255 0 0 255 
0.109494 0.556108 2.12 255 0 0 255 
0.115492 0.557148 2.124 255 0 0 255 
0.121397 0.557663 2.126 255 0 0 255 
0.127672 0.559751 2.134 255 0 0 255 
-0.071832 0.644735 2.13592 0 255 0 255 
-0.083929 0.648325 2.1571 0 255 0 255 
-0.086271 0.650967 2.17116 0 255 0 255 
-0.084172 0.653183 2.18201 0 255 0 255 
-0.078512 0.655064 2.19032 0 255 0 255 
-0.267785 0.565556 2.18 255 0 0 255 
-0.260891 0.563501 2.172 255 0 0 255 
-0.254627 0.562742 2.169 255 0 0 255 
-0.248493 0.562242 2.167 255 0 0 255 
-0.24237 0.561742 2.165 255 0 0 255 
-0.23582 0.560203 2.159 255 0 0 255 
-0.229515 0.559183 2.155 255 0 0 255 
-0.223439 0.558681 2.153 255 0 0 255 
-0.217879 0.559477 2.156 255 0 0 255 
-0.212105 0.559753 2.157 255 0 0 255 
-0.206134 0.55951 2.156 255 0 0 255 
-0.200168 0.559267 2.155 255 0 0 255 
-0.194207 0.559023 2.154 255 0 0 255 
-0.188164 0.558519 2.152 255 0 0 255 
-0.182046 0.557755 2.149 255 0 0 255 
-0.176108 0.55751 2.148 255 0 0 255 
-0.170096 0.557005 2.146 255 0 0 255 
-0.163865 0.555721 2.141 255 0 0 255 
-0.157661 0.554436 2.136 255 0 0 255 
-0.151483 0.55315 2.131 255 0 0 255 
-0.145606 0.552903 2.13 255 0 0 255 
-0.139603 0.552136 2.127 255 0 0 255 
-0.133427 0.55059 2.121 255 0 0 255 
-0.127163 0.548524 2.113 255 0 0 255 
-0.121516 0.549053 2.115 255 0 0 255 
-0.116242 0.551399 2.124 255 0 0 255 
-0.111022 0.554264 2.135 255 0 0 255 
-0.105496 0.555831 2.141 255 0 0 255 
-0.099564 0.555321 2.139 255 0 0 255 
-0.093599 0.55455 2.136 255 0 0 255 
-0.087733 0.554298 2.135 255 0 0 255 
-0.082025 0.555084 2.138 255 0 0 255 
-0.076229 0.55535 2.139 255 0 0 255 
-0.070296 0.554577 2.136 255 0 0 255 
-0.064379 0.553804 2.133 255 0 0 255 
-0.058506 0.55329 2.131 255 0 0 255 
-0.052693 0.553295 2.131 255 0 0 255 
-0.046858 0.553039 2.13 255 0 0 255 
-0.041086 0.553562 2.132 255 0 0 255 
-0.03527 0.553566 2.132 255 0 0 255 
-0.029467 0.553828 2.133 255 0 0 255 
-0.023626 0.553311 2.131 255 0 0 255 
-0.017779 0.552274 2.127 255 0 0 255 
-0.01192 0.549679 2.117 255 0 0 255 
-0.00611 0.546564 2.105 255 0 0 255 
-0.000366 0.545526 2.101 255 0 0 255 
0.005378 0.546824 2.106 255 0 0 255 
0.011166 0.5489 2.114 255 0 0 255 
0.016957 0.549678 2.117 255 0 0 255 
0.022744 0.549936 2.118 255 0 0 255 
0.028562 0.550713 2.121 255 0 0 255 
0.034381 0.551229 2.123 255 0 0 255 
0.04021 0.551745 2.125 255 0 0 255 
0.046029 0.552001 2.126 255 0 0 255 
0.051853 0.552257 2.127 255 0 0 255 
0.057628 0.551992 2.126 255 0 0 255 
0.063427 0.551987 2.126 255 0 0 255 
0.069193 0.551722 2.125 255 0 0 255 
0.074919 0.551197 2.123 255 0 0 255 
0.080633 0.550671 2.121 255 0 0 255 
0.086459 0.550924 2.122 255 0 0 255 
0.092246 0.550916 2.122 255 0 0 255 
0.097895 0.550129 2.119 255 0 0 255 
0.103576 0.549602 2.117 255 0 0 255 
0.109297 0.549333 2.116 255 0 0 255 
0.11523 0.550103 2.119 255 0 0 255 
0.121065 0.550352 2.12 255 0 0 255 
0.127384 0.552679 2.129 255 0 0 255 
0.133563 0.554225 2.135 255 0 0 255 
-0.064222 0.633438 2.13165 0 255 0 255 
-0.088407 0.640702 2.17395 0 255 0 255 
-0.086308 0.642922 2.18479 0 255 0 255 
-0.08154 0.644882 2.19374 0 255 0 255 
-0.273236 0.558609 2.176 255 0 0 255 
-0.265962 0.555805 2.165 255 0 0 255 
-0.26007 0.555825 2.165 255 0 0 255 
-0.253824 0.555074 2.162 255 0 0 255 
-0.247824 0.554836 2.161 255 0 0 255 
-0.241717 0.554341 2.159 255 0 0 255 
-0.235401 0.553332 2.155 255 0 0 255 
-0.229213 0.55258 2.152 255 0 0 255 
-0.223041 0.551827 2.149 255 0 0 255 
-0.217492 0.552615 2.152 255 0 0 255 
-0.211827 0.553145 2.154 255 0 0 255 
-0.206055 0.553418 2.155 255 0 0 255 
-0.200091 0.553177 2.154 255 0 0 255 
-0.193862 0.552166 2.15 255 0 0 255 
-0.187829 0.551667 2.148 255 0 0 255 
-0.181891 0.551425 2.147 255 0 0 255 
-0.17604 0.55144 2.147 255 0 0 255 
-0.169872 0.550426 2.143 255 0 0 255 
-0.163649 0.549155 2.138 255 0 0 255 
-0.157526 0.548141 2.134 255 0 0 255 
-0.151424 0.547126 2.13 255 0 0 255 
-0.145618 0.547138 2.13 255 0 0 255 
-0.139614 0.546379 2.127 255 0 0 255 
-0.133501 0.545106 2.122 255 0 0 255 
-0.127293 0.543319 2.115 255 0 0 255 
-0.121641 0.543843 2.117 255 0 0 255 
-0.116142 0.545137 2.122 255 0 0 255 
-0.110824 0.547459 2.131 255 0 0 255 
-0.105258 0.548752 2.136 255 0 0 255 
-0.09948 0.549018 2.137 255 0 0 255 
-0.09352 0.548255 2.134 255 0 0 255 
-0.08774 0.54852 2.135 255 0 0 255 
-0.081955 0.548784 2.136 255 0 0 255 
-0.076164 0.549047 2.137 255 0 0 255 
-0.070236 0.548283 2.134 255 0 0 255 
-0.064324 0.547518 2.131 255 0 0 255 
-0.058484 0.547266 2.13 255 0 0 255 
-0.052698 0.547528 2.131 255 0 0 255 
-0.046884 0.547532 2.131 255 0 0 255 
-0.041089 0.547793 2.132 255 0 0 255 
-0.03524 0.547282 2.13 255 0 0 255 
-0.029415 0.547028 2.129 255 0 0 255 
-0.02354 0.545488 2.123 255 0 0 255 
-0.017705 0.544205 2.118 255 0 0 255 
-0.01187 0.541637 2.108 255 0 0 255 
-0.006096 0.539582 2.1 255 0 0 255 
-0.000366 0.539069 2.098 255 0 0 255 
0.005374 0.54061 2.104 255 0 0 255 
0.011151 0.542408 2.111 255 0 0 255 
0.016935 0.543178 2.114 255 0 0 255 
0.022713 0.543433 2.115 255 0 0 255 
0.028524 0.544202 2.118 255 0 0 255 
0.034335 0.544713 2.12 255 0 0 255 
0.040195 0.545738 2.124 255 0 0 255 
0.046054 0.546505 2.127 255 0 0 255 
0.051857 0.5465 2.127 255 0 0 255 
0.057605 0.545982 2.125 255 0 0 255 
0.063373 0.54572 2.124 255 0 0 255 
0.069134 0.545457 2.123 255 0 0 255 
0.07489 0.545194 2.122 255 0 0 255 
0.080564 0.544417 2.119 255 0 0 255 
0.086344 0.54441 2.119 255 0 0 255 
0.09208 0.544146 2.118 255 0 0 255 
0.097764 0.543624 2.116 255 0 0 255 
0.103486 0.543358 2.115 255 0 0 255 
0.109099 0.542579 2.112 255 0 0 255 
0.115022 0.54334 2.115 255 0 0 255 
0.120904 0.543844 2.117 255 0 0 255 
0.127155 0.545889 2.125 255 0 0 255 
0.133199 0.546906 2.129 255 0 0 255 
0.139526 0.54895 2.137 255 0 0 255 
-0.083771 0.627312 2.15948 0 255 0 255 
-0.095872 0.630977 2.18055 0 255 0 255 
-0.094666 0.633286 2.19202 0 255 0 255 
-0.093464 0.635594 2.20347 0 255 0 255 
-0.090484 0.637725 2.21365 0 255 0 255 
-0.283668 0.561588 2.211 255 0 0 255 
-0.272 0.550178 2.166 255 0 0 255 
-0.265491 0.548928 2.161 255 0 0 255 
-0.259489 0.548694 2.16 255 0 0 255 
-0.253374 0.548205 2.158 255 0 0 255 
-0.247384 0.54797 2.157 255 0 0 255 
-0.241287 0.547481 2.155 255 0 0 255 
-0.235201 0.546991 2.153 255 0 0 255 
-0.229018 0.546246 2.15 255 0 0 255 
-0.223059 0.54601 2.149 255 0 0 255 
-0.217205 0.546027 2.149 255 0 0 255 
-0.211647 0.546806 2.152 255 0 0 255 
-0.20588 0.547077 2.153 255 0 0 255 
-0.199921 0.546839 2.152 255 0 0 255 
-0.193607 0.545584 2.147 255 0 0 255 
-0.187494 0.544837 2.144 255 0 0 255 
-0.181567 0.544597 2.143 255 0 0 255 
-0.175727 0.544612 2.143 255 0 0 255 
-0.169807 0.544371 2.142 255 0 0 255 
-0.163662 0.543368 2.138 255 0 0 255 
-0.157539 0.542365 2.134 255 0 0 255 
-0.151579 0.541869 2.132 255 0 0 255 
-0.145698 0.541627 2.131 255 0 0 255 
-0.139757 0.541131 2.129 255 0 0 255 
-0.133449 0.539108 2.121 255 0 0 255 
-0.127304 0.537594 2.115 255 0 0 255 
-0.121651 0.538113 2.117 255 0 0 255 
-0.116042 0.538885 2.12 255 0 0 255 
-0.110573 0.54042 2.126 255 0 0 255 
-0.10507 0.541954 2.132 255 0 0 255 
-0.099534 0.543488 2.138 255 0 0 255 
-0.093703 0.543496 2.138 255 0 0 255 
-0.08783 0.543249 2.137 255 0 0 255 
-0.082 0.543257 2.137 255 0 0 255 
-0.076171 0.543263 2.137 255 0 0 255 
-0.070242 0.542507 2.134 255 0 0 255 
-0.06433 0.54175 2.131 255 0 0 255 
-0.058489 0.541501 2.13 255 0 0 255 
-0.052727 0.542014 2.132 255 0 0 255 
-0.04691 0.542018 2.132 255 0 0 255 
-0.041093 0.542022 2.132 255 0 0 255 
-0.035259 0.541771 2.131 255 0 0 255 
-0.029403 0.541011 2.128 255 0 0 255 
-0.023497 0.538725 2.119 255 0 0 255 
-0.017648 0.536693 2.111 255 0 0 255 
-0.011838 0.534406 2.102 255 0 0 255 
-0.006088 0.533136 2.097 255 0 0 255 
-0.000366 0.533644 2.099 255 0 0 255 
0.005379 0.535424 2.106 255 0 0 255 
0.011152 0.536694 2.111 255 0 0 255 
0.016928 0.537202 2.113 255 0 0 255 
0.022705 0.537454 2.114 255 0 0 255 
0.028527 0.538469 2.118 255 0 0 255 
0.034322 0.538721 2.119 255 0 0 255 
0.040198 0.539989 2.124 255 0 0 255 
0.046058 0.540748 2.127 255 0 0 255 
0.051886 0.540998 2.128 255 0 0 255 
0.057637 0.540484 2.126 255 0 0 255 
0.063378 0.539971 2.124 255 0 0 255 
0.069107 0.539457 2.122 255 0 0 255 
0.074826 0.538942 2.12 255 0 0 255 
0.080533 0.538427 2.118 255 0 0 255 
0.086229 0.537912 2.116 255 0 0 255 
0.091957 0.53765 2.115 255 0 0 255 
0.097634 0.537134 2.113 255 0 0 255 
0.103397 0.537125 2.113 255 0 0 255 
0.109109 0.536862 2.112 255 0 0 255 
0.115032 0.537615 2.115 255 0 0 255 
0.120971 0.538368 2.118 255 0 0 255 
0.127165 0.540137 2.125 255 0 0 255 
0.133022 0.540381 2.126 255 0 0 255 
0.13895 0.540878 2.128 255 0 0 255 
0.145092 0.542137 2.133 255 0 0 255 
-0.100103 0.618507 2.1725 0 255 0 255 
-0.112207 0.622208 2.19352 0 255 0 255 
-0.111901 0.624606 2.20557 0 255 0 255 
-0.099152 0.625724 2.20877 0 255 0 255 
-0.090836 0.627308 2.21516 0 255 0 255 
-0.081621 0.62881 2.22096 0 255 0 255 
-0.065264 0.629602 2.2218 0 255 0 255 
-0.279327 0.547058 2.177 255 0 0 255 
-0.271895 0.544062 2.165 255 0 0 255 
-0.265511 0.543077 2.161 255 0 0 255 
-0.259148 0.542092 2.157 255 0 0 255 
-0.253158 0.54186 2.156 255 0 0 255 
-0.246944 0.541125 2.153 255 0 0 255 
-0.24097 0.540892 2.152 255 0 0 255 
-0.235 0.540659 2.151 255 0 0 255 
-0.228929 0.540174 2.149 255 0 0 255 
-0.222972 0.53994 2.148 255 0 0 255 
-0.217121 0.539958 2.148 255 0 0 255 
-0.211368 0.540226 2.149 255 0 0 255 
-0.205514 0.540242 2.149 255 0 0 255 
-0.199565 0.540007 2.148 255 0 0 255 
-0.193442 0.539268 2.145 255 0 0 255 
-0.187422 0.538781 2.143 255 0 0 255 
-0.181582 0.538796 2.143 255 0 0 255 
-0.175659 0.538559 2.142 255 0 0 255 
-0.169662 0.53807 2.14 255 0 0 255 
-0.163522 0.537077 2.136 255 0 0 255 
-0.157552 0.536588 2.134 255 0 0 255 
-0.151591 0.536097 2.132 255 0 0 255 
-0.14571 0.535858 2.131 255 0 0 255 
-0.139768 0.535367 2.129 255 0 0 255 
-0.133648 0.534121 2.124 255 0 0 255 
-0.127495 0.532623 2.118 255 0 0 255 
-0.121489 0.531627 2.114 255 0 0 255 
-0.115724 0.531637 2.114 255 0 0 255 
-0.110166 0.532652 2.118 255 0 0 255 
-0.104833 0.534925 2.127 255 0 0 255 
-0.099543 0.5377 2.138 255 0 0 255 
-0.093798 0.538211 2.14 255 0 0 255 
-0.087878 0.537716 2.138 255 0 0 255 
-0.081931 0.536968 2.135 255 0 0 255 
-0.076106 0.536975 2.135 255 0 0 255 
-0.070182 0.536227 2.132 255 0 0 255 
-0.064275 0.535478 2.129 255 0 0 255 
-0.058439 0.535231 2.128 255 0 0 255 
-0.052682 0.535739 2.13 255 0 0 255 
-0.04687 0.535743 2.13 255 0 0 255 
-0.041077 0.535999 2.131 255 0 0 255 
-0.035229 0.535499 2.129 255 0 0 255 
-0.029364 0.534496 2.125 255 0 0 255 
-0.023444 0.531731 2.114 255 0 0 255 
-0.017591 0.529217 2.104 255 0 0 255 
-0.011805 0.527207 2.096 255 0 0 255 
-0.006076 0.526453 2.093 255 0 0 255 
-0.000366 0.527208 2.096 255 0 0 255 
0.005375 0.52922 2.104 255 0 0 255 
0.011153 0.53098 2.111 255 0 0 255 
0.01693 0.531481 2.113 255 0 0 255 
0.022706 0.531731 2.114 255 0 0 255 
0.028516 0.532484 2.117 255 0 0 255 
0.034309 0.532732 2.118 255 0 0 255 
0.040164 0.533736 2.122 255 0 0 255 
0.04604 0.534738 2.126 255 0 0 255 
0.05189 0.535237 2.128 255 0 0 255 
0.057669 0.534981 2.127 255 0 0 255 
0.063324 0.533718 2.122 255 0 0 255 
0.068983 0.532706 2.118 255 0 0 255 
0.07462 0.531694 2.114 255 0 0 255 
0.080388 0.531687 2.114 255 0 0 255 
0.086114 0.531429 2.113 255 0 0 255 
0.091835 0.53117 2.112 255 0 0 255 
0.09755 0.53091 2.111 255 0 0 255 
0.103308 0.530902 2.111 255 0 0 255 
0.109066 0.530893 2.111 255 0 0 255 
0.114987 0.531638 2.114 255 0 0 255 
0.121038 0.532886 2.119 255 0 0 255 
0.127056 0.533881 2.123 255 0 0 255 
0.132846 0.533871 2.123 255 0 0 255 
0.138765 0.534362 2.125 255 0 0 255 
0.144968 0.53586 2.131 255 0 0 255 
-0.063389 0.688996 2.20615 255 255 0 255 
-0.065905 0.672951 2.10054 255 255 0 255 
-0.069934 0.670746 2.08434 255 255 0 255 
-0.131486 0.611408 2.19634 0 255 0 255 
-0.146267 0.615421 2.21917 0 255 0 255 
-0.134445 0.616581 2.2229 0 255 0 255 
-0.119942 0.617471 2.22478 0 255 0 255 
-0.099194 0.617722 2.22233 0 255 0 255 
-0.083758 0.618553 2.22373 0 255 0 255 
-0.070973 0.619677 2.22707 0 255 0 255 
-0.278706 0.53992 2.172 255 0 0 255 
-0.271664 0.537703 2.163 255 0 0 255 
-0.265408 0.536977 2.16 255 0 0 255 
-0.258927 0.535754 2.155 255 0 0 255 
-0.252942 0.535524 2.154 255 0 0 255 
-0.246619 0.534549 2.15 255 0 0 255 
-0.240652 0.534319 2.149 255 0 0 255 
-0.234691 0.534089 2.148 255 0 0 255 
-0.228734 0.533858 2.147 255 0 0 255 
-0.22299 0.534124 2.148 255 0 0 255 
-0.217037 0.533893 2.147 255 0 0 255 
-0.211188 0.53391 2.147 255 0 0 255 
-0.205147 0.533429 2.145 255 0 0 255 
-0.199303 0.533445 2.145 255 0 0 255 
-0.193457 0.53346 2.145 255 0 0 255 
-0.187349 0.53273 2.142 255 0 0 255 
-0.181427 0.532496 2.141 255 0 0 255 
-0.175509 0.532261 2.14 255 0 0 255 
-0.169676 0.532275 2.14 255 0 0 255 
-0.163535 0.531294 2.136 255 0 0 255 
-0.157491 0.530561 2.133 255 0 0 255 
-0.151462 0.529827 2.13 255 0 0 255 
-0.145791 0.530337 2.132 255 0 0 255 
-0.139846 0.529851 2.13 255 0 0 255 
-0.133722 0.528619 2.125 255 0 0 255 
-0.127446 0.526639 2.117 255 0 0 255 
-0.121327 0.525157 2.111 255 0 0 255 
-0.11546 0.524669 2.109 255 0 0 255 
-0.109863 0.525425 2.112 255 0 0 255 
-0.104496 0.527424 2.12 255 0 0 255 
-0.099225 0.53017 2.131 255 0 0 255 
-0.093675 0.53167 2.137 255 0 0 255 
-0.087968 0.532424 2.14 255 0 0 255 
-0.082014 0.531685 2.137 255 0 0 255 
-0.076148 0.531443 2.136 255 0 0 255 
-0.070221 0.530703 2.133 255 0 0 255 
-0.064341 0.530211 2.131 255 0 0 255 
-0.058471 0.529719 2.129 255 0 0 255 
-0.052686 0.529972 2.13 255 0 0 255 
-0.046874 0.529976 2.13 255 0 0 255 
-0.041061 0.52998 2.13 255 0 0 255 
-0.035166 0.528739 2.125 255 0 0 255 
-0.02927 0.527 2.118 255 0 0 255 
-0.023368 0.524266 2.107 255 0 0 255 
-0.017534 0.521779 2.097 255 0 0 255 
-0.011783 0.520536 2.092 255 0 0 255 
-0.006074 0.520537 2.092 255 0 0 255 
-0.000366 0.52203 2.098 255 0 0 255 
0.005378 0.523772 2.105 255 0 0 255 
0.011149 0.525015 2.11 255 0 0 255 
0.016907 0.525014 2.11 255 0 0 255 
0.022676 0.525261 2.111 255 0 0 255 
0.028505 0.526503 2.116 255 0 0 255 
0.034311 0.526998 2.118 255 0 0 255 
0.040167 0.52799 2.122 255 0 0 255 
0.045979 0.528235 2.123 255 0 0 255 
0.051821 0.528729 2.125 255 0 0 255 
0.057647 0.528973 2.126 255 0 0 255 
0.063269 0.527475 2.12 255 0 0 255 
0.068924 0.526474 2.116 255 0 0 255 
0.074556 0.525473 2.112 255 0 0 255 
0.080356 0.525715 2.113 255 0 0 255 
0.086081 0.525459 2.112 255 0 0 255 
0.091842 0.525452 2.112 255 0 0 255 
0.097512 0.524946 2.11 255 0 0 255 
0.103366 0.525435 2.112 255 0 0 255 
0.109127 0.525426 2.112 255 0 0 255 
0.115051 0.526163 2.115 255 0 0 255 
0.121048 0.527148 2.119 255 0 0 255 
0.127007 0.527885 2.122 255 0 0 255 
0.132857 0.528122 2.123 255 0 0 255 
0.138711 0.52836 2.124 255 0 0 255 
0.144775 0.529343 2.128 255 0 0 255 
0.151215 0.53157 2.137 255 0 0 255 
-0.059664 0.668588 2.1455 255 255 0 255 
-0.057709 0.666681 2.13399 255 255 0 255 
-0.066061 0.664247 2.11461 255 255 0 255 
-0.061514 0.662465 2.10502 255 255 0 255 
-0.070686 0.659969 2.08487 255 255 0 255 
-0.084969 0.65719 2.06066 255 255 0 255 
-0.140987 0.599623 2.19219 0 255 0 255 
-0.155747 0.603695 2.21504 0 255 0 255 
-0.152806 0.605796 2.22509 0 255 0 255 
-0.15519 0.60848 2.23893 0 255 0 255 
-0.132717 0.608458 2.23509 0 255 0 255 
-0.09657 0.609442 2.234 0 255 0 255 
-0.086471 0.610816 2.23918 0 255 0 255 
-0.289224 0.542622 2.207 255 0 0 255 
-0.278983 0.534529 2.174 255 0 0 255 
-0.271935 0.532337 2.165 255 0 0 255 
-0.265551 0.531373 2.161 255 0 0 255 
-0.258946 0.529918 2.155 255 0 0 255 
-0.252962 0.529691 2.154 255 0 0 255 
-0.246638 0.528727 2.15 255 0 0 255 
-0.240671 0.528499 2.149 255 0 0 255 
-0.234599 0.528026 2.147 255 0 0 255 
-0.228752 0.528044 2.147 255 0 0 255 
-0.222799 0.527815 2.146 255 0 0 255 
-0.216852 0.527587 2.145 255 0 0 255 
-0.210811 0.527111 2.143 255 0 0 255 
-0.204877 0.526882 2.142 255 0 0 255 
-0.199133 0.527144 2.143 255 0 0 255 
-0.193383 0.527405 2.144 255 0 0 255 
-0.187364 0.526929 2.142 255 0 0 255 
-0.181357 0.526452 2.14 255 0 0 255 
-0.175523 0.526466 2.14 255 0 0 255 
-0.16961 0.526234 2.139 255 0 0 255 
-0.163319 0.524771 2.133 255 0 0 255 
-0.157208 0.5238 2.129 255 0 0 255 
-0.151332 0.523567 2.128 255 0 0 255 
-0.145734 0.524317 2.131 255 0 0 255 
-0.139792 0.523837 2.129 255 0 0 255 
-0.133671 0.522618 2.124 255 0 0 255 
-0.127336 0.520414 2.115 255 0 0 255 
-0.12128 0.519194 2.11 255 0 0 255 
-0.115469 0.518958 2.109 255 0 0 255 
-0.109768 0.519214 2.11 255 0 0 255 
-0.104259 0.520453 2.115 255 0 0 255 
-0.098814 0.522184 2.122 255 0 0 255 
-0.09342 0.524407 2.131 255 0 0 255 
-0.087852 0.525891 2.137 255 0 0 255 
-0.082021 0.525898 2.137 255 0 0 255 
-0.076154 0.525659 2.136 255 0 0 255 
-0.070227 0.524927 2.133 255 0 0 255 
-0.064316 0.524194 2.13 255 0 0 255 
-0.058449 0.523707 2.128 255 0 0 255 
-0.052641 0.523712 2.128 255 0 0 255 
-0.046856 0.523962 2.129 255 0 0 255 
-0.040968 0.522981 2.125 255 0 0 255 
-0.035053 0.521262 2.118 255 0 0 255 
-0.029162 0.519296 2.11 255 0 0 255 
-0.023304 0.517083 2.101 255 0 0 255 
-0.017519 0.515608 2.095 255 0 0 255 
-0.011779 0.514625 2.091 255 0 0 255 
-0.006072 0.514626 2.091 255 0 0 255 
-0.000366 0.516349 2.098 255 0 0 255 
0.005376 0.517825 2.104 255 0 0 255 
0.01115 0.519301 2.11 255 0 0 255 
0.016901 0.519054 2.109 255 0 0 255 
0.022657 0.519052 2.109 255 0 0 255 
0.02844 0.519542 2.111 255 0 0 255 
0.034282 0.52077 2.116 255 0 0 255 
0.040133 0.521751 2.12 255 0 0 255 
0.045962 0.52224 2.122 255 0 0 255 
0.051777 0.522482 2.123 255 0 0 255 
0.057571 0.522477 2.123 255 0 0 255 
0.063215 0.521241 2.118 255 0 0 255 
0.068929 0.520744 2.116 255 0 0 255 
0.074598 0.519999 2.113 255 0 0 255 
0.080439 0.520485 2.115 255 0 0 255 
0.086129 0.519986 2.113 255 0 0 255 
0.091894 0.519978 2.113 255 0 0 255 
0.097566 0.519478 2.111 255 0 0 255 
0.103374 0.519716 2.112 255 0 0 255 
0.109239 0.520199 2.114 255 0 0 255 
0.115169 0.520928 2.117 255 0 0 255 
0.121172 0.521902 2.121 255 0 0 255 
0.127077 0.522384 2.123 255 0 0 255 
0.132868 0.522373 2.123 255 0 0 255 
0.138658 0.522362 2.123 255 0 0 255 
0.144651 0.523089 2.126 255 0 0 255 
0.151086 0.525291 2.135 255 0 0 255 
-0.075141 0.665181 2.18687 255 255 0 255 
-0.063697 0.663753 2.18244 255 255 0 255 
-0.065202 0.661663 2.16839 255 255 0 255 
-0.058083 0.660021 2.16078 255 255 0 255 
-0.063879 0.657699 2.14344 255 255 0 255 
-0.073952 0.655139 2.12279 255 255 0 255 
-0.085714 0.652472 2.10074 255 255 0 255 
-0.075998 0.650963 2.09503 255 255 0 255 
-0.171405 0.592709 2.2154 0 255 0 255 
-0.168473 0.594803 2.22542 0 255 0 255 
-0.160225 0.596298 2.23163 0 255 0 255 
-0.15463 0.598099 2.23976 0 255 0 255 
-0.142817 0.599211 2.2435 0 255 0 255 
-0.128325 0.600039 2.2454 0 255 0 255 
-0.110258 0.600491 2.24488 0 255 0 255 
-0.097504 0.601546 2.24816 0 255 0 255 
-0.091858 0.603389 2.25646 0 255 0 255 
-0.286362 0.531294 2.185 255 0 0 255 
-0.278747 0.528154 2.172 255 0 0 255 
-0.272081 0.526716 2.166 255 0 0 255 
-0.265816 0.526006 2.163 255 0 0 255 
-0.259447 0.525053 2.159 255 0 0 255 
-0.253216 0.524343 2.156 255 0 0 255 
-0.246771 0.523146 2.151 255 0 0 255 
-0.240689 0.522679 2.149 255 0 0 255 
-0.234618 0.52221 2.147 255 0 0 255 
-0.228663 0.521985 2.146 255 0 0 255 
-0.222713 0.521759 2.145 255 0 0 255 
-0.216768 0.521533 2.144 255 0 0 255 
-0.210926 0.52155 2.144 255 0 0 255 
-0.205084 0.521567 2.144 255 0 0 255 
-0.199241 0.521583 2.144 255 0 0 255 
-0.193398 0.521598 2.144 255 0 0 255 
-0.187292 0.520884 2.141 255 0 0 255 
-0.181202 0.520169 2.138 255 0 0 255 
-0.175537 0.52067 2.14 255 0 0 255 
-0.169465 0.519954 2.137 255 0 0 255 
-0.163332 0.518994 2.133 255 0 0 255 
-0.157073 0.517547 2.127 255 0 0 255 
-0.151273 0.51756 2.127 255 0 0 255 
-0.145541 0.517815 2.128 255 0 0 255 
-0.139737 0.517827 2.128 255 0 0 255 
-0.133682 0.516865 2.124 255 0 0 255 
-0.127587 0.515659 2.119 255 0 0 255 
-0.121635 0.514939 2.116 255 0 0 255 
-0.115862 0.514949 2.116 255 0 0 255 
-0.109933 0.514229 2.113 255 0 0 255 
-0.104021 0.513508 2.11 255 0 0 255 
-0.098404 0.514246 2.113 255 0 0 255 
-0.093077 0.516688 2.123 255 0 0 255 
-0.087695 0.519129 2.133 255 0 0 255 
-0.08199 0.519867 2.136 255 0 0 255 
-0.076161 0.519873 2.136 255 0 0 255 
-0.070266 0.519393 2.134 255 0 0 255 
-0.064382 0.518912 2.132 255 0 0 255 
-0.058508 0.51843 2.13 255 0 0 255 
-0.052646 0.517948 2.128 255 0 0 255 
-0.046794 0.517466 2.126 255 0 0 255 
-0.040856 0.515765 2.119 255 0 0 255 
-0.03494 0.513821 2.111 255 0 0 255 
-0.029109 0.512607 2.106 255 0 0 255 
-0.023328 0.511879 2.103 255 0 0 255 
-0.017571 0.511394 2.101 255 0 0 255 
-0.011819 0.510665 2.098 255 0 0 255 
-0.006093 0.510666 2.098 255 0 0 255 
-0.000367 0.51164 2.102 255 0 0 255 
0.005379 0.51237 2.105 255 0 0 255 
0.01114 0.513099 2.108 255 0 0 255 
0.01687 0.512368 2.105 255 0 0 255 
0.022605 0.512123 2.104 255 0 0 255 
0.028388 0.512851 2.107 255 0 0 255 
0.034252 0.514552 2.114 255 0 0 255 
0.040136 0.516009 2.12 255 0 0 255 
0.045944 0.516249 2.121 255 0 0 255 
0.051708 0.516001 2.12 255 0 0 255 
0.05744 0.51551 2.118 255 0 0 255 
0.063131 0.514775 2.115 255 0 0 255 
0.068903 0.514769 2.115 255 0 0 255 
0.074639 0.51452 2.114 255 0 0 255 
0.080446 0.514756 2.115 255 0 0 255 
0.086177 0.514506 2.114 255 0 0 255 
0.091945 0.514499 2.114 255 0 0 255 
0.097713 0.514491 2.114 255 0 0 255 
0.103481 0.514482 2.114 255 0 0 255 
0.1093 0.514717 2.115 255 0 0 255 
0.115124 0.514951 2.116 255 0 0 255 
0.121068 0.515671 2.119 255 0 0 255 
0.127028 0.516391 2.122 255 0 0 255 
0.132879 0.516623 2.123 255 0 0 255 
0.138669 0.516612 2.123 255 0 0 255 
0.144595 0.517087 2.125 255 0 0 255 
0.150886 0.518778 2.132 255 0 0 255 
-0.083923 0.656065 2.19446 255 255 0 255 
-0.07333 0.654605 2.18935 255 255 0 255 
-0.061889 0.6532 2.18492 255 255 0 255 
-0.05736 0.651426 2.17538 255 255 0 255 
-0.048527 0.649892 2.16908 255 255 0 255 
-0.059487 0.647256 2.14788 255 255 0 255 
-0.06526 0.644898 2.1305 255 255 0 255 
-0.209633 0.579627 2.20811 0 255 0 255 
-0.198781 0.580759 2.21226 0 255 0 255 
-0.190565 0.582214 2.21838 0 255 0 255 
-0.178532 0.585663 2.23388 0 255 0 255 
-0.167638 0.58683 2.23816 0 255 0 255 
-0.157618 0.588111 2.24312 0 255 0 255 
-0.146698 0.589299 2.24749 0 255 0 255 
-0.133991 0.590295 2.25065 0 255 0 255 
-0.115936 0.590702 2.25012 0 255 0 255 
-0.098745 0.591227 2.2503 0 255 0 255 
-0.089541 0.592666 2.25612 0 255 0 255 
-0.082998 0.59441 2.26383 0 255 0 255 
-0.284942 0.52273 2.174 255 0 0 255 
-0.27864 0.52203 2.171 255 0 0 255 
-0.272479 0.521569 2.169 255 0 0 255 
-0.266451 0.521349 2.168 255 0 0 255 
-0.259947 0.520167 2.163 255 0 0 255 
-0.253587 0.519224 2.159 255 0 0 255 
-0.247134 0.518041 2.154 255 0 0 255 
-0.241044 0.517578 2.152 255 0 0 255 
-0.234964 0.517116 2.15 255 0 0 255 
-0.229107 0.517134 2.15 255 0 0 255 
-0.223042 0.51667 2.148 255 0 0 255 
-0.217088 0.516447 2.147 255 0 0 255 
-0.211041 0.515983 2.145 255 0 0 255 
-0.2051 0.515759 2.144 255 0 0 255 
-0.199257 0.515775 2.144 255 0 0 255 
-0.193323 0.51555 2.143 255 0 0 255 
-0.187394 0.515324 2.142 255 0 0 255 
-0.181301 0.514618 2.139 255 0 0 255 
-0.17547 0.514632 2.139 255 0 0 255 
-0.1694 0.513924 2.136 255 0 0 255 
-0.163499 0.513697 2.135 255 0 0 255 
-0.157234 0.512267 2.129 255 0 0 255 
-0.151428 0.512279 2.129 255 0 0 255 
-0.145485 0.51181 2.127 255 0 0 255 
-0.139815 0.512303 2.129 255 0 0 255 
-0.133819 0.511592 2.126 255 0 0 255 
-0.127959 0.511363 2.125 255 0 0 255 
-0.122162 0.511373 2.125 255 0 0 255 
-0.116419 0.511624 2.126 255 0 0 255 
-0.110255 0.509949 2.119 255 0 0 255 
-0.104128 0.508273 2.112 255 0 0 255 
-0.098272 0.5078 2.11 255 0 0 255 
-0.092734 0.509011 2.115 255 0 0 255 
-0.087332 0.511185 2.124 255 0 0 255 
-0.081766 0.512636 2.13 255 0 0 255 
-0.076096 0.513606 2.134 255 0 0 255 
-0.070173 0.51289 2.131 255 0 0 255 
-0.064357 0.512895 2.131 255 0 0 255 
-0.058486 0.512419 2.129 255 0 0 255 
-0.052601 0.511702 2.126 255 0 0 255 
-0.046644 0.510021 2.119 255 0 0 255 
-0.040686 0.507859 2.11 255 0 0 255 
-0.034844 0.506659 2.105 255 0 0 255 
-0.029098 0.506661 2.105 255 0 0 255 
-0.023363 0.506904 2.106 255 0 0 255 
-0.017631 0.507387 2.108 255 0 0 255 
-0.011871 0.507148 2.107 255 0 0 255 
-0.006116 0.506908 2.106 255 0 0 255 
-0.000368 0.507149 2.107 255 0 0 255 
0.005389 0.50763 2.109 255 0 0 255 
0.011146 0.50763 2.109 255 0 0 255 
0.016879 0.506906 2.106 255 0 0 255 
0.022618 0.506664 2.105 255 0 0 255 
0.028404 0.507384 2.108 255 0 0 255 
0.034255 0.508825 2.114 255 0 0 255 
0.040121 0.510026 2.119 255 0 0 255 
0.045904 0.510022 2.119 255 0 0 255 
0.051615 0.509296 2.116 255 0 0 255 
0.057336 0.50881 2.114 255 0 0 255 
0.063106 0.508805 2.114 255 0 0 255 
0.068909 0.50904 2.115 255 0 0 255 
0.074681 0.509034 2.115 255 0 0 255 
0.080453 0.509027 2.115 255 0 0 255 
0.086184 0.508779 2.114 255 0 0 255 
0.091996 0.509012 2.115 255 0 0 255 
0.097767 0.509004 2.115 255 0 0 255 
0.103538 0.508996 2.115 255 0 0 255 
0.109309 0.508987 2.115 255 0 0 255 
0.115188 0.509459 2.117 255 0 0 255 
0.121135 0.510171 2.12 255 0 0 255 
0.127039 0.510642 2.122 255 0 0 255 
0.132952 0.511113 2.124 255 0 0 255 
0.138746 0.511101 2.124 255 0 0 255 
0.144879 0.512293 2.129 255 0 0 255 
0.150969 0.513243 2.133 255 0 0 255 
0.157447 0.515396 2.142 255 0 0 255 
-0.093576 0.646869 2.20147 255 255 0 255 
-0.073466 0.645955 2.20331 255 255 0 255 
-0.066339 0.644324 2.19566 255 255 0 255 
-0.057495 0.642796 2.18932 255 255 0 255 
-0.050384 0.641175 2.18172 255 255 0 255 
-0.040699 0.639709 2.17608 255 255 0 255 
-0.048846 0.63516 2.14406 255 255 0 255 
-0.214894 0.56516 2.18898 0 255 0 255 
-0.223168 0.571039 2.21922 0 255 0 255 
-0.21674 0.572678 2.22656 0 255 0 255 
-0.207659 0.574002 2.23199 0 255 0 255 
-0.194151 0.574804 2.23426 0 255 0 255 
-0.185045 0.576147 2.23977 0 255 0 255 
-0.167081 0.576447 2.23899 0 255 0 255 
-0.161491 0.578233 2.24711 0 255 0 255 
-0.148805 0.579189 2.25022 0 255 0 255 
-0.136104 0.580158 2.25339 0 255 0 255 
-0.119834 0.580727 2.25412 0 255 0 255 
-0.106208 0.581622 2.25678 0 255 0 255 
-0.097012 0.58304 2.26259 0 255 0 255 
-0.081574 0.583756 2.26413 0 255 0 255 
-0.295028 0.524188 2.205 255 0 0 255 
-0.284832 0.516602 2.173 255 0 0 255 
-0.278532 0.51591 2.17 255 0 0 255 
-0.272499 0.515693 2.169 255 0 0 255 
-0.266471 0.515475 2.168 255 0 0 255 
-0.260207 0.514782 2.165 255 0 0 255 
-0.253724 0.513612 2.16 255 0 0 255 
-0.247268 0.512443 2.155 255 0 0 255 
-0.241062 0.511748 2.152 255 0 0 255 
-0.235091 0.511528 2.151 255 0 0 255 
-0.229231 0.511546 2.151 255 0 0 255 
-0.223267 0.511326 2.15 255 0 0 255 
-0.217308 0.511106 2.149 255 0 0 255 
-0.211156 0.510409 2.146 255 0 0 255 
-0.205021 0.509712 2.143 255 0 0 255 
-0.198994 0.509252 2.141 255 0 0 255 
-0.193249 0.509506 2.142 255 0 0 255 
-0.187497 0.509759 2.143 255 0 0 255 
-0.181485 0.509298 2.141 255 0 0 255 
-0.175566 0.509074 2.14 255 0 0 255 
-0.169493 0.508375 2.137 255 0 0 255 
-0.163589 0.50815 2.136 255 0 0 255 
-0.157542 0.50745 2.133 255 0 0 255 
-0.151582 0.506987 2.131 255 0 0 255 
-0.145633 0.506523 2.129 255 0 0 255 
-0.139892 0.506773 2.13 255 0 0 255 
-0.134081 0.506784 2.13 255 0 0 255 
-0.128391 0.507271 2.132 255 0 0 255 
-0.122575 0.507281 2.132 255 0 0 255 
-0.116758 0.507291 2.132 255 0 0 255 
-0.110576 0.505635 2.125 255 0 0 255 
-0.104285 0.503264 2.115 255 0 0 255 
-0.09828 0.502083 2.11 255 0 0 255 
-0.092479 0.501853 2.109 255 0 0 255 
-0.08697 0.503289 2.115 255 0 0 255 
-0.081466 0.504961 2.122 255 0 0 255 
-0.075996 0.50711 2.131 255 0 0 255 
-0.070179 0.507116 2.131 255 0 0 255 
-0.064363 0.507122 2.131 255 0 0 255 
-0.058408 0.505937 2.126 255 0 0 255 
-0.052481 0.504752 2.121 255 0 0 255 
-0.046516 0.502852 2.113 255 0 0 255 
-0.040632 0.501428 2.107 255 0 0 255 
-0.034863 0.501193 2.106 255 0 0 255 
-0.029114 0.501196 2.106 255 0 0 255 
-0.023387 0.501674 2.108 255 0 0 255 
-0.017649 0.502152 2.11 255 0 0 255 
-0.011894 0.502391 2.111 255 0 0 255 
-0.006131 0.502392 2.111 255 0 0 255 
-0.000368 0.50263 2.112 255 0 0 255 
0.005395 0.502392 2.111 255 0 0 255 
0.011147 0.501915 2.109 255 0 0 255 
0.016889 0.501438 2.107 255 0 0 255 
0.022641 0.501436 2.107 255 0 0 255 
0.028433 0.502148 2.11 255 0 0 255 
0.034275 0.503335 2.115 255 0 0 255 
0.040086 0.503808 2.117 255 0 0 255 
0.045843 0.503567 2.116 255 0 0 255 
0.051546 0.502849 2.113 255 0 0 255 
0.05726 0.502368 2.111 255 0 0 255 
0.063052 0.502601 2.112 255 0 0 255 
0.068849 0.502833 2.113 255 0 0 255 
0.074617 0.502827 2.113 255 0 0 255 
0.080384 0.502821 2.113 255 0 0 255 
0.08615 0.502814 2.113 255 0 0 255 
0.09196 0.503044 2.114 255 0 0 255 
0.097776 0.503274 2.115 255 0 0 255 
0.103596 0.503504 2.116 255 0 0 255 
0.10937 0.503495 2.116 255 0 0 255 
0.115307 0.504199 2.119 255 0 0 255 
0.121145 0.504427 2.12 255 0 0 255 
0.127109 0.505131 2.123 255 0 0 255 
0.133026 0.505596 2.125 255 0 0 255 
0.139019 0.506298 2.128 255 0 0 255 
0.145163 0.507476 2.133 255 0 0 255 
0.151123 0.50794 2.135 255 0 0 255 
0.157534 0.50983 2.143 255 0 0 255 
-0.081381 0.636858 2.21156 255 255 0 255 
-0.063882 0.635845 2.21151 255 255 0 255 
-0.059354 0.634073 2.20197 255 255 0 255 
-0.04707 0.632772 2.1982 255 255 0 255 
-0.045136 0.63085 2.18677 255 255 0 255 
-0.032018 0.629615 2.18371 255 255 0 255 
-0.032666 0.627538 2.17035 255 255 0 255 
-0.039313 0.625079 2.1524 255 255 0 255 
-0.057084 0.621905 2.12591 255 255 0 255 
-0.212579 0.554603 2.18844 0 255 0 255 
-0.218461 0.557792 2.20489 0 255 0 255 
-0.218195 0.560198 2.21676 0 255 0 255 
-0.219697 0.562821 2.2299 0 255 0 255 
-0.211502 0.564237 2.23597 0 255 0 255 
-0.206831 0.566096 2.24462 0 255 0 255 
-0.192437 0.566766 2.2463 0 255 0 255 
-0.178023 0.567451 2.24803 0 255 0 255 
-0.166247 0.568473 2.25172 0 255 0 255 
-0.158885 0.57004 2.2586 0 255 0 255 
-0.143537 0.570658 2.25987 0 255 0 255 
-0.130829 0.571609 2.26308 0 255 0 255 
-0.118994 0.572678 2.26697 0 255 0 255 
-0.103588 0.57334 2.26843 0 255 0 255 
-0.081935 0.57329 2.26566 0 255 0 255 
-0.066483 0.573988 2.26728 0 255 0 255 
-0.295317 0.518683 2.207 255 0 0 255 
-0.284853 0.510714 2.173 255 0 0 255 
-0.278809 0.5105 2.172 255 0 0 255 
-0.272771 0.510285 2.171 255 0 0 255 
-0.266491 0.5096 2.168 255 0 0 255 
-0.260107 0.50868 2.164 255 0 0 255 
-0.253744 0.507759 2.16 255 0 0 255 
-0.247631 0.507308 2.158 255 0 0 255 
-0.241305 0.506387 2.154 255 0 0 255 
-0.235219 0.505935 2.152 255 0 0 255 
-0.229356 0.505953 2.152 255 0 0 255 
-0.223492 0.50597 2.152 255 0 0 255 
-0.217325 0.505282 2.149 255 0 0 255 
-0.211271 0.504829 2.147 255 0 0 255 
-0.204941 0.50367 2.142 255 0 0 255 
-0.198917 0.503215 2.14 255 0 0 255 
-0.193174 0.503466 2.141 255 0 0 255 
-0.187425 0.503717 2.142 255 0 0 255 
-0.1815 0.503496 2.141 255 0 0 255 
-0.175416 0.502805 2.138 255 0 0 255 
-0.169586 0.502819 2.138 255 0 0 255 
-0.163602 0.502362 2.136 255 0 0 255 
-0.157703 0.50214 2.135 255 0 0 255 
-0.151737 0.501682 2.133 255 0 0 255 
-0.145851 0.501459 2.132 255 0 0 255 
-0.140035 0.501471 2.132 255 0 0 255 
-0.134155 0.501247 2.131 255 0 0 255 
-0.128462 0.501728 2.133 255 0 0 255 
-0.122642 0.501739 2.133 255 0 0 255 
-0.116822 0.501749 2.133 255 0 0 255 
-0.110742 0.500582 2.128 255 0 0 255 
-0.104639 0.49918 2.122 255 0 0 255 
-0.098522 0.497541 2.115 255 0 0 255 
-0.09253 0.496373 2.11 255 0 0 255 
-0.08673 0.496146 2.109 255 0 0 255 
-0.081127 0.497094 2.113 255 0 0 255 
-0.075717 0.499453 2.123 255 0 0 255 
-0.070086 0.500635 2.128 255 0 0 255 
-0.064277 0.500641 2.128 255 0 0 255 
-0.058276 0.498999 2.121 255 0 0 255 
-0.052337 0.497592 2.115 255 0 0 255 
-0.046454 0.49642 2.11 255 0 0 255 
-0.040635 0.495718 2.107 255 0 0 255 
-0.034866 0.495486 2.106 255 0 0 255 
-0.029117 0.495489 2.106 255 0 0 255 
-0.023389 0.495962 2.108 255 0 0 255 
-0.017642 0.496199 2.109 255 0 0 255 
-0.01189 0.496435 2.11 255 0 0 255 
-0.006132 0.496671 2.111 255 0 0 255 
-0.000369 0.497142 2.113 255 0 0 255 
0.0054 0.497142 2.113 255 0 0 255 
0.011159 0.496671 2.111 255 0 0 255 
0.016906 0.496199 2.109 255 0 0 255 
0.022686 0.496668 2.111 255 0 0 255 
0.02849 0.497371 2.114 255 0 0 255 
0.034277 0.497604 2.115 255 0 0 255 
0.040014 0.49713 2.113 255 0 0 255 
0.045761 0.496891 2.112 255 0 0 255 
0.051478 0.496417 2.11 255 0 0 255 
0.057238 0.496412 2.11 255 0 0 255 
0.063027 0.496642 2.111 255 0 0 255 
0.068855 0.497107 2.113 255 0 0 255 
0.074658 0.497336 2.114 255 0 0 255 
0.080466 0.497565 2.115 255 0 0 255 
0.086239 0.497558 2.115 255 0 0 255 
0.092055 0.497786 2.116 255 0 0 255 
0.097784 0.497543 2.115 255 0 0 255 
0.103605 0.497769 2.116 255 0 0 255 
0.109483 0.498231 2.118 255 0 0 255 
0.11548 0.499162 2.122 255 0 0 255 
0.121327 0.499388 2.123 255 0 0 255 
0.127299 0.500083 2.126 255 0 0 255 
0.133162 0.500308 2.127 255 0 0 255 
0.139095 0.500767 2.129 255 0 0 255 
0.145175 0.501696 2.133 255 0 0 255 
0.151418 0.503095 2.139 255 0 0 255 
0.157841 0.504964 2.147 255 0 0 255 
0.164077 0.506127 2.152 255 0 0 255 
-0.102514 0.628993 2.22317 255 255 0 255 
-0.084976 0.627997 2.22299 255 255 0 255 
-0.069196 0.62691 2.22162 255 255 0 255 
-0.056032 0.625675 2.21842 255 255 0 255 
-0.045474 0.624288 2.21337 255 255 0 255 
-0.035792 0.622854 2.20771 255 255 0 255 
-0.022681 0.621648 2.20465 255 255 0 255 
-0.018186 0.619897 2.19521 255 255 0 255 
-0.021421 0.617644 2.17994 255 255 0 255 
-0.032362 0.614876 2.15878 255 255 0 255 
-0.032989 0.612777 2.14536 255 255 0 255 
-0.216419 0.544819 2.19246 0 255 0 255 
-0.217901 0.547465 2.20566 0 255 0 255 
-0.219392 0.550107 2.21882 0 255 0 255 
-0.220009 0.552633 2.23132 0 255 0 255 
-0.220633 0.555155 2.24379 0 255 0 255 
-0.216851 0.557116 2.25306 0 255 0 255 
-0.203354 0.55786 2.25535 0 255 0 255 
-0.184536 0.557955 2.25391 0 255 0 255 
-0.171 0.558729 2.25633 0 255 0 255 
-0.160987 0.559955 2.26132 0 255 0 255 
-0.147419 0.560755 2.26385 0 255 0 255 
-0.134719 0.561677 2.26706 0 255 0 255 
-0.124666 0.562935 2.27219 0 255 0 255 
-0.111936 0.563881 2.2755 0 255 0 255 
-0.092077 0.563987 2.27395 0 255 0 255 
-0.07308 0.56422 2.27311 0 255 0 255 
-0.293733 0.509914 2.195 255 0 0 255 
-0.285923 0.506683 2.181 255 0 0 255 
-0.279215 0.50531 2.175 255 0 0 255 
-0.272917 0.504634 2.172 255 0 0 255 
-0.266388 0.503492 2.167 255 0 0 255 
-0.260126 0.502815 2.164 255 0 0 255 
-0.25388 0.502137 2.161 255 0 0 255 
-0.24765 0.501459 2.158 255 0 0 255 
-0.241436 0.500781 2.155 255 0 0 255 
-0.235237 0.500102 2.152 255 0 0 255 
-0.229267 0.499888 2.151 255 0 0 255 
-0.223406 0.499905 2.151 255 0 0 255 
-0.217443 0.49969 2.15 255 0 0 255 
-0.211386 0.499242 2.148 255 0 0 255 
-0.205245 0.498562 2.145 255 0 0 255 
-0.199119 0.49788 2.142 255 0 0 255 
-0.193189 0.497663 2.141 255 0 0 255 
-0.187352 0.497679 2.141 255 0 0 255 
-0.181345 0.497228 2.139 255 0 0 255 
-0.175348 0.496778 2.137 255 0 0 255 
-0.169441 0.496559 2.136 255 0 0 255 
-0.163462 0.496108 2.134 255 0 0 255 
-0.157568 0.495889 2.133 255 0 0 255 
-0.151607 0.495436 2.131 255 0 0 255 
-0.145794 0.495448 2.131 255 0 0 255 
-0.140046 0.495693 2.132 255 0 0 255 
-0.13423 0.495704 2.132 255 0 0 255 
-0.128412 0.495715 2.132 255 0 0 255 
-0.122537 0.495493 2.131 255 0 0 255 
-0.116722 0.495503 2.131 255 0 0 255 
-0.110855 0.495279 2.13 255 0 0 255 
-0.104845 0.494358 2.126 255 0 0 255 
-0.098763 0.492972 2.12 255 0 0 255 
-0.092757 0.491817 2.115 255 0 0 255 
-0.08682 0.490894 2.111 255 0 0 255 
-0.081019 0.490669 2.11 255 0 0 255 
-0.075473 0.492071 2.116 255 0 0 255 
-0.069862 0.49324 2.121 255 0 0 255 
-0.064071 0.493245 2.121 255 0 0 255 
-0.058116 0.491855 2.115 255 0 0 255 
-0.052268 0.491162 2.112 255 0 0 255 
-0.046457 0.490701 2.11 255 0 0 255 
-0.040658 0.49024 2.108 255 0 0 255 
-0.034886 0.49001 2.107 255 0 0 255 
-0.029147 0.490246 2.108 255 0 0 255 
-0.023402 0.490481 2.109 255 0 0 255 
-0.017644 0.490482 2.109 255 0 0 255 
-0.011874 0.490018 2.107 255 0 0 255 
-0.006124 0.490252 2.108 255 0 0 255 
-0.000368 0.49095 2.111 255 0 0 255 
0.005398 0.491182 2.112 255 0 0 255 
0.01116 0.490949 2.111 255 0 0 255 
0.016924 0.490948 2.111 255 0 0 255 
0.022709 0.491411 2.113 255 0 0 255 
0.028492 0.491641 2.114 255 0 0 255 
0.03428 0.491871 2.115 255 0 0 255 
0.039998 0.49117 2.112 255 0 0 255 
0.045743 0.490934 2.111 255 0 0 255 
0.051482 0.490698 2.11 255 0 0 255 
0.05727 0.490926 2.111 255 0 0 255 
0.063033 0.49092 2.111 255 0 0 255 
0.068861 0.49138 2.113 255 0 0 255 
0.0747 0.491839 2.115 255 0 0 255 
0.080587 0.49253 2.118 255 0 0 255 
0.086369 0.492523 2.118 255 0 0 255 
0.09215 0.492516 2.118 255 0 0 255 
0.097838 0.492043 2.116 255 0 0 255 
0.103711 0.492499 2.118 255 0 0 255 
0.109698 0.49342 2.122 255 0 0 255 
0.115707 0.494341 2.126 255 0 0 255 
0.121566 0.494564 2.127 255 0 0 255 
0.127489 0.495019 2.129 255 0 0 255 
0.133236 0.494775 2.128 255 0 0 255 
0.139172 0.495229 2.13 255 0 0 255 
0.145187 0.495915 2.133 255 0 0 255 
0.151572 0.497763 2.141 255 0 0 255 
0.15778 0.498912 2.146 255 0 0 255 
0.164014 0.500062 2.151 255 0 0 255 
-0.089438 0.619074 2.23381 255 255 0 255 
-0.07192 0.618125 2.23365 255 255 0 255 
-0.053567 0.617247 2.2342 255 255 0 255 
-0.040422 0.616048 2.23104 255 255 0 255 
-0.032468 0.614518 2.22411 255 255 0 255 
-0.015914 0.613566 2.22359 255 255 0 255 
0.004787 0.604737 2.17521 255 255 0 255 
-0.222892 0.535396 2.19842 0 255 0 255 
-0.219103 0.537356 2.20772 0 255 0 255 
-0.21883 0.539781 2.2196 0 255 0 255 
-0.220324 0.542434 2.23274 0 255 0 255 
-0.220064 0.544854 2.24457 0 255 0 255 
-0.22069 0.547385 2.25703 0 255 0 255 
-0.208083 0.548211 2.25995 0 255 0 255 
-0.193695 0.548823 2.26167 0 255 0 255 
-0.179287 0.549451 2.26345 0 255 0 255 
-0.165744 0.550205 2.26592 0 255 0 255 
-0.151299 0.550861 2.26783 0 255 0 255 
-0.139493 0.551866 2.27166 0 255 0 255 
-0.126786 0.552771 2.27492 0 255 0 255 
-0.112287 0.55347 2.27701 0 255 0 255 
-0.094214 0.553747 2.27671 0 255 0 255 
-0.066894 0.55544 2.28244 0 255 0 255 
-0.293888 0.504194 2.196 255 0 0 255 
-0.285944 0.500771 2.181 255 0 0 255 
-0.279236 0.499415 2.175 255 0 0 255 
-0.273063 0.498976 2.173 255 0 0 255 
-0.266777 0.498307 2.17 255 0 0 255 
-0.260507 0.497638 2.167 255 0 0 255 
-0.254252 0.496969 2.164 255 0 0 255 
-0.248013 0.496299 2.161 255 0 0 255 
-0.241678 0.495399 2.157 255 0 0 255 
-0.235364 0.494499 2.153 255 0 0 255 
-0.229391 0.494287 2.152 255 0 0 255 
-0.223527 0.494304 2.152 255 0 0 255 
-0.217561 0.494092 2.151 255 0 0 255 
-0.211501 0.493649 2.149 255 0 0 255 
-0.205261 0.492747 2.145 255 0 0 255 
-0.199321 0.492533 2.144 255 0 0 255 
-0.193295 0.492089 2.142 255 0 0 255 
-0.187279 0.491645 2.14 255 0 0 255 
-0.181275 0.4912 2.138 255 0 0 255 
-0.17528 0.490755 2.136 255 0 0 255 
-0.169375 0.490539 2.135 255 0 0 255 
-0.163475 0.490323 2.134 255 0 0 255 
-0.157581 0.490106 2.133 255 0 0 255 
-0.151691 0.489889 2.132 255 0 0 255 
-0.145806 0.489671 2.131 255 0 0 255 
-0.140123 0.490143 2.133 255 0 0 255 
-0.134241 0.489924 2.132 255 0 0 255 
-0.128363 0.489705 2.131 255 0 0 255 
-0.122433 0.489256 2.129 255 0 0 255 
-0.116732 0.489726 2.131 255 0 0 255 
-0.110864 0.489505 2.13 255 0 0 255 
-0.104952 0.489055 2.128 255 0 0 255 
-0.098911 0.487914 2.123 255 0 0 255 
-0.09294 0.487003 2.119 255 0 0 255 
-0.086909 0.485631 2.113 255 0 0 255 
-0.080988 0.484719 2.109 255 0 0 255 
-0.07523 0.484726 2.109 255 0 0 255 
-0.069637 0.485881 2.114 255 0 0 255 
-0.063896 0.486116 2.115 255 0 0 255 
-0.058066 0.485662 2.113 255 0 0 255 
-0.052247 0.485207 2.111 255 0 0 255 
-0.046439 0.484751 2.109 255 0 0 255 
-0.040623 0.484065 2.106 255 0 0 255 
-0.034856 0.483839 2.105 255 0 0 255 
-0.029149 0.484531 2.108 255 0 0 255 
-0.023404 0.484763 2.109 255 0 0 255 
-0.017662 0.485225 2.111 255 0 0 255 
-0.011881 0.484536 2.108 255 0 0 255 
-0.006127 0.484767 2.109 255 0 0 255 
-0.000368 0.484767 2.109 255 0 0 255 
0.005394 0.484997 2.11 255 0 0 255 
0.011161 0.485226 2.111 255 0 0 255 
0.016917 0.484995 2.11 255 0 0 255 
0.0227 0.485453 2.112 255 0 0 255 
0.028468 0.485451 2.112 255 0 0 255 
0.034235 0.485448 2.112 255 0 0 255 
0.039945 0.484755 2.109 255 0 0 255 
0.045725 0.484982 2.11 255 0 0 255 
0.051486 0.484978 2.11 255 0 0 255 
0.057302 0.485433 2.112 255 0 0 255 
0.063068 0.485427 2.112 255 0 0 255 
0.068899 0.485882 2.114 255 0 0 255 
0.074777 0.486565 2.117 255 0 0 255 
0.080746 0.487708 2.122 255 0 0 255 
0.086621 0.48816 2.124 255 0 0 255 
0.092419 0.488153 2.124 255 0 0 255 
0.097985 0.486996 2.119 255 0 0 255 
0.10372 0.486758 2.118 255 0 0 255 
0.109656 0.487438 2.121 255 0 0 255 
0.115717 0.488578 2.126 255 0 0 255 
0.12169 0.489257 2.129 255 0 0 255 
0.12756 0.489477 2.13 255 0 0 255 
0.133309 0.489236 2.129 255 0 0 255 
0.139249 0.489685 2.131 255 0 0 255 
0.145267 0.490362 2.134 255 0 0 255 
0.151585 0.491959 2.141 255 0 0 255 
0.157793 0.493095 2.146 255 0 0 255 
0.163952 0.494001 2.15 255 0 0 255 
-0.101924 0.611694 2.25177 255 255 0 255 
-0.099964 0.609738 2.24028 255 255 0 255 
-0.0807 0.608934 2.2413 255 255 0 255 
-0.068382 0.607681 2.23738 255 255 0 255 
-0.050901 0.60679 2.2373 255 255 0 255 
-0.0369 0.605678 2.23477 255 255 0 255 
-0.019474 0.604816 2.23483 255 255 0 255 
-0.004659 0.603789 2.23306 255 255 0 255 
0.008413 0.602654 2.23008 255 255 0 255 
0.017171 0.601225 2.22393 255 255 0 255 
0.028493 0.599987 2.21975 255 255 0 255 
0.046653 0.599251 2.2208 255 255 0 255 
0.065639 0.598593 2.22258 255 255 0 255 
-0.21415 0.518965 2.16882 0 255 0 255 
-0.232267 0.523926 2.19444 0 255 0 255 
-0.23287 0.526476 2.20696 0 255 0 255 
-0.22821 0.528311 2.2156 0 255 0 255 
-0.225305 0.530386 2.22552 0 255 0 255 
-0.22592 0.532932 2.238 0 255 0 255 
-0.224781 0.53524 2.24918 0 255 0 255 
-0.218357 0.536848 2.25654 0 255 0 255 
-0.206635 0.537765 2.26012 0 255 0 255 
-0.19225 0.538346 2.26185 0 255 0 255 
-0.179614 0.539173 2.26491 0 255 0 255 
-0.167845 0.540127 2.26864 0 255 0 255 
-0.154292 0.540865 2.27118 0 255 0 255 
-0.141608 0.54173 2.27439 0 255 0 255 
-0.128019 0.542495 2.27705 0 255 0 255 
-0.111752 0.542937 2.27791 0 255 0 255 
-0.09635 0.543508 2.27946 0 255 0 255 
-0.084483 0.544539 2.28353 0 255 0 255 
-0.294043 0.498467 2.197 255 0 0 255 
-0.28662 0.495993 2.186 255 0 0 255 
-0.279385 0.493745 2.176 255 0 0 255 
-0.273083 0.493085 2.173 255 0 0 255 
-0.26692 0.492651 2.171 255 0 0 255 
-0.260887 0.492444 2.17 255 0 0 255 
-0.254624 0.491783 2.167 255 0 0 255 
-0.247917 0.490213 2.16 255 0 0 255 
-0.241585 0.489324 2.156 255 0 0 255 
-0.235273 0.488435 2.152 255 0 0 255 
-0.229622 0.488906 2.154 255 0 0 255 
-0.223648 0.488697 2.153 255 0 0 255 
-0.21778 0.488714 2.153 255 0 0 255 
-0.211617 0.48805 2.15 255 0 0 255 
-0.205469 0.487385 2.147 255 0 0 255 
-0.199429 0.486947 2.145 255 0 0 255 
-0.19331 0.486282 2.142 255 0 0 255 
-0.187294 0.485843 2.14 255 0 0 255 
-0.181204 0.485177 2.137 255 0 0 255 
-0.175458 0.485418 2.138 255 0 0 255 
-0.169468 0.484978 2.136 255 0 0 255 
-0.163642 0.484991 2.136 255 0 0 255 
-0.157667 0.48455 2.134 255 0 0 255 
-0.151846 0.484563 2.134 255 0 0 255 
-0.145886 0.484121 2.132 255 0 0 255 
-0.140069 0.484133 2.132 255 0 0 255 
-0.134189 0.483917 2.131 255 0 0 255 
-0.128313 0.4837 2.13 255 0 0 255 
-0.122443 0.483484 2.129 255 0 0 255 
-0.116687 0.483721 2.13 255 0 0 255 
-0.110821 0.483503 2.129 255 0 0 255 
-0.104911 0.483058 2.127 255 0 0 255 
-0.098872 0.481931 2.122 255 0 0 255 
-0.093036 0.481712 2.121 255 0 0 255 
-0.087122 0.481038 2.118 255 0 0 255 
