ply
format ascii 1.0
comment VCGLIB generated
element vertex 1245
property float x
property float y
property float z
property uchar red
property uchar green
property uchar blue
property uchar alpha
element face 0
property list uchar int vertex_indices
end_header
-0.182748 0.336353 2.151 255 0 0 255 
-0.176789 0.336209 2.15 255 0 0 255 
-0.170756 0.335908 2.148 255 0 0 255 
-0.16481 0.335763 2.147 255 0 0 255 
-0.15872 0.335305 2.144 255 0 0 255 
-0.152647 0.334847 2.141 255 0 0 255 
-0.146589 0.334388 2.138 255 0 0 255 
-0.140744 0.334398 2.138 255 0 0 255 
-0.135089 0.334876 2.141 255 0 0 255 
-0.129235 0.334886 2.141 255 0 0 255 
-0.123381 0.334894 2.141 255 0 0 255 
-0.117472 0.334746 2.14 255 0 0 255 
-0.111567 0.334598 2.139 255 0 0 255 
-0.105618 0.334293 2.137 255 0 0 255 
-0.099727 0.334143 2.136 255 0 0 255 
-0.093928 0.334306 2.137 255 0 0 255 
-0.088165 0.334626 2.139 255 0 0 255 
-0.082353 0.334788 2.14 255 0 0 255 
-0.076534 0.33495 2.141 255 0 0 255 
-0.07071 0.335112 2.142 255 0 0 255 
-0.06491 0.33543 2.144 255 0 0 255 
-0.059099 0.335747 2.146 255 0 0 255 
-0.053277 0.336064 2.148 255 0 0 255 
-0.047421 0.336224 2.149 255 0 0 255 
-0.041599 0.336696 2.152 255 0 0 255 
-0.035744 0.337012 2.154 255 0 0 255 
-0.029891 0.337484 2.157 255 0 0 255 
-0.024022 0.337955 2.16 255 0 0 255 
-0.018153 0.338739 2.165 255 0 0 255 
-0.012273 0.339991 2.173 255 0 0 255 
-0.006362 0.34187 2.185 255 0 0 255 
-0.000384 0.343904 2.198 255 0 0 255 
0.005656 0.345468 2.208 255 0 0 255 
0.011752 0.347032 2.218 255 0 0 255 
0.017886 0.348283 2.226 255 0 0 255 
0.024063 0.349533 2.234 255 0 0 255 
0.030258 0.35047 2.24 255 0 0 255 
0.036599 0.352502 2.253 255 0 0 255 
0.043029 0.354689 2.267 255 0 0 255 
0.049537 0.356876 2.281 255 0 0 255 
0.130136 0.355386 2.272 255 0 0 255 
0.135208 0.352405 2.253 255 0 0 255 
0.141054 0.351614 2.248 255 0 0 255 
0.1472 0.351604 2.248 255 0 0 255 
0.154096 0.353314 2.259 255 0 0 255 
0.160838 0.354554 2.267 255 0 0 255 
0.167476 0.355481 2.273 255 0 0 255 
0.173688 0.35547 2.273 255 0 0 255 
0.179899 0.355458 2.273 255 0 0 255 
0.185946 0.355132 2.271 255 0 0 255 
0.192235 0.355276 2.272 255 0 0 255 
0.198704 0.355732 2.275 255 0 0 255 
0.205188 0.356187 2.278 255 0 0 255 
-0.113795 0.332516 2.36643 255 255 0 255 
-0.105769 0.331276 2.35904 255 255 0 255 
-0.095174 0.330415 2.35346 255 255 0 255 
-0.09232 0.328433 2.34257 255 255 0 255 
-0.084319 0.327207 2.33525 255 255 0 255 
-0.074614 0.326237 2.32916 255 255 0 255 
-0.060643 0.325908 2.32612 255 255 0 255 
-0.061227 0.323429 2.31286 255 255 0 255 
-0.056678 0.321711 2.30321 255 255 0 255 
-0.052131 0.319995 2.29357 255 255 0 255 
-0.042473 0.319051 2.28761 255 255 0 255 
0.076363 0.320663 2.28527 255 255 0 255 
-0.332935 0.258944 2.27614 0 255 0 255 
-0.328345 0.260622 2.28466 0 255 0 255 
-0.313404 0.260032 2.2856 0 255 0 255 
-0.260138 0.253816 2.27076 0 255 0 255 
-0.218313 0.24747 2.25262 0 255 0 255 
-0.170453 0.245468 2.25506 0 255 0 255 
-0.194363 0.253367 2.28428 0 255 0 255 
-0.205295 0.258459 2.30416 0 255 0 255 
-0.206692 0.261506 2.31725 0 255 0 255 
-0.203748 0.263628 2.32729 0 255 0 255 
-0.200804 0.265752 2.33732 0 255 0 255 
-0.190018 0.26623 2.34195 0 255 0 255 
-0.18358 0.26763 2.34961 0 255 0 255 
-0.172771 0.268126 2.3543 0 255 0 255 
-0.162823 0.268814 2.35964 0 255 0 255 
-0.144995 0.267885 2.35969 0 255 0 255 
-0.371221 0.341494 2.226 255 0 0 255 
-0.363688 0.340135 2.217 255 0 0 255 
-0.357655 0.340156 2.217 255 0 0 255 
-0.351938 0.340483 2.219 255 0 0 255 
-0.345898 0.340504 2.219 255 0 0 255 
-0.33955 0.340217 2.217 255 0 0 255 
-0.333513 0.340237 2.217 255 0 0 255 
-0.327623 0.34041 2.218 255 0 0 255 
-0.321727 0.340584 2.219 255 0 0 255 
-0.315824 0.340756 2.22 255 0 0 255 
-0.310613 0.341696 2.226 255 0 0 255 
-0.305367 0.342636 2.232 255 0 0 255 
-0.300357 0.343883 2.24 255 0 0 255 
-0.295039 0.344823 2.246 255 0 0 255 
-0.289816 0.345916 2.253 255 0 0 255 
-0.285058 0.347623 2.264 255 0 0 255 
-0.280239 0.349329 2.275 255 0 0 255 
-0.272227 0.347044 2.26 255 0 0 255 
-0.264061 0.34445 2.243 255 0 0 255 
-0.256792 0.342931 2.233 255 0 0 255 
-0.249464 0.341258 2.222 255 0 0 255 
-0.241647 0.338816 2.206 255 0 0 255 
-0.233918 0.336374 2.19 255 0 0 255 
-0.226795 0.3347 2.179 255 0 0 255 
-0.220238 0.333793 2.173 255 0 0 255 
-0.213812 0.333039 2.168 255 0 0 255 
-0.207508 0.332438 2.164 255 0 0 255 
-0.201133 0.331683 2.159 255 0 0 255 
-0.194965 0.331236 2.156 255 0 0 255 
-0.188812 0.330788 2.153 255 0 0 255 
-0.182846 0.330646 2.152 255 0 0 255 
-0.176884 0.330505 2.151 255 0 0 255 
-0.170927 0.330363 2.15 255 0 0 255 
-0.164974 0.33022 2.149 255 0 0 255 
-0.158805 0.329617 2.145 255 0 0 255 
-0.152728 0.329166 2.142 255 0 0 255 
-0.146736 0.328869 2.14 255 0 0 255 
-0.141017 0.329186 2.142 255 0 0 255 
-0.135287 0.329503 2.144 255 0 0 255 
-0.129425 0.329512 2.144 255 0 0 255 
-0.123505 0.329367 2.143 255 0 0 255 
-0.117589 0.329222 2.142 255 0 0 255 
-0.111679 0.329076 2.141 255 0 0 255 
-0.105675 0.328622 2.138 255 0 0 255 
-0.099781 0.328476 2.137 255 0 0 255 
-0.093935 0.328482 2.137 255 0 0 255 
-0.088254 0.329103 2.141 255 0 0 255 
-0.082435 0.329263 2.142 255 0 0 255 
-0.076611 0.329422 2.143 255 0 0 255 
-0.070781 0.329581 2.144 255 0 0 255 
-0.064945 0.32974 2.145 255 0 0 255 
-0.059131 0.330051 2.147 255 0 0 255 
-0.053281 0.330209 2.148 255 0 0 255 
-0.047469 0.330674 2.151 255 0 0 255 
-0.041641 0.331138 2.154 255 0 0 255 
-0.035813 0.331756 2.158 255 0 0 255 
-0.029935 0.332065 2.16 255 0 0 255 
-0.024046 0.332375 2.162 255 0 0 255 
-0.018179 0.333299 2.168 255 0 0 255 
-0.012308 0.334991 2.179 255 0 0 255 
-0.006379 0.336836 2.191 255 0 0 255 
-0.000385 0.338066 2.199 255 0 0 255 
0.005654 0.339296 2.207 255 0 0 255 
0.011747 0.340833 2.217 255 0 0 255 
0.017887 0.342216 2.226 255 0 0 255 
0.024033 0.342983 2.231 255 0 0 255 
0.03026 0.344364 2.24 255 0 0 255 
0.036617 0.346514 2.254 255 0 0 255 
0.043089 0.348971 2.27 255 0 0 255 
0.049518 0.350505 2.28 255 0 0 255 
0.136118 0.348571 2.268 255 0 0 255 
0.141817 0.347332 2.26 255 0 0 255 
0.148389 0.348244 2.266 255 0 0 255 
0.155129 0.349463 2.274 255 0 0 255 
0.161558 0.349913 2.277 255 0 0 255 
0.167561 0.349441 2.274 255 0 0 255 
0.173623 0.349122 2.272 255 0 0 255 
0.179832 0.34911 2.272 255 0 0 255 
0.18604 0.349098 2.272 255 0 0 255 
0.192333 0.349239 2.273 255 0 0 255 
0.198542 0.349226 2.273 255 0 0 255 
0.204571 0.348905 2.271 255 0 0 255 
-0.099628 0.321175 2.3645 255 255 0 255 
-0.092476 0.319828 2.35656 255 255 0 255 
-0.085333 0.318484 2.34864 255 255 0 255 
-0.079054 0.317017 2.34014 255 255 0 255 
-0.071068 0.31581 2.33286 255 255 0 255 
-0.063092 0.314608 2.3256 255 255 0 255 
-0.060251 0.312633 2.31475 255 255 0 255 
-0.058263 0.310528 2.30328 255 255 0 255 
-0.050303 0.309335 2.29607 255 255 0 255 
-0.042352 0.308148 2.28888 255 255 0 255 
0.078138 0.310311 2.28769 255 255 0 255 
-0.329263 0.245092 2.26262 0 255 0 255 
-0.333271 0.248698 2.27753 0 255 0 255 
-0.326097 0.249795 2.28415 0 255 0 255 
-0.314607 0.249938 2.28763 0 255 0 255 
-0.290165 0.247224 2.28174 0 255 0 255 
-0.253599 0.241866 2.2672 0 255 0 255 
-0.204294 0.244865 2.29254 0 255 0 255 
-0.215225 0.249993 2.31238 0 255 0 255 
-0.211415 0.251926 2.3218 0 255 0 255 
-0.209342 0.254233 2.33244 0 255 0 255 
-0.205531 0.256168 2.34186 0 255 0 255 
-0.196494 0.256992 2.34768 0 255 0 255 
-0.186576 0.25764 2.35293 0 255 0 255 
-0.181007 0.259218 2.36121 0 255 0 255 
-0.166703 0.258962 2.36356 0 255 0 255 
-0.148886 0.257988 2.36363 0 255 0 255 
-0.36781 0.337866 2.242 255 0 0 255 
-0.360903 0.337134 2.237 255 0 0 255 
-0.354655 0.337004 2.236 255 0 0 255 
-0.348413 0.336873 2.235 255 0 0 255 
-0.341715 0.336291 2.231 255 0 0 255 
-0.335339 0.336009 2.229 255 0 0 255 
-0.32912 0.335878 2.228 255 0 0 255 
-0.323196 0.336048 2.229 255 0 0 255 
-0.317408 0.336369 2.231 255 0 0 255 
-0.312167 0.337293 2.237 255 0 0 255 
-0.307165 0.338518 2.245 255 0 0 255 
-0.301985 0.339592 2.252 255 0 0 255 
-0.296371 0.340213 2.256 255 0 0 255 
-0.29215 0.342493 2.271 255 0 0 255 
-0.283336 0.346903 2.3 255 0 0 255 
-0.272244 0.340887 2.26 255 0 0 255 
-0.264431 0.338792 2.246 255 0 0 255 
-0.257268 0.337451 2.237 255 0 0 255 
-0.249704 0.335506 2.224 255 0 0 255 
-0.241773 0.332957 2.207 255 0 0 255 
-0.234146 0.330709 2.192 255 0 0 255 
-0.227226 0.329366 2.183 255 0 0 255 
-0.220658 0.328475 2.177 255 0 0 255 
-0.214122 0.327584 2.171 255 0 0 255 
-0.207714 0.326843 2.166 255 0 0 255 
-0.201332 0.326102 2.161 255 0 0 255 
-0.195158 0.325662 2.158 255 0 0 255 
-0.188825 0.32492 2.153 255 0 0 255 
-0.182858 0.324782 2.152 255 0 0 255 
-0.176895 0.324643 2.151 255 0 0 255 
-0.171097 0.324805 2.152 255 0 0 255 
-0.165062 0.324514 2.15 255 0 0 255 
-0.159038 0.324223 2.148 255 0 0 255 
-0.152952 0.323781 2.145 255 0 0 255 
-0.146883 0.323338 2.142 255 0 0 255 
-0.141093 0.323499 2.143 255 0 0 255 
-0.13536 0.32381 2.145 255 0 0 255 
-0.129494 0.323819 2.145 255 0 0 255 
-0.123628 0.323828 2.145 255 0 0 255 
-0.117707 0.323685 2.144 255 0 0 255 
-0.111739 0.323391 2.142 255 0 0 255 
-0.105732 0.322945 2.139 255 0 0 255 
-0.099834 0.322801 2.138 255 0 0 255 
-0.094073 0.32311 2.14 255 0 0 255 
-0.088301 0.323418 2.142 255 0 0 255 
-0.08248 0.323575 2.143 255 0 0 255 
-0.076688 0.323882 2.145 255 0 0 255 
-0.070852 0.324038 2.146 255 0 0 255 
-0.06498 0.324043 2.146 255 0 0 255 
-0.059135 0.324198 2.147 255 0 0 255 
-0.053284 0.324353 2.148 255 0 0 255 
-0.047516 0.325112 2.153 255 0 0 255 
-0.041682 0.325568 2.156 255 0 0 255 
-0.035815 0.325872 2.158 255 0 0 255 
-0.029923 0.326026 2.159 255 0 0 255 
-0.024058 0.326632 2.163 255 0 0 255 
-0.018222 0.328143 2.173 255 0 0 255 
-0.012337 0.329805 2.184 255 0 0 255 
-0.006389 0.331316 2.194 255 0 0 255 
-0.000385 0.332222 2.2 255 0 0 255 
0.005662 0.333732 2.21 255 0 0 255 
0.011753 0.33494 2.218 255 0 0 255 
0.017888 0.336147 2.226 255 0 0 255 
0.024024 0.336749 2.23 255 0 0 255 
0.030275 0.338409 2.241 255 0 0 255 
0.036652 0.340671 2.256 255 0 0 255 
0.043092 0.342783 2.27 255 0 0 255 
0.137688 0.346314 2.294 255 0 0 255 
0.142705 0.343285 2.274 255 0 0 255 
0.149119 0.343728 2.277 255 0 0 255 
0.155481 0.34402 2.279 255 0 0 255 
0.161498 0.343556 2.276 255 0 0 255 
0.167499 0.343093 2.273 255 0 0 255 
0.173482 0.342628 2.27 255 0 0 255 
0.179686 0.342617 2.27 255 0 0 255 
0.185971 0.342755 2.271 255 0 0 255 
0.192176 0.342743 2.271 255 0 0 255 
0.198293 0.342579 2.27 255 0 0 255 
0.204044 0.341811 2.265 255 0 0 255 
-0.101503 0.312309 2.37731 255 255 0 255 
-0.091772 0.311359 2.37112 255 255 0 255 
-0.087204 0.309635 2.36142 255 255 0 255 
-0.081781 0.308044 2.35233 255 255 0 255 
-0.078076 0.306192 2.34205 255 255 0 255 
-0.073514 0.304473 2.33237 255 255 0 255 
-0.064681 0.303414 2.3257 255 255 0 255 
-0.058421 0.301964 2.31725 255 255 0 255 
-0.05302 0.300385 2.3082 255 255 0 255 
-0.050178 0.298408 2.29735 255 255 0 255 
-0.04393 0.296966 2.28893 255 255 0 255 
0.067239 0.297906 2.2807 255 255 0 255 
0.112193 0.30284 2.30162 255 255 0 255 
0.141366 0.300583 2.28606 255 255 0 255 
-0.327029 0.234226 2.2621 0 255 0 255 
-0.331889 0.23805 2.27765 0 255 0 255 
-0.328157 0.239916 2.28681 0 255 0 255 
-0.312366 0.239062 2.28715 0 255 0 255 
-0.242759 0.228897 2.26053 0 255 0 255 
-0.221147 0.237934 2.30569 0 255 0 255 
-0.226879 0.241954 2.32182 0 255 0 255 
-0.22221 0.243688 2.3306 0 255 0 255 
-0.220145 0.245993 2.34121 0 255 0 255 
-0.209386 0.246411 2.34578 0 255 0 255 
-0.199484 0.247028 2.351 0 255 0 255 
-0.18783 0.24728 2.35507 0 255 0 255 
-0.182262 0.248851 2.36334 0 255 0 255 
-0.172327 0.249493 2.36867 0 255 0 255 
-0.161507 0.24996 2.37345 0 255 0 255 
-0.369308 0.333093 2.251 255 0 0 255 
-0.363505 0.33341 2.253 255 0 0 255 
-0.357214 0.333283 2.252 255 0 0 255 
-0.350771 0.333007 2.25 255 0 0 255 
-0.344032 0.332435 2.246 255 0 0 255 
-0.337615 0.332159 2.244 255 0 0 255 
-0.33106 0.331734 2.241 255 0 0 255 
-0.325101 0.331902 2.242 255 0 0 255 
-0.319277 0.332217 2.244 255 0 0 255 
-0.314418 0.333568 2.253 255 0 0 255 
-0.309236 0.334623 2.26 255 0 0 255 
-0.304551 0.33627 2.271 255 0 0 255 
-0.300199 0.338362 2.285 255 0 0 255 
-0.272502 0.335026 2.262 255 0 0 255 
-0.263977 0.33208 2.242 255 0 0 255 
-0.257054 0.331059 2.235 255 0 0 255 
-0.249496 0.32915 2.222 255 0 0 255 
-0.241897 0.327091 2.208 255 0 0 255 
-0.234695 0.325477 2.197 255 0 0 255 
-0.227865 0.324306 2.189 255 0 0 255 
-0.221078 0.323135 2.181 255 0 0 255 
-0.214432 0.322112 2.174 255 0 0 255 
-0.207823 0.321088 2.167 255 0 0 255 
-0.201345 0.320212 2.161 255 0 0 255 
-0.195171 0.319781 2.158 255 0 0 255 
-0.1891 0.319497 2.156 255 0 0 255 
-0.18304 0.319213 2.154 255 0 0 255 
-0.177154 0.319224 2.154 255 0 0 255 
-0.171188 0.319088 2.153 255 0 0 255 
-0.165227 0.31895 2.152 255 0 0 255 
-0.159122 0.318516 2.149 255 0 0 255 
-0.153105 0.31823 2.147 255 0 0 255 
-0.14703 0.317796 2.144 255 0 0 255 
-0.141234 0.317953 2.145 255 0 0 255 
-0.135369 0.317963 2.145 255 0 0 255 
-0.129503 0.317971 2.145 255 0 0 255 
-0.123637 0.31798 2.145 255 0 0 255 
-0.11766 0.317691 2.143 255 0 0 255 
-0.111851 0.317847 2.144 255 0 0 255 
-0.105838 0.31741 2.141 255 0 0 255 
-0.099981 0.317417 2.141 255 0 0 255 
-0.094168 0.317572 2.142 255 0 0 255 
-0.088349 0.317726 2.143 255 0 0 255 
-0.082485 0.317732 2.143 255 0 0 255 
-0.076693 0.318034 2.145 255 0 0 255 
-0.070856 0.318187 2.146 255 0 0 255 
-0.064984 0.318192 2.146 255 0 0 255 
-0.059111 0.318196 2.146 255 0 0 255 
-0.053313 0.318645 2.149 255 0 0 255 
-0.047542 0.319389 2.154 255 0 0 255 
-0.041685 0.319689 2.156 255 0 0 255 
-0.035818 0.319988 2.158 255 0 0 255 
-0.029925 0.320139 2.159 255 0 0 255 
-0.024105 0.321327 2.167 255 0 0 255 
-0.018266 0.322959 2.178 255 0 0 255 
-0.012361 0.324443 2.188 255 0 0 255 
-0.006386 0.325185 2.193 255 0 0 255 
-0.000385 0.326075 2.199 255 0 0 255 
0.005665 0.327855 2.211 255 0 0 255 
0.011759 0.32904 2.219 255 0 0 255 
0.017889 0.330077 2.226 255 0 0 255 
0.024025 0.330669 2.23 255 0 0 255 
0.030291 0.332446 2.242 255 0 0 255 
0.036671 0.334668 2.257 255 0 0 255 
0.043114 0.336741 2.271 255 0 0 255 
0.137817 0.340357 2.296 255 0 0 255 
0.14284 0.337382 2.276 255 0 0 255 
0.14926 0.337817 2.279 255 0 0 255 
0.155423 0.337659 2.278 255 0 0 255 
0.161367 0.337056 2.274 255 0 0 255 
0.167362 0.3366 2.271 255 0 0 255 
0.173417 0.336293 2.269 255 0 0 255 
0.179619 0.336281 2.269 255 0 0 255 
0.185738 0.336121 2.268 255 0 0 255 
0.19185 0.33596 2.267 255 0 0 255 
0.197957 0.335799 2.266 255 0 0 255 
-0.095363 0.302243 2.38274 255 255 0 255 
-0.086499 0.301182 2.37597 255 255 0 255 
-0.088799 0.298402 2.36157 255 255 0 255 
-0.079088 0.29748 2.35542 255 255 0 255 
-0.075384 0.295629 2.34514 255 255 0 255 
-0.066548 0.294583 2.33845 255 255 0 255 
-0.058577 0.293409 2.33119 255 255 0 255 
-0.046349 0.292914 2.32697 255 255 0 255 
-0.048633 0.290127 2.31252 255 255 0 255 
-0.046645 0.288014 2.30106 255 255 0 255 
-0.042102 0.286308 2.29143 255 255 0 255 
0.041154 0.282912 2.26242 255 255 0 255 
0.120035 0.291228 2.29606 255 255 0 255 
0.128637 0.290305 2.29001 255 255 0 255 
0.141433 0.290094 2.28718 255 255 0 255 
-0.323942 0.223135 2.26095 0 255 0 255 
-0.328792 0.226986 2.2765 0 255 0 255 
-0.319897 0.227667 2.28189 0 255 0 255 
-0.310992 0.228357 2.28731 0 255 0 255 
-0.221587 0.2135 2.24639 0 255 0 255 
-0.224127 0.227999 2.30902 0 255 0 255 
-0.233862 0.235694 2.33999 0 255 0 255 
-0.226596 0.236845 2.34694 0 255 0 255 
-0.21237 0.236474 2.3491 0 255 0 255 
-0.201604 0.236879 2.35373 0 255 0 255 
-0.194307 0.238054 2.36078 0 255 0 255 
-0.188744 0.239614 2.36905 0 255 0 255 
-0.178818 0.240234 2.37437 0 255 0 255 
-0.16888 0.240862 2.37973 0 255 0 255 
-0.378123 0.329266 2.267 255 0 0 255 
-0.369821 0.327399 2.254 255 0 0 255 
-0.364009 0.32771 2.256 255 0 0 255 
-0.35771 0.327585 2.255 255 0 0 255 
-0.351727 0.32775 2.256 255 0 0 255 
-0.345431 0.327625 2.255 255 0 0 255 
-0.339139 0.327499 2.254 255 0 0 255 
-0.332852 0.327373 2.253 255 0 0 255 
-0.327005 0.327683 2.255 255 0 0 255 
-0.321572 0.328429 2.26 255 0 0 255 
-0.31653 0.32961 2.268 255 0 0 255 
-0.311581 0.330937 2.277 255 0 0 255 
-0.307251 0.33299 2.291 255 0 0 255 
-0.273483 0.330025 2.27 255 0 0 255 
-0.264111 0.326116 2.243 255 0 0 255 
-0.25707 0.324969 2.235 255 0 0 255 
-0.249623 0.323239 2.223 255 0 0 255 
-0.242241 0.32151 2.211 255 0 0 255 
-0.235138 0.320071 2.201 255 0 0 255 
-0.228192 0.318776 2.192 255 0 0 255 
-0.221396 0.317627 2.184 255 0 0 255 
-0.214544 0.316332 2.175 255 0 0 255 
-0.207932 0.315327 2.168 255 0 0 255 
-0.201452 0.314467 2.162 255 0 0 255 
-0.195093 0.313753 2.157 255 0 0 255 
-0.189112 0.313619 2.156 255 0 0 255 
-0.183051 0.31334 2.154 255 0 0 255 
-0.177248 0.313498 2.155 255 0 0 255 
-0.171278 0.313363 2.154 255 0 0 255 
-0.165314 0.313229 2.153 255 0 0 255 
-0.159355 0.313094 2.152 255 0 0 255 
-0.153329 0.312813 2.15 255 0 0 255 
-0.147177 0.312241 2.146 255 0 0 255 
-0.141243 0.312105 2.145 255 0 0 255 
-0.135378 0.312114 2.145 255 0 0 255 
-0.129511 0.312123 2.145 255 0 0 255 
-0.123645 0.312131 2.145 255 0 0 255 
-0.117668 0.311848 2.143 255 0 0 255 
-0.111858 0.312001 2.144 255 0 0 255 
-0.105993 0.312008 2.144 255 0 0 255 
-0.100128 0.312015 2.144 255 0 0 255 
-0.094262 0.312022 2.144 255 0 0 255 
-0.088355 0.311882 2.143 255 0 0 255 
-0.082491 0.311888 2.143 255 0 0 255 
-0.076698 0.312184 2.145 255 0 0 255 
-0.070894 0.31248 2.147 255 0 0 255 
-0.065049 0.31263 2.148 255 0 0 255 
-0.059225 0.312926 2.15 255 0 0 255 
-0.053416 0.313366 2.153 255 0 0 255 
-0.047589 0.313806 2.156 255 0 0 255 
-0.041707 0.313955 2.157 255 0 0 255 
-0.03582 0.314103 2.158 255 0 0 255 
-0.029982 0.314833 2.163 255 0 0 255 
-0.024173 0.31629 2.173 255 0 0 255 
-0.0183 0.317602 2.182 255 0 0 255 
-0.012373 0.318767 2.19 255 0 0 255 
-0.006387 0.319204 2.193 255 0 0 255 
-0.000385 0.320224 2.2 255 0 0 255 
0.005666 0.321825 2.211 255 0 0 255 
0.011765 0.323134 2.22 255 0 0 255 
0.017883 0.323861 2.225 255 0 0 255 
0.024038 0.324733 2.231 255 0 0 255 
0.030307 0.326477 2.243 255 0 0 255 
0.036674 0.328513 2.257 255 0 0 255 
0.04306 0.330111 2.268 255 0 0 255 
0.137766 0.333951 2.295 255 0 0 255 
0.142724 0.330886 2.274 255 0 0 255 
0.149074 0.331167 2.276 255 0 0 255 
0.155297 0.331157 2.276 255 0 0 255 
0.161307 0.33071 2.273 255 0 0 255 
0.1673 0.330263 2.27 255 0 0 255 
0.173352 0.329961 2.268 255 0 0 255 
0.179472 0.329804 2.267 255 0 0 255 
0.185586 0.329647 2.266 255 0 0 255 
0.191778 0.329635 2.266 255 0 0 255 
0.198057 0.329768 2.267 255 0 0 255 
0.20389 0.329173 2.263 255 0 0 255 
-0.102119 0.290187 2.37941 255 255 0 255 
-0.089814 0.289676 2.37496 255 255 0 255 
-0.092964 0.28674 2.35995 255 255 0 255 
-0.084964 0.285562 2.3526 255 255 0 255 
-0.076116 0.284525 2.34586 255 255 0 255 
-0.063006 0.284177 2.34215 255 255 0 255 
-0.053332 0.283291 2.33609 255 255 0 255 
-0.042818 0.28255 2.33067 255 255 0 255 
-0.043396 0.280022 2.31743 255 255 0 255 
-0.043965 0.27749 2.30416 255 255 0 255 
-0.037723 0.276065 2.29575 255 255 0 255 
-0.036584 0.273808 2.28368 255 255 0 255 
0.02185 0.268882 2.24921 255 255 0 255 
0.108317 0.278684 2.28835 255 255 0 255 
0.120296 0.278343 2.2848 255 255 0 255 
-0.319146 0.21161 2.25853 0 255 0 255 
-0.324844 0.21569 2.27473 0 255 0 255 
-0.318526 0.216957 2.28203 0 255 0 255 
-0.30274 0.216035 2.28243 0 255 0 255 
-0.273158 0.211944 2.27288 0 255 0 255 
-0.232299 0.219244 2.31603 0 255 0 255 
-0.235428 0.222724 2.33029 0 255 0 255 
-0.232499 0.224835 2.34028 0 255 0 255 
-0.224364 0.225781 2.34664 0 255 0 255 
-0.208406 0.224992 2.34762 0 255 0 255 
-0.19677 0.225184 2.35166 0 255 0 255 
-0.185991 0.22558 2.35635 0 255 0 255 
-0.180421 0.227139 2.36465 0 255 0 255 
-0.180947 0.230042 2.3771 0 255 0 255 
-0.177118 0.231987 2.38659 0 255 0 255 
-0.161941 0.231457 2.38846 0 255 0 255 
-0.145869 0.230754 2.38982 0 255 0 255 
-0.132398 0.230635 2.393 0 255 0 255 
-0.121534 0.231096 2.39797 0 255 0 255 
-0.379811 0.324517 2.277 255 0 0 255 
-0.37099 0.322257 2.261 255 0 0 255 
-0.364514 0.321992 2.259 255 0 0 255 
-0.358206 0.32187 2.258 255 0 0 255 
-0.352058 0.32189 2.258 255 0 0 255 
-0.346063 0.322052 2.259 255 0 0 255 
-0.340061 0.322214 2.26 255 0 0 255 
-0.333906 0.322233 2.26 255 0 0 255 
-0.327894 0.322395 2.261 255 0 0 255 
-0.322445 0.323127 2.266 255 0 0 255 
-0.316828 0.323716 2.27 255 0 0 255 
-0.311736 0.324875 2.278 255 0 0 255 
-0.30727 0.326747 2.291 255 0 0 255 
-0.274463 0.324979 2.278 255 0 0 255 
-0.26448 0.32043 2.246 255 0 0 255 
-0.256971 0.318734 2.234 255 0 0 255 
-0.249639 0.31718 2.223 255 0 0 255 
-0.242585 0.315911 2.214 255 0 0 255 
-0.235686 0.314784 2.206 255 0 0 255 
-0.228622 0.313372 2.196 255 0 0 255 
-0.221612 0.311958 2.186 255 0 0 255 
-0.214755 0.310688 2.177 255 0 0 255 
-0.208137 0.309702 2.17 255 0 0 255 
-0.201744 0.309001 2.165 255 0 0 255 
-0.195377 0.3083 2.16 255 0 0 255 
-0.1893 0.308027 2.158 255 0 0 255 
-0.183233 0.307753 2.156 255 0 0 255 
-0.177341 0.307764 2.156 255 0 0 255 
-0.17129 0.30749 2.154 255 0 0 255 
-0.165402 0.307501 2.154 255 0 0 255 
-0.159291 0.307083 2.151 255 0 0 255 
-0.153268 0.306807 2.149 255 0 0 255 
-0.147186 0.306389 2.146 255 0 0 255 
-0.141384 0.306541 2.147 255 0 0 255 
-0.135386 0.306264 2.145 255 0 0 255 
-0.129641 0.306558 2.147 255 0 0 255 
-0.123653 0.306281 2.145 255 0 0 255 
-0.117731 0.306146 2.144 255 0 0 255 
-0.111866 0.306154 2.144 255 0 0 255 
-0.10605 0.306304 2.145 255 0 0 255 
-0.100228 0.306453 2.146 255 0 0 255 
-0.094312 0.306317 2.145 255 0 0 255 
-0.088402 0.30618 2.144 255 0 0 255 
-0.082535 0.306186 2.144 255 0 0 255 
-0.076775 0.306619 2.147 255 0 0 255 
-0.070965 0.30691 2.149 255 0 0 255 
-0.065144 0.3072 2.151 255 0 0 255 
-0.059312 0.30749 2.153 255 0 0 255 
-0.053494 0.307922 2.156 255 0 0 255 
-0.047636 0.308211 2.158 255 0 0 255 
-0.041729 0.308214 2.158 255 0 0 255 
-0.035856 0.308502 2.16 255 0 0 255 
-0.03004 0.309504 2.167 255 0 0 255 
-0.024241 0.31122 2.179 255 0 0 255 
-0.018327 0.312078 2.185 255 0 0 255 
-0.012379 0.312936 2.191 255 0 0 255 
-0.006384 0.31308 2.192 255 0 0 255 
-0.000385 0.314508 2.202 255 0 0 255 
0.005668 0.315936 2.212 255 0 0 255 
0.011772 0.317221 2.221 255 0 0 255 
0.017876 0.317649 2.224 255 0 0 255 
0.02405 0.31879 2.232 255 0 0 255 
0.030322 0.320502 2.244 255 0 0 255 
0.036692 0.322499 2.258 255 0 0 255 
0.043082 0.324068 2.269 255 0 0 255 
0.049532 0.325636 2.28 255 0 0 255 
0.136755 0.325264 2.278 255 0 0 255 
0.14242 0.32397 2.269 255 0 0 255 
0.148887 0.324532 2.273 255 0 0 255 
0.155239 0.324808 2.275 255 0 0 255 
0.161246 0.324369 2.272 255 0 0 255 
0.167384 0.324216 2.271 255 0 0 255 
0.17344 0.323919 2.269 255 0 0 255 
0.179484 0.323622 2.267 255 0 0 255 
0.185598 0.323468 2.266 255 0 0 255 
0.19179 0.323456 2.266 255 0 0 255 
0.197895 0.323301 2.265 255 0 0 255 
0.203633 0.322575 2.26 255 0 0 255 
-0.101994 0.279173 2.38075 255 255 0 255 
-0.091408 0.278414 2.37512 255 255 0 255 
-0.098836 0.274766 2.35716 255 255 0 255 
-0.089974 0.273736 2.35037 255 255 0 255 
-0.07428 0.273821 2.34837 255 255 0 255 
-0.055194 0.274477 2.34882 255 255 0 255 
-0.046383 0.273474 2.34218 255 255 0 255 
-0.042699 0.271635 2.33195 255 255 0 255 
-0.043273 0.269093 2.31871 255 255 0 255 
-0.040436 0.267112 2.30787 255 255 0 255 
-0.032497 0.26598 2.30068 255 255 0 255 
-0.032209 0.263574 2.28801 255 255 0 255 
0.055115 0.261308 2.2623 255 255 0 255 
0.094931 0.265765 2.2794 255 255 0 255 
0.122056 0.268071 2.28721 255 255 0 255 
-0.321761 0.204561 2.2736 0 255 0 255 
-0.312005 0.205011 2.2784 0 255 0 255 
-0.301379 0.205268 2.2826 0 255 0 255 
-0.262345 0.198882 2.26619 0 255 0 255 
-0.230609 0.211051 2.32814 0 255 0 255 
-0.222476 0.211982 2.33451 0 255 0 255 
-0.217804 0.213707 2.34332 0 255 0 255 
-0.213128 0.215435 2.35214 0 255 0 255 
-0.199763 0.215209 2.35499 0 255 0 255 
-0.18812 0.215386 2.35909 0 255 0 255 
-0.180812 0.216548 2.3662 0 255 0 255 
-0.182205 0.219656 2.37924 0 255 0 255 
-0.177504 0.221405 2.38814 0 255 0 255 
-0.163206 0.221033 2.39062 0 255 0 255 
-0.14976 0.220869 2.39374 0 255 0 255 
-0.138919 0.221293 2.39866 0 255 0 255 
-0.130688 0.222302 2.40535 0 255 0 255 
-0.376829 0.315798 2.259 255 0 0 255 
-0.371338 0.316378 2.263 255 0 0 255 
-0.364856 0.316118 2.261 255 0 0 255 
-0.358384 0.315858 2.259 255 0 0 255 
-0.352546 0.316157 2.261 255 0 0 255 
-0.346236 0.316037 2.26 255 0 0 255 
-0.340231 0.316196 2.261 255 0 0 255 
-0.334368 0.316495 2.263 255 0 0 255 
-0.328783 0.317073 2.267 255 0 0 255 
-0.323317 0.317791 2.272 255 0 0 255 
-0.317265 0.317949 2.273 255 0 0 255 
-0.312028 0.318946 2.28 255 0 0 255 
-0.307288 0.320503 2.291 255 0 0 255 
-0.275564 0.320029 2.287 255 0 0 255 
-0.265791 0.315847 2.257 255 0 0 255 
-0.257907 0.313763 2.242 255 0 0 255 
-0.250103 0.311679 2.227 255 0 0 255 
-0.242819 0.310155 2.216 255 0 0 255 
-0.235701 0.30877 2.206 255 0 0 255 
-0.22874 0.307524 2.197 255 0 0 255 
-0.221727 0.306138 2.187 255 0 0 255 
-0.214965 0.305032 2.179 255 0 0 255 
-0.208534 0.304345 2.174 255 0 0 255 
-0.202222 0.303797 2.17 255 0 0 255 
-0.195751 0.30297 2.164 255 0 0 255 
-0.189487 0.302422 2.16 255 0 0 255 
-0.183415 0.302153 2.158 255 0 0 255 
-0.177517 0.302165 2.158 255 0 0 255 
-0.17138 0.301756 2.155 255 0 0 255 
-0.165489 0.301766 2.155 255 0 0 255 
-0.159375 0.301356 2.152 255 0 0 255 
-0.15342 0.301226 2.151 255 0 0 255 
-0.147333 0.300816 2.148 255 0 0 255 
-0.141459 0.300825 2.148 255 0 0 255 
-0.135521 0.300694 2.147 255 0 0 255 
-0.129709 0.300842 2.148 255 0 0 255 
-0.123719 0.30057 2.146 255 0 0 255 
-0.117793 0.300438 2.145 255 0 0 255 
-0.111925 0.300445 2.145 255 0 0 255 
-0.106205 0.300873 2.148 255 0 0 255 
-0.100328 0.300879 2.148 255 0 0 255 
-0.094406 0.300745 2.147 255 0 0 255 
-0.08849 0.300611 2.146 255 0 0 255 
-0.082656 0.300757 2.147 255 0 0 255 
-0.076851 0.301042 2.149 255 0 0 255 
-0.071069 0.301467 2.152 255 0 0 255 
-0.065239 0.301752 2.154 255 0 0 255 
-0.059426 0.302176 2.157 255 0 0 255 
-0.053572 0.30246 2.159 255 0 0 255 
-0.047684 0.302604 2.16 255 0 0 255 
-0.041771 0.302607 2.16 255 0 0 255 
-0.035908 0.303029 2.163 255 0 0 255 
-0.030097 0.304152 2.171 255 0 0 255 
-0.024243 0.305275 2.179 255 0 0 255 
-0.01832 0.305977 2.184 255 0 0 255 
-0.012374 0.306818 2.19 255 0 0 255 
-0.006396 0.30766 2.196 255 0 0 255 
-0.000386 0.309201 2.207 255 0 0 255 
0.005674 0.310181 2.214 255 0 0 255 
0.011772 0.311162 2.221 255 0 0 255 
0.017893 0.311861 2.226 255 0 0 255 
0.024106 0.313401 2.237 255 0 0 255 
0.030419 0.31536 2.251 255 0 0 255 
0.03676 0.316899 2.262 255 0 0 255 
0.043123 0.318158 2.271 255 0 0 255 
0.049557 0.319555 2.281 255 0 0 255 
0.136043 0.31737 2.266 255 0 0 255 
0.142617 0.318201 2.272 255 0 0 255 
0.148962 0.318472 2.274 255 0 0 255 
0.155181 0.318463 2.274 255 0 0 255 
0.161044 0.317752 2.269 255 0 0 255 
0.167174 0.317602 2.268 255 0 0 255 
0.173145 0.317171 2.265 255 0 0 255 
0.179337 0.31716 2.265 255 0 0 255 
0.185527 0.317148 2.265 255 0 0 255 
0.191718 0.317136 2.265 255 0 0 255 
0.197907 0.317124 2.265 255 0 0 255 
0.203736 0.316552 2.261 255 0 0 255 
-0.113325 0.268756 2.3872 255 255 0 255 
-0.101008 0.268288 2.38268 255 255 0 255 
-0.090425 0.267549 2.37704 255 255 0 255 
-0.092707 0.264711 2.36262 255 255 0 255 
-0.082996 0.26384 2.35643 255 255 0 255 
-0.072444 0.263117 2.35087 255 255 0 255 
-0.05422 0.263678 2.35072 255 255 0 255 
-0.050529 0.261836 2.34048 255 255 0 255 
-0.045987 0.260137 2.33084 255 255 0 255 
-0.044 0.25801 2.3194 255 255 0 255 
-0.037758 0.2566 2.31098 255 255 0 255 
-0.027275 0.255914 2.30561 255 255 0 255 
-0.026139 0.253645 2.29357 255 255 0 255 
-0.037714 0.249199 2.27231 255 255 0 255 
0.041748 0.24819 2.25345 255 255 0 255 
0.098386 0.255715 2.28309 255 255 0 255 
0.123816 0.257797 2.28962 255 255 0 255 
-0.325002 0.192152 2.26516 0 255 0 255 
-0.322973 0.19443 2.27565 0 255 0 255 
-0.31408 0.195065 2.28108 0 255 0 255 
-0.302599 0.195094 2.28466 0 255 0 255 
-0.224069 0.198936 2.32478 0 255 0 255 
-0.215932 0.199857 2.33118 0 255 0 255 
-0.214719 0.202379 2.34243 0 255 0 255 
-0.217846 0.205894 2.35666 0 255 0 255 
-0.210567 0.207023 2.36369 0 255 0 255 
-0.198068 0.206971 2.36718 0 255 0 255 
-0.186422 0.207129 2.37131 0 255 0 255 
-0.186945 0.210051 2.38375 0 255 0 255 
-0.181378 0.211597 2.39205 0 255 0 255 
-0.172318 0.212363 2.39804 0 255 0 255 
-0.156268 0.211578 2.3994 0 255 0 255 
-0.143689 0.211588 2.40315 0 255 0 255 
-0.136337 0.212774 2.41042 0 255 0 255 
-0.375849 0.308821 2.253 255 0 0 255 
-0.37103 0.309938 2.261 255 0 0 255 
-0.364876 0.309958 2.261 255 0 0 255 
-0.358404 0.309703 2.259 255 0 0 255 
-0.352253 0.309722 2.259 255 0 0 255 
-0.346102 0.309741 2.259 255 0 0 255 
-0.340401 0.310172 2.262 255 0 0 255 
-0.33483 0.310739 2.266 255 0 0 255 
-0.329236 0.311306 2.27 255 0 0 255 
-0.323762 0.31201 2.275 255 0 0 255 
-0.317702 0.312165 2.276 255 0 0 255 
-0.312456 0.313143 2.283 255 0 0 255 
-0.307439 0.314395 2.292 255 0 0 255 
-0.27534 0.313519 2.285 255 0 0 255 
-0.266631 0.310654 2.264 255 0 0 255 
-0.258727 0.308611 2.249 255 0 0 255 
-0.25068 0.306293 2.232 255 0 0 255 
-0.243053 0.304387 2.218 255 0 0 255 
-0.235929 0.303029 2.208 255 0 0 255 
-0.228754 0.301533 2.197 255 0 0 255 
-0.221639 0.300037 2.186 255 0 0 255 
-0.215176 0.299364 2.181 255 0 0 255 
-0.209026 0.299102 2.179 255 0 0 255 
-0.202887 0.29884 2.177 255 0 0 255 
-0.196306 0.297891 2.17 255 0 0 255 
-0.190025 0.297354 2.166 255 0 0 255 
-0.183851 0.296954 2.163 255 0 0 255 
-0.177692 0.296553 2.16 255 0 0 255 
-0.17147 0.296015 2.156 255 0 0 255 
-0.165423 0.295751 2.154 255 0 0 255 
-0.159385 0.295486 2.152 255 0 0 255 
-0.15343 0.295359 2.151 255 0 0 255 
-0.147548 0.295368 2.151 255 0 0 255 
-0.141731 0.295514 2.152 255 0 0 255 
-0.135782 0.295386 2.151 255 0 0 255 
-0.129839 0.295257 2.15 255 0 0 255 
-0.123784 0.294853 2.147 255 0 0 255 
-0.117911 0.29486 2.147 255 0 0 255 
-0.112089 0.295005 2.148 255 0 0 255 
-0.106311 0.295287 2.15 255 0 0 255 
-0.100381 0.295156 2.149 255 0 0 255 
-0.0945 0.295162 2.149 255 0 0 255 
-0.088619 0.295168 2.149 255 0 0 255 
-0.082853 0.295586 2.152 255 0 0 255 
-0.077035 0.295865 2.154 255 0 0 255 
-0.071205 0.296145 2.156 255 0 0 255 
-0.065334 0.296287 2.157 255 0 0 255 
-0.059458 0.296428 2.158 255 0 0 255 
-0.0536 0.296706 2.16 255 0 0 255 
-0.047709 0.296847 2.161 255 0 0 255 
-0.041832 0.297125 2.163 255 0 0 255 
-0.03596 0.297539 2.166 255 0 0 255 
-0.030113 0.298366 2.172 255 0 0 255 
-0.024233 0.299192 2.178 255 0 0 255 
-0.018321 0.300017 2.184 255 0 0 255 
-0.012375 0.300842 2.19 255 0 0 255 
-0.006405 0.302079 2.199 255 0 0 255 
-0.000386 0.303453 2.209 255 0 0 255 
0.005682 0.304552 2.217 255 0 0 255 
0.011773 0.305101 2.221 255 0 0 255 
0.01791 0.306062 2.228 255 0 0 255 
0.02415 0.307846 2.241 255 0 0 255 
0.030515 0.31018 2.258 255 0 0 255 
0.036827 0.311276 2.266 255 0 0 255 
0.043183 0.312373 2.274 255 0 0 255 
0.049647 0.313881 2.285 255 0 0 255 
0.135811 0.310639 2.262 255 0 0 255 
0.142689 0.312141 2.273 255 0 0 255 
0.148906 0.312131 2.273 255 0 0 255 
0.155054 0.311985 2.272 255 0 0 255 
0.160983 0.311425 2.268 255 0 0 255 
0.167037 0.31114 2.266 255 0 0 255 
0.173156 0.310993 2.265 255 0 0 255 
0.179427 0.311119 2.266 255 0 0 255 
0.185703 0.311245 2.267 255 0 0 255 
0.19173 0.310959 2.265 255 0 0 255 
0.19757 0.310397 2.261 255 0 0 255 
-0.125526 0.258148 2.39314 255 255 0 255 
-0.112335 0.257838 2.38914 255 255 0 255 
-0.098306 0.257681 2.38578 255 255 0 255 
-0.089442 0.256679 2.37896 255 255 0 255 
-0.084015 0.25511 2.36983 255 255 0 255 
-0.074314 0.254261 2.36366 255 255 0 255 
-0.066336 0.253131 2.35634 255 255 0 255 
-0.054952 0.252584 2.35143 255 255 0 255 
-0.046144 0.251611 2.34477 255 255 0 255 
-0.044159 0.24948 2.33334 255 255 0 255 
-0.042171 0.247348 2.32189 255 255 0 255 
-0.037631 0.245654 2.31226 255 255 0 255 
-0.024602 0.245428 2.30871 255 255 0 255 
-0.022619 0.2433 2.29728 255 255 0 255 
-0.024869 0.240432 2.28277 255 255 0 255 
0.10184 0.245674 2.28678 255 255 0 255 
0.127256 0.247826 2.2933 255 255 0 255 
-0.327073 0.182222 2.26784 0 255 0 255 
-0.318187 0.182835 2.27327 0 255 0 255 
-0.303286 0.182002 2.27432 0 255 0 255 
-0.293517 0.182428 2.2792 0 255 0 255 
-0.196684 0.176194 2.28236 0 255 0 255 
-0.221862 0.187784 2.32447 0 255 0 255 
-0.216321 0.189299 2.3327 0 255 0 255 
-0.212507 0.191222 2.34214 0 255 0 255 
-0.217361 0.19516 2.35758 0 255 0 255 
-0.219626 0.198486 2.37119 0 255 0 255 
-0.212348 0.199603 2.37822 0 255 0 255 
-0.201587 0.199927 2.38292 0 255 0 255 
-0.188203 0.199664 2.38589 0 255 0 255 
-0.179155 0.200408 2.39186 0 255 0 255 
-0.170967 0.201357 2.39844 0 255 0 255 
-0.160154 0.201721 2.40331 0 255 0 255 
-0.144091 0.200913 2.40475 0 255 0 255 
-0.138488 0.202479 2.41318 0 255 0 255 
-0.375201 0.302145 2.249 255 0 0 255 
-0.370722 0.303508 2.259 255 0 0 255 
-0.364734 0.303662 2.26 255 0 0 255 
-0.358265 0.303412 2.258 255 0 0 255 
-0.352272 0.303566 2.259 255 0 0 255 
-0.346427 0.303853 2.261 255 0 0 255 
-0.340871 0.30441 2.265 255 0 0 255 
-0.335292 0.304966 2.269 255 0 0 255 
-0.329545 0.305387 2.272 255 0 0 255 
-0.324207 0.306212 2.278 255 0 0 255 
-0.317999 0.30623 2.278 255 0 0 255 
-0.312337 0.306785 2.282 255 0 0 255 
-0.275597 0.307558 2.287 255 0 0 255 
-0.267589 0.305556 2.272 255 0 0 255 
-0.259893 0.303823 2.259 255 0 0 255 
-0.251593 0.301282 2.24 255 0 0 255 
-0.243725 0.299145 2.224 255 0 0 255 
-0.236156 0.297276 2.21 255 0 0 255 
-0.228768 0.295541 2.197 255 0 0 255 
-0.221754 0.294209 2.187 255 0 0 255 
-0.215386 0.293684 2.183 255 0 0 255 
-0.209327 0.293562 2.182 255 0 0 255 
-0.203272 0.29344 2.181 255 0 0 255 
-0.19668 0.29251 2.174 255 0 0 255 
-0.190212 0.291715 2.168 255 0 0 255 
-0.183862 0.291053 2.163 255 0 0 255 
-0.177621 0.290526 2.159 255 0 0 255 
-0.17156 0.290267 2.157 255 0 0 255 
-0.16551 0.290009 2.155 255 0 0 255 
-0.159618 0.290019 2.155 255 0 0 255 
-0.153654 0.289894 2.154 255 0 0 255 
-0.147763 0.289903 2.154 255 0 0 255 
-0.141872 0.289912 2.154 255 0 0 255 
-0.135917 0.289786 2.153 255 0 0 255 
-0.129907 0.289525 2.151 255 0 0 255 
-0.123907 0.289264 2.149 255 0 0 255 
-0.118028 0.289271 2.149 255 0 0 255 
-0.112253 0.289548 2.151 255 0 0 255 
-0.106416 0.289689 2.152 255 0 0 255 
-0.100434 0.289426 2.15 255 0 0 255 
-0.09455 0.289432 2.15 255 0 0 255 
-0.088749 0.289707 2.152 255 0 0 255 
-0.082897 0.289847 2.153 255 0 0 255 
-0.07704 0.289987 2.154 255 0 0 255 
-0.071177 0.290126 2.155 255 0 0 255 
-0.065339 0.2904 2.157 255 0 0 255 
-0.059516 0.290808 2.16 255 0 0 255 
-0.053653 0.291081 2.162 255 0 0 255 
-0.047756 0.291219 2.163 255 0 0 255 
-0.041854 0.291356 2.164 255 0 0 255 
-0.036012 0.292032 2.169 255 0 0 255 
-0.030143 0.292707 2.174 255 0 0 255 
-0.024246 0.293382 2.179 255 0 0 255 
-0.018339 0.294326 2.186 255 0 0 255 
-0.012393 0.295269 2.193 255 0 0 255 
-0.006415 0.296482 2.202 255 0 0 255 
-0.000387 0.297424 2.209 255 0 0 255 
0.005682 0.298501 2.217 255 0 0 255 
0.011769 0.298905 2.22 255 0 0 255 
0.017911 0.299981 2.228 255 0 0 255 
0.024195 0.302269 2.245 255 0 0 255 
0.030558 0.304421 2.261 255 0 0 255 
0.036878 0.305496 2.269 255 0 0 255 
0.043242 0.306571 2.277 255 0 0 255 
0.049715 0.308049 2.288 255 0 0 255 
0.13558 0.303928 2.258 255 0 0 255 
0.14251 0.305535 2.27 255 0 0 255 
0.14885 0.305795 2.272 255 0 0 255 
0.154995 0.305651 2.271 255 0 0 255 
0.160922 0.305103 2.267 255 0 0 255 
0.1669 0.304689 2.264 255 0 0 255 
0.17309 0.304679 2.264 255 0 0 255 
0.179517 0.305071 2.267 255 0 0 255 
0.185796 0.305195 2.268 255 0 0 255 
0.191741 0.30478 2.265 255 0 0 255 
0.197495 0.304095 2.26 255 0 0 255 
-0.125391 0.247052 2.39452 255 255 0 255 
-0.113061 0.246626 2.38993 255 255 0 255 
-0.100751 0.246209 2.38538 255 255 0 255 
-0.091028 0.245366 2.37914 255 255 0 255 
-0.078751 0.244967 2.37469 255 255 0 255 
-0.063929 0.245016 2.37206 255 255 0 255 
-0.055108 0.244051 2.36536 255 255 0 255 
-0.045445 0.243239 2.35928 255 255 0 255 
-0.040056 0.241695 2.35025 255 255 0 255 
-0.038926 0.239414 2.33823 255 255 0 255 
-0.037792 0.237131 2.3262 255 255 0 255 
-0.034104 0.235292 2.31597 255 255 0 255 
-0.028719 0.233752 2.30695 255 255 0 255 
-0.025882 0.231766 2.29611 255 255 0 255 
-0.027276 0.229027 2.28221 255 255 0 255 
0.017586 0.222129 2.23768 255 255 0 255 
0.083442 0.231656 2.2741 255 255 0 255 
-0.318018 0.169542 2.26228 0 255 0 255 
-0.306556 0.169512 2.26585 0 255 0 255 
-0.291652 0.168651 2.26694 0 255 0 255 
-0.281017 0.168855 2.27124 0 255 0 255 
-0.22261 0.174481 2.31412 0 255 0 255 
-0.230893 0.179278 2.33205 0 255 0 255 
-0.222766 0.180166 2.33845 0 255 0 255 
-0.21636 0.18147 2.34608 0 255 0 255 
-0.215147 0.184002 2.35732 0 255 0 255 
-0.214804 0.186736 2.36914 0 255 0 255 
-0.212729 0.189062 2.37976 0 255 0 255 
-0.201972 0.189363 2.38446 0 255 0 255 
-0.187724 0.188868 2.38686 0 255 0 255 
-0.179547 0.189796 2.39342 0 255 0 255 
-0.179198 0.192537 2.40526 0 255 0 255 
-0.168396 0.192874 2.41012 0 255 0 255 
-0.152346 0.192023 2.41155 0 255 0 255 
-0.140639 0.192184 2.41594 0 255 0 255 
-0.375554 0.296279 2.251 255 0 0 255 
-0.370577 0.29722 2.258 255 0 0 255 
-0.364754 0.297502 2.26 255 0 0 255 
-0.358442 0.297389 2.259 255 0 0 255 
-0.352447 0.29754 2.26 255 0 0 255 
-0.346905 0.298085 2.264 255 0 0 255 
-0.341491 0.298762 2.269 255 0 0 255 
-0.335901 0.299307 2.273 255 0 0 255 
-0.329998 0.299588 2.275 255 0 0 255 
-0.324225 0.300001 2.278 255 0 0 255 
-0.318296 0.300282 2.28 255 0 0 255 
-0.312902 0.30109 2.286 255 0 0 255 
-0.275371 0.301057 2.285 255 0 0 255 
-0.268076 0.299886 2.276 255 0 0 255 
-0.260368 0.298189 2.263 255 0 0 255 
-0.252057 0.2957 2.244 255 0 0 255 
-0.244068 0.293474 2.227 255 0 0 255 
-0.236277 0.291379 2.211 255 0 0 255 
-0.22899 0.289811 2.199 255 0 0 255 
-0.222173 0.28877 2.191 255 0 0 255 
-0.215892 0.288388 2.188 255 0 0 255 
-0.209915 0.2884 2.188 255 0 0 255 
-0.203657 0.288017 2.185 255 0 0 255 
-0.197144 0.287238 2.179 255 0 0 255 
-0.190399 0.286063 2.17 255 0 0 255 
-0.184043 0.285415 2.165 255 0 0 255 
-0.177632 0.284635 2.159 255 0 0 255 
-0.171571 0.284382 2.157 255 0 0 255 
-0.16552 0.284128 2.155 255 0 0 255 
-0.159775 0.284402 2.157 255 0 0 255 
-0.153806 0.284279 2.156 255 0 0 255 
-0.147909 0.284289 2.156 255 0 0 255 
-0.141947 0.284166 2.155 255 0 0 255 
-0.135989 0.284042 2.154 255 0 0 255 
-0.129915 0.283655 2.151 255 0 0 255 
-0.123915 0.283399 2.149 255 0 0 255 
-0.11809 0.283538 2.15 255 0 0 255 
-0.112364 0.283941 2.153 255 0 0 255 
-0.106423 0.283816 2.152 255 0 0 255 
-0.10044 0.283558 2.15 255 0 0 255 
-0.0946 0.283696 2.151 255 0 0 255 
-0.088795 0.283966 2.153 255 0 0 255 
-0.082941 0.284103 2.154 255 0 0 255 
-0.077045 0.284108 2.154 255 0 0 255 
-0.071248 0.284508 2.157 255 0 0 255 
-0.065464 0.28504 2.161 255 0 0 255 
-0.05963 0.28544 2.164 255 0 0 255 
-0.053731 0.285575 2.165 255 0 0 255 
-0.047825 0.28571 2.166 255 0 0 255 
-0.041953 0.286109 2.169 255 0 0 255 
-0.036114 0.286903 2.175 255 0 0 255 
-0.030214 0.287432 2.179 255 0 0 255 
-0.024292 0.287962 2.183 255 0 0 255 
-0.018365 0.288754 2.189 255 0 0 255 
-0.012422 0.289943 2.198 255 0 0 255 
-0.006421 0.290735 2.204 255 0 0 255 
-0.000387 0.291658 2.211 255 0 0 255 
0.005683 0.29245 2.217 255 0 0 255 
0.011775 0.292977 2.221 255 0 0 255 
0.017929 0.294163 2.23 255 0 0 255 
0.024207 0.296272 2.246 255 0 0 255 
0.030573 0.298381 2.262 255 0 0 255 
0.036897 0.299434 2.27 255 0 0 255 
0.043302 0.300751 2.28 255 0 0 255 
0.049827 0.302463 2.293 255 0 0 255 
0.135528 0.297634 2.257 255 0 0 255 
0.142393 0.299076 2.268 255 0 0 255 
0.148859 0.299595 2.272 255 0 0 255 
0.154937 0.299322 2.27 255 0 0 255 
0.160861 0.298785 2.266 255 0 0 255 
0.166836 0.298379 2.263 255 0 0 255 
0.173253 0.298764 2.266 255 0 0 255 
0.179607 0.299018 2.268 255 0 0 255 
0.185889 0.299138 2.269 255 0 0 255 
0.191838 0.298732 2.266 255 0 0 255 
0.197245 0.297533 2.257 255 0 0 255 
-0.135878 0.236646 2.4017 255 255 0 255 
-0.123536 0.236237 2.39705 255 255 0 255 
-0.116359 0.234956 2.38898 255 255 0 255 
-0.102333 0.234858 2.38558 255 255 0 255 
-0.090042 0.234476 2.38107 255 255 0 255 
-0.073492 0.234845 2.37955 255 255 0 255 
-0.056116 0.235376 2.37869 255 255 0 255 
-0.04389 0.235027 2.37436 255 255 0 255 
-0.035946 0.233939 2.36712 255 255 0 255 
-0.030565 0.232406 2.35811 255 255 0 255 
-0.031995 0.22967 2.34432 255 255 0 255 
-0.028316 0.227835 2.33411 255 255 0 255 
-0.028881 0.225243 2.32088 255 255 0 255 
-0.023501 0.223711 2.31187 255 255 0 255 
-0.026597 0.220657 2.29678 255 255 0 255 
-0.030525 0.217444 2.28104 255 255 0 255 
-0.04289 0.212689 2.25912 255 255 0 255 
0.013515 0.210447 2.23579 255 255 0 255 
0.055825 0.215796 2.25452 255 255 0 255 
0.087983 0.219309 2.26592 255 255 0 255 
-0.312737 0.154925 2.24745 0 255 0 255 
-0.310688 0.157224 2.258 0 255 0 255 
-0.301792 0.157814 2.26349 0 255 0 255 
-0.287746 0.157135 2.26525 0 255 0 255 
-0.271108 0.155832 2.26519 0 255 0 255 
-0.229908 0.16557 2.3205 0 255 0 255 
-0.234735 0.169564 2.33598 0 255 0 255 
-0.231798 0.171681 2.346 0 255 0 255 
-0.223671 0.172556 2.35241 0 255 0 255 
-0.219864 0.17447 2.36183 0 255 0 255 
-0.216055 0.176386 2.37126 0 255 0 255 
-0.212246 0.178304 2.3807 0 255 0 255 
-0.206699 0.179813 2.38896 0 255 0 255 
-0.190723 0.178874 2.39018 0 255 0 255 
-0.185159 0.180397 2.3985 0 255 0 255 
-0.178719 0.18172 2.40625 0 255 0 255 
-0.174887 0.183657 2.41576 0 255 0 255 
-0.15885 0.182764 2.41719 0 255 0 255 
-0.148898 0.1833 2.42272 0 255 0 255 
-0.081432 0.182136 2.43973 0 255 0 255 
-0.376741 0.291046 2.258 255 0 0 255 
-0.370432 0.290936 2.257 255 0 0 255 
-0.36445 0.291084 2.258 255 0 0 255 
-0.357985 0.290845 2.256 255 0 0 255 
-0.352466 0.291379 2.26 255 0 0 255 
-0.346924 0.291913 2.264 255 0 0 255 
-0.341509 0.292576 2.269 255 0 0 255 
-0.335919 0.293109 2.273 255 0 0 255 
-0.330161 0.293514 2.276 255 0 0 255 
-0.324385 0.293918 2.279 255 0 0 255 
-0.318592 0.294323 2.282 255 0 0 255 
-0.313329 0.295243 2.289 255 0 0 255 
-0.285812 0.299195 2.319 255 0 0 255 
-0.275266 0.294695 2.284 255 0 0 255 
-0.268091 0.293678 2.276 255 0 0 255 
-0.260613 0.292274 2.265 255 0 0 255 
-0.252521 0.290094 2.248 255 0 0 255 
-0.24441 0.287786 2.23 255 0 0 255 
-0.236398 0.285476 2.212 255 0 0 255 
-0.229107 0.283941 2.2 255 0 0 255 
-0.22249 0.28318 2.194 255 0 0 255 
-0.216398 0.283063 2.193 255 0 0 255 
-0.210407 0.283075 2.193 255 0 0 255 
-0.203949 0.282442 2.188 255 0 0 255 
-0.197517 0.281808 2.183 255 0 0 255 
-0.190674 0.280529 2.173 255 0 0 255 
-0.184309 0.279894 2.168 255 0 0 255 
-0.177889 0.27913 2.162 255 0 0 255 
-0.17182 0.278883 2.16 255 0 0 255 
-0.165837 0.278763 2.159 255 0 0 255 
-0.159859 0.278644 2.158 255 0 0 255 
-0.153958 0.278653 2.158 255 0 0 255 
-0.147987 0.278533 2.157 255 0 0 255 
-0.142021 0.278413 2.156 255 0 0 255 
-0.13606 0.278292 2.155 255 0 0 255 
-0.130044 0.278042 2.153 255 0 0 255 
-0.124038 0.277791 2.151 255 0 0 255 
-0.118152 0.277798 2.151 255 0 0 255 
-0.112319 0.277935 2.152 255 0 0 255 
-0.106479 0.27807 2.153 255 0 0 255 
-0.100633 0.278206 2.154 255 0 0 255 
-0.094826 0.27847 2.156 255 0 0 255 
-0.089007 0.278734 2.158 255 0 0 255 
-0.0831 0.278739 2.158 255 0 0 255 
-0.077157 0.278615 2.157 255 0 0 255 
-0.071318 0.278878 2.159 255 0 0 255 
-0.065528 0.279399 2.163 255 0 0 255 
-0.059717 0.279919 2.167 255 0 0 255 
-0.053784 0.279923 2.167 255 0 0 255 
-0.047873 0.280055 2.168 255 0 0 255 
-0.042014 0.280575 2.172 255 0 0 255 
-0.036166 0.281352 2.178 255 0 0 255 
-0.030271 0.282 2.183 255 0 0 255 
-0.024338 0.282518 2.187 255 0 0 255 
-0.018391 0.283166 2.192 255 0 0 255 
-0.012428 0.284071 2.199 255 0 0 255 
-0.006418 0.284588 2.203 255 0 0 255 
-0.000387 0.285493 2.21 255 0 0 255 
0.005678 0.286138 2.215 255 0 0 255 
0.011786 0.287171 2.223 255 0 0 255 
0.017938 0.288204 2.231 255 0 0 255 
0.02423 0.290399 2.248 255 0 0 255 
0.030562 0.292076 2.261 255 0 0 255 
0.036948 0.293624 2.273 255 0 0 255 
0.043381 0.295043 2.284 255 0 0 255 
0.049917 0.296719 2.297 255 0 0 255 
0.135837 0.292119 2.262 255 0 0 255 
0.14259 0.293273 2.271 255 0 0 255 
0.148933 0.293523 2.273 255 0 0 255 
0.154809 0.292868 2.268 255 0 0 255 
0.160728 0.292342 2.264 255 0 0 255 
0.166773 0.292074 2.262 255 0 0 255 
0.173034 0.292193 2.263 255 0 0 255 
0.17938 0.292441 2.265 255 0 0 255 
0.185573 0.29243 2.265 255 0 0 255 
0.191849 0.292548 2.266 255 0 0 255 
0.196732 0.2906 2.251 255 0 0 255 
-0.142074 0.226937 2.4118 255 255 0 255 
-0.129721 0.226548 2.4071 255 255 0 255 
-0.116529 0.226317 2.40304 255 255 0 255 
-0.111075 0.22475 2.39382 255 255 0 255 
-0.089054 0.223579 2.383 255 255 0 255 
-0.069091 0.224591 2.38381 255 255 0 255 
-0.047455 0.225924 2.38589 255 255 0 255 
-0.033535 0.225909 2.38276 255 255 0 255 
-0.029863 0.224077 2.37257 255 255 0 255 
-0.027893 0.22194 2.36119 255 255 0 255 
-0.027621 0.219496 2.3486 255 255 0 255 
-0.023944 0.217663 2.3384 255 255 0 255 
-0.021116 0.215676 2.3276 255 255 0 255 
-0.017439 0.213844 2.31739 255 255 0 255 
-0.017149 0.211392 2.30476 255 255 0 255 
-0.033769 0.205828 2.27988 255 255 0 255 
0.011131 0.199043 2.23515 255 255 0 255 
0.054265 0.204669 2.25448 255 255 0 255 
0.073833 0.205884 2.25637 255 255 0 255 
-0.310551 0.143845 2.24697 0 255 0 255 
-0.307643 0.145932 2.2569 0 255 0 255 
-0.306446 0.148452 2.26808 0 255 0 255 
-0.300971 0.149893 2.27611 0 255 0 255 
-0.216018 0.148642 2.29977 0 255 0 255 
-0.245478 0.161546 2.34475 0 255 0 255 
-0.239957 0.163027 2.35293 0 255 0 255 
-0.232703 0.164092 2.35993 0 255 0 255 
-0.227173 0.165581 2.36814 0 255 0 255 
-0.218174 0.16624 2.37399 0 255 0 255 
-0.213498 0.167946 2.38283 0 255 0 255 
-0.20882 0.169655 2.39169 0 255 0 255 
-0.205007 0.171574 2.40113 0 255 0 255 
-0.19511 0.17205 2.4065 0 255 0 255 
-0.188681 0.173358 2.41423 0 255 0 255 
-0.175281 0.173028 2.41734 0 255 0 255 
-0.164478 0.173326 2.42225 0 255 0 255 
-0.152789 0.173431 2.42662 0 255 0 255 
-0.087115 0.172507 2.44477 0 255 0 255 
-0.377428 0.285395 2.262 255 0 0 255 
-0.370943 0.285162 2.26 255 0 0 255 
-0.36463 0.285054 2.259 255 0 0 255 
-0.358162 0.28482 2.257 255 0 0 255 
-0.35264 0.285343 2.261 255 0 0 255 
-0.346789 0.285614 2.263 255 0 0 255 
-0.341226 0.286136 2.267 255 0 0 255 
-0.335493 0.286533 2.27 255 0 0 255 
-0.330178 0.287307 2.276 255 0 0 255 
-0.324402 0.287703 2.279 255 0 0 255 
-0.318889 0.288352 2.284 255 0 0 255 
-0.314168 0.289757 2.295 255 0 0 255 
-0.286074 0.293122 2.321 255 0 0 255 
-0.274558 0.287706 2.278 255 0 0 255 
-0.267635 0.286963 2.272 255 0 0 255 
-0.260513 0.285968 2.264 255 0 0 255 
-0.252647 0.284087 2.249 255 0 0 255 
-0.244424 0.281701 2.23 255 0 0 255 
-0.236411 0.279441 2.212 255 0 0 255 
-0.229433 0.278317 2.203 255 0 0 255 
-0.222908 0.277698 2.198 255 0 0 255 
-0.217003 0.277837 2.199 255 0 0 255 
-0.210899 0.277723 2.198 255 0 0 255 
-0.204613 0.277355 2.195 255 0 0 255 
-0.197981 0.276482 2.188 255 0 0 255 
-0.191211 0.275356 2.179 255 0 0 255 
-0.18483 0.274735 2.174 255 0 0 255 
-0.178476 0.274114 2.169 255 0 0 255 
-0.172307 0.273745 2.166 255 0 0 255 
-0.166 0.273123 2.161 255 0 0 255 
-0.159943 0.27288 2.159 255 0 0 255 
-0.153895 0.272636 2.157 255 0 0 255 
-0.147927 0.272519 2.156 255 0 0 255 
-0.142029 0.272527 2.156 255 0 0 255 
-0.136068 0.272409 2.155 255 0 0 255 
-0.130112 0.27229 2.154 255 0 0 255 
-0.124103 0.272045 2.152 255 0 0 255 
-0.118214 0.272052 2.152 255 0 0 255 
-0.112378 0.272186 2.153 255 0 0 255 
-0.106584 0.272445 2.155 255 0 0 255 
-0.10078 0.272704 2.157 255 0 0 255 
-0.094964 0.272963 2.159 255 0 0 255 
-0.089054 0.272968 2.159 255 0 0 255 
-0.083182 0.2731 2.16 255 0 0 255 
-0.077269 0.273105 2.16 255 0 0 255 
-0.071454 0.273489 2.163 255 0 0 255 
-0.065623 0.273872 2.166 255 0 0 255 
-0.05972 0.274002 2.167 255 0 0 255 
-0.053812 0.274132 2.168 255 0 0 255 
-0.04792 0.274388 2.17 255 0 0 255 
-0.042094 0.275149 2.176 255 0 0 255 
-0.036201 0.275658 2.18 255 0 0 255 
-0.030287 0.276165 2.184 255 0 0 255 
-0.024351 0.276673 2.188 255 0 0 255 
-0.018392 0.27718 2.192 255 0 0 255 
