ply
format ascii 1.0
comment VCGLIB generated
element vertex 1247
property float x
property float y
property float z
property uchar red
property uchar green
property uchar blue
property uchar alpha
element face 0
property list uchar int vertex_indices
end_header
-0.012371 0.33912 2.33352 255 255 0 255 
0.030533 0.343068 2.35147 255 255 0 255 
0.063124 0.345548 2.3623 255 255 0 255 
0.073509 0.344776 2.35731 255 255 0 255 
0.073672 0.34249 2.34495 255 255 0 255 
0.072991 0.340074 2.33195 255 255 0 255 
-0.296862 0.250515 2.19996 0 255 0 255 
-0.297388 0.253356 2.21248 0 255 0 255 
-0.287604 0.253928 2.21726 0 255 0 255 
-0.273504 0.253567 2.21887 0 255 0 255 
-0.266277 0.254722 2.22565 0 255 0 255 
-0.25387 0.25476 2.22864 0 255 0 255 
-0.192959 0.258194 2.25762 0 255 0 255 
-0.207861 0.266855 2.2926 0 255 0 255 
-0.213602 0.270802 2.30877 0 255 0 255 
-0.208054 0.272374 2.31697 0 255 0 255 
-0.205982 0.274676 2.3276 0 255 0 255 
-0.196944 0.275531 2.33339 0 255 0 255 
-0.191383 0.277115 2.34162 0 255 0 255 
-0.18669 0.278883 2.35047 0 255 0 255 
-0.181994 0.280653 2.35933 0 255 0 255 
-0.168555 0.28064 2.36225 0 255 0 255 
-0.141976 0.277969 2.35635 0 255 0 255 
-0.124988 0.277281 2.35707 0 255 0 255 
-0.111481 0.277318 2.36022 0 255 0 255 
-0.108481 0.279487 2.37044 0 255 0 255 
-0.103725 0.281305 2.37949 0 255 0 255 
-0.095452 0.282424 2.38624 0 255 0 255 
-0.081016 0.282326 2.38898 0 255 0 255 
-0.365697 0.342401 2.193 255 0 0 255 
-0.35891 0.341642 2.188 255 0 0 255 
-0.35215 0.340882 2.183 255 0 0 255 
-0.345891 0.34059 2.181 255 0 0 255 
-0.339954 0.34061 2.181 255 0 0 255 
-0.334476 0.341099 2.184 255 0 0 255 
-0.32868 0.341275 2.185 255 0 0 255 
-0.322582 0.341139 2.184 255 0 0 255 
-0.316488 0.341002 2.183 255 0 0 255 
-0.310968 0.34149 2.186 255 0 0 255 
-0.305291 0.341821 2.188 255 0 0 255 
-0.300013 0.342621 2.193 255 0 0 255 
-0.294439 0.343108 2.196 255 0 0 255 
-0.289241 0.344064 2.202 255 0 0 255 
-0.284267 0.345332 2.21 255 0 0 255 
-0.279375 0.346757 2.219 255 0 0 255 
-0.274678 0.348493 2.23 255 0 0 255 
-0.26956 0.349761 2.238 255 0 0 255 
-0.263926 0.350403 2.242 255 0 0 255 
-0.257005 0.349326 2.235 255 0 0 255 
-0.250009 0.348092 2.227 255 0 0 255 
-0.242618 0.346232 2.215 255 0 0 255 
-0.235611 0.344841 2.206 255 0 0 255 
-0.229174 0.344231 2.202 255 0 0 255 
-0.222453 0.343152 2.195 255 0 0 255 
-0.215573 0.341759 2.186 255 0 0 255 
-0.208358 0.339741 2.173 255 0 0 255 
-0.201958 0.338973 2.168 255 0 0 255 
-0.195675 0.338361 2.164 255 0 0 255 
-0.189852 0.33853 2.165 255 0 0 255 
-0.183853 0.338386 2.164 255 0 0 255 
-0.177858 0.338242 2.163 255 0 0 255 
-0.17171 0.337785 2.16 255 0 0 255 
-0.165731 0.33764 2.159 255 0 0 255 
-0.159905 0.337807 2.16 255 0 0 255 
-0.15393 0.337662 2.159 255 0 0 255 
-0.14796 0.337516 2.158 255 0 0 255 
-0.141863 0.337057 2.155 255 0 0 255 
-0.135846 0.336753 2.153 255 0 0 255 
-0.129839 0.33645 2.151 255 0 0 255 
-0.1239 0.336302 2.15 255 0 0 255 
-0.117966 0.336154 2.149 255 0 0 255 
-0.112037 0.336006 2.148 255 0 0 255 
-0.106212 0.33617 2.149 255 0 0 255 
-0.100287 0.33602 2.148 255 0 0 255 
-0.094412 0.336027 2.148 255 0 0 255 
-0.088495 0.335877 2.147 255 0 0 255 
-0.082737 0.336353 2.15 255 0 0 255 
-0.076892 0.336515 2.151 255 0 0 255 
-0.070974 0.336363 2.15 255 0 0 255 
-0.065092 0.336368 2.15 255 0 0 255 
-0.059264 0.336686 2.152 255 0 0 255 
-0.053426 0.337002 2.154 255 0 0 255 
-0.047554 0.337162 2.155 255 0 0 255 
-0.041696 0.337479 2.157 255 0 0 255 
-0.035793 0.337481 2.157 255 0 0 255 
-0.029933 0.337953 2.16 255 0 0 255 
-0.024044 0.338268 2.162 255 0 0 255 
-0.018169 0.339052 2.167 255 0 0 255 
-0.012251 0.339366 2.169 255 0 0 255 
-0.00633 0.340149 2.174 255 0 0 255 
-0.000382 0.341557 2.183 255 0 0 255 
0.005626 0.343591 2.196 255 0 0 255 
0.011746 0.346876 2.217 255 0 0 255 
0.01803 0.351099 2.244 255 0 0 255 
0.02443 0.354853 2.268 255 0 0 255 
0.030947 0.358449 2.291 255 0 0 255 
0.037492 0.361107 2.308 255 0 0 255 
0.044035 0.362981 2.32 255 0 0 255 
0.050166 0.361414 2.31 255 0 0 255 
0.056267 0.360002 2.301 255 0 0 255 
0.062373 0.358902 2.294 255 0 0 255 
0.06844 0.357803 2.287 255 0 0 255 
0.074305 0.35592 2.275 255 0 0 255 
0.080104 0.354037 2.263 255 0 0 255 
0.086142 0.353406 2.259 255 0 0 255 
0.092199 0.35293 2.256 255 0 0 255 
0.098196 0.352298 2.252 255 0 0 255 
0.104124 0.351508 2.247 255 0 0 255 
0.11027 0.351501 2.247 255 0 0 255 
0.11657 0.351962 2.25 255 0 0 255 
0.122832 0.352267 2.252 255 0 0 255 
0.129162 0.352727 2.255 255 0 0 255 
0.135388 0.352874 2.256 255 0 0 255 
0.141619 0.353021 2.257 255 0 0 255 
-0.098295 0.334747 2.37699 255 255 0 255 
-0.088564 0.333763 2.37083 255 255 0 255 
-0.08744 0.331538 2.35879 255 255 0 255 
-0.082877 0.329812 2.34911 255 255 0 255 
-0.080031 0.327835 2.33824 255 255 0 255 
-0.066904 0.327373 2.33456 255 255 0 255 
-0.059788 0.326034 2.32672 255 255 0 255 
-0.04413 0.325971 2.32494 255 255 0 255 
-0.012274 0.328344 2.33477 255 255 0 255 
0.034876 0.333051 2.35573 255 255 0 255 
0.061484 0.334723 2.36227 255 255 0 255 
0.072721 0.334098 2.35788 255 255 0 255 
0.072887 0.331801 2.34551 255 255 0 255 
-0.30066 0.240903 2.20396 0 255 0 255 
-0.300328 0.243561 2.21582 0 255 0 255 
-0.293127 0.244686 2.22253 0 255 0 255 
-0.279037 0.244289 2.22414 0 255 0 255 
-0.267512 0.244479 2.22773 0 255 0 255 
-0.25511 0.244489 2.23073 0 255 0 255 
-0.203392 0.252537 2.2785 0 255 0 255 
-0.215185 0.257819 2.29902 0 255 0 255 
-0.214847 0.260494 2.31088 0 255 0 255 
-0.205823 0.261321 2.31664 0 255 0 255 
-0.201138 0.263077 2.32547 0 255 0 255 
-0.19558 0.264651 2.3337 0 255 0 255 
-0.192632 0.266778 2.34375 0 255 0 255 
-0.188812 0.268723 2.3532 0 255 0 255 
-0.181499 0.269943 2.36027 0 255 0 255 
-0.169811 0.270263 2.36439 0 255 0 255 
-0.145869 0.268065 2.36028 0 255 0 255 
-0.360899 0.337527 2.2 255 0 0 255 
-0.352331 0.335092 2.184 255 0 0 255 
-0.346229 0.334959 2.183 255 0 0 255 
-0.340442 0.335133 2.184 255 0 0 255 
-0.334956 0.335613 2.187 255 0 0 255 
-0.32885 0.33548 2.186 255 0 0 255 
-0.322749 0.335346 2.185 255 0 0 255 
-0.316507 0.335058 2.183 255 0 0 255 
-0.310845 0.335384 2.185 255 0 0 255 
-0.30531 0.335863 2.188 255 0 0 255 
-0.300032 0.336649 2.193 255 0 0 255 
-0.294725 0.337435 2.198 255 0 0 255 
-0.289391 0.338221 2.203 255 0 0 255 
-0.284671 0.339774 2.213 255 0 0 255 
-0.279644 0.34102 2.221 255 0 0 255 
-0.274819 0.342573 2.231 255 0 0 255 
-0.269216 0.343205 2.235 255 0 0 255 
-0.263472 0.343682 2.238 255 0 0 255 
-0.256677 0.342777 2.232 255 0 0 255 
-0.249913 0.341872 2.226 255 0 0 255 
-0.242962 0.340659 2.218 255 0 0 255 
-0.236268 0.339753 2.212 255 0 0 255 
-0.229813 0.339154 2.208 255 0 0 255 
-0.222671 0.337479 2.197 255 0 0 255 
-0.21539 0.335497 2.184 255 0 0 255 
-0.208371 0.333821 2.173 255 0 0 255 
-0.202064 0.33322 2.169 255 0 0 255 
-0.195959 0.332926 2.167 255 0 0 255 
-0.19004 0.332938 2.167 255 0 0 255 
-0.18395 0.332644 2.165 255 0 0 255 
-0.17787 0.332348 2.163 255 0 0 255 
-0.171881 0.332207 2.162 255 0 0 255 
-0.165819 0.331911 2.16 255 0 0 255 
-0.159842 0.331768 2.159 255 0 0 255 
-0.153726 0.331318 2.156 255 0 0 255 
-0.147764 0.331174 2.155 255 0 0 255 
-0.141807 0.33103 2.154 255 0 0 255 
-0.135855 0.330886 2.153 255 0 0 255 
-0.129968 0.330895 2.153 255 0 0 255 
-0.124023 0.33075 2.152 255 0 0 255 
-0.118138 0.330759 2.152 255 0 0 255 
-0.112253 0.330766 2.152 255 0 0 255 
-0.106318 0.33062 2.151 255 0 0 255 
-0.100341 0.33032 2.149 255 0 0 255 
-0.094463 0.330327 2.149 255 0 0 255 
-0.088543 0.330179 2.148 255 0 0 255 
-0.082782 0.330646 2.151 255 0 0 255 
-0.076933 0.330806 2.152 255 0 0 255 
-0.071111 0.331118 2.154 255 0 0 255 
-0.065157 0.330816 2.152 255 0 0 255 
-0.059323 0.331127 2.154 255 0 0 255 
-0.053454 0.331285 2.155 255 0 0 255 
-0.047601 0.331596 2.157 255 0 0 255 
-0.041718 0.331753 2.158 255 0 0 255 
-0.035862 0.332217 2.161 255 0 0 255 
-0.02999 0.33268 2.164 255 0 0 255 
-0.02409 0.33299 2.166 255 0 0 255 
-0.018196 0.333606 2.17 255 0 0 255 
-0.012274 0.334068 2.173 255 0 0 255 
-0.006347 0.335145 2.18 255 0 0 255 
-0.000383 0.336837 2.191 255 0 0 255 
0.005654 0.339296 2.207 255 0 0 255 
0.0118 0.34237 2.227 255 0 0 255 
0.018096 0.346213 2.252 255 0 0 255 
0.024474 0.349286 2.272 255 0 0 255 
0.030949 0.352205 2.291 255 0 0 255 
0.037462 0.354508 2.306 255 0 0 255 
0.044019 0.356504 2.319 255 0 0 255 
0.050257 0.355732 2.314 255 0 0 255 
0.056393 0.354499 2.306 255 0 0 255 
0.06254 0.353572 2.3 255 0 0 255 
0.068534 0.35203 2.29 255 0 0 255 
0.074343 0.349873 2.276 255 0 0 255 
0.08011 0.347869 2.263 255 0 0 255 
0.086072 0.346941 2.257 255 0 0 255 
0.092206 0.346781 2.256 255 0 0 255 
0.098246 0.346314 2.253 255 0 0 255 
0.104224 0.345692 2.249 255 0 0 255 
0.110326 0.345531 2.248 255 0 0 255 
0.116578 0.34583 2.25 255 0 0 255 
0.122841 0.346129 2.252 255 0 0 255 
0.129171 0.346582 2.255 255 0 0 255 
0.135398 0.346726 2.256 255 0 0 255 
0.14188 0.347485 2.261 255 0 0 255 
-0.097319 0.323919 2.37891 255 255 0 255 
-0.088451 0.322826 2.37215 255 255 0 255 
-0.087323 0.320592 2.3601 255 255 0 255 
-0.082759 0.318868 2.35042 255 255 0 255 
-0.079911 0.316888 2.33955 255 255 0 255 
-0.067644 0.316325 2.33525 255 255 0 255 
-0.057961 0.315384 2.32921 255 255 0 255 
-0.039746 0.315746 2.32924 255 255 0 255 
-0.007055 0.318338 2.33966 255 255 0 255 
0.036659 0.322658 2.35817 255 255 0 255 
0.06581 0.324793 2.36652 255 255 0 255 
0.080442 0.32472 2.36458 255 255 0 255 
0.078055 0.32202 2.35039 255 255 0 255 
-0.301885 0.230715 2.20602 0 255 0 255 
-0.303267 0.233771 2.21916 0 255 0 255 
-0.296069 0.234883 2.22587 0 255 0 255 
-0.284567 0.235033 2.2294 0 255 0 255 
-0.268748 0.234229 2.2298 0 255 0 255 
-0.208115 0.242926 2.28308 0 255 0 255 
-0.22477 0.252056 2.3191 0 255 0 255 
-0.207072 0.250991 2.31876 0 255 0 255 
-0.204996 0.253301 2.32941 0 255 0 255 
-0.197701 0.254495 2.33643 0 255 0 255 
-0.199978 0.257734 2.35008 0 255 0 255 
-0.194419 0.259303 2.35832 0 255 0 255 
-0.186241 0.260324 2.36478 0 255 0 255 
-0.171941 0.260065 2.36712 0 255 0 255 
-0.152381 0.258721 2.36599 0 255 0 255 
-0.355256 0.331859 2.202 255 0 0 255 
-0.347201 0.32992 2.189 255 0 0 255 
-0.341553 0.330241 2.191 255 0 0 255 
-0.336201 0.330864 2.195 255 0 0 255 
-0.329772 0.330432 2.192 255 0 0 255 
-0.323507 0.330149 2.19 255 0 0 255 
-0.317251 0.329867 2.188 255 0 0 255 
-0.311575 0.330187 2.19 255 0 0 255 
-0.306306 0.33096 2.195 255 0 0 255 
-0.300871 0.331581 2.199 255 0 0 255 
-0.295682 0.332504 2.205 255 0 0 255 
-0.290197 0.333125 2.209 255 0 0 255 
-0.28546 0.334651 2.219 255 0 0 255 
-0.280417 0.335875 2.227 255 0 0 255 
-0.275699 0.337552 2.238 255 0 0 255 
-0.269474 0.337418 2.237 255 0 0 255 
-0.263018 0.336982 2.234 255 0 0 255 
-0.256348 0.336244 2.229 255 0 0 255 
-0.250041 0.335959 2.227 255 0 0 255 
-0.243416 0.33522 2.222 255 0 0 255 
-0.236924 0.334632 2.218 255 0 0 255 
-0.230244 0.333742 2.212 255 0 0 255 
-0.222685 0.331493 2.197 255 0 0 255 
-0.215207 0.329244 2.182 255 0 0 255 
-0.208289 0.327749 2.172 255 0 0 255 
-0.202078 0.327309 2.169 255 0 0 255 
-0.195972 0.327021 2.167 255 0 0 255 
-0.190053 0.327033 2.167 255 0 0 255 
-0.184047 0.326895 2.166 255 0 0 255 
-0.177965 0.326605 2.164 255 0 0 255 
-0.171972 0.326465 2.163 255 0 0 255 
-0.16583 0.326024 2.16 255 0 0 255 
-0.159852 0.325884 2.159 255 0 0 255 
-0.153737 0.325441 2.156 255 0 0 255 
-0.147774 0.325301 2.155 255 0 0 255 
-0.141817 0.325159 2.154 255 0 0 255 
-0.135864 0.325018 2.153 255 0 0 255 
-0.130038 0.325178 2.154 255 0 0 255 
-0.124262 0.325488 2.156 255 0 0 255 
-0.118366 0.325496 2.156 255 0 0 255 
-0.112365 0.325202 2.154 255 0 0 255 
-0.106325 0.324757 2.151 255 0 0 255 
-0.100348 0.324462 2.149 255 0 0 255 
-0.094425 0.324318 2.148 255 0 0 255 
-0.088507 0.324173 2.147 255 0 0 255 
-0.08271 0.324481 2.149 255 0 0 255 
-0.076938 0.324939 2.152 255 0 0 255 
-0.071116 0.325246 2.154 255 0 0 255 
-0.065252 0.325402 2.155 255 0 0 255 
-0.059383 0.325557 2.156 255 0 0 255 
-0.053532 0.325863 2.158 255 0 0 255 
-0.047693 0.32632 2.161 255 0 0 255 
-0.041798 0.326474 2.162 255 0 0 255 
-0.035915 0.326779 2.164 255 0 0 255 
-0.03002 0.327083 2.166 255 0 0 255 
-0.024125 0.327538 2.169 255 0 0 255 
-0.018214 0.327992 2.172 255 0 0 255 
-0.012286 0.328446 2.175 255 0 0 255 
-0.00636 0.329806 2.184 255 0 0 255 
-0.000384 0.33192 2.198 255 0 0 255 
0.00568 0.334789 2.217 255 0 0 255 
0.011827 0.337054 2.232 255 0 0 255 
0.018105 0.340224 2.253 255 0 0 255 
0.024465 0.342941 2.271 255 0 0 255 
0.030937 0.345808 2.29 255 0 0 255 
0.0374 0.347618 2.302 255 0 0 255 
0.044079 0.350635 2.322 255 0 0 255 
0.050369 0.350179 2.319 255 0 0 255 
0.056568 0.349269 2.313 255 0 0 255 
0.062735 0.348359 2.307 255 0 0 255 
0.068718 0.346693 2.296 255 0 0 255 
0.074511 0.344424 2.281 255 0 0 255 
0.080221 0.342153 2.266 255 0 0 255 
0.086154 0.341091 2.259 255 0 0 255 
0.092089 0.340179 2.253 255 0 0 255 
0.098122 0.339719 2.25 255 0 0 255 
0.104138 0.339259 2.247 255 0 0 255 
0.110285 0.339252 2.247 255 0 0 255 
0.116586 0.339697 2.25 255 0 0 255 
0.123013 0.340444 2.255 255 0 0 255 
0.129352 0.340888 2.258 255 0 0 255 
0.135767 0.341483 2.262 255 0 0 255 
-0.101503 0.312309 2.37731 255 255 0 255 
-0.09349 0.3111 2.36995 255 255 0 255 
-0.090638 0.309115 2.35906 255 255 0 255 
-0.083497 0.307783 2.35114 255 255 0 255 
-0.074649 0.306716 2.34443 255 255 0 255 
-0.061534 0.306313 2.34074 255 255 0 255 
-0.050149 0.305656 2.33591 255 255 0 255 
-0.031949 0.306066 2.33594 255 255 0 255 
-0.003544 0.308086 2.34333 255 255 0 255 
0.03759 0.312131 2.35999 255 255 0 255 
0.06162 0.313542 2.36466 255 255 0 255 
0.079655 0.314036 2.36515 255 255 0 255 
0.083218 0.312259 2.35526 255 255 0 255 
-0.313392 0.222894 2.21582 0 255 0 255 
-0.310493 0.224972 2.22572 0 255 0 255 
-0.300727 0.225478 2.23049 0 255 0 255 
-0.284078 0.224424 2.23019 0 255 0 255 
-0.267406 0.223389 2.22997 0 255 0 255 
-0.231015 0.237346 2.30058 0 255 0 255 
-0.238477 0.241747 2.31794 0 255 0 255 
-0.229481 0.242524 2.32365 0 255 0 255 
-0.214398 0.241982 2.32513 0 255 0 255 
-0.20972 0.243724 2.33395 0 255 0 255 
-0.206778 0.245846 2.34398 0 255 0 255 
-0.208187 0.248908 2.357 0 255 0 255 
-0.202636 0.250466 2.36522 0 255 0 255 
-0.194465 0.251467 2.37167 0 255 0 255 
-0.179307 0.250984 2.37341 0 255 0 255 
-0.162381 0.250146 2.37404 0 255 0 255 
-0.355599 0.326159 2.204 255 0 0 255 
-0.348648 0.325291 2.198 255 0 0 255 
-0.343288 0.325903 2.202 255 0 0 255 
-0.337293 0.325922 2.202 255 0 0 255 
-0.330393 0.325054 2.196 255 0 0 255 
-0.323969 0.324629 2.193 255 0 0 255 
-0.31814 0.324796 2.194 255 0 0 255 
-0.312447 0.32511 2.196 255 0 0 255 
-0.307022 0.325721 2.2 255 0 0 255 
-0.301437 0.326184 2.203 255 0 0 255 
-0.296236 0.32709 2.209 255 0 0 255 
-0.290871 0.327848 2.214 255 0 0 255 
-0.286379 0.329643 2.226 255 0 0 255 
-0.281694 0.331289 2.237 255 0 0 255 
-0.277687 0.333824 2.254 255 0 0 255 
-0.269491 0.331323 2.237 255 0 0 255 
-0.262328 0.330006 2.228 255 0 0 255 
-0.255904 0.329578 2.225 255 0 0 255 
-0.250057 0.32989 2.227 255 0 0 255 
-0.24376 0.32961 2.225 255 0 0 255 
-0.237259 0.329032 2.221 255 0 0 255 
-0.229947 0.327269 2.209 255 0 0 255 
-0.222395 0.325061 2.194 255 0 0 255 
-0.215221 0.323297 2.182 255 0 0 255 
-0.20859 0.322274 2.175 255 0 0 255 
-0.202463 0.321991 2.173 255 0 0 255 
-0.196256 0.321559 2.17 255 0 0 255 
-0.190153 0.321275 2.168 255 0 0 255 
-0.183974 0.320843 2.165 255 0 0 255 
-0.177976 0.320706 2.164 255 0 0 255 
-0.171983 0.32057 2.163 255 0 0 255 
-0.165918 0.320284 2.161 255 0 0 255 
-0.159789 0.31985 2.158 255 0 0 255 
-0.153747 0.319564 2.156 255 0 0 255 
-0.147784 0.319426 2.155 255 0 0 255 
-0.141892 0.319436 2.155 255 0 0 255 
-0.136 0.319445 2.155 255 0 0 255 
-0.130167 0.319602 2.156 255 0 0 255 
-0.124386 0.319907 2.158 255 0 0 255 
-0.118429 0.319767 2.157 255 0 0 255 
-0.112425 0.319478 2.155 255 0 0 255 
-0.106431 0.319189 2.153 255 0 0 255 
-0.100495 0.319048 2.152 255 0 0 255 
-0.094519 0.318758 2.15 255 0 0 255 
-0.088596 0.318616 2.149 255 0 0 255 
-0.082716 0.318621 2.149 255 0 0 255 
-0.076979 0.31922 2.153 255 0 0 255 
-0.07122 0.319818 2.157 255 0 0 255 
-0.065347 0.319971 2.158 255 0 0 255 
-0.059469 0.320124 2.159 255 0 0 255 
-0.053586 0.320276 2.16 255 0 0 255 
-0.047696 0.320427 2.161 255 0 0 255 
-0.041821 0.320727 2.163 255 0 0 255 
-0.035934 0.321026 2.165 255 0 0 255 
-0.030077 0.32177 2.17 255 0 0 255 
-0.02416 0.322068 2.172 255 0 0 255 
-0.018232 0.322366 2.174 255 0 0 255 
-0.012304 0.32296 2.178 255 0 0 255 
-0.00638 0.324889 2.191 255 0 0 255 
-0.000386 0.32741 2.208 255 0 0 255 
0.005701 0.32993 2.225 255 0 0 255 
0.011849 0.331561 2.236 255 0 0 255 
0.018106 0.334081 2.253 255 0 0 255 
0.024467 0.336748 2.271 255 0 0 255 
0.030913 0.339267 2.288 255 0 0 255 
0.037402 0.341341 2.302 255 0 0 255 
0.044139 0.344748 2.325 255 0 0 255 
0.050503 0.344745 2.325 255 0 0 255 
0.056719 0.343852 2.319 255 0 0 255 
0.062929 0.343107 2.314 255 0 0 255 
0.068873 0.341174 2.301 255 0 0 255 
0.074712 0.339094 2.287 255 0 0 255 
0.080475 0.337013 2.273 255 0 0 255 
0.086275 0.335376 2.262 255 0 0 255 
0.092177 0.334332 2.255 255 0 0 255 
0.098173 0.333733 2.251 255 0 0 255 
0.104331 0.333726 2.251 255 0 0 255 
0.110636 0.334164 2.254 255 0 0 255 
0.117112 0.335045 2.26 255 0 0 255 
0.123458 0.335482 2.263 255 0 0 255 
0.129876 0.336067 2.267 255 0 0 255 
-0.108543 0.302654 2.38663 255 255 0 255 
-0.097943 0.301848 2.38099 255 255 0 255 
-0.088217 0.300917 2.3748 255 255 0 255 
-0.081936 0.299463 2.36629 255 255 0 255 
-0.076518 0.297879 2.3572 255 255 0 255 
-0.062541 0.297633 2.35407 255 255 0 255 
-0.054574 0.29646 2.34682 255 255 0 255 
-0.045762 0.295426 2.34019 255 255 0 255 
-0.033547 0.294938 2.33601 255 255 0 255 
0.062542 0.303071 2.36647 255 255 0 255 
0.072921 0.302379 2.36144 255 255 0 255 
0.074795 0.300323 2.35029 255 255 0 255 
-0.302626 0.209925 2.20884 0 255 0 255 
-0.305714 0.213408 2.22327 0 255 0 255 
-0.290801 0.212703 2.22423 0 255 0 255 
-0.273292 0.211418 2.22334 0 255 0 255 
-0.256617 0.210349 2.22317 0 255 0 255 
-0.233989 0.227432 2.30392 0 255 0 255 
-0.232787 0.229931 2.31515 0 255 0 255 
-0.227255 0.231466 2.32331 0 255 0 255 
-0.216514 0.231851 2.32785 0 255 0 255 
-0.215309 0.234354 2.33909 0 255 0 255 
-0.211501 0.236283 2.3485 0 255 0 255 
-0.207692 0.238212 2.35792 0 255 0 255 
-0.203881 0.240144 2.36734 0 255 0 255 
-0.198327 0.241698 2.37558 0 255 0 255 
-0.18405 0.241367 2.37792 0 255 0 255 
-0.170625 0.241239 2.38091 0 255 0 255 
-0.353844 0.318558 2.193 255 0 0 255 
-0.348668 0.319305 2.198 255 0 0 255 
-0.343464 0.320051 2.203 255 0 0 255 
-0.337465 0.32007 2.203 255 0 0 255 
-0.331165 0.319799 2.201 255 0 0 255 
-0.324874 0.319527 2.199 255 0 0 255 
-0.319319 0.319982 2.202 255 0 0 255 
-0.313604 0.320291 2.204 255 0 0 255 
-0.308296 0.321036 2.209 255 0 0 255 
-0.302823 0.321635 2.213 255 0 0 255 
-0.297461 0.32238 2.218 255 0 0 255 
-0.292071 0.323124 2.223 255 0 0 255 
-0.287554 0.324886 2.235 255 0 0 255 
-0.269869 0.325663 2.24 255 0 0 255 
-0.262109 0.323644 2.226 255 0 0 255 
-0.25592 0.323515 2.225 255 0 0 255 
-0.250185 0.323966 2.228 255 0 0 255 
-0.244104 0.323982 2.228 255 0 0 255 
-0.237274 0.322979 2.221 255 0 0 255 
-0.229753 0.320958 2.207 255 0 0 255 
-0.222308 0.318936 2.193 255 0 0 255 
-0.215333 0.317495 2.183 255 0 0 255 
-0.208891 0.316781 2.178 255 0 0 255 
-0.202849 0.316649 2.177 255 0 0 255 
-0.196631 0.316225 2.174 255 0 0 255 
-0.190428 0.315801 2.171 255 0 0 255 
-0.184071 0.315086 2.166 255 0 0 255 
-0.178152 0.315098 2.166 255 0 0 255 
-0.172153 0.314964 2.165 255 0 0 255 
-0.166082 0.314684 2.163 255 0 0 255 
-0.159947 0.314258 2.16 255 0 0 255 
-0.153971 0.314122 2.159 255 0 0 255 
-0.148137 0.314278 2.16 255 0 0 255 
-0.142099 0.313996 2.158 255 0 0 255 
-0.136072 0.313714 2.156 255 0 0 255 
-0.130176 0.313723 2.156 255 0 0 255 
-0.124337 0.313877 2.157 255 0 0 255 
-0.118492 0.314031 2.158 255 0 0 255 
-0.112432 0.313602 2.155 255 0 0 255 
-0.106389 0.313173 2.152 255 0 0 255 
-0.100548 0.313325 2.153 255 0 0 255 
-0.094614 0.313186 2.152 255 0 0 255 
-0.088808 0.313483 2.154 255 0 0 255 
-0.082837 0.313198 2.152 255 0 0 255 
-0.077056 0.31364 2.155 255 0 0 255 
-0.071258 0.314081 2.158 255 0 0 255 
-0.065412 0.314377 2.16 255 0 0 255 
-0.059528 0.314527 2.161 255 0 0 255 
-0.053664 0.314822 2.163 255 0 0 255 
-0.047788 0.315116 2.165 255 0 0 255 
-0.041901 0.31541 2.167 255 0 0 255 
-0.036003 0.315704 2.169 255 0 0 255 
-0.030107 0.316143 2.172 255 0 0 255 
-0.024184 0.316436 2.174 255 0 0 255 
-0.018267 0.317019 2.178 255 0 0 255 
-0.012333 0.317748 2.183 255 0 0 255 
-0.006392 0.319496 2.195 255 0 0 255 
-0.000387 0.321679 2.21 255 0 0 255 
0.005701 0.323862 2.225 255 0 0 255 
0.011866 0.325899 2.239 255 0 0 255 
0.018108 0.327936 2.253 255 0 0 255 
0.024458 0.330409 2.27 255 0 0 255 
0.030874 0.332591 2.285 255 0 0 255 
0.037437 0.335354 2.304 255 0 0 255 
0.044218 0.33899 2.329 255 0 0 255 
0.05081 0.340442 2.339 255 0 0 255 
0.057016 0.339274 2.331 255 0 0 255 
0.063151 0.33796 2.322 255 0 0 255 
0.069177 0.336355 2.311 255 0 0 255 
0.075077 0.334458 2.298 255 0 0 255 
0.081011 0.332997 2.288 255 0 0 255 
0.086852 0.331391 2.277 255 0 0 255 
0.092838 0.330512 2.271 255 0 0 255 
0.098877 0.329923 2.267 255 0 0 255 
0.105172 0.330207 2.269 255 0 0 255 
0.111576 0.330782 2.273 255 0 0 255 
0.118105 0.331648 2.279 255 0 0 255 
0.124666 0.332513 2.285 255 0 0 255 
-0.104118 0.292314 2.39089 255 255 0 255 
-0.090947 0.291934 2.387 255 255 0 255 
-0.082947 0.290755 2.37965 255 255 0 255 
-0.073241 0.289852 2.3735 255 255 0 255 
-0.07297 0.287463 2.36088 255 255 0 255 
-0.059858 0.287113 2.35716 255 255 0 255 
-0.054458 0.285544 2.34812 255 255 0 255 
-0.045647 0.284525 2.34148 255 255 0 255 
-0.027463 0.285026 2.3415 255 255 0 255 
0.007732 0.288302 2.35369 255 255 0 255 
0.049669 0.292719 2.37093 255 255 0 255 
0.062614 0.292455 2.36767 255 255 0 255 
0.067046 0.290808 2.35835 255 255 0 255 
0.068928 0.288743 2.34718 255 255 0 255 
-0.297363 0.195395 2.19384 0 255 0 255 
-0.300432 0.198906 2.20832 0 255 0 255 
-0.294948 0.200388 2.21634 0 255 0 255 
-0.285176 0.200865 2.22118 0 255 0 255 
-0.264237 0.198736 2.21778 0 255 0 255 
-0.238975 0.195627 2.2113 0 255 0 255 
-0.229181 0.215756 2.30172 0 255 0 255 
-0.239223 0.22081 2.32092 0 255 0 255 
-0.227632 0.220967 2.32481 0 255 0 255 
-0.222963 0.222693 2.33361 0 255 0 255 
-0.219159 0.224616 2.34301 0 255 0 255 
-0.21709 0.226928 2.35363 0 255 0 255 
-0.2072 0.227501 2.35884 0 255 0 255 
-0.201648 0.229047 2.36708 0 255 0 255 
-0.196963 0.230788 2.37593 0 255 0 255 
-0.186175 0.231191 2.38065 0 255 0 255 
-0.176246 0.231796 2.386 0 255 0 255 
-0.161067 0.231267 2.38787 0 255 0 255 
-0.152858 0.232273 2.39448 0 255 0 255 
-0.137644 0.231771 2.39648 0 255 0 255 
-0.123284 0.231474 2.39913 0 255 0 255 
-0.35225 0.31116 2.183 255 0 0 255 
-0.349005 0.313602 2.2 255 0 0 255 
-0.343951 0.314477 2.206 255 0 0 255 
-0.337638 0.314211 2.204 255 0 0 255 
-0.331334 0.313945 2.202 255 0 0 255 
-0.325041 0.313678 2.2 255 0 0 255 
-0.319628 0.314267 2.204 255 0 0 255 
-0.314192 0.314856 2.208 255 0 0 255 
-0.309152 0.315872 2.215 255 0 0 255 
-0.303662 0.316461 2.219 255 0 0 255 
-0.298284 0.317191 2.224 255 0 0 255 
-0.29314 0.318207 2.231 255 0 0 255 
-0.288729 0.320079 2.244 255 0 0 255 
-0.26868 0.318132 2.23 255 0 0 255 
-0.261654 0.317006 2.222 255 0 0 255 
-0.255936 0.31745 2.225 255 0 0 255 
-0.250313 0.318036 2.229 255 0 0 255 
-0.244119 0.317909 2.228 255 0 0 255 
-0.236862 0.316354 2.217 255 0 0 255 
-0.229247 0.314228 2.202 255 0 0 255 
-0.222018 0.312529 2.19 255 0 0 255 
-0.215445 0.311687 2.184 255 0 0 255 
-0.209192 0.311272 2.181 255 0 0 255 
-0.203048 0.310999 2.179 255 0 0 255 
-0.196824 0.310584 2.176 255 0 0 255 
-0.190616 0.310168 2.173 255 0 0 255 
-0.184253 0.309466 2.168 255 0 0 255 
-0.178164 0.309192 2.166 255 0 0 255 
-0.172085 0.308917 2.164 255 0 0 255 
-0.16617 0.308928 2.164 255 0 0 255 
-0.160106 0.308653 2.162 255 0 0 255 
-0.154124 0.308521 2.161 255 0 0 255 
-0.148215 0.30853 2.161 255 0 0 255 
-0.14224 0.308397 2.16 255 0 0 255 
-0.136207 0.30812 2.158 255 0 0 255 
-0.130184 0.307843 2.156 255 0 0 255 
-0.124287 0.307852 2.156 255 0 0 255 
-0.118335 0.307717 2.155 255 0 0 255 
-0.112388 0.307582 2.154 255 0 0 255 
-0.106495 0.307589 2.154 255 0 0 255 
-0.100695 0.307881 2.156 255 0 0 255 
-0.094752 0.307745 2.155 255 0 0 255 
-0.088938 0.308036 2.157 255 0 0 255 
-0.082958 0.307757 2.155 255 0 0 255 
-0.077132 0.308047 2.157 255 0 0 255 
-0.071295 0.308338 2.159 255 0 0 255 
-0.065417 0.308485 2.16 255 0 0 255 
-0.05956 0.308775 2.162 255 0 0 255 
-0.053667 0.308922 2.163 255 0 0 255 
-0.047791 0.309211 2.165 255 0 0 255 
-0.041923 0.309642 2.168 255 0 0 255 
-0.036055 0.310216 2.172 255 0 0 255 
-0.030151 0.310647 2.175 255 0 0 255 
-0.024208 0.310791 2.176 255 0 0 255 
-0.018285 0.311364 2.18 255 0 0 255 
-0.012345 0.312079 2.185 255 0 0 255 
-0.006399 0.313794 2.197 255 0 0 255 
-0.000387 0.315651 2.21 255 0 0 255 
0.005699 0.31765 2.224 255 0 0 255 
0.011878 0.320078 2.241 255 0 0 255 
0.018109 0.321791 2.253 255 0 0 255 
0.02446 0.324217 2.27 255 0 0 255 
0.03089 0.326501 2.286 255 0 0 255 
0.037505 0.329641 2.308 255 0 0 255 
0.044639 0.335779 2.351 255 0 0 255 
0.051161 0.336347 2.355 255 0 0 255 
0.057314 0.33463 2.343 255 0 0 255 
0.0634 0.332912 2.331 255 0 0 255 
0.069541 0.331765 2.323 255 0 0 255 
0.075572 0.330332 2.313 255 0 0 255 
0.081689 0.32947 2.307 255 0 0 255 
0.087697 0.328322 2.299 255 0 0 255 
0.093866 0.327888 2.296 255 0 0 255 
0.100148 0.327881 2.296 255 0 0 255 
0.10657 0.328303 2.299 255 0 0 255 
0.113007 0.328724 2.302 255 0 0 255 
0.119512 0.329288 2.306 255 0 0 255 
0.125875 0.329422 2.307 255 0 0 255 
-0.102276 0.281579 2.3934 255 255 0 255 
-0.085675 0.281776 2.39184 255 255 0 255 
-0.075964 0.280888 2.38567 255 255 0 255 
-0.067981 0.27973 2.37836 255 255 0 255 
-0.067713 0.277332 2.36575 255 255 0 255 
-0.060595 0.276042 2.35787 255 255 0 255 
-0.057757 0.274059 2.34703 255 255 0 255 
-0.044676 0.273753 2.34337 255 255 0 255 
-0.023942 0.274718 2.34518 255 255 0 255 
0.016344 0.278936 2.36098 255 255 0 255 
0.050598 0.282205 2.37275 255 255 0 255 
0.070517 0.280751 2.36199 255 255 0 255 
0.073247 0.278825 2.35145 255 255 0 255 
-0.292258 0.186424 2.2033 0 255 0 255 
-0.285056 0.187495 2.21007 0 255 0 255 
-0.278703 0.188776 2.2175 0 255 0 255 
-0.264628 0.188228 2.21923 0 255 0 255 
-0.231655 0.183225 2.20708 0 255 0 255 
-0.243392 0.208414 2.31303 0 255 0 255 
-0.235274 0.209334 2.31935 0 255 0 255 
-0.227147 0.21026 2.32571 0 255 0 255 
-0.223343 0.21218 2.33511 0 255 0 255 
-0.220405 0.214298 2.34513 0 255 0 255 
-0.216599 0.21622 2.35454 0 255 0 255 
-0.206712 0.216774 2.35977 0 255 0 255 
-0.202029 0.218508 2.36861 0 255 0 255 
-0.196473 0.220051 2.37687 0 255 0 255 
-0.183947 0.220044 2.38042 0 255 0 255 
-0.175761 0.221018 2.38697 0 255 0 255 
-0.160589 0.220454 2.38886 0 255 0 255 
-0.155872 0.222216 2.39781 0 255 0 255 
-0.142414 0.222061 2.40098 0 255 0 255 
-0.130688 0.222302 2.40535 0 255 0 255 
-0.352915 0.305772 2.187 255 0 0 255 
-0.348707 0.307329 2.198 255 0 0 255 
-0.343658 0.308187 2.204 255 0 0 255 
-0.337503 0.308066 2.203 255 0 0 255 
-0.331503 0.308085 2.203 255 0 0 255 
-0.325355 0.307963 2.202 255 0 0 255 
-0.319936 0.308541 2.206 255 0 0 255 
-0.314637 0.309259 2.211 255 0 0 255 
-0.309588 0.310256 2.218 255 0 0 255 
-0.304364 0.311112 2.224 255 0 0 255 
-0.298837 0.31169 2.228 255 0 0 255 
-0.293945 0.312966 2.237 255 0 0 255 
-0.289518 0.314802 2.25 255 0 0 255 
-0.268817 0.312193 2.231 255 0 0 255 
-0.26167 0.310949 2.222 255 0 0 255 
-0.255951 0.311384 2.225 255 0 0 255 
-0.250215 0.311819 2.228 255 0 0 255 
-0.243805 0.311414 2.225 255 0 0 255 
-0.236769 0.310169 2.216 255 0 0 255 
-0.229157 0.308084 2.201 255 0 0 255 
-0.222133 0.306698 2.191 255 0 0 255 
-0.215458 0.305732 2.184 255 0 0 255 
-0.209397 0.305605 2.183 255 0 0 255 
-0.203154 0.305197 2.18 255 0 0 255 
-0.197017 0.30493 2.178 255 0 0 255 
-0.190803 0.304522 2.175 255 0 0 255 
-0.18452 0.303974 2.171 255 0 0 255 
-0.178339 0.303565 2.168 255 0 0 255 
-0.172334 0.303436 2.167 255 0 0 255 
-0.166411 0.303447 2.167 255 0 0 255 
-0.160486 0.303457 2.167 255 0 0 255 
-0.154562 0.303467 2.167 255 0 0 255 
-0.148499 0.303196 2.165 255 0 0 255 
-0.142381 0.302786 2.162 255 0 0 255 
-0.136279 0.302374 2.159 255 0 0 255 
-0.130253 0.302103 2.157 255 0 0 255 
-0.124353 0.302111 2.157 255 0 0 255 
-0.118452 0.302119 2.157 255 0 0 255 
-0.112447 0.301846 2.155 255 0 0 255 
-0.106502 0.301713 2.154 255 0 0 255 
-0.100655 0.30186 2.155 255 0 0 255 
-0.094758 0.301866 2.155 255 0 0 255 
-0.088985 0.302292 2.158 255 0 0 255 
-0.083079 0.302298 2.158 255 0 0 255 
-0.077245 0.302583 2.16 255 0 0 255 
-0.071366 0.302728 2.161 255 0 0 255 
-0.065421 0.302593 2.16 255 0 0 255 
-0.059536 0.302737 2.161 255 0 0 255 
-0.053621 0.30274 2.161 255 0 0 255 
-0.047772 0.303164 2.164 255 0 0 255 
-0.041906 0.303587 2.167 255 0 0 255 
-0.036024 0.30401 2.17 255 0 0 255 
-0.030125 0.304433 2.173 255 0 0 255 
-0.024232 0.305135 2.178 255 0 0 255 
-0.018294 0.305557 2.181 255 0 0 255 
-0.012352 0.306258 2.186 255 0 0 255 
-0.006385 0.307099 2.192 255 0 0 255 
-0.000386 0.308921 2.205 255 0 0 255 
0.005692 0.311162 2.221 255 0 0 255 
0.011873 0.313823 2.24 255 0 0 255 
0.018094 0.315364 2.251 255 0 0 255 
0.02444 0.317744 2.268 255 0 0 255 
0.030905 0.320404 2.287 255 0 0 255 
0.037556 0.323764 2.311 255 0 0 255 
0.044376 0.327404 2.337 255 0 0 255 
0.05123 0.330343 2.358 255 0 0 255 
0.057464 0.329078 2.349 255 0 0 255 
0.063622 0.327674 2.339 255 0 0 255 
0.069875 0.326969 2.334 255 0 0 255 
0.076067 0.326123 2.328 255 0 0 255 
0.082332 0.325698 2.325 255 0 0 255 
0.088581 0.325272 2.322 255 0 0 255 
0.094853 0.324986 2.32 255 0 0 255 
0.101202 0.32498 2.32 255 0 0 255 
0.107411 0.324553 2.317 255 0 0 255 
0.113751 0.324546 2.317 255 0 0 255 
0.120038 0.324398 2.316 255 0 0 255 
0.12632 0.32425 2.315 255 0 0 255 
-0.108454 0.272007 2.40334 255 255 0 255 
-0.097856 0.271261 2.39765 255 255 0 255 
-0.083839 0.27108 2.39434 255 255 0 255 
-0.07499 0.27007 2.38758 255 255 0 255 
-0.065295 0.269207 2.38144 255 255 0 255 
-0.066737 0.266518 2.36765 255 255 0 255 
-0.060476 0.265096 2.35918 255 255 0 255 
-0.055928 0.263394 2.34953 255 255 0 255 
-0.041999 0.263259 2.34646 255 255 0 255 
-0.01531 0.265277 2.35247 255 255 0 255 
0.019842 0.268751 2.36464 255 255 0 255 
-0.291299 0.172821 2.19151 0 255 0 255 
-0.291789 0.175751 2.20409 0 255 0 255 
-0.284587 0.176811 2.21087 0 255 0 255 
-0.275666 0.177463 2.21639 0 255 0 255 
-0.247884 0.173584 2.20797 0 255 0 255 
-0.193473 0.163358 2.18008 0 255 0 255 
-0.231681 0.1951 2.30594 0 255 0 255 
-0.239976 0.19983 2.3239 0 255 0 255 
-0.230124 0.200339 2.32903 0 255 0 255 
-0.228054 0.202655 2.33965 0 255 0 255 
-0.225985 0.20497 2.35026 0 255 0 255 
-0.22305 0.207087 2.36026 0 255 0 255 
-0.215775 0.208212 2.36727 0 255 0 255 
-0.206756 0.208948 2.37312 0 255 0 255 
-0.201204 0.210481 2.38138 0 255 0 255 
-0.192167 0.211231 2.38728 0 255 0 255 
-0.182248 0.211793 2.39264 0 255 0 255 
-0.168831 0.211581 2.3957 0 255 0 255 
-0.158886 0.212164 2.40114 0 255 0 255 
-0.153295 0.213727 2.40952 0 255 0 255 
-0.143329 0.214325 2.41504 0 255 0 255 
-0.35358 0.300361 2.191 255 0 0 255 
-0.348726 0.30134 2.198 255 0 0 255 
-0.343365 0.301907 2.202 255 0 0 255 
-0.337369 0.301926 2.202 255 0 0 255 
-0.331371 0.301944 2.202 255 0 0 255 
-0.325521 0.3021 2.203 255 0 0 255 
-0.320244 0.302803 2.208 255 0 0 255 
-0.315224 0.303781 2.215 255 0 0 255 
-0.310024 0.304622 2.221 255 0 0 255 
-0.304518 0.305188 2.225 255 0 0 255 
-0.299123 0.305891 2.23 255 0 0 255 
-0.294225 0.307142 2.239 255 0 0 255 
-0.289792 0.308942 2.252 255 0 0 255 
-0.289066 0.314858 2.295 255 0 0 255 
-0.269194 0.306522 2.234 255 0 0 255 
-0.262392 0.305714 2.228 255 0 0 255 
-0.256311 0.305729 2.228 255 0 0 255 
-0.250343 0.305882 2.229 255 0 0 255 
-0.24371 0.30521 2.224 255 0 0 255 
-0.236677 0.303989 2.215 255 0 0 255 
-0.229275 0.302219 2.202 255 0 0 255 
-0.222146 0.300723 2.191 255 0 0 255 
-0.21557 0.299913 2.185 255 0 0 255 
-0.209314 0.299514 2.182 255 0 0 255 
-0.203167 0.299252 2.18 255 0 0 255 
-0.197211 0.299264 2.18 255 0 0 255 
-0.19099 0.298864 2.177 255 0 0 255 
-0.184871 0.298601 2.175 255 0 0 255 
-0.17868 0.298201 2.172 255 0 0 255 
-0.172663 0.298074 2.171 255 0 0 255 
-0.166651 0.297947 2.17 255 0 0 255 
-0.160571 0.297683 2.168 255 0 0 255 
-0.154571 0.297556 2.167 255 0 0 255 
-0.14844 0.297153 2.164 255 0 0 255 
-0.14239 0.296888 2.162 255 0 0 255 
-0.136287 0.296484 2.159 255 0 0 255 
-0.130261 0.296218 2.157 255 0 0 255 
-0.124303 0.296089 2.156 255 0 0 255 
-0.118405 0.296097 2.156 255 0 0 255 
-0.112559 0.296241 2.157 255 0 0 255 
-0.106657 0.296248 2.157 255 0 0 255 
-0.100755 0.296255 2.157 255 0 0 255 
-0.094852 0.296261 2.157 255 0 0 255 
-0.089032 0.296542 2.159 255 0 0 255 
-0.083084 0.29641 2.158 255 0 0 255 
-0.07725 0.29669 2.16 255 0 0 255 
-0.071338 0.296694 2.16 255 0 0 255 
-0.065486 0.296974 2.162 255 0 0 255 
-0.059568 0.296978 2.162 255 0 0 255 
-0.053649 0.296981 2.162 255 0 0 255 
-0.047775 0.297259 2.164 255 0 0 255 
-0.04189 0.297537 2.166 255 0 0 255 
-0.036043 0.298226 2.171 255 0 0 255 
-0.030141 0.29864 2.174 255 0 0 255 
-0.024256 0.299466 2.18 255 0 0 255 
-0.018304 0.299743 2.182 255 0 0 255 
-0.012364 0.300568 2.188 255 0 0 255 
-0.006388 0.301255 2.193 255 0 0 255 
-0.000386 0.303041 2.206 255 0 0 255 
0.005695 0.305239 2.222 255 0 0 255 
0.011874 0.307711 2.24 255 0 0 255 
0.018111 0.309496 2.253 255 0 0 255 
0.024452 0.311693 2.269 255 0 0 255 
0.030975 0.31485 2.292 255 0 0 255 
0.037607 0.31787 2.314 255 0 0 255 
0.044379 0.321027 2.337 255 0 0 255 
0.051255 0.324046 2.359 255 0 0 255 
0.057468 0.322669 2.349 255 0 0 255 
0.063735 0.321841 2.343 255 0 0 255 
0.070059 0.321424 2.34 255 0 0 255 
0.076333 0.32087 2.336 255 0 0 255 
0.082621 0.320453 2.333 255 0 0 255 
0.088892 0.320035 2.33 255 0 0 255 
0.095105 0.31948 2.326 255 0 0 255 
0.101339 0.319062 2.323 255 0 0 255 
0.107511 0.318506 2.319 255 0 0 255 
0.113856 0.318499 2.319 255 0 0 255 
0.120253 0.318629 2.32 255 0 0 255 
0.126655 0.318758 2.321 255 0 0 255 
-0.124966 0.260722 2.4064 255 255 0 255 
-0.110909 0.260551 2.40296 255 255 0 255 
-0.095157 0.260674 2.40074 255 255 0 255 
-0.081146 0.260525 2.39743 255 255 0 255 
-0.068872 0.260103 2.39301 255 255 0 255 
-0.063465 0.258545 2.38393 255 255 0 255 
-0.061484 0.256415 2.37251 255 255 0 255 
-0.0595 0.254283 2.36108 255 255 0 255 
-0.054952 0.252584 2.35143 255 255 0 255 
-0.043585 0.252046 2.34656 255 255 0 255 
-0.013498 0.254714 2.35494 255 255 0 255 
0.026742 0.25916 2.37071 255 255 0 255 
-0.280597 0.159589 2.18456 0 255 0 255 
-0.291322 0.165063 2.20487 0 255 0 255 
-0.283266 0.165902 2.21102 0 255 0 255 
-0.262368 0.163606 2.20764 0 255 0 255 
-0.244865 0.162169 2.20691 0 255 0 255 
-0.228617 0.183744 2.305 0 255 0 255 
-0.230855 0.187086 2.3187 0 255 0 255 
-0.227914 0.189205 2.32872 0 255 0 255 
-0.225839 0.191526 2.33935 0 255 0 255 
-0.227231 0.194654 2.35237 0 255 0 255 
-0.225162 0.196972 2.36298 0 255 0 255 
-0.217891 0.198085 2.36999 0 255 0 255 
-0.21148 0.199403 2.37763 0 255 0 255 
-0.205063 0.200726 2.38528 0 255 0 255 
-0.195162 0.201258 2.3906 0 255 0 255 
-0.186989 0.202196 2.39713 0 255 0 255 
-0.176194 0.202546 2.40194 0 255 0 255 
-0.16713 0.203302 2.40796 0 255 0 255 
-0.159801 0.204459 2.41516 0 255 0 255 
-0.153338 0.20582 2.42298 0 255 0 255 
-0.094615 0.206879 2.44541 0 255 0 255 
-0.35907 0.293969 2.188 255 0 0 255 
-0.354083 0.294794 2.194 255 0 0 255 
-0.348586 0.295216 2.197 255 0 0 255 
-0.342916 0.295503 2.199 255 0 0 255 
-0.337234 0.29579 2.201 255 0 0 255 
-0.33139 0.295943 2.202 255 0 0 255 
-0.325834 0.296364 2.205 255 0 0 255 
-0.320552 0.297053 2.21 255 0 0 255 
-0.315384 0.297878 2.216 255 0 0 255 
-0.310181 0.298701 2.222 255 0 0 255 
-0.304809 0.299391 2.227 255 0 0 255 
-0.299542 0.300214 2.233 255 0 0 255 
-0.294636 0.301441 2.242 255 0 0 255 
-0.290324 0.30334 2.256 255 0 0 255 
-0.270415 0.301775 2.244 255 0 0 255 
-0.263349 0.300714 2.236 255 0 0 255 
-0.256787 0.300192 2.232 255 0 0 255 
-0.25047 0.299937 2.23 255 0 0 255 
-0.243615 0.29901 2.223 255 0 0 255 
-0.236691 0.297948 2.215 255 0 0 255 
-0.229289 0.296213 2.202 255 0 0 255 
-0.222362 0.295016 2.193 255 0 0 255 
-0.215781 0.294222 2.187 255 0 0 255 
-0.209615 0.293966 2.185 255 0 0 255 
-0.203552 0.293844 2.184 255 0 0 255 
-0.197584 0.293856 2.184 255 0 0 255 
-0.191441 0.293598 2.182 255 0 0 255 
-0.185307 0.293341 2.18 255 0 0 255 
-0.179102 0.292948 2.177 255 0 0 255 
-0.172992 0.29269 2.175 255 0 0 255 
-0.166815 0.292296 2.172 255 0 0 255 
-0.160655 0.291903 2.169 255 0 0 255 
-0.154652 0.291778 2.168 255 0 0 255 
-0.148586 0.291518 2.166 255 0 0 255 
-0.142531 0.291258 2.164 255 0 0 255 
-0.136485 0.290997 2.162 255 0 0 255 
-0.13039 0.290602 2.159 255 0 0 255 
-0.124426 0.290475 2.158 255 0 0 255 
-0.118522 0.290483 2.158 255 0 0 255 
-0.11267 0.290624 2.159 255 0 0 255 
-0.106762 0.290631 2.159 255 0 0 255 
-0.100761 0.290369 2.157 255 0 0 255 
-0.094858 0.290375 2.157 255 0 0 255 
-0.088996 0.290515 2.158 255 0 0 255 
-0.08309 0.290521 2.158 255 0 0 255 
-0.077255 0.290795 2.16 255 0 0 255 
-0.071441 0.291203 2.163 255 0 0 255 
-0.065551 0.291342 2.164 255 0 0 255 
-0.059599 0.291212 2.163 255 0 0 255 
-0.053678 0.291215 2.163 255 0 0 255 
-0.0478 0.291488 2.165 255 0 0 255 
-0.041931 0.291895 2.168 255 0 0 255 
-0.036062 0.292436 2.172 255 0 0 255 
-0.030157 0.292842 2.175 255 0 0 255 
-0.024268 0.293651 2.181 255 0 0 255 
-0.018322 0.294057 2.184 255 0 0 255 
-0.012382 0.295 2.191 255 0 0 255 
-0.0064 0.295808 2.197 255 0 0 255 
-0.000387 0.297424 2.209 255 0 0 255 
0.005705 0.299713 2.226 255 0 0 255 
0.011885 0.301867 2.242 255 0 0 255 
0.018128 0.303616 2.255 255 0 0 255 
0.024475 0.305769 2.271 255 0 0 255 
0.031044 0.309268 2.297 255 0 0 255 
0.037642 0.311824 2.316 255 0 0 255 
0.044401 0.314783 2.338 255 0 0 255 
0.05128 0.317742 2.36 255 0 0 255 
0.057496 0.316393 2.35 255 0 0 255 
0.063793 0.315716 2.345 255 0 0 255 
0.070123 0.315307 2.342 255 0 0 255 
0.076436 0.314899 2.339 255 0 0 255 
0.082697 0.314355 2.335 255 0 0 255 
0.088935 0.313811 2.331 255 0 0 255 
0.09507 0.312998 2.325 255 0 0 255 
0.101302 0.312588 2.322 255 0 0 255 
0.107518 0.312177 2.319 255 0 0 255 
0.113913 0.312305 2.32 255 0 0 255 
0.120261 0.312298 2.32 255 0 0 255 
0.126608 0.31229 2.32 255 0 0 255 
-0.123114 0.249927 2.40893 255 255 0 255 
-0.11164 0.249355 2.40375 255 255 0 255 
-0.089024 0.250669 2.40615 255 255 0 255 
-0.074166 0.250699 2.40342 255 255 0 255 
-0.062758 0.250161 2.39843 255 255 0 255 
-0.060781 0.248028 2.38702 255 255 0 255 
-0.056235 0.246332 2.37737 255 255 0 255 
-0.0534 0.244344 2.36654 255 255 0 255 
-0.048004 0.242797 2.35749 255 255 0 255 
-0.042612 0.241253 2.34846 255 255 0 255 
-0.018497 0.242966 2.35262 255 255 0 255 
0.025133 0.248115 2.37075 255 255 0 255 
-0.286114 0.150338 2.18987 0 255 0 255 
-0.298541 0.156277 2.21144 0 255 0 255 
-0.291348 0.15731 2.21822 0 255 0 255 
-0.260206 0.152413 2.2072 0 255 0 255 
-0.220384 0.171117 2.3004 0 255 0 255 
-0.233833 0.17716 2.32203 0 255 0 255 
-0.231757 0.179483 2.33265 0 255 0 255 
-0.234872 0.183036 2.3469 0 255 0 255 
-0.233671 0.185559 2.35809 0 255 0 255 
-0.231606 0.187877 2.36869 0 255 0 255 
-0.222607 0.188567 2.3745 0 255 0 255 
-0.215333 0.18967 2.38154 0 255 0 255 
-0.20892 0.190982 2.38919 0 255 0 255 
-0.200763 0.191895 2.39568 0 255 0 255 
-0.189117 0.19201 2.39986 0 255 0 255 
-0.182681 0.19334 2.40759 0 255 0 255 
-0.171881 0.193675 2.41244 0 255 0 255 
-0.164557 0.194818 2.41964 0 255 0 255 
-0.156352 0.195767 2.4263 0 255 0 255 
-0.099416 0.197086 2.44988 0 255 0 255 
-0.354424 0.289077 2.196 255 0 0 255 
-0.348922 0.289491 2.199 255 0 0 255 
-0.342778 0.289377 2.198 255 0 0 255 
-0.337099 0.289659 2.2 255 0 0 255 
-0.331106 0.289677 2.2 255 0 0 255 
-0.326 0.290484 2.206 255 0 0 255 
-0.32086 0.291292 2.212 255 0 0 255 
-0.315828 0.292231 2.219 255 0 0 255 
-0.310478 0.292907 2.224 255 0 0 255 
-0.304689 0.293187 2.226 255 0 0 255 
-0.299693 0.294257 2.234 255 0 0 255 
-0.294916 0.295591 2.244 255 0 0 255 
-0.291884 0.298769 2.268 255 0 0 255 
-0.271153 0.296445 2.25 255 0 0 255 
-0.264307 0.29567 2.244 255 0 0 255 
-0.257377 0.294763 2.237 255 0 0 255 
-0.250821 0.29425 2.233 255 0 0 255 
-0.243958 0.293342 2.226 255 0 0 255 
-0.237025 0.292302 2.218 255 0 0 255 
-0.229719 0.290734 2.206 255 0 0 255 
-0.22268 0.289429 2.196 255 0 0 255 
-0.216188 0.288783 2.191 255 0 0 255 
-0.210011 0.288532 2.189 255 0 0 255 
-0.20403 0.288544 2.189 255 0 0 255 
-0.197958 0.288424 2.188 255 0 0 255 
-0.191715 0.28804 2.185 255 0 0 255 
-0.185574 0.287788 2.183 255 0 0 255 
-0.17936 0.287403 2.18 255 0 0 255 
-0.173241 0.28715 2.178 255 0 0 255 
-0.166825 0.28637 2.172 255 0 0 255 
-0.16059 0.285852 2.168 255 0 0 255 
-0.154448 0.285466 2.165 255 0 0 255 
-0.148595 0.285607 2.166 255 0 0 255 
-0.142671 0.285616 2.166 255 0 0 255 
-0.136683 0.285493 2.165 255 0 0 255 
-0.130579 0.285105 2.162 255 0 0 255 
-0.124549 0.284849 2.16 255 0 0 255 
-0.118639 0.284857 2.16 255 0 0 255 
-0.112781 0.284996 2.161 255 0 0 255 
-0.106917 0.285134 2.162 255 0 0 255 
-0.101001 0.285141 2.162 255 0 0 255 
-0.095084 0.285147 2.162 255 0 0 255 
-0.089084 0.284889 2.16 255 0 0 255 
-0.083133 0.284762 2.159 255 0 0 255 
-0.077259 0.284899 2.16 255 0 0 255 
-0.071413 0.285168 2.162 255 0 0 255 
-0.065585 0.285568 2.165 255 0 0 255 
-0.059658 0.285572 2.165 255 0 0 255 
-0.053731 0.285575 2.165 255 0 0 255 
-0.04787 0.285974 2.168 255 0 0 255 
-0.041992 0.286372 2.171 255 0 0 255 
-0.036147 0.287166 2.177 255 0 0 255 
-0.0302 0.2873 2.178 255 0 0 255 
-0.024281 0.28783 2.182 255 0 0 255 
-0.018331 0.288227 2.185 255 0 0 255 
-0.012405 0.289547 2.195 255 0 0 255 
-0.006415 0.290471 2.202 255 0 0 255 
-0.000387 0.292054 2.214 255 0 0 255 
0.005716 0.294164 2.23 255 0 0 255 
0.011902 0.296143 2.245 255 0 0 255 
0.01817 0.29812 2.26 255 0 0 255 
0.024541 0.300361 2.277 255 0 0 255 
0.031114 0.303658 2.302 255 0 0 255 
0.037693 0.305898 2.319 255 0 0 255 
0.04448 0.308929 2.342 255 0 0 255 
0.051479 0.312488 2.369 255 0 0 255 
0.057573 0.310374 2.353 255 0 0 255 
0.063961 0.310106 2.351 255 0 0 255 
0.070247 0.309442 2.346 255 0 0 255 
0.076572 0.309042 2.343 255 0 0 255 
0.082773 0.308246 2.337 255 0 0 255 
0.089055 0.307845 2.334 255 0 0 255 
0.095158 0.306916 2.327 255 0 0 255 
0.101396 0.306514 2.324 255 0 0 255 
0.107617 0.306112 2.321 255 0 0 255 
0.113969 0.306105 2.321 255 0 0 255 
0.12032 0.306098 2.321 255 0 0 255 
0.126616 0.305958 2.32 255 0 0 255 
-0.118682 0.239568 2.41318 255 255 0 255 
-0.107216 0.239022 2.408 255 255 0 255 
-0.090618 0.239366 2.40634 255 255 0 255 
-0.072334 0.240019 2.40592 255 255 0 255 
-0.057505 0.240096 2.40326 255 255 0 255 
-0.051254 0.238702 2.39479 255 255 0 255 
-0.045863 0.237162 2.38575 255 255 0 255 
-0.044743 0.234878 2.37377 255 255 0 255 
-0.041061 0.233041 2.36355 255 255 0 255 
-0.039934 0.230754 2.35155 255 255 0 255 
-0.018383 0.232079 2.3539 255 255 0 255 
0.026927 0.237653 2.3732 255 255 0 255 
0.060262 0.24115 2.38429 255 255 0 255 
0.080995 0.240012 2.37411 255 255 0 255 
-0.288218 0.140243 2.1926 0 255 0 255 
-0.295518 0.144935 2.21031 0 255 0 255 
-0.288322 0.145958 2.21711 0 255 0 255 
-0.222509 0.160939 2.30313 0 255 0 255 
-0.241643 0.171229 2.34083 0 255 0 255 
-0.244761 0.174795 2.35504 0 255 0 255 
-0.24097 0.176697 2.36441 0 255 0 255 
-0.231118 0.177155 2.3696 0 255 0 255 
-0.220387 0.177416 2.37424 0 255 0 255 
-0.212246 0.178304 2.3807 0 255 0 255 
-0.210171 0.180633 2.39132 0 255 0 255 
-0.19941 0.180917 2.39606 0 255 0 255 
-0.192114 0.182027 2.40318 0 255 0 255 
-0.183941 0.18294 2.40974 0 255 0 255 
-0.176629 0.184063 2.41692 0 255 0 255 
-0.170182 0.185393 2.4247 0 255 0 255 
-0.162856 0.186527 2.43192 0 255 0 255 
-0.103337 0.18711 2.45378 0 255 0 255 
-0.091562 0.187301 2.45842 0 255 0 255 
-0.35412 0.282833 2.194 255 0 0 255 
-0.34894 0.283496 2.199 255 0 0 255 
-0.342952 0.283514 2.199 255 0 0 255 
-0.336963 0.283532 2.199 255 0 0 255 
-0.330974 0.28355 2.199 255 0 0 255 
-0.325722 0.284212 2.204 255 0 0 255 
-0.320587 0.285003 2.21 255 0 0 255 
-0.315845 0.28618 2.219 255 0 0 255 
-0.310634 0.286971 2.225 255 0 0 255 
-0.304979 0.287375 2.228 255 0 0 255 
-0.299844 0.288294 2.235 255 0 0 255 
-0.295589 0.290116 2.249 255 0 0 255 
-0.293188 0.293874 2.278 255 0 0 255 
-0.271892 0.291082 2.256 255 0 0 255 
-0.264793 0.290065 2.248 255 0 0 255 
-0.257737 0.289048 2.24 255 0 0 255 
-0.250836 0.288159 2.233 255 0 0 255 
-0.243862 0.28714 2.225 255 0 0 255 
-0.237253 0.286509 2.22 255 0 0 255 
-0.230253 0.285361 2.211 255 0 0 255 
-0.223301 0.284212 2.202 255 0 0 255 
-0.216497 0.283192 2.194 255 0 0 255 
-0.210215 0.282817 2.191 255 0 0 255 
-0.204135 0.2827 2.19 255 0 0 255 
-0.19806 0.282583 2.189 255 0 0 255 
-0.191815 0.282207 2.186 255 0 0 255 
-0.18567 0.28196 2.184 255 0 0 255 
-0.179535 0.281713 2.182 255 0 0 255 
-0.173331 0.281336 2.179 255 0 0 255 
-0.166835 0.280442 2.172 255 0 0 255 
-0.160674 0.280064 2.169 255 0 0 255 
-0.1546 0.279815 2.167 255 0 0 255 
-0.148604 0.279695 2.166 255 0 0 255 
-0.14268 0.279704 2.166 255 0 0 255 
-0.136818 0.279842 2.167 255 0 0 255 
-0.130829 0.279721 2.166 255 0 0 255 
-0.12473 0.279341 2.163 255 0 0 255 
-0.118757 0.279219 2.162 255 0 0 255 
-0.112788 0.279097 2.161 255 0 0 255 
-0.106924 0.279233 2.162 255 0 0 255 
-0.101054 0.279368 2.163 255 0 0 255 
-0.095134 0.279374 2.163 255 0 0 255 
-0.089172 0.279251 2.162 255 0 0 255 
-0.083254 0.279256 2.162 255 0 0 255 
-0.077336 0.279261 2.162 255 0 0 255 
-0.071483 0.279524 2.164 255 0 0 255 
-0.065589 0.279657 2.165 255 0 0 255 
-0.059717 0.279919 2.167 255 0 0 255 
-0.053784 0.279923 2.167 255 0 0 255 
-0.047917 0.280313 2.17 255 0 0 255 
-0.042033 0.280704 2.173 255 0 0 255 
-0.036149 0.281223 2.177 255 0 0 255 
-0.030216 0.281483 2.179 255 0 0 255 
-0.024305 0.282131 2.184 255 0 0 255 
-0.018358 0.282649 2.188 255 0 0 255 
-0.012417 0.283812 2.197 255 0 0 255 
-0.006424 0.284847 2.205 255 0 0 255 
-0.000388 0.286655 2.219 255 0 0 255 
0.005719 0.288205 2.231 255 0 0 255 
0.011908 0.290142 2.246 255 0 0 255 
0.018187 0.292208 2.262 255 0 0 255 
0.024618 0.295049 2.284 255 0 0 255 
0.031183 0.298019 2.307 255 0 0 255 
0.037744 0.299954 2.322 255 0 0 255 
0.044577 0.303181 2.347 255 0 0 255 
0.051634 0.306924 2.376 255 0 0 255 
0.057626 0.304208 2.355 255 0 0 255 
0.063965 0.303688 2.351 255 0 0 255 
0.070341 0.303425 2.349 255 0 0 255 
0.076642 0.302904 2.345 255 0 0 255 
0.082849 0.302124 2.339 255 0 0 255 
0.089061 0.301473 2.334 255 0 0 255 
0.095204 0.300692 2.328 255 0 0 255 
0.101446 0.300299 2.325 255 0 0 255 
0.10767 0.299905 2.322 255 0 0 255 
0.114074 0.300028 2.323 255 0 0 255 
0.120483 0.30015 2.324 255 0 0 255 
0.126842 0.300142 2.324 255 0 0 255 
-0.111674 0.22967 2.41914 255 255 0 255 
-0.102793 0.228703 2.41225 255 255 0 255 
-0.090493 0.22834 2.4077 255 255 0 255 
-0.070502 0.229337 2.40842 255 255 0 255 
-0.047978 0.230804 2.411 255 255 0 255 
-0.039171 0.229875 2.40431 255 255 0 255 
-0.036354 0.227892 2.39354 255 255 0 255 
-0.0378 0.225149 2.37981 255 255 0 255 
-0.035828 0.223011 2.36842 255 255 0 255 
-0.033 0.221024 2.35762 255 255 0 255 
-0.018267 0.221181 2.35519 255 255 0 255 
0.020226 0.225653 2.36964 255 255 0 255 
0.056949 0.229854 2.3831 255 255 0 255 
-0.291648 0.133343 2.20855 0 255 0 255 
-0.275918 0.13218 2.20899 0 255 0 255 
-0.220326 0.149701 2.30282 0 255 0 255 
-0.237199 0.156689 2.32687 0 255 0 255 
-0.247204 0.161967 2.34596 0 255 0 255 
-0.248594 0.165128 2.35895 0 255 0 255 
-0.241348 0.166188 2.36592 0 255 0 255 
-0.229768 0.166208 2.36993 0 255 0 255 
-0.21904 0.166448 2.37458 0 255 0 255 
-0.215232 0.168362 2.38402 0 255 0 255 
-0.213157 0.170693 2.39463 0 255 0 255 
-0.209348 0.172609 2.40407 0 255 0 255 
