ply
format ascii 1.0
comment VCGLIB generated
element vertex 1247
property float x
property float y
property float z
property uchar red
property uchar green
property uchar blue
property uchar alpha
element face 0
property list uchar int vertex_indices
end_header
-0.104523 0.663692 2.16512 255 255 0 255 
-0.103406 0.661718 2.1529 255 255 0 255 
-0.108319 0.659429 2.13616 255 255 0 255 
-0.111492 0.657223 2.12066 255 255 0 255 
-0.242319 0.58169 2.17079 0 255 0 255 
-0.235026 0.583221 2.17741 0 255 0 255 
-0.232128 0.585281 2.18732 0 255 0 255 
-0.225707 0.586927 2.19463 0 255 0 255 
-0.209318 0.589824 2.20669 0 255 0 255 
-0.207037 0.594379 2.22914 0 255 0 255 
-0.203247 0.596351 2.23843 0 255 0 255 
-0.190605 0.597319 2.24135 0 255 0 255 
-0.181489 0.5987 2.24686 0 255 0 255 
-0.158177 0.598497 2.24229 0 255 0 255 
-0.133942 0.59822 2.23721 0 255 0 255 
-0.122995 0.599448 2.24164 0 255 0 255 
-0.114703 0.60098 2.248 0 255 0 255 
-0.106401 0.60252 2.25438 0 255 0 255 
-0.089186 0.603099 2.2546 0 255 0 255 
-0.337833 0.527933 2.172 255 0 0 255 
-0.329788 0.524553 2.158 255 0 0 255 
-0.322869 0.522875 2.151 255 0 0 255 
-0.31584 0.520953 2.143 255 0 0 255 
-0.309577 0.520245 2.14 255 0 0 255 
-0.303472 0.519781 2.138 255 0 0 255 
-0.297099 0.51883 2.134 255 0 0 255 
-0.29102 0.518365 2.132 255 0 0 255 
-0.285085 0.518143 2.131 255 0 0 255 
-0.279285 0.518164 2.131 255 0 0 255 
-0.273229 0.517698 2.129 255 0 0 255 
-0.267559 0.517961 2.13 255 0 0 255 
-0.261761 0.517981 2.13 255 0 0 255 
-0.256082 0.518244 2.131 255 0 0 255 
-0.249927 0.517534 2.128 255 0 0 255 
-0.244133 0.517552 2.128 255 0 0 255 
-0.238337 0.517571 2.128 255 0 0 255 
-0.232978 0.518562 2.132 255 0 0 255 
-0.227171 0.51858 2.132 255 0 0 255 
-0.221156 0.518111 2.13 255 0 0 255 
-0.215049 0.517398 2.127 255 0 0 255 
-0.209155 0.517172 2.126 255 0 0 255 
-0.203267 0.516945 2.125 255 0 0 255 
-0.197197 0.516231 2.122 255 0 0 255 
-0.191233 0.51576 2.12 255 0 0 255 
-0.18528 0.515288 2.118 255 0 0 255 
-0.179676 0.515789 2.12 255 0 0 255 
-0.173897 0.515804 2.12 255 0 0 255 
-0.168117 0.515817 2.12 255 0 0 255 
-0.162184 0.515344 2.118 255 0 0 255 
-0.156482 0.515601 2.119 255 0 0 255 
-0.150846 0.5161 2.121 255 0 0 255 
-0.144857 0.515382 2.118 255 0 0 255 
-0.138687 0.513934 2.112 255 0 0 255 
-0.132486 0.512241 2.105 255 0 0 255 
-0.126985 0.513226 2.109 255 0 0 255 
-0.121692 0.515183 2.117 255 0 0 255 
-0.116464 0.517626 2.127 255 0 0 255 
-0.110974 0.519096 2.133 255 0 0 255 
-0.105204 0.519348 2.134 255 0 0 255 
-0.099428 0.5196 2.135 255 0 0 255 
-0.093515 0.519122 2.133 255 0 0 255 
-0.087531 0.518156 2.129 255 0 0 255 
-0.081414 0.516216 2.121 255 0 0 255 
-0.075305 0.514032 2.112 255 0 0 255 
-0.069443 0.513308 2.109 255 0 0 255 
-0.063748 0.5138 2.111 255 0 0 255 
-0.058069 0.514536 2.114 255 0 0 255 
-0.052324 0.514784 2.115 255 0 0 255 
-0.046574 0.515032 2.116 255 0 0 255 
-0.040779 0.514792 2.115 255 0 0 255 
-0.035023 0.515038 2.116 255 0 0 255 
-0.029248 0.515041 2.116 255 0 0 255 
-0.023494 0.51553 2.118 255 0 0 255 
-0.017713 0.515532 2.118 255 0 0 255 
-0.011943 0.51602 2.12 255 0 0 255 
-0.006159 0.516264 2.121 255 0 0 255 
-0.00037 0.516995 2.124 255 0 0 255 
0.00544 0.518212 2.129 255 0 0 255 
0.011272 0.519185 2.133 255 0 0 255 
0.017094 0.519183 2.133 255 0 0 255 
0.022895 0.518695 2.131 255 0 0 255 
0.028711 0.518693 2.131 255 0 0 255 
0.034544 0.518933 2.132 255 0 0 255 
0.040382 0.519174 2.133 255 0 0 255 
0.046226 0.519413 2.134 255 0 0 255 
0.052123 0.520139 2.137 255 0 0 255 
0.057982 0.520378 2.138 255 0 0 255 
0.063877 0.52086 2.14 255 0 0 255 
0.069717 0.520854 2.14 255 0 0 255 
0.075557 0.520848 2.14 255 0 0 255 
0.081511 0.521571 2.143 255 0 0 255 
0.087522 0.522538 2.147 255 0 0 255 
0.093554 0.523503 2.151 255 0 0 255 
0.099469 0.523739 2.152 255 0 0 255 
0.105586 0.524947 2.157 255 0 0 255 
-0.123594 0.660092 2.20437 255 255 0 255 
-0.105152 0.659009 2.2048 255 255 0 255 
-0.097127 0.657397 2.19771 255 255 0 255 
-0.092569 0.655606 2.1881 255 255 0 255 
-0.109935 0.648541 2.1361 255 255 0 255 
-0.254298 0.570565 2.16888 0 255 0 255 
-0.25492 0.573049 2.18141 0 255 0 255 
-0.25467 0.575422 2.19325 0 255 0 255 
-0.242112 0.576296 2.19592 0 255 0 255 
-0.238341 0.578247 2.20515 0 255 0 255 
-0.234568 0.5802 2.21439 0 255 0 255 
-0.222607 0.583589 2.22965 0 255 0 255 
-0.216179 0.585238 2.23698 0 255 0 255 
-0.194717 0.585129 2.23347 0 255 0 255 
-0.190918 0.587108 2.24278 0 255 0 255 
-0.183577 0.588679 2.24957 0 255 0 255 
-0.167366 0.589234 2.25006 0 255 0 255 
-0.142263 0.588791 2.24435 0 255 0 255 
-0.132215 0.590093 2.2494 0 255 0 255 
-0.122155 0.591405 2.25449 0 255 0 255 
-0.106748 0.592127 2.25589 0 255 0 255 
-0.089541 0.592666 2.25612 0 255 0 255 
-0.071418 0.593124 2.25582 0 255 0 255 
-0.062186 0.594586 2.26174 0 255 0 255 
-0.337234 0.521088 2.168 255 0 0 255 
-0.329658 0.518467 2.157 255 0 0 255 
-0.323042 0.517288 2.152 255 0 0 255 
-0.316305 0.515868 2.146 255 0 0 255 
-0.310178 0.51541 2.144 255 0 0 255 
-0.30392 0.51471 2.141 255 0 0 255 
-0.297538 0.51377 2.137 255 0 0 255 
-0.291314 0.513071 2.134 255 0 0 255 
-0.285373 0.512851 2.133 255 0 0 255 
-0.279306 0.512391 2.131 255 0 0 255 
-0.273121 0.51169 2.128 255 0 0 255 
-0.267454 0.511951 2.129 255 0 0 255 
-0.261903 0.512452 2.131 255 0 0 255 
-0.256222 0.512712 2.132 255 0 0 255 
-0.249946 0.511769 2.128 255 0 0 255 
-0.244151 0.511788 2.128 255 0 0 255 
-0.238356 0.511806 2.128 255 0 0 255 
-0.232887 0.512546 2.131 255 0 0 255 
-0.226976 0.512323 2.13 255 0 0 255 
-0.220965 0.51186 2.128 255 0 0 255 
-0.215066 0.511636 2.127 255 0 0 255 
-0.209172 0.511412 2.126 255 0 0 255 
-0.203474 0.511669 2.127 255 0 0 255 
-0.197491 0.511204 2.125 255 0 0 255 
-0.191519 0.510738 2.123 255 0 0 255 
-0.18547 0.510032 2.12 255 0 0 255 
-0.179775 0.510287 2.121 255 0 0 255 
-0.174075 0.510542 2.122 255 0 0 255 
-0.168448 0.511037 2.124 255 0 0 255 
-0.16258 0.51081 2.123 255 0 0 255 
-0.156865 0.511063 2.124 255 0 0 255 
-0.151143 0.511317 2.125 255 0 0 255 
-0.145006 0.510126 2.12 255 0 0 255 
-0.13883 0.508694 2.114 255 0 0 255 
-0.132623 0.50702 2.107 255 0 0 255 
-0.126815 0.506791 2.106 255 0 0 255 
-0.121242 0.507523 2.109 255 0 0 255 
-0.115927 0.509458 2.117 255 0 0 255 
-0.110723 0.512114 2.128 255 0 0 255 
-0.105114 0.513086 2.132 255 0 0 255 
-0.09939 0.513576 2.134 255 0 0 255 
-0.093348 0.512381 2.129 255 0 0 255 
-0.087209 0.510463 2.121 255 0 0 255 
-0.081114 0.508545 2.113 255 0 0 255 
-0.075169 0.507348 2.108 255 0 0 255 
-0.069449 0.507595 2.109 255 0 0 255 
-0.063783 0.508322 2.112 255 0 0 255 
-0.058101 0.50905 2.115 255 0 0 255 
-0.052403 0.509776 2.118 255 0 0 255 
-0.046666 0.510262 2.12 255 0 0 255 
-0.040879 0.510266 2.12 255 0 0 255 
-0.035092 0.510269 2.12 255 0 0 255 
-0.029278 0.50979 2.118 255 0 0 255 
-0.023507 0.510033 2.119 255 0 0 255 
-0.017723 0.510035 2.119 255 0 0 255 
-0.01195 0.510518 2.121 255 0 0 255 
-0.006169 0.511241 2.124 255 0 0 255 
-0.000371 0.511963 2.127 255 0 0 255 
0.005438 0.512203 2.128 255 0 0 255 
0.011252 0.512443 2.129 255 0 0 255 
0.017056 0.512202 2.128 255 0 0 255 
0.022875 0.512441 2.129 255 0 0 255 
0.028714 0.51292 2.131 255 0 0 255 
0.034563 0.513398 2.133 255 0 0 255 
0.040386 0.513395 2.133 255 0 0 255 
0.046229 0.513632 2.134 255 0 0 255 
0.052127 0.51435 2.137 255 0 0 255 
0.058042 0.515068 2.14 255 0 0 255 
0.063942 0.515544 2.142 255 0 0 255 
0.069821 0.515779 2.143 255 0 0 255 
0.07567 0.515773 2.143 255 0 0 255 
0.081594 0.516247 2.145 255 0 0 255 
0.08757 0.516962 2.148 255 0 0 255 
0.093649 0.518158 2.153 255 0 0 255 
0.09957 0.51839 2.154 255 0 0 255 
0.105692 0.519585 2.159 255 0 0 255 
0.111945 0.521261 2.166 255 0 0 255 
-0.122005 0.651448 2.21968 255 255 0 255 
-0.10876 0.65012 2.2163 255 255 0 255 
-0.097267 0.648706 2.21171 255 255 0 255 
-0.084925 0.64735 2.2078 255 255 0 255 
-0.079516 0.645615 2.19886 255 255 0 255 
-0.196827 0.545705 2.08973 0 255 0 255 
-0.275017 0.560607 2.17364 0 255 0 255 
-0.27214 0.562649 2.18349 0 255 0 255 
-0.270141 0.564803 2.19399 0 255 0 255 
-0.259362 0.565856 2.19792 0 255 0 255 
-0.251207 0.567248 2.20385 0 255 0 255 
-0.242164 0.568539 2.20915 0 255 0 255 
-0.241916 0.570923 2.22098 0 255 0 255 
-0.239029 0.572981 2.23084 0 255 0 255 
-0.230851 0.574396 2.23685 0 255 0 255 
-0.212072 0.574537 2.23519 0 255 0 255 
-0.196801 0.575122 2.23618 0 255 0 255 
-0.186813 0.576359 2.24104 0 255 0 255 
-0.178585 0.577816 2.24722 0 255 0 255 
-0.165034 0.578652 2.24963 0 255 0 255 
-0.152351 0.579606 2.25273 0 255 0 255 
-0.137878 0.580365 2.25464 0 255 0 255 
-0.125161 0.581346 2.25785 0 255 0 255 
-0.107985 0.581827 2.25802 0 255 0 255 
-0.089897 0.582224 2.25765 0 255 0 255 
-0.071782 0.58264 2.25736 0 255 0 255 
-0.065225 0.584388 2.26512 0 255 0 255 
-0.336947 0.514738 2.166 255 0 0 255 
-0.329987 0.513098 2.159 255 0 0 255 
-0.323065 0.511457 2.152 255 0 0 255 
-0.316327 0.510054 2.146 255 0 0 255 
-0.310345 0.509838 2.145 255 0 0 255 
-0.304226 0.509385 2.143 255 0 0 255 
-0.297838 0.508456 2.139 255 0 0 255 
-0.291472 0.507526 2.135 255 0 0 255 
-0.285528 0.50731 2.134 255 0 0 255 
-0.279589 0.507093 2.133 255 0 0 255 
-0.273398 0.5064 2.13 255 0 0 255 
-0.267725 0.506658 2.131 255 0 0 255 
-0.262046 0.506916 2.132 255 0 0 255 
-0.256361 0.507173 2.133 255 0 0 255 
-0.2502 0.506479 2.13 255 0 0 255 
-0.244285 0.50626 2.129 255 0 0 255 
-0.238374 0.506041 2.128 255 0 0 255 
-0.232687 0.506297 2.129 255 0 0 255 
-0.226993 0.506552 2.13 255 0 0 255 
-0.221086 0.506332 2.129 255 0 0 255 
-0.215083 0.505873 2.127 255 0 0 255 
-0.20909 0.505414 2.125 255 0 0 255 
-0.203299 0.505431 2.125 255 0 0 255 
-0.1976 0.505684 2.126 255 0 0 255 
-0.191715 0.505462 2.125 255 0 0 255 
-0.18566 0.504764 2.122 255 0 0 255 
-0.179959 0.505016 2.123 255 0 0 255 
-0.174253 0.505268 2.124 255 0 0 255 
-0.16862 0.505758 2.126 255 0 0 255 
-0.162823 0.505771 2.126 255 0 0 255 
-0.157025 0.505784 2.126 255 0 0 255 
-0.151298 0.506035 2.127 255 0 0 255 
-0.145291 0.505333 2.124 255 0 0 255 
-0.139104 0.503918 2.118 255 0 0 255 
-0.132948 0.502501 2.112 255 0 0 255 
-0.127006 0.501798 2.109 255 0 0 255 
-0.121195 0.501571 2.108 255 0 0 255 
-0.115608 0.502294 2.111 255 0 0 255 
-0.110264 0.504207 2.119 255 0 0 255 
-0.104827 0.505882 2.126 255 0 0 255 
-0.099165 0.506604 2.129 255 0 0 255 
-0.093049 0.504947 2.122 255 0 0 255 
-0.087011 0.503527 2.116 255 0 0 255 
-0.081044 0.502344 2.111 255 0 0 255 
-0.075175 0.501636 2.108 255 0 0 255 
-0.069455 0.501881 2.109 255 0 0 255 
-0.063789 0.5026 2.112 255 0 0 255 
-0.058106 0.503319 2.115 255 0 0 255 
-0.052407 0.504038 2.118 255 0 0 255 
-0.04667 0.504518 2.12 255 0 0 255 
-0.040902 0.50476 2.121 255 0 0 255 
-0.035112 0.504763 2.121 255 0 0 255 
-0.029308 0.504528 2.12 255 0 0 255 
-0.023531 0.504768 2.121 255 0 0 255 
-0.017741 0.50477 2.121 255 0 0 255 
-0.011962 0.505247 2.123 255 0 0 255 
-0.006169 0.505486 2.124 255 0 0 255 
-0.000371 0.505962 2.126 255 0 0 255 
0.005433 0.505962 2.126 255 0 0 255 
0.011237 0.505961 2.126 255 0 0 255 
0.017049 0.506198 2.127 255 0 0 255 
0.022877 0.506672 2.129 255 0 0 255 
0.028716 0.507146 2.131 255 0 0 255 
0.034566 0.507619 2.133 255 0 0 255 
0.040408 0.507854 2.134 255 0 0 255 
0.046277 0.508326 2.136 255 0 0 255 
0.052181 0.509036 2.139 255 0 0 255 
0.058047 0.509269 2.14 255 0 0 255 
0.063918 0.509502 2.141 255 0 0 255 
0.069827 0.509972 2.143 255 0 0 255 
0.075782 0.51068 2.146 255 0 0 255 
0.081753 0.511387 2.149 255 0 0 255 
0.087659 0.511618 2.15 255 0 0 255 
0.093657 0.512324 2.153 255 0 0 255 
0.099532 0.512316 2.153 255 0 0 255 
0.105701 0.513735 2.159 255 0 0 255 
0.111954 0.515392 2.166 255 0 0 255 
-0.104337 0.639627 2.22068 255 255 0 255 
-0.088523 0.63849 2.21925 255 255 0 255 
-0.071006 0.637467 2.21915 255 255 0 255 
-0.063882 0.635845 2.21151 255 255 0 255 
-0.077472 0.63299 2.18858 255 255 0 255 
-0.211163 0.5372 2.10185 0 255 0 255 
-0.277068 0.550737 2.17634 0 255 0 255 
-0.281201 0.553689 2.19146 0 255 0 255 
-0.273069 0.55505 2.19733 0 255 0 255 
-0.265807 0.556531 2.20388 0 255 0 255 
-0.256781 0.557794 2.20915 0 255 0 255 
-0.25302 0.559735 2.21835 0 255 0 255 
-0.249258 0.561678 2.22755 0 255 0 255 
-0.248137 0.563955 2.23869 0 255 0 255 
-0.237324 0.565021 2.24275 0 255 0 255 
-0.216795 0.564894 2.23981 0 255 0 255 
-0.199767 0.565225 2.23953 0 255 0 255 
-0.1836 0.565683 2.23995 0 255 0 255 
-0.171833 0.566696 2.24361 0 255 0 255 
-0.162706 0.568044 2.2492 0 255 0 255 
-0.157113 0.569827 2.25734 0 255 0 255 
-0.14265 0.570552 2.25925 0 255 0 255 
-0.125505 0.570975 2.25935 0 255 0 255 
-0.105672 0.571101 2.25767 0 255 0 255 
-0.092033 0.57198 2.26041 0 255 0 255 
-0.076597 0.572666 2.26198 0 255 0 255 
-0.073606 0.574816 2.27218 0 255 0 255 
-0.066159 0.576453 2.27933 0 255 0 255 
-0.346025 0.513544 2.186 255 0 0 255 
-0.336659 0.508399 2.164 255 0 0 255 
-0.329857 0.507012 2.158 255 0 0 255 
-0.323087 0.505626 2.152 255 0 0 255 
-0.31635 0.504238 2.146 255 0 0 255 
-0.310512 0.504261 2.146 255 0 0 255 
-0.304532 0.504048 2.145 255 0 0 255 
-0.298138 0.50313 2.141 255 0 0 255 
-0.291766 0.502211 2.137 255 0 0 255 
-0.285816 0.501997 2.136 255 0 0 255 
-0.279609 0.501313 2.133 255 0 0 255 
-0.273546 0.500863 2.131 255 0 0 255 
-0.267996 0.501354 2.133 255 0 0 255 
-0.262557 0.502079 2.136 255 0 0 255 
-0.256621 0.501863 2.135 255 0 0 255 
-0.250454 0.501177 2.132 255 0 0 255 
-0.244418 0.500726 2.13 255 0 0 255 
-0.238504 0.500509 2.129 255 0 0 255 
-0.232595 0.500292 2.128 255 0 0 255 
-0.226798 0.50031 2.128 255 0 0 255 
-0.220896 0.500092 2.127 255 0 0 255 
-0.214999 0.499874 2.126 255 0 0 255 
-0.209008 0.499421 2.124 255 0 0 255 
-0.202932 0.498732 2.121 255 0 0 255 
-0.197151 0.498747 2.121 255 0 0 255 
-0.191369 0.498763 2.121 255 0 0 255 
-0.185675 0.499013 2.122 255 0 0 255 
-0.179974 0.499263 2.123 255 0 0 255 
-0.174185 0.499277 2.123 255 0 0 255 
-0.168634 0.499997 2.126 255 0 0 255 
-0.162836 0.50001 2.126 255 0 0 255 
-0.157112 0.500258 2.127 255 0 0 255 
-0.151381 0.500506 2.128 255 0 0 255 
-0.145372 0.499813 2.125 255 0 0 255 
-0.139312 0.498884 2.121 255 0 0 255 
-0.133211 0.497719 2.116 255 0 0 255 
-0.127258 0.497024 2.113 255 0 0 255 
-0.121377 0.496564 2.111 255 0 0 255 
-0.115563 0.496338 2.11 255 0 0 255 
-0.110065 0.497524 2.115 255 0 0 255 
-0.104491 0.498474 2.119 255 0 0 255 
-0.098708 0.498482 2.119 255 0 0 255 
-0.092749 0.497549 2.115 255 0 0 255 
-0.086895 0.497087 2.113 255 0 0 255 
-0.081012 0.496388 2.11 255 0 0 255 
-0.075146 0.495689 2.107 255 0 0 255 
-0.069395 0.495695 2.107 255 0 0 255 
-0.063734 0.496406 2.11 255 0 0 255 
-0.058084 0.497352 2.114 255 0 0 255 
-0.052387 0.498063 2.117 255 0 0 255 
-0.04663 0.498302 2.118 255 0 0 255 
-0.040886 0.498777 2.12 255 0 0 255 
-0.035098 0.49878 2.12 255 0 0 255 
-0.029296 0.498547 2.119 255 0 0 255 
-0.023533 0.49902 2.121 255 0 0 255 
-0.017743 0.499022 2.121 255 0 0 255 
-0.011974 0.499964 2.125 255 0 0 255 
-0.006175 0.5002 2.126 255 0 0 255 
-0.000371 0.500671 2.128 255 0 0 255 
0.005434 0.5002 2.126 255 0 0 255 
0.011233 0.499964 2.125 255 0 0 255 
0.017043 0.500198 2.126 255 0 0 255 
0.022879 0.500903 2.129 255 0 0 255 
0.028719 0.501371 2.131 255 0 0 255 
0.034553 0.501604 2.132 255 0 0 255 
0.040411 0.502071 2.134 255 0 0 255 
0.046281 0.502538 2.136 255 0 0 255 
0.052209 0.503475 2.14 255 0 0 255 
0.058051 0.50347 2.14 255 0 0 255 
0.063923 0.5037 2.141 255 0 0 255 
0.0698 0.50393 2.142 255 0 0 255 
0.075824 0.5051 2.147 255 0 0 255 
0.081836 0.506034 2.151 255 0 0 255 
0.087748 0.506262 2.152 255 0 0 255 
0.093708 0.506725 2.154 255 0 0 255 
0.099679 0.507188 2.156 255 0 0 255 
0.105808 0.508355 2.161 255 0 0 255 
0.112067 0.509993 2.168 255 0 0 255 
-0.109677 0.630628 2.23093 255 255 0 255 
-0.097318 0.629308 2.22693 255 255 0 255 
-0.079786 0.628314 2.22677 255 255 0 255 
-0.056234 0.627709 2.23111 255 255 0 255 
-0.045673 0.62632 2.22604 255 255 0 255 
-0.050648 0.623962 2.20954 255 255 0 255 
-0.07025 0.620668 2.18212 255 255 0 255 
-0.283494 0.541452 2.18234 0 255 0 255 
-0.284999 0.544074 2.19546 0 255 0 255 
-0.277749 0.545535 2.20199 0 255 0 255 
-0.273123 0.547347 2.21049 0 255 0 255 
-0.265862 0.548819 2.21706 0 255 0 255 
-0.257715 0.550183 2.22299 0 255 0 255 
-0.250438 0.551669 2.22959 0 255 0 255 
-0.247555 0.553726 2.23944 0 255 0 255 
-0.24115 0.555334 2.24672 0 255 0 255 
-0.227686 0.556051 2.24891 0 255 0 255 
-0.21244 0.556559 2.24987 0 255 0 255 
-0.192757 0.556528 2.24774 0 255 0 255 
-0.175698 0.556851 2.24759 0 255 0 255 
-0.163923 0.55785 2.2513 0 255 0 255 
-0.158331 0.559627 2.25944 0 255 0 255 
-0.147419 0.560755 2.26385 0 255 0 255 
-0.128511 0.560919 2.26271 0 255 0 255 
-0.110464 0.561211 2.26228 0 255 0 255 
-0.0995 0.56238 2.26687 0 255 0 255 
-0.087632 0.563454 2.27088 0 255 0 255 
-0.081089 0.565175 2.27861 0 255 0 255 
-0.345574 0.506923 2.183 255 0 0 255 
-0.336682 0.502534 2.164 255 0 0 255 
-0.32988 0.501164 2.158 255 0 0 255 
-0.32266 0.499097 2.149 255 0 0 255 
-0.316077 0.497958 2.144 255 0 0 255 
-0.310245 0.49798 2.144 255 0 0 255 
-0.304553 0.498234 2.145 255 0 0 255 
-0.298438 0.497792 2.143 255 0 0 255 
-0.292197 0.497116 2.14 255 0 0 255 
-0.285971 0.49644 2.137 255 0 0 255 
-0.279892 0.495997 2.135 255 0 0 255 
-0.273823 0.495553 2.133 255 0 0 255 
-0.268016 0.495573 2.133 255 0 0 255 
-0.262577 0.49629 2.136 255 0 0 255 
-0.25652 0.495844 2.134 255 0 0 255 
-0.250591 0.495631 2.133 255 0 0 255 
-0.244552 0.495185 2.131 255 0 0 255 
-0.238523 0.494739 2.129 255 0 0 255 
-0.232504 0.494293 2.127 255 0 0 255 
-0.226709 0.49431 2.127 255 0 0 255 
-0.220809 0.494095 2.126 255 0 0 255 
-0.214712 0.493415 2.123 255 0 0 255 
-0.208729 0.492967 2.121 255 0 0 255 
-0.202853 0.492751 2.12 255 0 0 255 
-0.197167 0.492999 2.121 255 0 0 255 
-0.191384 0.493014 2.121 255 0 0 255 
-0.185689 0.493262 2.122 255 0 0 255 
-0.180073 0.493742 2.124 255 0 0 255 
-0.174281 0.493756 2.124 255 0 0 255 
-0.168568 0.494002 2.125 255 0 0 255 
-0.162696 0.493783 2.124 255 0 0 255 
-0.157125 0.494494 2.127 255 0 0 255 
-0.151465 0.494971 2.129 255 0 0 255 
-0.14552 0.494518 2.127 255 0 0 255 
-0.139521 0.493832 2.124 255 0 0 255 
-0.133537 0.493146 2.121 255 0 0 255 
-0.127629 0.492692 2.119 255 0 0 255 
-0.121675 0.492005 2.116 255 0 0 255 
-0.115736 0.491317 2.113 255 0 0 255 
-0.109866 0.490861 2.111 255 0 0 255 
-0.104154 0.491103 2.112 255 0 0 255 
-0.098437 0.491344 2.113 255 0 0 255 
-0.092669 0.491352 2.113 255 0 0 255 
-0.086902 0.491359 2.113 255 0 0 255 
-0.081019 0.490669 2.11 255 0 0 255 
-0.075152 0.489978 2.107 255 0 0 255 
-0.069368 0.489751 2.106 255 0 0 255 
-0.063709 0.490455 2.109 255 0 0 255 
-0.058034 0.491157 2.112 255 0 0 255 
-0.052317 0.491627 2.114 255 0 0 255 
-0.04659 0.492097 2.116 255 0 0 255 
-0.04087 0.492798 2.119 255 0 0 255 
-0.035101 0.493034 2.12 255 0 0 255 
-0.029313 0.493036 2.12 255 0 0 255 
-0.023535 0.493271 2.121 255 0 0 255 
-0.017753 0.493506 2.122 255 0 0 255 
-0.011964 0.493739 2.123 255 0 0 255 
-0.006173 0.494205 2.125 255 0 0 255 
-0.000371 0.494438 2.126 255 0 0 255 
0.005434 0.494438 2.126 255 0 0 255 
0.011234 0.494205 2.125 255 0 0 255 
0.017052 0.494669 2.127 255 0 0 255 
0.022871 0.494899 2.128 255 0 0 255 
0.028694 0.49513 2.129 255 0 0 255 
0.03454 0.495592 2.131 255 0 0 255 
0.040453 0.496752 2.136 255 0 0 255 
0.046371 0.497679 2.14 255 0 0 255 
0.052287 0.498372 2.143 255 0 0 255 
0.058111 0.498135 2.142 255 0 0 255 
0.063988 0.498362 2.143 255 0 0 255 
0.069904 0.498822 2.145 255 0 0 255 
0.075901 0.499746 2.149 255 0 0 255 
0.081881 0.500437 2.152 255 0 0 255 
0.087918 0.50136 2.156 255 0 0 255 
0.093847 0.501585 2.157 255 0 0 255 
0.099873 0.502274 2.16 255 0 0 255 
0.105915 0.502963 2.163 255 0 0 255 
0.112128 0.504349 2.169 255 0 0 255 
-0.130879 0.622709 2.24281 255 255 0 255 
-0.112419 0.621774 2.24307 255 255 0 255 
-0.096588 0.620692 2.24154 255 255 0 255 
-0.078186 0.619789 2.24195 255 255 0 255 
-0.065003 0.618569 2.23868 255 255 0 255 
-0.048385 0.617583 2.23799 255 255 0 255 
-0.036971 0.616273 2.23357 255 255 0 255 
-0.03333 0.614461 2.22347 255 255 0 255 
-0.024524 0.612993 2.2172 255 255 0 255 
-0.03379 0.61032 2.19749 255 255 0 255 
-0.261335 0.525838 2.1546 0 255 0 255 
-0.280296 0.53088 2.18105 0 255 0 255 
-0.27917 0.533162 2.19221 0 255 0 255 
-0.275419 0.535089 2.20138 0 255 0 255 
-0.276927 0.537724 2.21448 0 255 0 255 
-0.271424 0.539417 2.22234 0 255 0 255 
-0.269431 0.541582 2.23281 0 255 0 255 
-0.254256 0.542003 2.23357 0 255 0 255 
-0.251375 0.54406 2.24342 0 255 0 255 
-0.244973 0.545657 2.25069 0 255 0 255 
-0.235042 0.546801 2.25543 0 255 0 255 
-0.221571 0.547499 2.25766 0 255 0 255 
-0.202788 0.54753 2.25615 0 255 0 255 
-0.181328 0.547241 2.25284 0 255 0 255 
-0.16691 0.547876 2.25465 0 255 0 255 
-0.159551 0.549421 2.26154 0 255 0 255 
-0.15307 0.551084 2.26907 0 255 0 255 
-0.136834 0.551533 2.2698 0 255 0 255 
-0.121464 0.55211 2.27122 0 255 0 255 
-0.109623 0.553141 2.27516 0 255 0 255 
-0.099546 0.554402 2.28039 0 255 0 255 
-0.088566 0.555565 2.28504 0 255 0 255 
-0.057661 0.556846 2.28842 0 255 0 255 
-0.345123 0.500317 2.18 255 0 0 255 
-0.336861 0.496898 2.165 255 0 0 255 
-0.329903 0.495314 2.158 255 0 0 255 
-0.322682 0.493272 2.149 255 0 0 255 
-0.316247 0.492376 2.145 255 0 0 255 
-0.310122 0.491939 2.143 255 0 0 255 
-0.304717 0.49265 2.146 255 0 0 255 
-0.298599 0.492212 2.144 255 0 0 255 
-0.292628 0.492004 2.143 255 0 0 255 
-0.286527 0.491566 2.141 255 0 0 255 
-0.280175 0.490669 2.137 255 0 0 255 
-0.273715 0.489541 2.132 255 0 0 255 
-0.267911 0.489561 2.132 255 0 0 255 
-0.262228 0.489811 2.133 255 0 0 255 
-0.256539 0.49006 2.134 255 0 0 255 
-0.25061 0.489849 2.133 255 0 0 255 
-0.244685 0.489639 2.132 255 0 0 255 
-0.238541 0.488968 2.129 255 0 0 255 
-0.232522 0.488527 2.127 255 0 0 255 
-0.22662 0.488315 2.126 255 0 0 255 
-0.220515 0.487643 2.123 255 0 0 255 
-0.214426 0.486971 2.12 255 0 0 255 
-0.208647 0.486988 2.12 255 0 0 255 
-0.202964 0.487234 2.121 255 0 0 255 
-0.197275 0.487479 2.122 255 0 0 255 
-0.1914 0.487265 2.121 255 0 0 255 
-0.185617 0.48728 2.121 255 0 0 255 
-0.179918 0.487524 2.122 255 0 0 255 
-0.174295 0.487998 2.124 255 0 0 255 
-0.168661 0.488471 2.126 255 0 0 255 
-0.162939 0.488715 2.127 255 0 0 255 
-0.157359 0.489417 2.13 255 0 0 255 
-0.151549 0.48943 2.13 255 0 0 255 
-0.145532 0.488752 2.127 255 0 0 255 
-0.139598 0.488304 2.125 255 0 0 255 
-0.133674 0.487856 2.123 255 0 0 255 
-0.12776 0.487407 2.121 255 0 0 255 
-0.1218 0.486728 2.118 255 0 0 255 
-0.11591 0.486279 2.116 255 0 0 255 
-0.109979 0.485598 2.113 255 0 0 255 
-0.104015 0.484688 2.109 255 0 0 255 
-0.098305 0.484926 2.11 255 0 0 255 
-0.09259 0.485164 2.111 255 0 0 255 
-0.086827 0.485172 2.111 255 0 0 255 
-0.080911 0.484259 2.107 255 0 0 255 
-0.075123 0.484036 2.106 255 0 0 255 
-0.069406 0.484272 2.107 255 0 0 255 
-0.063775 0.485197 2.111 255 0 0 255 
-0.058011 0.485202 2.111 255 0 0 255 
-0.052297 0.485667 2.113 255 0 0 255 
-0.046594 0.48636 2.116 255 0 0 255 
-0.040854 0.486824 2.118 255 0 0 255 
-0.035104 0.487287 2.12 255 0 0 255 
-0.029301 0.487059 2.119 255 0 0 255 
-0.023537 0.487521 2.121 255 0 0 255 
-0.017754 0.487753 2.122 255 0 0 255 
-0.011959 0.487754 2.122 255 0 0 255 
-0.006174 0.488445 2.125 255 0 0 255 
-0.000371 0.488445 2.125 255 0 0 255 
0.005432 0.488445 2.125 255 0 0 255 
0.011235 0.488444 2.125 255 0 0 255 
0.017046 0.488673 2.126 255 0 0 255 
0.022862 0.488901 2.127 255 0 0 255 
0.028697 0.489358 2.129 255 0 0 255 
0.034575 0.490275 2.133 255 0 0 255 
0.040513 0.491651 2.139 255 0 0 255 
0.04644 0.492567 2.143 255 0 0 255 
0.052316 0.492792 2.144 255 0 0 255 
0.058143 0.492558 2.143 255 0 0 255 
0.064053 0.493012 2.145 255 0 0 255 
0.069975 0.493466 2.147 255 0 0 255 
0.075978 0.49438 2.151 255 0 0 255 
0.081964 0.495062 2.154 255 0 0 255 
0.088048 0.496204 2.159 255 0 0 255 
0.094029 0.496656 2.161 255 0 0 255 
0.100112 0.497568 2.165 255 0 0 255 
0.106169 0.498249 2.168 255 0 0 255 
0.112293 0.499159 2.172 255 0 0 255 
0.118438 0.500068 2.176 255 0 0 255 
-0.104524 0.611524 2.24991 255 255 0 255 
-0.08784 0.610539 2.24901 255 255 0 255 
-0.066858 0.609856 2.25131 255 255 0 255 
-0.045048 0.609249 2.25435 255 255 0 255 
-0.029319 0.608253 2.25307 255 255 0 255 
-0.017065 0.607035 2.24933 255 255 0 255 
-0.008275 0.605588 2.2431 255 255 0 255 
-0.001217 0.604028 2.23562 255 255 0 255 
0.017171 0.601225 2.22393 255 255 0 255 
-0.278854 0.520521 2.18109 0 255 0 255 
-0.280347 0.523176 2.19424 0 255 0 255 
-0.276596 0.525101 2.20341 0 255 0 255 
-0.280729 0.528112 2.21847 0 255 0 255 
-0.277861 0.530157 2.22827 0 255 0 255 
-0.270604 0.531606 2.23483 0 255 0 255 
-0.252802 0.531636 2.23367 0 255 0 255 
-0.243765 0.532868 2.23902 0 255 0 255 
-0.237358 0.534462 2.24633 0 255 0 255 
-0.231825 0.536177 2.25429 0 255 0 255 
-0.221882 0.537315 2.25908 0 255 0 255 
-0.208399 0.537997 2.26138 0 255 0 255 
-0.186954 0.537653 2.25807 0 255 0 255 
-0.169895 0.537908 2.258 0 255 0 255 
-0.159002 0.538982 2.26239 0 255 0 255 
-0.154292 0.540865 2.27118 0 255 0 255 
-0.141608 0.54173 2.27439 0 255 0 255 
-0.127133 0.542382 2.27643 0 255 0 255 
-0.113526 0.543161 2.27914 0 255 0 255 
-0.103455 0.544402 2.28436 0 255 0 255 
-0.089816 0.545207 2.28718 0 255 0 255 
-0.072602 0.545583 2.28764 0 255 0 255 
-0.34483 0.493954 2.178 255 0 0 255 
-0.33704 0.491256 2.166 255 0 0 255 
-0.330232 0.489918 2.16 255 0 0 255 
-0.323155 0.488126 2.152 255 0 0 255 
-0.316712 0.487241 2.148 255 0 0 255 
-0.310289 0.486356 2.144 255 0 0 255 
-0.304739 0.486832 2.146 255 0 0 255 
-0.29876 0.486627 2.145 255 0 0 255 
-0.292922 0.486648 2.145 255 0 0 255 
-0.286682 0.485989 2.142 255 0 0 255 
-0.280327 0.485102 2.138 255 0 0 255 
-0.273992 0.484215 2.134 255 0 0 255 
-0.267931 0.483781 2.132 255 0 0 255 
-0.262125 0.483801 2.132 255 0 0 255 
-0.256318 0.483821 2.132 255 0 0 255 
-0.250511 0.48384 2.132 255 0 0 255 
-0.244704 0.483859 2.132 255 0 0 255 
-0.238671 0.483423 2.13 255 0 0 255 
-0.232649 0.482987 2.128 255 0 0 255 
-0.226531 0.482324 2.125 255 0 0 255 
-0.220636 0.482115 2.124 255 0 0 255 
-0.214543 0.48145 2.121 255 0 0 255 
-0.208762 0.481467 2.121 255 0 0 255 
-0.203172 0.481937 2.123 255 0 0 255 
-0.197477 0.48218 2.124 255 0 0 255 
-0.191686 0.482196 2.124 255 0 0 255 
-0.185632 0.481529 2.121 255 0 0 255 
-0.179932 0.481771 2.122 255 0 0 255 
-0.174309 0.482239 2.124 255 0 0 255 
-0.168754 0.482934 2.127 255 0 0 255 
-0.163106 0.483402 2.129 255 0 0 255 
-0.157372 0.483642 2.13 255 0 0 255 
-0.15149 0.483428 2.129 255 0 0 255 
-0.145544 0.482985 2.127 255 0 0 255 
-0.139675 0.48277 2.126 255 0 0 255 
-0.133811 0.482554 2.125 255 0 0 255 
-0.127952 0.482338 2.124 255 0 0 255 
-0.121983 0.481667 2.121 255 0 0 255 
-0.11603 0.480996 2.118 255 0 0 255 
-0.110093 0.480324 2.115 255 0 0 255 
-0.104122 0.479424 2.111 255 0 0 255 
-0.098313 0.479205 2.11 255 0 0 255 
-0.092553 0.479213 2.11 255 0 0 255 
-0.086793 0.479221 2.11 255 0 0 255 
-0.080956 0.478774 2.108 255 0 0 255 
-0.075201 0.47878 2.108 255 0 0 255 
-0.069511 0.47924 2.11 255 0 0 255 
-0.06378 0.479473 2.111 255 0 0 255 
-0.058044 0.479705 2.112 255 0 0 255 
-0.052326 0.480164 2.114 255 0 0 255 
-0.046597 0.480623 2.116 255 0 0 255 
-0.040819 0.480627 2.116 255 0 0 255 
-0.035057 0.480857 2.117 255 0 0 255 
-0.02929 0.481087 2.118 255 0 0 255 
-0.023539 0.48177 2.121 255 0 0 255 
-0.017747 0.481772 2.121 255 0 0 255 
-0.011949 0.481546 2.12 255 0 0 255 
-0.006163 0.481774 2.121 255 0 0 255 
-0.00037 0.481775 2.121 255 0 0 255 
0.00543 0.482456 2.124 255 0 0 255 
0.01123 0.482455 2.124 255 0 0 255 
0.017039 0.482681 2.125 255 0 0 255 
0.022864 0.483134 2.127 255 0 0 255 
0.028686 0.483358 2.128 255 0 0 255 
0.034594 0.484719 2.134 255 0 0 255 
0.040535 0.486078 2.14 255 0 0 255 
0.046466 0.486983 2.144 255 0 0 255 
0.05232 0.486979 2.144 255 0 0 255 
0.058148 0.486747 2.143 255 0 0 255 
0.064059 0.487196 2.145 255 0 0 255 
0.070046 0.488099 2.149 255 0 0 255 
0.07609 0.489229 2.154 255 0 0 255 
0.082085 0.489903 2.157 255 0 0 255 
0.088137 0.490805 2.161 255 0 0 255 
0.094124 0.491251 2.163 255 0 0 255 
0.100213 0.492152 2.167 255 0 0 255 
0.106226 0.492597 2.169 255 0 0 255 
0.112302 0.49327 2.172 255 0 0 255 
0.118611 0.49485 2.179 255 0 0 255 
-0.118771 0.603999 2.26674 255 255 0 255 
-0.101191 0.603092 2.26635 255 255 0 255 
-0.09317 0.601547 2.25922 255 255 0 255 
-0.080831 0.600307 2.25522 255 255 0 255 
-0.064186 0.599377 2.25441 255 255 0 255 
-0.038069 0.599129 2.26057 255 255 0 255 
-0.018037 0.598477 2.26245 255 255 0 255 
-0.00235 0.597536 2.26127 255 255 0 255 
0.003841 0.595925 2.25316 255 255 0 255 
0.010026 0.594318 2.24507 255 255 0 255 
0.017924 0.592841 2.23828 255 255 0 255 
0.026671 0.591432 2.23215 255 255 0 255 
0.034712 0.587926 2.21285 255 255 0 255 
0.034026 0.585819 2.19963 255 255 0 255 
0.016255 0.582405 2.17332 255 255 0 255 
-0.287021 0.511512 2.18841 0 255 0 255 
-0.283273 0.513433 2.19758 0 255 0 255 
-0.278649 0.515233 2.20609 0 255 0 255 
-0.278401 0.51765 2.21788 0 255 0 255 
-0.279033 0.520187 2.2303 0 255 0 255 
-0.274411 0.521991 2.2388 0 255 0 255 
-0.256619 0.521977 2.23764 0 255 0 255 
-0.245831 0.522949 2.24171 0 255 0 255 
-0.233271 0.523691 2.24454 0 255 0 255 
-0.225095 0.525044 2.2506 0 255 0 255 
-0.215149 0.526167 2.25543 0 255 0 255 
-0.207836 0.527655 2.26219 0 255 0 255 
-0.19434 0.528322 2.26456 0 255 0 255 
-0.178177 0.528651 2.26511 0 255 0 255 
-0.164644 0.529348 2.26761 0 255 0 255 
-0.159054 0.531107 2.27577 0 255 0 255 
-0.14195 0.531362 2.27589 0 255 0 255 
-0.127482 0.531983 2.27793 0 255 0 255 
-0.113881 0.532733 2.28066 0 255 0 255 
-0.105587 0.534183 2.28711 0 255 0 255 
-0.091955 0.534957 2.28994 0 255 0 255 
-0.078305 0.535746 2.29283 0 255 0 255 
-0.065528 0.536661 2.29638 0 255 0 255 
-0.052733 0.537589 2.29999 0 255 0 255 
-0.344537 0.4876 2.176 255 0 0 255 
-0.337374 0.485831 2.168 255 0 0 255 
-0.330408 0.484285 2.161 255 0 0 255 
-0.323478 0.482739 2.154 255 0 0 255 
-0.316882 0.481642 2.149 255 0 0 255 
-0.310456 0.480767 2.145 255 0 0 255 
-0.304761 0.481013 2.146 255 0 0 255 
-0.298782 0.480811 2.145 255 0 0 255 
-0.292807 0.480608 2.144 255 0 0 255 
-0.286703 0.480181 2.142 255 0 0 255 
-0.280347 0.479305 2.138 255 0 0 255 
-0.274013 0.478429 2.134 255 0 0 255 
-0.268076 0.478225 2.133 255 0 0 255 
-0.262267 0.478244 2.133 255 0 0 255 
-0.256458 0.478264 2.133 255 0 0 255 
-0.250413 0.477834 2.131 255 0 0 255 
-0.244493 0.477629 2.13 255 0 0 255 
-0.238577 0.477423 2.129 255 0 0 255 
-0.232667 0.477217 2.128 255 0 0 255 
-0.226442 0.476338 2.124 255 0 0 255 
-0.220341 0.475682 2.121 255 0 0 255 
-0.214257 0.475026 2.118 255 0 0 255 
-0.20868 0.475491 2.12 255 0 0 255 
-0.203188 0.47618 2.123 255 0 0 255 
-0.197399 0.476196 2.123 255 0 0 255 
-0.191611 0.476212 2.123 255 0 0 255 
-0.185471 0.475329 2.119 255 0 0 255 
-0.179777 0.475568 2.12 255 0 0 255 
-0.174159 0.476031 2.122 255 0 0 255 
-0.168609 0.476718 2.125 255 0 0 255 
-0.162966 0.47718 2.127 255 0 0 255 
-0.157089 0.476969 2.126 255 0 0 255 
-0.151217 0.476757 2.125 255 0 0 255 
-0.145351 0.476544 2.124 255 0 0 255 
-0.139621 0.47678 2.125 255 0 0 255 
-0.133822 0.476792 2.125 255 0 0 255 
-0.127962 0.476578 2.124 255 0 0 255 
-0.121993 0.475915 2.121 255 0 0 255 
-0.116039 0.475252 2.118 255 0 0 255 
-0.110154 0.474812 2.116 255 0 0 255 
-0.10423 0.474148 2.113 255 0 0 255 
-0.098415 0.473932 2.112 255 0 0 255 
-0.092561 0.473491 2.11 255 0 0 255 
-0.086759 0.473274 2.109 255 0 0 255 
-0.080963 0.473057 2.108 255 0 0 255 
-0.075243 0.473288 2.109 255 0 0 255 
-0.06955 0.473743 2.111 255 0 0 255 
-0.063816 0.473973 2.112 255 0 0 255 
-0.058103 0.474427 2.114 255 0 0 255 
-0.052355 0.474656 2.115 255 0 0 255 
-0.046645 0.475333 2.118 255 0 0 255 
-0.040842 0.475113 2.117 255 0 0 255 
-0.03506 0.475116 2.117 255 0 0 255 
-0.029279 0.475118 2.117 255 0 0 255 
-0.023519 0.47557 2.119 255 0 0 255 
-0.017732 0.475571 2.119 255 0 0 255 
-0.011939 0.475348 2.118 255 0 0 255 
-0.006154 0.475349 2.118 255 0 0 255 
-0.00037 0.475574 2.119 255 0 0 255 
0.005428 0.476471 2.123 255 0 0 255 
0.011237 0.476919 2.125 255 0 0 255 
0.017056 0.477367 2.127 255 0 0 255 
0.022876 0.47759 2.128 255 0 0 255 
0.028715 0.478036 2.13 255 0 0 255 
0.034597 0.478931 2.134 255 0 0 255 
0.040539 0.480275 2.14 255 0 0 255 
0.04647 0.481169 2.144 255 0 0 255 
0.052325 0.481165 2.144 255 0 0 255 
0.05818 0.48116 2.144 255 0 0 255 
0.064034 0.481155 2.144 255 0 0 255 
0.070052 0.482271 2.149 255 0 0 255 
0.076167 0.483836 2.156 255 0 0 255 
0.082282 0.485176 2.162 255 0 0 255 
0.088267 0.485618 2.164 255 0 0 255 
0.094218 0.485834 2.165 255 0 0 255 
0.100222 0.486275 2.167 255 0 0 255 
0.106284 0.48694 2.17 255 0 0 255 
0.112466 0.488053 2.175 255 0 0 255 
0.11873 0.489389 2.181 255 0 0 255 
-0.084423 0.591441 2.26665 255 255 0 255 
-0.078152 0.589794 2.25832 255 255 0 255 
-0.066701 0.588526 2.25375 255 255 0 255 
-0.020563 0.587739 2.26175 255 255 0 255 
-0.001432 0.587088 2.26307 255 255 0 255 
0.00648 0.585614 2.25623 255 255 0 255 
0.011803 0.58395 2.24751 255 255 0 255 
0.023992 0.582813 2.24391 255 255 0 255 
0.039595 0.581949 2.24292 255 255 0 255 
0.048317 0.580568 2.23686 255 255 0 255 
0.051036 0.578724 2.22628 255 255 0 255 
0.054771 0.574902 2.20382 255 255 0 255 
-0.300417 0.503303 2.19966 0 255 0 255 
-0.29406 0.504835 2.20683 0 255 0 255 
-0.282451 0.505617 2.21008 0 255 0 255 
-0.276953 0.507288 2.21795 0 255 0 255 
-0.27758 0.509839 2.23037 0 255 0 255 
-0.270327 0.511266 2.23695 0 255 0 255 
-0.256048 0.511709 2.23839 0 255 0 255 
-0.239116 0.511796 2.23798 0 255 0 255 
-0.231828 0.513253 2.24467 0 255 0 255 
-0.221014 0.514227 2.24884 0 255 0 255 
-0.214588 0.51582 2.25622 0 255 0 255 
-0.205514 0.517055 2.26173 0 255 0 255 
-0.193784 0.517936 2.26538 0 255 0 255 
-0.184687 0.519189 2.27096 0 255 0 255 
-0.174697 0.520332 2.27595 0 255 0 255 
-0.164696 0.521483 2.28098 0 255 0 255 
-0.142296 0.520985 2.27738 0 255 0 255 
-0.124292 0.521101 2.27698 0 255 0 255 
-0.111579 0.521942 2.28034 0 255 0 255 
-0.103284 0.523379 2.28681 0 255 0 255 
-0.092319 0.524476 2.29148 0 255 0 255 
-0.078674 0.525234 2.29438 0 255 0 255 
-0.069458 0.526584 2.30036 0 255 0 255 
-0.055782 0.527368 2.30336 0 255 0 255 
-0.343769 0.480593 2.171 255 0 0 255 
-0.337242 0.47973 2.167 255 0 0 255 
-0.330584 0.478647 2.162 255 0 0 255 
-0.324102 0.477784 2.158 255 0 0 255 
-0.317494 0.4767 2.153 255 0 0 255 
-0.311201 0.476058 2.15 255 0 0 255 
-0.305351 0.476079 2.15 255 0 0 255 
-0.2995 0.476101 2.15 255 0 0 255 
-0.293238 0.475458 2.147 255 0 0 255 
-0.286858 0.474594 2.143 255 0 0 255 
-0.280499 0.473728 2.139 255 0 0 255 
-0.274418 0.473306 2.137 255 0 0 255 
-0.268599 0.473326 2.137 255 0 0 255 
-0.262902 0.473567 2.138 255 0 0 255 
-0.256958 0.473365 2.137 255 0 0 255 
-0.250667 0.472498 2.133 255 0 0 255 
-0.244626 0.472074 2.131 255 0 0 255 
-0.238596 0.471649 2.129 255 0 0 255 
-0.232685 0.471446 2.128 255 0 0 255 
-0.226352 0.470356 2.123 255 0 0 255 
-0.220358 0.46993 2.121 255 0 0 255 
-0.214375 0.469504 2.119 255 0 0 255 
-0.208795 0.469963 2.121 255 0 0 255 
-0.203299 0.470644 2.124 255 0 0 255 
-0.197508 0.47066 2.124 255 0 0 255 
-0.191626 0.470454 2.123 255 0 0 255 
-0.185574 0.469804 2.12 255 0 0 255 
-0.179792 0.469818 2.12 255 0 0 255 
-0.174091 0.470054 2.121 255 0 0 255 
-0.168385 0.47029 2.122 255 0 0 255 
-0.162519 0.470081 2.121 255 0 0 255 
-0.156732 0.470094 2.121 255 0 0 255 
-0.150945 0.470107 2.121 255 0 0 255 
-0.145226 0.47034 2.122 255 0 0 255 
-0.139566 0.470795 2.124 255 0 0 255 
-0.133896 0.47125 2.126 255 0 0 255 
-0.128033 0.471039 2.125 255 0 0 255 
-0.122003 0.470162 2.121 255 0 0 255 
-0.116049 0.469507 2.118 255 0 0 255 
-0.110163 0.469073 2.116 255 0 0 255 
-0.104337 0.46886 2.115 255 0 0 255 
-0.09847 0.468425 2.113 255 0 0 255 
-0.092613 0.46799 2.111 255 0 0 255 
-0.086808 0.467776 2.11 255 0 0 255 
-0.081008 0.467561 2.109 255 0 0 255 
-0.075285 0.467789 2.11 255 0 0 255 
-0.069556 0.468017 2.111 255 0 0 255 
-0.063791 0.468022 2.111 255 0 0 255 
-0.058081 0.468471 2.113 255 0 0 255 
-0.052335 0.468697 2.114 255 0 0 255 
-0.046605 0.469145 2.116 255 0 0 255 
-0.040826 0.469149 2.116 255 0 0 255 
-0.035047 0.469152 2.116 255 0 0 255 
-0.029281 0.469376 2.117 255 0 0 255 
-0.02351 0.4696 2.118 255 0 0 255 
-0.017733 0.469824 2.119 255 0 0 255 
-0.011946 0.469825 2.119 255 0 0 255 
-0.006158 0.469826 2.119 255 0 0 255 
-0.00037 0.470048 2.12 255 0 0 255 
0.005428 0.470713 2.123 255 0 0 255 
0.011238 0.471155 2.125 255 0 0 255 
0.017058 0.471597 2.127 255 0 0 255 
0.022868 0.471596 2.127 255 0 0 255 
0.028691 0.471815 2.128 255 0 0 255 
0.034616 0.473365 2.135 255 0 0 255 
0.040542 0.47447 2.14 255 0 0 255 
0.046495 0.475575 2.145 255 0 0 255 
0.052354 0.475571 2.145 255 0 0 255 
0.058239 0.475788 2.146 255 0 0 255 
0.064099 0.475783 2.146 255 0 0 255 
0.070221 0.477551 2.154 255 0 0 255 
0.076385 0.479318 2.162 255 0 0 255 
0.082441 0.480199 2.166 255 0 0 255 
0.088356 0.480191 2.166 255 0 0 255 
0.094226 0.479962 2.165 255 0 0 255 
0.10023 0.480397 2.167 255 0 0 255 
0.106391 0.481497 2.172 255 0 0 255 
0.112527 0.482375 2.176 255 0 0 255 
0.118849 0.483917 2.183 255 0 0 255 
-0.080011 0.581054 2.27099 255 255 0 255 
-0.070286 0.579675 2.26515 255 255 0 255 
-0.057981 0.5785 2.26121 255 255 0 255 
-0.04138 0.577663 2.26047 255 255 0 255 
-0.018774 0.577306 2.26419 255 255 0 255 
-0.002234 0.576501 2.26361 255 255 0 255 
0.006537 0.575105 2.2574 255 255 0 255 
0.016158 0.573784 2.25185 255 255 0 255 
0.036064 0.573287 2.254 255 255 0 255 
0.047363 0.572122 2.24984 255 255 0 255 
0.053506 0.570552 2.24185 255 255 0 255 
0.062211 0.569194 2.23582 255 255 0 255 
0.064067 0.567283 2.22462 255 255 0 255 
0.065927 0.56537 2.21341 255 255 0 255 
-0.295484 0.492438 2.19707 0 255 0 255 
-0.291741 0.494352 2.20622 0 255 0 255 
-0.281008 0.49524 2.21015 0 255 0 255 
-0.275509 0.496907 2.21802 0 255 0 255 
-0.275257 0.499343 2.2298 0 255 0 255 
-0.27063 0.501142 2.23833 0 255 0 255 
-0.258987 0.501932 2.24172 0 255 0 255 
-0.245575 0.502482 2.24388 0 255 0 255 
-0.239171 0.504049 2.25119 0 255 0 255 
-0.231883 0.505496 2.2579 0 255 0 255 
-0.224587 0.50695 2.26462 0 255 0 255 
-0.20848 0.507172 2.26506 0 255 0 255 
-0.19147 0.507288 2.26495 0 255 0 255 
-0.182373 0.508526 2.27054 0 255 0 255 
-0.172384 0.509651 2.27555 0 255 0 255 
-0.165033 0.511151 2.28245 0 255 0 255 
-0.144413 0.51084 2.28011 0 255 0 255 
-0.130842 0.511515 2.2828 0 255 0 255 
-0.118139 0.512325 2.28615 0 255 0 255 
-0.108966 0.513626 2.292 0 255 0 255 
-0.098008 0.514697 2.29667 0 255 0 255 
-0.084373 0.515423 2.29957 0 255 0 255 
-0.073386 0.516517 2.30433 0 255 0 255 
-0.05705 0.516917 2.30554 0 255 0 255 
-0.352595 0.478617 2.189 255 0 0 255 
-0.343792 0.474704 2.171 255 0 0 255 
-0.337265 0.473853 2.167 255 0 0 255 
-0.330913 0.47322 2.164 255 0 0 255 
-0.324275 0.47215 2.159 255 0 0 255 
-0.317664 0.471079 2.154 255 0 0 255 
-0.311803 0.471101 2.154 255 0 0 255 
-0.305799 0.470904 2.153 255 0 0 255 
-0.299939 0.470926 2.153 255 0 0 255 
-0.293532 0.470073 2.149 255 0 0 255 
-0.287281 0.469437 2.146 255 0 0 255 
-0.280913 0.468583 2.142 255 0 0 255 
-0.274824 0.468166 2.14 255 0 0 255 
-0.26887 0.467967 2.139 255 0 0 255 
-0.263167 0.468206 2.14 255 0 0 255 
-0.257098 0.467788 2.138 255 0 0 255 
-0.250568 0.466494 2.132 255 0 0 255 
-0.244415 0.465856 2.129 255 0 0 255 
-0.23839 0.465437 2.127 255 0 0 255 
-0.232593 0.465455 2.127 255 0 0 255 
-0.226477 0.464816 2.124 255 0 0 255 
-0.220375 0.464177 2.121 255 0 0 255 
-0.21429 0.463537 2.118 255 0 0 255 
-0.208713 0.463991 2.12 255 0 0 255 
-0.20322 0.464664 2.123 255 0 0 255 
-0.197524 0.464898 2.124 255 0 0 255 
-0.191551 0.464476 2.122 255 0 0 255 
-0.185676 0.464272 2.121 255 0 0 255 
-0.179806 0.464068 2.12 255 0 0 255 
-0.174105 0.464301 2.121 255 0 0 255 
-0.168319 0.464314 2.121 255 0 0 255 
-0.162455 0.464109 2.12 255 0 0 255 
-0.156597 0.463903 2.119 255 0 0 255 
-0.150815 0.463915 2.119 255 0 0 255 
-0.145101 0.464146 2.12 255 0 0 255 
-0.139446 0.464595 2.122 255 0 0 255 
-0.133655 0.464606 2.122 255 0 0 255 
-0.127802 0.464398 2.121 255 0 0 255 
-0.121898 0.46397 2.119 255 0 0 255 
-0.116113 0.46398 2.119 255 0 0 255 
-0.110276 0.463771 2.118 255 0 0 255 
-0.104444 0.46356 2.117 255 0 0 255 
-0.098617 0.46335 2.116 255 0 0 255 
-0.092664 0.462482 2.112 255 0 0 255 
-0.086815 0.462051 2.11 255 0 0 255 
-0.081015 0.461839 2.109 255 0 0 255 
-0.075291 0.462065 2.11 255 0 0 255 
-0.069561 0.46229 2.111 255 0 0 255 
-0.063857 0.462733 2.113 255 0 0 255 
-0.058168 0.463396 2.116 255 0 0 255 
-0.052364 0.463181 2.115 255 0 0 255 
-0.046587 0.463185 2.115 255 0 0 255 
-0.04083 0.463408 2.116 255 0 0 255 
-0.035083 0.463849 2.118 255 0 0 255 
-0.029311 0.464071 2.119 255 0 0 255 
-0.023523 0.464073 2.119 255 0 0 255 
-0.017743 0.464294 2.12 255 0 0 255 
-0.011947 0.464076 2.119 255 0 0 255 
-0.006161 0.464296 2.12 255 0 0 255 
-0.00037 0.464296 2.12 255 0 0 255 
0.005426 0.464734 2.122 255 0 0 255 
0.011233 0.465171 2.124 255 0 0 255 
0.017059 0.465827 2.127 255 0 0 255 
0.02288 0.466044 2.128 255 0 0 255 
0.028733 0.466699 2.131 255 0 0 255 
0.034668 0.46823 2.138 255 0 0 255 
0.040583 0.469102 2.142 255 0 0 255 
0.046521 0.469975 2.146 255 0 0 255 
0.052334 0.469533 2.144 255 0 0 255 
0.058271 0.470185 2.147 255 0 0 255 
0.064194 0.470618 2.149 255 0 0 255 
0.070324 0.472364 2.157 255 0 0 255 
0.076462 0.473891 2.164 255 0 0 255 
0.082486 0.474541 2.167 255 0 0 255 
0.088404 0.474534 2.167 255 0 0 255 
0.094365 0.474746 2.168 255 0 0 255 
0.100423 0.475395 2.171 255 0 0 255 
0.106645 0.4767 2.177 255 0 0 255 
0.112692 0.477129 2.179 255 0 0 255 
0.118967 0.478433 2.185 255 0 0 255 
0.125046 0.478861 2.187 255 0 0 255 
-0.075602 0.570682 2.27532 255 255 0 255 
-0.067611 0.569187 2.26824 255 255 0 255 
-0.050995 0.568378 2.26742 255 255 0 255 
-0.036994 0.567378 2.2648 255 255 0 255 
-0.016124 0.566941 2.26727 255 255 0 255 
-0.003894 0.565829 2.26352 255 255 0 255 
0.005737 0.564517 2.25793 255 255 0 255 
0.022227 0.563774 2.25746 255 255 0 255 
0.042121 0.563329 2.25961 255 255 0 255 
0.048269 0.561762 2.25161 255 255 0 255 
0.050987 0.559913 2.24105 255 255 0 255 
0.051997 0.557919 2.22918 255 255 0 255 
0.059846 0.556503 2.22249 255 255 0 255 
0.062567 0.554655 2.21192 255 255 0 255 
0.071256 0.553321 2.20592 255 255 0 255 
-0.286811 0.483449 2.20365 0 255 0 255 
-0.283063 0.485368 2.21283 0 255 0 255 
-0.279313 0.487288 2.222 0 255 0 255 
-0.279936 0.489862 2.23442 0 255 0 255 
-0.271811 0.491136 2.24036 0 255 0 255 
-0.261049 0.492031 2.2444 0 255 0 255 
-0.244136 0.492037 2.244 0 255 0 255 
-0.240364 0.49398 2.25325 0 255 0 255 
-0.233957 0.495543 2.26059 0 255 0 255 
-0.227543 0.497111 2.26795 0 255 0 255 
-0.204406 0.496284 2.26335 0 255 0 255 
-0.183876 0.49586 2.26076 0 255 0 255 
-0.170369 0.49646 2.26326 0 255 0 255 
-0.163901 0.498073 2.2708 0 255 0 255 
-0.162724 0.500435 2.28207 0 255 0 255 
-0.150947 0.501313 2.28593 0 255 0 255 
-0.136503 0.501832 2.28799 0 255 0 255 
-0.119383 0.501999 2.28828 0 255 0 255 
-0.105784 0.502672 2.29109 0 255 0 255 
-0.0966 0.503967 2.29699 0 255 0 255 
-0.086518 0.505149 2.30233 0 255 0 255 
-0.076425 0.50634 2.3077 0 255 0 255 
-0.352458 0.472463 2.188 255 0 0 255 
-0.344291 0.469463 2.174 255 0 0 255 
-0.3376 0.468407 2.169 255 0 0 255 
-0.331394 0.467998 2.167 255 0 0 255 
-0.324598 0.466725 2.161 255 0 0 255 
-0.318423 0.466316 2.159 255 0 0 255 
-0.311969 0.465474 2.155 255 0 0 255 
-0.306105 0.465496 2.155 255 0 0 255 
-0.300239 0.465518 2.155 255 0 0 255 
-0.294373 0.465539 2.155 255 0 0 255 
-0.288372 0.465344 2.154 255 0 0 255 
-0.281983 0.464501 2.15 255 0 0 255 
-0.275615 0.463657 2.146 255 0 0 255 
-0.269393 0.463029 2.143 255 0 0 255 
-0.263556 0.463049 2.143 255 0 0 255 
-0.257478 0.462636 2.141 255 0 0 255 
-0.25094 0.461358 2.135 255 0 0 255 
-0.244548 0.460297 2.13 255 0 0 255 
-0.23852 0.459883 2.128 255 0 0 255 
-0.232611 0.459684 2.127 255 0 0 255 
-0.226601 0.45927 2.125 255 0 0 255 
-0.220496 0.458639 2.122 255 0 0 255 
-0.214408 0.458007 2.119 255 0 0 255 
-0.208827 0.458456 2.121 255 0 0 255 
-0.20314 0.458688 2.122 255 0 0 255 
-0.197632 0.459352 2.125 255 0 0 255 
-0.191476 0.458503 2.121 255 0 0 255 
-0.185691 0.458517 2.121 255 0 0 255 
-0.17982 0.458316 2.12 255 0 0 255 
-0.174119 0.458546 2.121 255 0 0 255 
-0.168332 0.45856 2.121 255 0 0 255 
-0.162545 0.458573 2.121 255 0 0 255 
-0.156684 0.458369 2.12 255 0 0 255 
-0.150898 0.458382 2.12 255 0 0 255 
-0.145044 0.458178 2.119 255 0 0 255 
-0.139326 0.458405 2.12 255 0 0 255 
-0.13354 0.458416 2.12 255 0 0 255 
-0.127753 0.458427 2.12 255 0 0 255 
-0.121965 0.458437 2.12 255 0 0 255 
-0.116177 0.458447 2.12 255 0 0 255 
-0.110441 0.458672 2.121 255 0 0 255 
-0.104552 0.458249 2.119 255 0 0 255 
-0.098672 0.457825 2.117 255 0 0 255 
-0.092672 0.456751 2.112 255 0 0 255 
-0.086863 0.456542 2.111 255 0 0 255 
-0.08106 0.456333 2.11 255 0 0 255 
-0.075369 0.456772 2.112 255 0 0 255 
-0.0696 0.456778 2.112 255 0 0 255 
-0.063832 0.456784 2.112 255 0 0 255 
-0.058118 0.457221 2.114 255 0 0 255 
-0.052319 0.45701 2.113 255 0 0 255 
-0.046547 0.457014 2.113 255 0 0 255 
-0.040794 0.457234 2.114 255 0 0 255 
-0.035086 0.458102 2.118 255 0 0 255 
-0.029328 0.458537 2.12 255 0 0 255 
-0.023547 0.458756 2.121 255 0 0 255 
-0.017753 0.458757 2.121 255 0 0 255 
-0.011959 0.458759 2.121 255 0 0 255 
-0.006165 0.458759 2.121 255 0 0 255 
-0.00037 0.45876 2.121 255 0 0 255 
0.005427 0.458976 2.122 255 0 0 255 
0.01124 0.459624 2.125 255 0 0 255 
0.017061 0.460055 2.127 255 0 0 255 
0.022904 0.460703 2.13 255 0 0 255 
0.028749 0.461133 2.132 255 0 0 255 
0.034671 0.462428 2.138 255 0 0 255 
0.040606 0.463506 2.143 255 0 0 255 
0.046525 0.464152 2.146 255 0 0 255 
0.052411 0.464364 2.147 255 0 0 255 
0.058357 0.465008 2.15 255 0 0 255 
0.064319 0.465652 2.153 255 0 0 255 
0.070493 0.467593 2.162 255 0 0 255 
0.076539 0.468452 2.166 255 0 0 255 
0.082531 0.468878 2.168 255 0 0 255 
0.088493 0.469087 2.169 255 0 0 255 
0.094547 0.469728 2.172 255 0 0 255 
0.100663 0.470585 2.176 255 0 0 255 
0.106898 0.471874 2.182 255 0 0 255 
0.112856 0.471865 2.182 255 0 0 255 
0.119032 0.472721 2.186 255 0 0 255 
0.125057 0.472927 2.187 255 0 0 255 
-0.107125 0.561718 2.27977 255 255 0 255 
-0.092174 0.560771 2.27751 255 255 0 255 
-0.070331 0.560395 2.28026 255 255 0 255 
-0.058027 0.559266 2.27629 255 255 0 255 
-0.039701 0.558641 2.27674 255 255 0 255 
-0.029163 0.557392 2.27163 255 255 0 255 
-0.008307 0.55701 2.27411 255 255 0 255 
0.00047 0.555639 2.26785 255 255 0 255 
0.015251 0.554781 2.26606 255 255 0 255 
0.024859 0.553498 2.26052 255 255 0 255 
0.037884 0.552516 2.25757 255 255 0 255 
0.04061 0.550658 2.24698 255 255 0 255 
0.048473 0.549246 2.24025 255 255 0 255 
0.051197 0.547392 2.22967 255 255 0 255 
0.065024 0.546514 2.2275 255 255 0 255 
0.065182 0.544438 2.21499 255 255 0 255 
0.068756 0.542664 2.20507 255 255 0 255 
-0.283634 0.472773 2.2024 0 255 0 255 
-0.279009 0.474559 2.21094 0 255 0 255 
-0.280495 0.477281 2.22403 0 255 0 255 
-0.278493 0.479468 2.2345 0 255 0 255 
-0.274743 0.481391 2.24368 0 255 0 255 
-0.262236 0.481999 2.24644 0 255 0 255 
-0.245331 0.481965 2.24605 0 255 0 255 
-0.242436 0.484037 2.25593 0 255 0 255 
-0.233397 0.4852 2.26137 0 255 0 255 
-0.223469 0.486242 2.26621 0 255 0 255 
-0.182456 0.485274 2.26097 0 255 0 255 
-0.172476 0.486357 2.26598 0 255 0 255 
-0.162483 0.48745 2.27104 0 255 0 255 
-0.158656 0.489441 2.28046 0 255 0 255 
-0.147763 0.490423 2.28496 0 255 0 255 
-0.136856 0.491415 2.2895 0 255 0 255 
-0.11886 0.491417 2.28919 0 255 0 255 
-0.10615 0.492186 2.29262 0 255 0 255 
-0.098741 0.493712 2.29975 0 255 0 255 
-0.092211 0.495368 2.3075 0 255 0 255 
-0.081236 0.496414 2.31226 0 255 0 255 
-0.060478 0.496124 2.31048 0 255 0 255 
-0.351837 0.465674 2.184 255 0 0 255 
-0.344789 0.464205 2.177 255 0 0 255 
-0.337934 0.462949 2.171 255 0 0 255 
-0.331876 0.462759 2.17 255 0 0 255 
