ply
format ascii 1.0
comment VCGLIB generated
element vertex 1242
property float x
property float y
property float z
property uchar red
property uchar green
property uchar blue
property uchar alpha
element face 0
property list uchar int vertex_indices
end_header
-0.297443 0.241259 2.31 255 0 0 255 
-0.291139 0.241272 2.31 255 0 0 255 
-0.285081 0.241495 2.312 255 0 0 255 
-0.279373 0.24203 2.317 255 0 0 255 
-0.273166 0.242148 2.318 255 0 0 255 
-0.267527 0.242787 2.324 255 0 0 255 
-0.261406 0.243009 2.326 255 0 0 255 
-0.25582 0.243753 2.333 255 0 0 255 
-0.249768 0.244078 2.336 255 0 0 255 
-0.244011 0.244717 2.342 255 0 0 255 
-0.239134 0.246296 2.357 255 0 0 255 
-0.230422 0.243904 2.334 255 0 0 255 
-0.223275 0.243079 2.326 255 0 0 255 
-0.216544 0.242672 2.322 255 0 0 255 
-0.209653 0.242055 2.316 255 0 0 255 
-0.202092 0.240602 2.302 255 0 0 255 
-0.194266 0.238731 2.284 255 0 0 255 
-0.187114 0.23759 2.273 255 0 0 255 
-0.18026 0.236763 2.265 255 0 0 255 
-0.17345 0.235936 2.257 255 0 0 255 
-0.166683 0.235108 2.249 255 0 0 255 
-0.159887 0.234175 2.24 255 0 0 255 
-0.153277 0.233451 2.233 255 0 0 255 
-0.146837 0.232936 2.228 255 0 0 255 
-0.14036 0.232316 2.222 255 0 0 255 
-0.133795 0.231487 2.214 255 0 0 255 
-0.127273 0.230657 2.206 255 0 0 255 
-0.120795 0.229827 2.198 255 0 0 255 
-0.114464 0.229205 2.192 255 0 0 255 
-0.108314 0.228897 2.189 255 0 0 255 
-0.102367 0.229007 2.19 255 0 0 255 
-0.096326 0.228908 2.189 255 0 0 255 
-0.090249 0.228703 2.187 255 0 0 255 
-0.084144 0.228394 2.184 255 0 0 255 
-0.078162 0.228398 2.184 255 0 0 255 
-0.072181 0.228402 2.184 255 0 0 255 
-0.066229 0.22851 2.185 255 0 0 255 
-0.060216 0.228409 2.184 255 0 0 255 
-0.054233 0.228412 2.184 255 0 0 255 
-0.048184 0.228101 2.181 255 0 0 255 
-0.042229 0.228208 2.182 255 0 0 255 
-0.036218 0.228 2.18 255 0 0 255 
-0.030273 0.228211 2.182 255 0 0 255 
-0.024284 0.228108 2.181 255 0 0 255 
-0.018317 0.228214 2.182 255 0 0 255 
-0.012356 0.228528 2.185 255 0 0 255 
-0.006387 0.229156 2.191 255 0 0 255 
-0.000384 0.229575 2.195 255 0 0 255 
0.00564 0.229993 2.199 255 0 0 255 
0.011691 0.230516 2.204 255 0 0 255 
0.017754 0.230829 2.207 255 0 0 255 
0.023844 0.231246 2.211 255 0 0 255 
0.029942 0.231558 2.214 255 0 0 255 
0.03604 0.231766 2.216 255 0 0 255 
0.042168 0.232078 2.219 255 0 0 255 
0.048355 0.232598 2.224 255 0 0 255 
0.054619 0.233328 2.231 255 0 0 255 
0.06084 0.233743 2.235 255 0 0 255 
0.067172 0.234472 2.242 255 0 0 255 
0.073574 0.235305 2.25 255 0 0 255 
0.080304 0.236974 2.266 255 0 0 255 
0.087083 0.238538 2.281 255 0 0 255 
0.093575 0.239161 2.287 255 0 0 255 
0.100013 0.239575 2.291 255 0 0 255 
0.106333 0.239674 2.292 255 0 0 255 
0.112756 0.239982 2.295 255 0 0 255 
0.119299 0.240499 2.3 255 0 0 255 
0.125923 0.24112 2.306 255 0 0 255 
0.206229 0.239026 2.287 255 0 0 255 
0.213038 0.239642 2.293 255 0 0 255 
0.218828 0.239109 2.288 255 0 0 255 
0.224885 0.238889 2.286 255 0 0 255 
0.230829 0.238565 2.283 255 0 0 255 
0.237378 0.238867 2.286 255 0 0 255 
0.243624 0.238855 2.286 255 0 0 255 
0.250087 0.239053 2.288 255 0 0 255 
0.256336 0.23904 2.288 255 0 0 255 
0.26224 0.238715 2.285 255 0 0 255 
0.265307 0.235881 2.258 255 0 0 255 
-0.13433 0.13787 2.48031 255 255 0 255 
-0.11941 0.138217 2.47714 255 255 0 255 
-0.107947 0.137892 2.4718 255 255 0 255 
-0.092214 0.138432 2.46932 255 255 0 255 
-0.073083 0.139672 2.46918 255 255 0 255 
-0.05484 0.140757 2.46855 255 255 0 255 
-0.039191 0.141339 2.4663 255 255 0 255 
-0.024422 0.141761 2.46356 255 255 0 255 
-0.006266 0.142889 2.46317 255 255 0 255 
0.006748 0.142989 2.45941 255 255 0 255 
0.020593 0.143274 2.45629 255 255 0 255 
0.026766 0.141995 2.44798 255 255 0 255 
0.032934 0.14072 2.43969 255 255 0 255 
0.034007 0.138393 2.42788 255 255 0 255 
0.039321 0.136944 2.41902 255 255 0 255 
0.041246 0.134791 2.40779 255 255 0 255 
0.049938 0.134054 2.40132 255 255 0 255 
0.056085 0.13279 2.39308 255 255 0 255 
0.06307 0.131707 2.38546 255 255 0 255 
0.064148 0.129379 2.37364 255 255 0 255 
0.064389 0.126869 2.3612 255 255 0 255 
0.06548 0.124535 2.34935 255 255 0 255 
0.069334 0.112469 2.28863 255 255 0 255 
0.125599 0.12214 2.3178 255 255 0 255 
0.135013 0.121645 2.31225 255 255 0 255 
0.142748 0.12079 2.30549 255 255 0 255 
0.165463 0.123242 2.3101 255 255 0 255 
-0.255377 0.06525 2.35079 0 255 0 255 
-0.230986 0.06152 2.34585 0 255 0 255 
-0.191099 0.053617 2.33031 0 255 0 255 
-0.174357 0.052045 2.331 0 255 0 255 
-0.168776 0.05351 2.33946 0 255 0 255 
-0.180412 0.059613 2.35969 0 255 0 255 
-0.183455 0.063386 2.37398 0 255 0 255 
-0.187372 0.067382 2.38882 0 255 0 255 
-0.178351 0.067919 2.39491 0 255 0 255 
-0.171048 0.068923 2.40218 0 255 0 255 
-0.157683 0.06833 2.40546 0 255 0 255 
-0.164208 0.073005 2.42197 0 255 0 255 
-0.164686 0.076072 2.43443 0 255 0 255 
-0.1565 0.076862 2.44119 0 255 0 255 
-0.141362 0.075844 2.44346 0 255 0 255 
-0.140968 0.078689 2.45537 0 255 0 255 
-0.128409 0.07837 2.45942 0 255 0 255 
-0.111482 0.076937 2.46073 0 255 0 255 
-0.312937 0.232366 2.285 255 0 0 255 
-0.309658 0.234617 2.307 255 0 0 255 
-0.303759 0.234936 2.31 255 0 0 255 
-0.297585 0.235051 2.311 255 0 0 255 
-0.291405 0.235166 2.312 255 0 0 255 
-0.285341 0.235383 2.314 255 0 0 255 
-0.279748 0.236006 2.32 255 0 0 255 
-0.27365 0.236222 2.322 255 0 0 255 
-0.267885 0.236744 2.327 255 0 0 255 
-0.261755 0.236959 2.329 255 0 0 255 
-0.256161 0.237684 2.336 255 0 0 255 
-0.250315 0.238204 2.341 255 0 0 255 
-0.244752 0.23903 2.349 255 0 0 255 
-0.238334 0.239042 2.349 255 0 0 255 
-0.230334 0.237424 2.333 255 0 0 255 
-0.223382 0.236825 2.327 255 0 0 255 
-0.216461 0.236225 2.321 255 0 0 255 
-0.209754 0.235828 2.317 255 0 0 255 
-0.202189 0.234413 2.303 255 0 0 255 
-0.194531 0.232794 2.287 255 0 0 255 
-0.186959 0.231174 2.271 255 0 0 255 
-0.180269 0.230572 2.265 255 0 0 255 
-0.173535 0.229868 2.258 255 0 0 255 
-0.166913 0.229266 2.252 255 0 0 255 
-0.160109 0.228358 2.243 255 0 0 255 
-0.153491 0.227653 2.236 255 0 0 255 
-0.147042 0.227151 2.231 255 0 0 255 
-0.140557 0.226547 2.225 255 0 0 255 
-0.133862 0.225536 2.215 255 0 0 255 
-0.12728 0.224626 2.206 255 0 0 255 
-0.120801 0.223817 2.198 255 0 0 255 
-0.11447 0.223212 2.192 255 0 0 255 
-0.108319 0.222912 2.189 255 0 0 255 
-0.102372 0.223019 2.19 255 0 0 255 
-0.096331 0.222922 2.189 255 0 0 255 
-0.090295 0.222825 2.188 255 0 0 255 
-0.084225 0.222626 2.186 255 0 0 255 
-0.078202 0.222528 2.185 255 0 0 255 
-0.072184 0.22243 2.184 255 0 0 255 
-0.066232 0.222535 2.185 255 0 0 255 
-0.060247 0.222539 2.185 255 0 0 255 
-0.054261 0.222542 2.185 255 0 0 255 
-0.048209 0.222239 2.182 255 0 0 255 
-0.042192 0.222037 2.18 255 0 0 255 
-0.03622 0.222039 2.18 255 0 0 255 
-0.030261 0.222143 2.181 255 0 0 255 
-0.024285 0.222144 2.181 255 0 0 255 
-0.018318 0.222247 2.182 255 0 0 255 
-0.012356 0.222553 2.185 255 0 0 255 
-0.006384 0.223063 2.19 255 0 0 255 
-0.000384 0.223573 2.195 255 0 0 255 
0.00564 0.22398 2.199 255 0 0 255 
0.011697 0.224591 2.205 255 0 0 255 
0.017771 0.224997 2.209 255 0 0 255 
0.023866 0.225404 2.213 255 0 0 255 
0.029943 0.225504 2.214 255 0 0 255 
0.036025 0.225604 2.215 255 0 0 255 
0.042189 0.226112 2.22 255 0 0 255 
0.04838 0.226619 2.225 255 0 0 255 
0.054671 0.227431 2.233 255 0 0 255 
0.060924 0.227937 2.238 255 0 0 255 
0.067265 0.228647 2.245 255 0 0 255 
0.073807 0.229865 2.257 255 0 0 255 
0.080556 0.231491 2.273 255 0 0 255 
0.087202 0.232607 2.284 255 0 0 255 
0.093662 0.233112 2.289 255 0 0 255 
0.099974 0.233209 2.29 255 0 0 255 
0.106384 0.233509 2.293 255 0 0 255 
0.112712 0.233605 2.294 255 0 0 255 
0.119253 0.234109 2.299 255 0 0 255 
0.125602 0.234205 2.3 255 0 0 255 
0.207411 0.234099 2.3 255 0 0 255 
0.213235 0.23358 2.295 255 0 0 255 
0.219126 0.233162 2.291 255 0 0 255 
0.224994 0.232745 2.287 255 0 0 255 
0.231042 0.23253 2.285 255 0 0 255 
0.237286 0.232519 2.285 255 0 0 255 
0.243635 0.232609 2.286 255 0 0 255 
0.250208 0.232903 2.289 255 0 0 255 
0.256236 0.232688 2.287 255 0 0 255 
0.261679 0.231964 2.28 255 0 0 255 
-0.134189 0.126676 2.48174 255 255 0 255 
-0.119274 0.127057 2.47857 255 255 0 255 
-0.113816 0.125541 2.4693 255 255 0 255 
-0.090372 0.12768 2.47185 255 255 0 255 
-0.072104 0.128793 2.47112 255 255 0 255 
-0.052158 0.130272 2.47162 255 255 0 255 
-0.042495 0.129665 2.46538 255 255 0 255 
-0.017489 0.132228 2.46947 255 255 0 255 
0.001506 0.13358 2.46967 255 255 0 255 
0.013657 0.133536 2.46534 255 255 0 255 
0.02579 0.133501 2.46107 255 255 0 255 
0.025163 0.130812 2.44811 255 255 0 255 
0.030484 0.129366 2.43922 255 255 0 255 
0.030715 0.12685 2.42682 255 255 0 255 
0.040267 0.1263 2.42088 255 255 0 255 
0.048961 0.125576 2.41439 255 255 0 255 
0.059334 0.125218 2.40912 255 255 0 255 
0.062939 0.123426 2.39912 255 255 0 255 
0.0657 0.121453 2.38851 255 255 0 255 
0.066779 0.119118 2.37669 255 255 0 255 
0.070386 0.117325 2.36668 255 255 0 255 
0.067271 0.114076 2.35181 255 255 0 255 
0.073404 0.112828 2.3436 255 255 0 255 
0.138447 0.111698 2.31593 255 255 0 255 
0.150344 0.111786 2.3123 255 255 0 255 
0.17221 0.114116 2.31629 255 255 0 255 
-0.276696 0.05751 2.35495 0 255 0 255 
-0.253208 0.053928 2.35052 0 255 0 255 
-0.229685 0.050372 2.3462 0 255 0 255 
-0.202693 0.045898 2.33963 0 255 0 255 
-0.173082 0.040749 2.33142 0 255 0 255 
-0.176958 0.044791 2.34637 0 255 0 255 
-0.185148 0.049996 2.36423 0 255 0 255 
-0.183884 0.052617 2.37558 0 255 0 255 
-0.174864 0.053136 2.38168 0 255 0 255 
-0.177051 0.056688 2.39535 0 255 0 255 
-0.166292 0.056753 2.40033 0 255 0 255 
-0.158115 0.057522 2.40708 0 255 0 255 
-0.155983 0.059915 2.41787 0 255 0 255 
-0.172899 0.067378 2.44118 0 255 0 255 
-0.160389 0.066999 2.4451 0 255 0 255 
-0.104551 0.067102 2.46993 0 255 0 255 
-0.084109 0.06475 2.46918 0 255 0 255 
-0.314184 0.227015 2.294 255 0 0 255 
-0.30994 0.228514 2.309 255 0 0 255 
-0.304035 0.228824 2.312 255 0 0 255 
-0.297856 0.228936 2.313 255 0 0 255 
-0.29167 0.229048 2.314 255 0 0 255 
-0.285724 0.229358 2.317 255 0 0 255 
-0.280002 0.229866 2.322 255 0 0 255 
-0.274134 0.230274 2.326 255 0 0 255 
-0.268243 0.230683 2.33 255 0 0 255 
-0.262104 0.230893 2.332 255 0 0 255 
-0.256283 0.2314 2.337 255 0 0 255 
-0.25054 0.232005 2.343 255 0 0 255 
-0.245493 0.233304 2.356 255 0 0 255 
-0.239157 0.233414 2.357 255 0 0 255 
-0.230247 0.230949 2.332 255 0 0 255 
-0.223488 0.230564 2.328 255 0 0 255 
-0.216471 0.229881 2.321 255 0 0 255 
-0.209673 0.229396 2.316 255 0 0 255 
-0.202287 0.228217 2.304 255 0 0 255 
-0.19454 0.226542 2.287 255 0 0 255 
-0.186968 0.224966 2.271 255 0 0 255 
-0.180119 0.224182 2.263 255 0 0 255 
-0.173467 0.223596 2.257 255 0 0 255 
-0.166847 0.22301 2.251 255 0 0 255 
-0.160117 0.222225 2.243 255 0 0 255 
-0.153567 0.221638 2.237 255 0 0 255 
-0.147049 0.221051 2.231 255 0 0 255 
-0.140564 0.220464 2.225 255 0 0 255 
-0.133808 0.21938 2.214 255 0 0 255 
-0.127113 0.218297 2.203 255 0 0 255 
-0.120752 0.217708 2.197 255 0 0 255 
-0.114528 0.217317 2.193 255 0 0 255 
-0.108374 0.217026 2.19 255 0 0 255 
-0.10233 0.216932 2.189 255 0 0 255 
-0.096336 0.216936 2.189 255 0 0 255 
-0.090341 0.216941 2.189 255 0 0 255 
-0.084229 0.216648 2.186 255 0 0 255 
-0.07817 0.216454 2.184 255 0 0 255 
-0.072122 0.216259 2.182 255 0 0 255 
-0.066175 0.216362 2.183 255 0 0 255 
-0.06025 0.216563 2.185 255 0 0 255 
-0.054264 0.216566 2.185 255 0 0 255 
-0.048233 0.21637 2.183 255 0 0 255 
-0.042194 0.216075 2.18 255 0 0 255 
-0.036238 0.216176 2.181 255 0 0 255 
-0.03029 0.216376 2.183 255 0 0 255 
-0.024309 0.216377 2.183 255 0 0 255 
-0.018335 0.216478 2.184 255 0 0 255 
-0.012368 0.216776 2.187 255 0 0 255 
-0.00639 0.217272 2.192 255 0 0 255 
-0.000385 0.217867 2.198 255 0 0 255 
0.005651 0.218362 2.203 255 0 0 255 
0.011714 0.218857 2.208 255 0 0 255 
0.01778 0.219055 2.21 255 0 0 255 
0.023846 0.219153 2.211 255 0 0 255 
0.029931 0.21935 2.213 255 0 0 255 
0.036027 0.219546 2.215 255 0 0 255 
0.042248 0.220337 2.223 255 0 0 255 
0.048491 0.221029 2.23 255 0 0 255 
0.054747 0.221621 2.236 255 0 0 255 
0.060982 0.222015 2.24 255 0 0 255 
0.067388 0.222904 2.249 255 0 0 255 
0.073974 0.224189 2.262 255 0 0 255 
0.080595 0.225374 2.274 255 0 0 255 
0.087168 0.226262 2.283 255 0 0 255 
0.093584 0.226654 2.287 255 0 0 255 
0.099935 0.226847 2.289 255 0 0 255 
0.106343 0.22714 2.292 255 0 0 255 
0.112669 0.227233 2.293 255 0 0 255 
0.119103 0.227525 2.296 255 0 0 255 
0.125335 0.22742 2.295 255 0 0 255 
0.201569 0.228317 2.305 255 0 0 255 
0.207691 0.228109 2.303 255 0 0 255 
0.213523 0.227604 2.298 255 0 0 255 
0.219423 0.227198 2.294 255 0 0 255 
0.225103 0.226593 2.288 255 0 0 255 
0.231053 0.226286 2.285 255 0 0 255 
0.237193 0.226176 2.284 255 0 0 255 
0.243647 0.226363 2.286 255 0 0 255 
0.250111 0.226549 2.288 255 0 0 255 
0.25636 0.226538 2.288 255 0 0 255 
0.261346 0.225437 2.277 255 0 0 255 
-0.11882 0.113318 2.46737 255 255 0 255 
-0.093666 0.115867 2.471 255 255 0 255 
-0.052041 0.119259 2.47299 255 255 0 255 
-0.044086 0.118314 2.4656 255 255 0 255 
-0.015677 0.121655 2.47195 255 255 0 255 
0.010123 0.124485 2.47673 255 255 0 255 
0.017158 0.123396 2.46896 255 255 0 255 
0.028435 0.123209 2.4641 255 255 0 255 
0.032053 0.121409 2.45406 255 255 0 255 
0.033127 0.119068 2.44226 255 255 0 255 
0.035901 0.117087 2.43163 255 255 0 255 
0.045446 0.116557 2.4257 255 255 0 255 
0.054978 0.116033 2.41981 255 255 0 255 
0.062809 0.115152 2.41276 255 255 0 255 
0.062194 0.112447 2.39978 255 255 0 255 
0.064116 0.110288 2.38857 255 255 0 255 
0.069408 0.108862 2.37975 255 255 0 255 
0.068811 0.106149 2.36672 255 255 0 255 
0.069902 0.103802 2.35487 255 255 0 255 
0.071837 0.101637 2.34362 255 255 0 255 
0.087187 0.102439 2.34215 255 255 0 255 
0.162098 0.103759 2.32224 255 255 0 255 
0.170633 0.103134 2.31618 255 255 0 255 
-0.271102 0.045261 2.35225 0 255 0 255 
-0.246764 0.041382 2.34725 0 255 0 255 
-0.227532 0.038964 2.34596 0 255 0 255 
-0.208271 0.036567 2.34477 0 255 0 255 
-0.203577 0.038235 2.35374 0 255 0 255 
-0.197162 0.039431 2.36153 0 255 0 255 
-0.202781 0.043947 2.37756 0 255 0 255 
-0.198947 0.045854 2.38712 0 255 0 255 
-0.178743 0.043282 2.38562 0 255 0 255 
-0.177479 0.045907 2.39696 0 255 0 255 
-0.182259 0.050173 2.41234 0 255 0 255 
-0.172369 0.050449 2.4179 0 255 0 255 
-0.153822 0.048398 2.41779 0 255 0 255 
-0.153417 0.051262 2.42972 0 255 0 255 
-0.156482 0.055052 2.4439 0 255 0 255 
-0.103254 0.05574 2.47051 0 255 0 255 
-0.088913 0.054944 2.47365 0 255 0 255 
-0.314608 0.221038 2.297 255 0 0 255 
-0.310625 0.222687 2.314 255 0 0 255 
-0.304706 0.222989 2.317 255 0 0 255 
-0.298127 0.22281 2.315 255 0 0 255 
-0.291809 0.222823 2.315 255 0 0 255 
-0.28586 0.223124 2.318 255 0 0 255 
-0.280014 0.223521 2.322 255 0 0 255 
-0.274264 0.224015 2.327 255 0 0 255 
-0.268255 0.224316 2.33 255 0 0 255 
-0.262566 0.224905 2.336 255 0 0 255 
-0.256733 0.225398 2.341 255 0 0 255 
-0.251193 0.22618 2.349 255 0 0 255 
-0.246234 0.227539 2.363 255 0 0 255 
-0.239878 0.227646 2.364 255 0 0 255 
-0.230652 0.224961 2.336 255 0 0 255 
-0.223883 0.224586 2.332 255 0 0 255 
-0.216668 0.223729 2.323 255 0 0 255 
-0.209683 0.223064 2.316 255 0 0 255 
-0.202296 0.221918 2.304 255 0 0 255 
-0.194804 0.220579 2.29 255 0 0 255 
-0.187306 0.219143 2.275 255 0 0 255 
-0.180207 0.218092 2.264 255 0 0 255 
-0.173475 0.217426 2.257 255 0 0 255 
-0.166781 0.216759 2.25 255 0 0 255 
-0.160196 0.216189 2.244 255 0 0 255 
-0.153643 0.215618 2.238 255 0 0 255 
-0.14699 0.214854 2.23 255 0 0 255 
-0.140444 0.214187 2.223 255 0 0 255 
-0.133875 0.213422 2.215 255 0 0 255 
-0.127292 0.212561 2.206 255 0 0 255 
-0.120977 0.212085 2.201 255 0 0 255 
-0.114742 0.211705 2.197 255 0 0 255 
-0.108627 0.211518 2.195 255 0 0 255 
-0.102476 0.211234 2.192 255 0 0 255 
-0.096428 0.211142 2.191 255 0 0 255 
-0.090427 0.211147 2.191 255 0 0 255 
-0.084311 0.210862 2.188 255 0 0 255 
-0.078281 0.210769 2.187 255 0 0 255 
-0.072191 0.210484 2.184 255 0 0 255 
-0.066208 0.210487 2.184 255 0 0 255 
-0.06017 0.210297 2.182 255 0 0 255 
-0.054217 0.210397 2.183 255 0 0 255 
-0.048258 0.210495 2.184 255 0 0 255 
-0.042235 0.210305 2.182 255 0 0 255 
-0.036273 0.210403 2.183 255 0 0 255 
-0.030305 0.210501 2.184 255 0 0 255 
-0.024343 0.210695 2.186 255 0 0 255 
-0.018362 0.210793 2.187 255 0 0 255 
-0.01238 0.210986 2.189 255 0 0 255 
-0.006393 0.211372 2.193 255 0 0 255 
-0.000385 0.211951 2.199 255 0 0 255 
0.005651 0.212336 2.203 255 0 0 255 
0.011709 0.212721 2.207 255 0 0 255 
0.017765 0.212817 2.208 255 0 0 255 
0.023836 0.213009 2.21 255 0 0 255 
0.029919 0.2132 2.212 255 0 0 255 
0.036062 0.21368 2.217 255 0 0 255 
0.042326 0.214642 2.227 255 0 0 255 
0.048624 0.215508 2.236 255 0 0 255 
0.054848 0.215891 2.24 255 0 0 255 
0.061148 0.216466 2.246 255 0 0 255 
0.067571 0.21733 2.255 255 0 0 255 
0.074108 0.218387 2.266 255 0 0 255 
0.080635 0.219251 2.275 255 0 0 255 
0.087096 0.219825 2.281 255 0 0 255 
0.093466 0.22011 2.284 255 0 0 255 
0.099897 0.220491 2.288 255 0 0 255 
0.106302 0.220775 2.291 255 0 0 255 
0.112674 0.220962 2.293 255 0 0 255 
0.118953 0.220957 2.293 255 0 0 255 
0.125177 0.220855 2.292 255 0 0 255 
0.201316 0.221727 2.302 255 0 0 255 
0.207611 0.221717 2.302 255 0 0 255 
0.213533 0.221322 2.298 255 0 0 255 
0.219433 0.220927 2.294 255 0 0 255 
0.225113 0.220339 2.288 255 0 0 255 
0.231063 0.22004 2.285 255 0 0 255 
0.237204 0.219933 2.284 255 0 0 255 
0.243551 0.220019 2.285 255 0 0 255 
0.250013 0.2202 2.287 255 0 0 255 
0.256036 0.219996 2.285 255 0 0 255 
0.260555 0.218541 2.27 255 0 0 255 
-0.089254 0.105634 2.47521 255 255 0 255 
-0.070144 0.107016 2.47502 255 255 0 255 
-0.054484 0.107695 2.47266 255 255 0 255 
-0.039702 0.108206 2.46981 255 255 0 255 
-0.017275 0.110357 2.47215 255 255 0 255 
0.001707 0.111803 2.47232 255 255 0 255 
0.019806 0.113084 2.472 255 255 0 255 
0.020883 0.110734 2.4602 255 255 0 255 
0.018572 0.107651 2.44606 255 255 0 255 
0.028988 0.107309 2.44064 255 255 0 255 
0.031768 0.105323 2.42999 255 255 0 255 
0.046391 0.105913 2.42757 255 255 0 255 
0.063526 0.10707 2.42699 255 255 0 255 
0.060375 0.1038 2.41224 255 255 0 255 
0.061453 0.101452 2.40044 255 255 0 255 
0.068431 0.100402 2.39281 255 255 0 255 
0.070354 0.098238 2.3816 255 255 0 255 
0.071441 0.095886 2.36978 255 255 0 255 
0.063297 0.091472 2.35127 255 255 0 255 
0.07279 0.090987 2.34547 255 255 0 255 
0.087297 0.091638 2.34338 255 255 0 255 
0.095921 0.09098 2.33705 255 255 0 255 
0.15281 0.093549 2.32889 255 255 0 255 
0.168847 0.09465 2.32841 255 255 0 255 
-0.270647 0.034421 2.35316 0 255 0 255 
-0.254878 0.0329 2.35418 0 255 0 255 
-0.239943 0.031637 2.35587 0 255 0 255 
-0.226703 0.030871 2.35882 0 255 0 255 
-0.221166 0.032283 2.36714 0 255 0 255 
-0.204462 0.030579 2.36783 0 255 0 255 
-0.206643 0.03416 2.38149 0 255 0 255 
-0.207972 0.037495 2.39454 0 255 0 255 
-0.197256 0.037489 2.39943 0 255 0 255 
-0.183941 0.036779 2.40263 0 255 0 255 
-0.189582 0.041303 2.41856 0 255 0 255 
-0.178838 0.041318 2.42354 0 255 0 255 
-0.176719 0.043705 2.43427 0 255 0 255 
-0.159903 0.042085 2.43534 0 255 0 255 
-0.143063 0.040483 2.43649 0 255 0 255 
-0.10196 0.044357 2.4711 0 255 0 255 
-0.090233 0.044225 2.47591 0 255 0 255 
-0.311041 0.216646 2.317 255 0 0 255 
-0.305114 0.216939 2.32 255 0 0 255 
-0.298526 0.216765 2.318 255 0 0 255 
-0.292199 0.216778 2.318 255 0 0 255 
-0.285996 0.216883 2.319 255 0 0 255 
-0.280147 0.21727 2.323 255 0 0 255 
-0.274276 0.217656 2.327 255 0 0 255 
-0.268497 0.218135 2.332 255 0 0 255 
-0.262802 0.218708 2.338 255 0 0 255 
-0.257183 0.219374 2.345 255 0 0 255 
-0.251846 0.220321 2.355 255 0 0 255 
-0.239787 0.221091 2.363 255 0 0 255 
-0.230662 0.218575 2.336 255 0 0 255 
-0.223893 0.21821 2.332 255 0 0 255 
-0.216771 0.217472 2.324 255 0 0 255 
-0.209692 0.216733 2.316 255 0 0 255 
-0.202217 0.215525 2.303 255 0 0 255 
-0.194813 0.214317 2.29 255 0 0 255 
-0.187314 0.212922 2.275 255 0 0 255 
-0.180056 0.211714 2.262 255 0 0 255 
-0.173175 0.210879 2.253 255 0 0 255 
-0.166566 0.210326 2.247 255 0 0 255 
-0.160132 0.209959 2.243 255 0 0 255 
-0.153513 0.20931 2.236 255 0 0 255 
-0.146931 0.208662 2.229 255 0 0 255 
-0.140261 0.207826 2.22 255 0 0 255 
-0.133761 0.207177 2.213 255 0 0 255 
-0.127298 0.206528 2.206 255 0 0 255 
-0.121038 0.206159 2.202 255 0 0 255 
-0.114904 0.205977 2.2 255 0 0 255 
-0.10878 0.205795 2.198 255 0 0 255 
-0.102574 0.205425 2.194 255 0 0 255 
-0.096521 0.205336 2.193 255 0 0 255 
-0.090473 0.205247 2.192 255 0 0 255 
-0.084392 0.205064 2.19 255 0 0 255 
-0.078357 0.204974 2.189 255 0 0 255 
-0.072261 0.204697 2.186 255 0 0 255 
-0.066242 0.204606 2.185 255 0 0 255 
-0.060173 0.204328 2.182 255 0 0 255 
-0.054219 0.204425 2.183 255 0 0 255 
-0.048282 0.204614 2.185 255 0 0 255 
-0.042314 0.20471 2.186 255 0 0 255 
-0.036341 0.204806 2.187 255 0 0 255 
-0.030348 0.204807 2.187 255 0 0 255 
-0.024367 0.204902 2.188 255 0 0 255 
-0.018388 0.20509 2.19 255 0 0 255 
-0.012398 0.205279 2.192 255 0 0 255 
-0.006402 0.205654 2.196 255 0 0 255 
-0.000385 0.206028 2.2 255 0 0 255 
0.005659 0.20659 2.206 255 0 0 255 
0.011709 0.206683 2.207 255 0 0 255 
0.017765 0.206776 2.208 255 0 0 255 
0.023827 0.206869 2.209 255 0 0 255 
0.029948 0.207336 2.214 255 0 0 255 
0.036145 0.208084 2.222 255 0 0 255 
0.042423 0.209018 2.232 255 0 0 255 
0.048735 0.209859 2.241 255 0 0 255 
0.054948 0.210137 2.244 255 0 0 255 
0.061314 0.210884 2.252 255 0 0 255 
0.067784 0.211817 2.262 255 0 0 255 
0.074275 0.212657 2.271 255 0 0 255 
0.080745 0.213308 2.278 255 0 0 255 
0.087062 0.213492 2.28 255 0 0 255 
0.093348 0.213581 2.281 255 0 0 255 
0.09977 0.213951 2.285 255 0 0 255 
0.106168 0.214227 2.288 255 0 0 255 
0.11263 0.214597 2.292 255 0 0 255 
0.118907 0.214591 2.292 255 0 0 255 
0.201675 0.215807 2.306 255 0 0 255 
0.207801 0.215611 2.304 255 0 0 255 
0.213636 0.215133 2.299 255 0 0 255 
0.219347 0.214562 2.293 255 0 0 255 
0.225123 0.214085 2.288 255 0 0 255 
0.231175 0.213887 2.286 255 0 0 255 
0.23763 0.214064 2.288 255 0 0 255 
0.243882 0.214054 2.288 255 0 0 255 
0.250024 0.213949 2.287 255 0 0 255 
0.255823 0.213564 2.283 255 0 0 255 
0.260451 0.212243 2.269 255 0 0 255 
-0.097675 0.09269 2.47101 255 255 0 255 
-0.086252 0.092475 2.46572 255 255 0 255 
-0.054362 0.096652 2.47404 255 255 0 255 
-0.043848 0.096281 2.46833 255 255 0 255 
-0.026535 0.097386 2.46723 255 255 0 255 
-0.004996 0.099426 2.46906 255 255 0 255 
0.023303 0.102961 2.47561 255 255 0 255 
0.030323 0.101899 2.46786 255 255 0 255 
0.02631 0.098431 2.45259 255 255 0 255 
0.021466 0.09477 2.43669 255 255 0 255 
0.042875 0.096875 2.43889 255 255 0 255 
0.060019 0.098065 2.43825 255 255 0 255 
0.067845 0.097211 2.4312 255 255 0 255 
0.060475 0.092985 2.41351 255 255 0 255 
0.05987 0.090252 2.40052 255 255 0 255 
0.062642 0.088269 2.38989 255 255 0 255 
0.087279 0.091199 2.39486 255 255 0 255 
0.07743 0.086385 2.37525 255 255 0 255 
0.071805 0.082507 2.35858 255 255 0 255 
0.074581 0.080522 2.34793 255 255 0 255 
0.096868 0.080375 2.33889 255 255 0 255 
0.090441 0.076289 2.32151 255 255 0 255 
0.104066 0.076804 2.3189 255 255 0 255 
0.137678 0.081951 2.33124 255 255 0 255 
0.159565 0.084428 2.33504 255 255 0 255 
-0.267154 0.019734 2.33985 0 255 0 255 
-0.272758 0.024301 2.35589 0 255 0 255 
-0.262985 0.024454 2.3611 0 255 0 255 
-0.251487 0.024127 2.36516 0 255 0 255 
-0.235691 0.022593 2.36631 0 255 0 255 
-0.22759 0.023264 2.37285 0 255 0 255 
-0.207466 0.020545 2.37118 0 255 0 255 
-0.199337 0.021237 2.37781 0 255 0 255 
-0.18862 0.02121 2.38273 0 255 0 255 
-0.187354 0.023844 2.39407 0 255 0 255 
-0.196426 0.02936 2.41233 0 255 0 255 
-0.187419 0.029825 2.41844 0 255 0 255 
-0.181852 0.031255 2.42688 0 255 0 255 
-0.178007 0.033166 2.43647 0 255 0 255 
-0.178482 0.03627 2.4489 0 255 0 255 
-0.153015 0.032239 2.44436 0 255 0 255 
-0.080693 0.027548 2.45899 0 255 0 255 
-0.079384 0.030217 2.47048 0 255 0 255 
-0.316963 0.21003 2.314 255 0 0 255 
-0.311053 0.210315 2.317 255 0 0 255 
-0.305126 0.2106 2.32 255 0 0 255 
-0.298538 0.210431 2.318 255 0 0 255 
-0.292338 0.210534 2.319 255 0 0 255 
-0.286131 0.210637 2.32 255 0 0 255 
-0.280159 0.210921 2.323 255 0 0 255 
-0.274405 0.211386 2.328 255 0 0 255 
-0.268739 0.211943 2.334 255 0 0 255 
-0.263151 0.212589 2.341 255 0 0 255 
-0.257633 0.213327 2.349 255 0 0 255 
-0.253247 0.215063 2.368 255 0 0 255 
-0.239696 0.21454 2.362 255 0 0 255 
-0.231067 0.212551 2.34 255 0 0 255 
-0.224095 0.212016 2.334 255 0 0 255 
-0.216967 0.211299 2.326 255 0 0 255 
-0.209702 0.2104 2.316 255 0 0 255 
-0.202314 0.209319 2.304 255 0 0 255 
-0.195077 0.208328 2.293 255 0 0 255 
-0.187817 0.207246 2.281 255 0 0 255 
-0.180542 0.206073 2.268 255 0 0 255 
-0.173568 0.205172 2.258 255 0 0 255 
-0.166722 0.204362 2.249 255 0 0 255 
-0.160139 0.203824 2.243 255 0 0 255 
-0.153313 0.202922 2.233 255 0 0 255 
-0.14674 0.202293 2.226 255 0 0 255 
-0.140141 0.201572 2.218 255 0 0 255 
-0.133827 0.201215 2.214 255 0 0 255 
-0.127477 0.200766 2.209 255 0 0 255 
-0.121318 0.20059 2.207 255 0 0 255 
-0.115066 0.200232 2.203 255 0 0 255 
-0.108983 0.200146 2.202 255 0 0 255 
-0.102719 0.199696 2.197 255 0 0 255 
-0.096613 0.199519 2.195 255 0 0 255 
-0.090518 0.199341 2.193 255 0 0 255 
-0.08455 0.199436 2.194 255 0 0 255 
-0.078504 0.199349 2.193 255 0 0 255 
-0.072396 0.19908 2.19 255 0 0 255 
-0.066305 0.19881 2.187 255 0 0 255 
-0.060203 0.198449 2.183 255 0 0 255 
-0.054247 0.198543 2.184 255 0 0 255 
-0.048306 0.198727 2.186 255 0 0 255 
-0.042336 0.19882 2.187 255 0 0 255 
-0.036359 0.198913 2.188 255 0 0 255 
-0.030364 0.198914 2.188 255 0 0 255 
-0.024401 0.199188 2.191 255 0 0 255 
-0.018422 0.199462 2.194 255 0 0 255 
-0.012421 0.199645 2.196 255 0 0 255 
-0.006409 0.199827 2.198 255 0 0 255 
-0.000385 0.2001 2.201 255 0 0 255 
0.005654 0.200372 2.204 255 0 0 255 
0.01171 0.200645 2.207 255 0 0 255 
0.017774 0.200826 2.209 255 0 0 255 
0.023849 0.201007 2.211 255 0 0 255 
0.02999 0.201551 2.217 255 0 0 255 
0.03626 0.20264 2.229 255 0 0 255 
0.042539 0.203457 2.238 255 0 0 255 
0.048802 0.204 2.244 255 0 0 255 
0.055073 0.204452 2.249 255 0 0 255 
0.061426 0.205086 2.256 255 0 0 255 
0.067877 0.205901 2.265 255 0 0 255 
0.074279 0.206443 2.271 255 0 0 255 
0.080749 0.207076 2.278 255 0 0 255 
0.087027 0.207163 2.279 255 0 0 255 
0.09327 0.207159 2.279 255 0 0 255 
0.0996 0.207337 2.281 255 0 0 255 
0.105987 0.207605 2.284 255 0 0 255 
0.112537 0.208145 2.29 255 0 0 255 
0.202121 0.209956 2.311 255 0 0 255 
0.207539 0.209038 2.301 255 0 0 255 
0.213273 0.208484 2.295 255 0 0 255 
0.218879 0.207839 2.288 255 0 0 255 
0.224936 0.207648 2.286 255 0 0 255 
0.231084 0.207547 2.285 255 0 0 255 
0.237744 0.2079 2.289 255 0 0 255 
0.243786 0.207708 2.287 255 0 0 255 
0.249816 0.207516 2.285 255 0 0 255 
0.255049 0.206688 2.276 255 0 0 255 
-0.110684 0.081359 2.47667 255 255 0 255 
-0.116343 0.07747 2.46012 255 255 0 255 
-0.06021 0.0843 2.47147 255 255 0 255 
-0.050544 0.083761 2.46516 255 255 0 255 
-0.03408 0.084718 2.46345 255 255 0 255 
-0.016793 0.085876 2.46239 255 255 0 255 
0.014905 0.090228 2.47118 255 255 0 255 
0.03042 0.091048 2.46917 255 255 0 255 
0.025565 0.087368 2.45332 255 255 0 255 
0.021574 0.083869 2.438 255 255 0 255 
0.039593 0.085273 2.43784 255 255 0 255 
0.05927 0.087071 2.43894 255 255 0 255 
0.073004 0.087558 2.43601 255 255 0 255 
0.079127 0.086344 2.42781 255 255 0 255 
0.084403 0.084942 2.41903 255 255 0 255 
0.086308 0.082778 2.40787 255 255 0 255 
0.075611 0.077739 2.38771 255 255 0 255 
0.065783 0.072877 2.36806 255 255 0 255 
0.061016 0.069156 2.35197 255 255 0 255 
0.096726 0.07213 2.35255 255 255 0 255 
0.107846 0.07209 2.34807 255 255 0 255 
0.122291 0.072835 2.3461 255 255 0 255 
0.145054 0.075539 2.35036 255 255 0 255 
0.175274 0.080021 2.36032 255 255 0 255 
0.145507 0.070448 2.32564 255 255 0 255 
0.183991 0.076916 2.34198 255 255 0 255 
-0.277432 0.014924 2.36041 0 255 0 255 
-0.269374 0.015549 2.36682 0 255 0 255 
-0.251898 0.013467 2.36671 0 255 0 255 
-0.230115 0.010172 2.36372 0 255 0 255 
-0.228866 0.012796 2.37501 0 255 0 255 
-0.22419 0.014438 2.38393 0 255 0 255 
-0.202342 0.011191 2.38116 0 255 0 255 
-0.170153 0.00504 2.37152 0 255 0 255 
-0.188647 0.013292 2.39626 0 255 0 255 
-0.199432 0.01933 2.41567 0 255 0 255 
-0.186983 0.018806 2.41948 0 255 0 255 
-0.168484 0.016601 2.41935 0 255 0 255 
-0.161175 0.017553 2.42671 0 255 0 255 
-0.155586 0.018993 2.43522 0 255 0 255 
-0.13962 0.017553 2.43698 0 255 0 255 
-0.055982 0.009649 2.44471 0 255 0 255 
-0.034585 0.012996 2.46849 0 255 0 255 
-0.317935 0.204323 2.321 255 0 0 255 
-0.311737 0.204424 2.322 255 0 0 255 
-0.305402 0.204436 2.322 255 0 0 255 
-0.298937 0.20436 2.321 255 0 0 255 
-0.292602 0.204372 2.321 255 0 0 255 
-0.286266 0.204384 2.321 255 0 0 255 
-0.280171 0.204571 2.323 255 0 0 255 
-0.274535 0.205111 2.329 255 0 0 255 
-0.26898 0.205738 2.336 255 0 0 255 
-0.263499 0.206454 2.344 255 0 0 255 
-0.257973 0.207169 2.352 255 0 0 255 
-0.238488 0.207024 2.35 255 0 0 255 
-0.23088 0.205977 2.338 255 0 0 255 
-0.223816 0.20537 2.331 255 0 0 255 
-0.216697 0.204674 2.323 255 0 0 255 
-0.20962 0.203978 2.315 255 0 0 255 
-0.202411 0.203106 2.305 255 0 0 255 
-0.195255 0.202233 2.295 255 0 0 255 
-0.188072 0.201272 2.284 255 0 0 255 
-0.181027 0.200399 2.274 255 0 0 255 
-0.174267 0.199789 2.267 255 0 0 255 
-0.167396 0.199003 2.258 255 0 0 255 
-0.160503 0.198129 2.248 255 0 0 255 
-0.153595 0.197166 2.237 255 0 0 255 
-0.146944 0.196468 2.229 255 0 0 255 
-0.140274 0.195681 2.22 255 0 0 255 
-0.133954 0.195334 2.216 255 0 0 255 
-0.12754 0.194811 2.21 255 0 0 255 
-0.121434 0.194728 2.209 255 0 0 255 
-0.115176 0.194381 2.205 255 0 0 255 
-0.109038 0.194209 2.203 255 0 0 255 
-0.10277 0.193773 2.198 255 0 0 255 
-0.096662 0.193601 2.196 255 0 0 255 
-0.090605 0.193517 2.195 255 0 0 255 
-0.084592 0.193521 2.195 255 0 0 255 
-0.078579 0.193525 2.195 255 0 0 255 
-0.072466 0.193264 2.192 255 0 0 255 
-0.066369 0.193002 2.189 255 0 0 255 
-0.060316 0.192829 2.187 255 0 0 255 
-0.054323 0.192831 2.187 255 0 0 255 
-0.048353 0.192922 2.188 255 0 0 255 
-0.042357 0.192924 2.188 255 0 0 255 
-0.036378 0.193014 2.189 255 0 0 255 
-0.030407 0.193191 2.191 255 0 0 255 
-0.024424 0.193369 2.193 255 0 0 255 
-0.01844 0.193635 2.196 255 0 0 255 
-0.012433 0.193812 2.198 255 0 0 255 
-0.006418 0.194077 2.201 255 0 0 255 
-0.000386 0.194341 2.204 255 0 0 255 
0.005662 0.194606 2.207 255 0 0 255 
0.011716 0.194693 2.208 255 0 0 255 
0.017775 0.194781 2.209 255 0 0 255 
0.023872 0.195133 2.213 255 0 0 255 
0.030059 0.195925 2.222 255 0 0 255 
0.036359 0.19707 2.235 255 0 0 255 
0.042598 0.197597 2.241 255 0 0 255 
0.048826 0.197948 2.245 255 0 0 255 
0.055125 0.198475 2.251 255 0 0 255 
0.061483 0.199089 2.258 255 0 0 255 
0.06782 0.199527 2.263 255 0 0 255 
0.074217 0.200053 2.269 255 0 0 255 
0.080611 0.20049 2.274 255 0 0 255 
0.086955 0.200751 2.277 255 0 0 255 
0.093234 0.200835 2.278 255 0 0 255 
0.099517 0.200919 2.279 255 0 0 255 
0.105852 0.201091 2.281 255 0 0 255 
0.112395 0.201615 2.287 255 0 0 255 
0.19708 0.204966 2.326 255 0 0 255 
0.20178 0.203283 2.307 255 0 0 255 
0.207187 0.202393 2.297 255 0 0 255 
0.213004 0.201944 2.292 255 0 0 255 
0.218888 0.201582 2.288 255 0 0 255 
0.225143 0.201573 2.288 255 0 0 255 
0.231498 0.201652 2.289 255 0 0 255 
0.237858 0.20173 2.29 255 0 0 255 
0.244009 0.201632 2.289 255 0 0 255 
0.249935 0.201357 2.286 255 0 0 255 
0.255396 0.20073 2.279 255 0 0 255 
-0.115142 0.071831 2.48795 255 255 0 255 
-0.099103 0.069977 2.47273 255 255 0 255 
-0.100488 0.066996 2.45899 255 255 0 255 
-0.073724 0.07021 2.46383 255 255 0 255 
-0.051268 0.072507 2.46598 255 255 0 255 
-0.033107 0.073881 2.46539 255 255 0 255 
-0.019227 0.074323 2.46203 255 255 0 255 
0.009066 0.078002 2.46849 255 255 0 255 
0.021189 0.078094 2.46414 255 255 0 255 
0.022281 0.075718 2.45232 255 255 0 255 
0.022531 0.073148 2.4399 255 255 0 255 
0.029553 0.072107 2.43213 255 255 0 255 
0.048389 0.073757 2.4326 255 255 0 255 
0.069723 0.076001 2.43492 255 255 0 255 
0.08175 0.076142 2.43085 255 255 0 255 
0.081972 0.073587 2.4185 255 255 0 255 
0.077997 0.07006 2.40316 255 255 0 255 
0.074037 0.066525 2.38777 255 255 0 255 
0.068416 0.062594 2.37113 255 255 0 255 
0.075387 0.061579 2.3635 255 255 0 255 
0.058069 0.054897 2.3383 255 255 0 255 
0.062542 0.053289 2.32881 255 255 0 255 
0.11798 0.063665 2.35663 255 255 0 255 
0.154944 0.069765 2.37126 255 255 0 255 
0.175161 0.071955 2.37375 255 255 0 255 
0.172857 0.068823 2.35963 255 255 0 255 
-0.279914 0.001952 2.35133 0 255 0 255 
-0.282102 0.005563 2.36493 0 255 0 255 
-0.268925 0.004671 2.36775 0 255 0 255 
-0.250601 0.002297 2.36707 0 255 0 255 
-0.237851 0.004557 2.38247 0 255 0 255 
-0.217754 0.001731 2.38081 0 255 0 255 
-0.207064 0.001645 2.38568 0 255 0 255 
-0.177049 -0.000957 2.38976 0 255 0 255 
-0.172333 0.000711 2.39883 0 255 0 255 
-0.171917 0.003606 2.41077 0 255 0 255 
-0.168059 0.005521 2.42041 0 255 0 255 
-0.154714 0.004754 2.4238 0 255 0 255 
-0.149983 0.006434 2.43291 0 255 0 255 
-0.144385 0.007874 2.44147 0 255 0 255 
-0.057331 -0.001205 2.44701 0 255 0 255 
-0.048182 -0.000666 2.45364 0 255 0 255 
-0.03207 -0.002032 2.45593 0 255 0 255 
-0.016805 -0.003142 2.45885 0 255 0 255 
-0.312286 0.198419 2.326 255 0 0 255 
-0.305677 0.19826 2.324 255 0 0 255 
-0.299077 0.198102 2.322 255 0 0 255 
-0.292739 0.198113 2.322 255 0 0 255 
-0.286647 0.198295 2.324 255 0 0 255 
-0.280544 0.198477 2.326 255 0 0 255 
-0.274781 0.198914 2.331 255 0 0 255 
-0.269106 0.199437 2.337 255 0 0 255 
-0.263847 0.200301 2.347 255 0 0 255 
-0.258641 0.201251 2.358 255 0 0 255 
-0.237889 0.200086 2.344 255 0 0 255 
-0.230297 0.199071 2.332 255 0 0 255 
-0.223057 0.198312 2.323 255 0 0 255 
-0.215959 0.197638 2.315 255 0 0 255 
-0.209176 0.19722 2.31 255 0 0 255 
-0.202244 0.19663 2.303 255 0 0 255 
-0.195264 0.195956 2.295 255 0 0 255 
-0.188409 0.195366 2.288 255 0 0 255 
-0.181512 0.19469 2.28 255 0 0 255 
-0.174889 0.194271 2.275 255 0 0 255 
-0.168071 0.193595 2.267 255 0 0 255 
-0.161152 0.192748 2.257 255 0 0 255 
-0.154219 0.191815 2.246 255 0 0 255 
-0.147544 0.191138 2.238 255 0 0 255 
-0.140911 0.190461 2.23 255 0 0 255 
-0.134443 0.189954 2.224 255 0 0 255 
-0.127834 0.189191 2.215 255 0 0 255 
-0.121549 0.188855 2.211 255 0 0 255 
-0.115181 0.188347 2.205 255 0 0 255 
-0.109092 0.188267 2.204 255 0 0 255 
-0.102915 0.188015 2.201 255 0 0 255 
-0.096842 0.187934 2.2 255 0 0 255 
-0.090733 0.187767 2.198 255 0 0 255 
-0.084673 0.187685 2.197 255 0 0 255 
-0.078618 0.187603 2.196 255 0 0 255 
-0.072535 0.187436 2.194 255 0 0 255 
-0.066463 0.187268 2.192 255 0 0 255 
-0.060484 0.187356 2.193 255 0 0 255 
-0.05445 0.187273 2.192 255 0 0 255 
-0.048443 0.187275 2.192 255 0 0 255 
-0.042417 0.187192 2.191 255 0 0 255 
-0.036413 0.187194 2.191 255 0 0 255 
-0.030422 0.187281 2.192 255 0 0 255 
-0.024459 0.187624 2.196 255 0 0 255 
-0.018466 0.187881 2.199 255 0 0 255 
-0.012456 0.188138 2.202 255 0 0 255 
-0.00643 0.188394 2.205 255 0 0 255 
-0.000387 0.188565 2.207 255 0 0 255 
0.005665 0.188651 2.208 255 0 0 255 
0.011722 0.188736 2.209 255 0 0 255 
0.017792 0.188906 2.211 255 0 0 255 
0.023906 0.189332 2.216 255 0 0 255 
0.030128 0.190271 2.227 255 0 0 255 
0.03641 0.191209 2.238 255 0 0 255 
0.042657 0.19172 2.244 255 0 0 255 
0.048894 0.19206 2.248 255 0 0 255 
0.055201 0.19257 2.254 255 0 0 255 
0.061541 0.193081 2.26 255 0 0 255 
0.067823 0.193334 2.263 255 0 0 255 
0.074122 0.193587 2.266 255 0 0 255 
0.080401 0.193755 2.268 255 0 0 255 
0.08673 0.194008 2.271 255 0 0 255 
0.093033 0.194175 2.273 255 0 0 255 
0.099434 0.194512 2.277 255 0 0 255 
0.105718 0.194593 2.278 255 0 0 255 
0.112203 0.195016 2.283 255 0 0 255 
0.197512 0.199031 2.331 255 0 0 255 
0.201701 0.196888 2.306 255 0 0 255 
0.207196 0.196111 2.297 255 0 0 255 
0.212827 0.195505 2.29 255 0 0 255 
0.21861 0.195069 2.285 255 0 0 255 
0.22466 0.194889 2.283 255 0 0 255 
0.231204 0.195136 2.286 255 0 0 255 
0.237556 0.195212 2.287 255 0 0 255 
0.243913 0.195287 2.288 255 0 0 255 
0.250055 0.195192 2.287 255 0 0 255 
0.256079 0.195011 2.285 255 0 0 255 
-0.100668 0.058407 2.47304 255 255 0 255 
-0.099487 0.055979 2.46097 255 255 0 255 
-0.081256 0.057359 2.46016 255 255 0 255 
-0.051139 0.061428 2.46736 255 255 0 255 
-0.036385 0.06208 2.46448 255 255 0 255 
-0.022505 0.062552 2.4611 255 255 0 255 
-0.00695 0.06342 2.45892 255 255 0 255 
0.012818 0.065264 2.4597 255 255 0 255 
0.026623 0.065773 2.45652 255 255 0 255 
0.031102 0.064164 2.44702 255 255 0 255 
0.033044 0.061972 2.43577 255 255 0 255 
0.042585 0.061531 2.42979 255 255 0 255 
0.065605 0.064217 2.43325 255 255 0 255 
0.078475 0.064577 2.42974 255 255 0 255 
0.072815 0.060639 2.41323 255 255 0 255 
0.062131 0.055512 2.39309 255 255 0 255 
0.053158 0.050764 2.37407 255 255 0 255 
0.069371 0.051921 2.37299 255 255 0 255 
0.083881 0.052696 2.37079 255 255 0 255 
0.060708 0.044566 2.34138 255 255 0 255 
0.058492 0.041373 2.32703 255 255 0 255 
0.141685 0.055916 2.36263 255 255 0 255 
0.153576 0.056151 2.35891 255 255 0 255 
0.163786 0.055995 2.354 255 255 0 255 
0.16234 0.053034 2.34043 255 255 0 255 
-0.289327 -0.003025 2.37124 0 255 0 255 
-0.27104 -0.005465 2.37048 0 255 0 255 
-0.255288 -0.007131 2.37159 0 255 0 255 
-0.23353 -0.010539 2.36864 0 255 0 255 
-0.222008 -0.010914 2.37286 0 255 0 255 
-0.218181 -0.009026 2.3824 0 255 0 255 
-0.203207 -0.010383 2.38436 0 255 0 255 
-0.183065 -0.01322 2.38291 0 255 0 255 
-0.174916 -0.012554 2.38966 0 255 0 255 
-0.185669 -0.006423 2.4091 0 255 0 255 
-0.179239 -0.00526 2.41699 0 255 0 255 
-0.165916 -0.006069 2.42034 0 255 0 255 
-0.156021 -0.005879 2.42602 0 255 0 255 
-0.15129 -0.004204 2.43514 0 255 0 255 
-0.13706 -0.005226 2.43807 0 255 0 255 
-0.026974 -0.017841 2.4417 0 255 0 255 
-0.009981 -0.019473 2.44353 0 255 0 255 
0.01399 -0.023016 2.4411 0 255 0 255 
-0.318096 0.191719 2.322 255 0 0 255 
-0.31203 0.191896 2.324 255 0 0 255 
-0.305689 0.191908 2.324 255 0 0 255 
-0.299089 0.191754 2.322 255 0 0 255 
-0.292877 0.191848 2.323 255 0 0 255 
-0.286905 0.192107 2.326 255 0 0 255 
-0.280796 0.192283 2.328 255 0 0 255 
-0.27491 0.192624 2.332 255 0 0 255 
-0.269347 0.193213 2.339 255 0 0 255 
-0.264082 0.194049 2.349 255 0 0 255 
-0.237493 0.193345 2.34 255 0 0 255 
-0.229615 0.192114 2.325 255 0 0 255 
-0.222298 0.191297 2.315 255 0 0 255 
-0.215222 0.190645 2.307 255 0 0 255 
-0.20846 0.19024 2.302 255 0 0 255 
-0.201461 0.189587 2.294 255 0 0 255 
-0.194591 0.189016 2.287 255 0 0 255 
-0.18784 0.188528 2.281 255 0 0 255 
-0.181201 0.188122 2.276 255 0 0 255 
-0.174589 0.187716 2.271 255 0 0 255 
-0.168003 0.18731 2.266 255 0 0 255 
-0.161302 0.186738 2.259 255 0 0 255 
-0.154638 0.186166 2.252 255 0 0 255 
-0.14788 0.185428 2.243 255 0 0 255 
-0.14136 0.184938 2.237 255 0 0 255 
-0.134872 0.184447 2.231 255 0 0 255 
-0.128301 0.183791 2.223 255 0 0 255 
-0.121774 0.183135 2.215 255 0 0 255 
-0.115394 0.182644 2.209 255 0 0 255 
-0.109245 0.182483 2.207 255 0 0 255 
-0.10306 0.18224 2.204 255 0 0 255 
-0.096978 0.182161 2.203 255 0 0 255 
-0.090819 0.181917 2.2 255 0 0 255 
-0.084753 0.181838 2.199 255 0 0 255 
-0.078621 0.181593 2.196 255 0 0 255 
-0.072538 0.181431 2.194 255 0 0 255 
-0.066557 0.181517 2.195 255 0 0 255 
-0.06057 0.181602 2.196 255 0 0 255 
-0.054552 0.181604 2.196 255 0 0 255 
-0.048512 0.181524 2.195 255 0 0 255 
-0.042477 0.181443 2.194 255 0 0 255 
-0.036514 0.181693 2.197 255 0 0 255 
-0.03052 0.18186 2.199 255 0 0 255 
-0.024527 0.182109 2.202 255 0 0 255 
-0.018508 0.182275 2.204 255 0 0 255 
-0.012479 0.182441 2.206 255 0 0 255 
-0.006441 0.18269 2.209 255 0 0 255 
-0.000387 0.182773 2.21 255 0 0 255 
0.005675 0.182938 2.212 255 0 0 255 
0.011738 0.182938 2.212 255 0 0 255 
0.017825 0.183185 2.215 255 0 0 255 
0.02396 0.18368 2.221 255 0 0 255 
0.030183 0.184506 2.231 255 0 0 255 
0.03646 0.185332 2.241 255 0 0 255 
0.042678 0.185661 2.245 255 0 0 255 
0.048939 0.186073 2.25 255 0 0 255 
0.055179 0.186318 2.253 255 0 0 255 
0.061489 0.186729 2.258 255 0 0 255 
0.067736 0.186892 2.26 255 0 0 255 
0.074027 0.187137 2.263 255 0 0 255 
0.080298 0.187299 2.265 255 0 0 255 
0.086619 0.187544 2.268 255 0 0 255 
0.092955 0.187788 2.271 255 0 0 255 
0.099351 0.188115 2.275 255 0 0 255 
0.105862 0.188607 2.281 255 0 0 255 
0.112503 0.189264 2.289 255 0 0 255 
0.119291 0.190086 2.299 255 0 0 255 
0.196588 0.191745 2.32 255 0 0 255 
0.201447 0.190332 2.303 255 0 0 255 
0.207204 0.189828 2.297 255 0 0 255 
0.213021 0.189406 2.292 255 0 0 255 
0.21881 0.188984 2.287 255 0 0 255 
0.224866 0.18881 2.285 255 0 0 255 
0.231416 0.189049 2.288 255 0 0 255 
0.237773 0.189123 2.289 255 0 0 255 
0.243922 0.189031 2.288 255 0 0 255 
0.249956 0.188856 2.286 255 0 0 255 
-0.119645 0.045605 2.47486 255 255 0 255 
-0.102229 0.046815 2.47335 255 255 0 255 
-0.094221 0.045919 2.46576 255 255 0 255 
-0.080261 0.046381 2.46213 255 255 0 255 
-0.06292 0.047627 2.46083 255 255 0 255 
-0.044758 0.049083 2.46017 255 255 0 255 
-0.028326 0.050165 2.45847 255 255 0 255 
-0.011073 0.051456 2.45741 255 255 0 255 
0.006151 0.052762 2.45643 255 255 0 255 
0.01996 0.053299 2.45322 255 255 0 255 
0.037974 0.054828 2.45297 255 255 0 255 
0.034844 0.051455 2.43824 255 255 0 255 
0.039321 0.049849 2.42874 255 255 0 255 
0.050537 0.049826 2.42395 255 255 0 255 
0.065104 0.050604 2.42157 255 255 0 255 
0.061146 0.047026 2.4062 255 255 0 255 
0.048804 0.04145 2.38484 255 255 0 255 
0.050762 0.039248 2.37355 255 255 0 255 
0.070326 0.041242 2.37486 255 255 0 255 
0.086505 0.042452 2.37385 255 255 0 255 
0.088439 0.040263 2.36263 255 255 0 255 
0.122023 0.03777 2.33671 255 255 0 255 
-0.288023 -0.014136 2.37157 0 255 0 255 
-0.274861 -0.015092 2.3744 0 255 0 255 
-0.257412 -0.017306 2.37433 0 255 0 255 
-0.226265 -0.023564 2.3649 0 255 0 255 
-0.222439 -0.02168 2.37444 0 255 0 255 
-0.208338 -0.022828 2.37697 0 255 0 255 
-0.201073 -0.021943 2.38422 0 255 0 255 
-0.184368 -0.023822 2.38511 0 255 0 255 
-0.189954 -0.019152 2.40111 0 255 0 255 
-0.203287 -0.012236 2.42222 0 255 0 255 
-0.195153 -0.011594 2.42893 0 255 0 255 
-0.16808 -0.016437 2.42313 0 255 0 255 
-0.155606 -0.017015 2.42711 0 255 0 255 
-0.151737 -0.015096 2.4368 0 255 0 255 
-0.121982 -0.020615 2.42962 0 255 0 255 
-0.047903 -0.026364 2.44392 0 255 0 255 
-0.020537 -0.030994 2.4391 0 255 0 255 
-0.317423 0.184973 2.317 255 0 0 255 
-0.311773 0.185384 2.322 255 0 0 255 
-0.305568 0.185475 2.323 255 0 0 255 
-0.299229 0.185486 2.323 255 0 0 255 
-0.29314 0.185657 2.325 255 0 0 255 
-0.287163 0.185907 2.328 255 0 0 255 
-0.281289 0.186237 2.332 255 0 0 255 
-0.275392 0.186567 2.336 255 0 0 255 
-0.270048 0.187296 2.345 255 0 0 255 
-0.264767 0.188104 2.355 255 0 0 255 
-0.237096 0.186625 2.336 255 0 0 255 
-0.229327 0.185515 2.322 255 0 0 255 
-0.222019 0.184725 2.312 255 0 0 255 
-0.214857 0.184014 2.303 255 0 0 255 
-0.208015 0.183543 2.297 255 0 0 255 
-0.20103 0.182911 2.289 255 0 0 255 
-0.194088 0.18228 2.281 255 0 0 255 
-0.187354 0.181808 2.275 255 0 0 255 
-0.18089 0.181575 2.272 255 0 0 255 
-0.174289 0.181183 2.267 255 0 0 255 
-0.167788 0.18087 2.263 255 0 0 255 
-0.161023 0.180237 2.255 255 0 0 255 
-0.154507 0.179843 2.25 255 0 0 255 
-0.14782 0.17921 2.242 255 0 0 255 
-0.141429 0.178896 2.238 255 0 0 255 
-0.134878 0.178342 2.231 255 0 0 255 
-0.128422 0.177867 2.225 255 0 0 255 
-0.121999 0.177393 2.219 255 0 0 255 
-0.11566 0.176998 2.214 255 0 0 255 
-0.109398 0.176683 2.21 255 0 0 255 
-0.103157 0.176367 2.206 255 0 0 255 
-0.09707 0.176291 2.205 255 0 0 255 
-0.090947 0.176135 2.203 255 0 0 255 
-0.084873 0.176059 2.202 255 0 0 255 
-0.078732 0.175822 2.199 255 0 0 255 
-0.072607 0.175585 2.196 255 0 0 255 
-0.06662 0.175668 2.197 255 0 0 255 
-0.060627 0.175751 2.198 255 0 0 255 
-0.054629 0.175833 2.199 255 0 0 255 
-0.048558 0.175675 2.197 255 0 0 255 
-0.042556 0.175757 2.198 255 0 0 255 
-0.036582 0.175998 2.201 255 0 0 255 
-0.030591 0.17624 2.204 255 0 0 255 
-0.024584 0.176481 2.207 255 0 0 255 
-0.018543 0.176562 2.208 255 0 0 255 
-0.012502 0.176722 2.21 255 0 0 255 
-0.006445 0.176722 2.21 255 0 0 255 
-0.000387 0.176723 2.21 255 0 0 255 
0.005678 0.176962 2.213 255 0 0 255 
0.011754 0.177122 2.215 255 0 0 255 
0.017874 0.177601 2.221 255 0 0 255 
0.024026 0.17808 2.227 255 0 0 255 
0.030225 0.178639 2.234 255 0 0 255 
0.036445 0.179117 2.24 255 0 0 255 
0.042661 0.179435 2.244 255 0 0 255 
0.048919 0.179833 2.249 255 0 0 255 
0.055156 0.180071 2.252 255 0 0 255 
0.061437 0.180389 2.256 255 0 0 255 
0.067679 0.180546 2.258 255 0 0 255 
0.073932 0.180703 2.26 255 0 0 255 
0.080231 0.18094 2.263 255 0 0 255 
0.086508 0.181096 2.265 255 0 0 255 
0.092877 0.181412 2.269 255 0 0 255 
0.099355 0.181888 2.275 255 0 0 255 
0.106005 0.182604 2.284 255 0 0 255 
0.112851 0.183559 2.296 255 0 0 255 
0.119555 0.184194 2.304 255 0 0 255 
0.195496 0.19052 2.384 255 0 0 255 
0.196426 0.185238 2.318 255 0 0 255 
0.201805 0.184351 2.307 255 0 0 255 
0.207393 0.183704 2.299 255 0 0 255 
0.213123 0.183216 2.293 255 0 0 255 
0.218627 0.182569 2.285 255 0 0 255 
0.224776 0.18248 2.284 255 0 0 255 
0.231121 0.182551 2.285 255 0 0 255 
0.237679 0.182782 2.288 255 0 0 255 
0.243612 0.182533 2.285 255 0 0 255 
0.249746 0.182444 2.284 255 0 0 255 
0.255202 0.181875 2.277 255 0 0 255 
-0.108052 0.034227 2.47089 255 255 0 255 
-0.089813 0.035685 2.46998 255 255 0 255 
-0.086928 0.033635 2.45905 255 255 0 255 
-0.089995 0.030211 2.44416 255 255 0 255 
-0.065863 0.033073 2.44738 255 255 0 255 
-0.041776 0.035957 2.45072 255 255 0 255 
-0.0296 0.036097 2.44617 255 255 0 255 
-0.022524 0.035058 2.43823 255 255 0 255 
0.004001 0.038588 2.44358 255 255 0 255 
0.023717 0.040551 2.44443 255 255 0 255 
0.04593 0.04313 2.44712 255 255 0 255 
0.039434 0.038935 2.43005 255 255 0 255 
0.054017 0.039736 2.42759 255 255 0 255 
0.067735 0.040349 2.42461 255 255 0 255 
0.066302 0.037352 2.41104 255 255 0 255 
0.045569 0.029713 2.38375 255 255 0 255 
0.06179 0.030939 2.3826 255 255 0 255 
0.079659 0.032583 2.38272 255 255 0 255 
0.081597 0.030387 2.37149 255 255 0 255 
0.07685 0.026562 2.35541 255 255 0 255 
-0.277354 -0.028108 2.36533 0 255 0 255 
-0.268449 -0.027799 2.37118 0 255 0 255 
-0.255269 -0.028767 2.37411 0 255 0 255 
-0.231822 -0.0328 2.37002 0 255 0 255 
-0.215178 -0.034759 2.37075 0 255 0 255 
-0.204499 -0.034913 2.37565 0 255 0 255 
-0.189525 -0.036332 2.37768 0 255 0 255 
-0.181386 -0.035701 2.38442 0 255 0 255 
-0.192967 -0.029226 2.40446 0 255 0 255 
-0.197706 -0.024795 2.41982 0 255 0 255 
-0.184414 -0.025681 2.42312 0 255 0 255 
-0.156056 -0.027915 2.42877 0 255 0 255 
-0.111237 -0.034854 2.42401 0 255 0 255 
-0.044558 -0.04173 2.43076 0 255 0 255 
-0.008044 -0.045931 2.43269 0 255 0 255 
0.009818 -0.047879 2.43407 0 255 0 255 
-0.320121 0.176624 2.291 255 0 0 255 
-0.31716 0.178485 2.315 255 0 0 255 
-0.31165 0.178959 2.321 255 0 0 255 
-0.305579 0.179124 2.323 255 0 0 255 
-0.299626 0.179366 2.326 255 0 0 255 
-0.293277 0.179376 2.326 255 0 0 255 
-0.287297 0.179618 2.329 255 0 0 255 
-0.28142 0.179937 2.333 255 0 0 255 
-0.275756 0.18041 2.339 255 0 0 255 
-0.270634 0.181268 2.35 255 0 0 255 
-0.266238 0.182666 2.368 255 0 0 255 
-0.238018 0.180929 2.345 255 0 0 255 
-0.229435 0.17924 2.323 255 0 0 255 
-0.222219 0.178554 2.314 255 0 0 255 
-0.214865 0.177713 2.303 255 0 0 255 
-0.207752 0.177027 2.294 255 0 0 255 
-0.200687 0.17634 2.285 255 0 0 255 
-0.19401 0.175961 2.28 255 0 0 255 
-0.187114 0.175351 2.272 255 0 0 255 
-0.180658 0.175127 2.269 255 0 0 255 
-0.173834 0.174516 2.261 255 0 0 255 
-0.167424 0.174291 2.258 255 0 0 255 
-0.160743 0.173757 2.251 255 0 0 255 
-0.154238 0.173377 2.246 255 0 0 255 
-0.147628 0.172842 2.239 255 0 0 255 
-0.141245 0.172539 2.235 255 0 0 255 
-0.134883 0.172236 2.231 255 0 0 255 
-0.1286 0.172009 2.228 255 0 0 255 
-0.122224 0.171628 2.223 255 0 0 255 
-0.115874 0.171246 2.218 255 0 0 255 
-0.109452 0.17071 2.211 255 0 0 255 
-0.103208 0.170406 2.207 255 0 0 255 
-0.097118 0.170332 2.206 255 0 0 255 
