ply
format ascii 1.0
comment VCGLIB generated
element vertex 1256
property float x
property float y
property float z
property uchar red
property uchar green
property uchar blue
property uchar alpha
element face 0
property list uchar int vertex_indices
end_header
0.117197 0.553616 2.155 255 0 0 255 
-0.170114 0.633719 2.20961 0 255 0 255 
-0.155651 0.634631 2.2113 0 255 0 255 
-0.127846 0.634211 2.20349 0 255 0 255 
-0.114223 0.635251 2.20598 0 255 0 255 
-0.105919 0.636837 2.21232 0 255 0 255 
-0.096717 0.638342 2.21806 0 255 0 255 
-0.324429 0.548969 2.162 255 0 0 255 
-0.317225 0.546706 2.153 255 0 0 255 
-0.310791 0.545713 2.149 255 0 0 255 
-0.304521 0.544973 2.146 255 0 0 255 
-0.298266 0.544232 2.143 255 0 0 255 
-0.291891 0.543238 2.139 255 0 0 255 
-0.285804 0.542751 2.137 255 0 0 255 
-0.279989 0.542771 2.137 255 0 0 255 
-0.274046 0.542538 2.136 255 0 0 255 
-0.267982 0.54205 2.134 255 0 0 255 
-0.261928 0.541562 2.132 255 0 0 255 
-0.256125 0.541581 2.132 255 0 0 255 
-0.250321 0.5416 2.132 255 0 0 255 
-0.244631 0.541873 2.133 255 0 0 255 
-0.23916 0.542654 2.136 255 0 0 255 
-0.233344 0.542672 2.136 255 0 0 255 
-0.22742 0.542435 2.135 255 0 0 255 
-0.221294 0.541691 2.132 255 0 0 255 
-0.215487 0.541708 2.132 255 0 0 255 
-0.209286 0.540708 2.128 255 0 0 255 
-0.203202 0.539962 2.125 255 0 0 255 
-0.196948 0.538707 2.12 255 0 0 255 
-0.190992 0.538214 2.118 255 0 0 255 
-0.185133 0.537975 2.117 255 0 0 255 
-0.179195 0.537482 2.115 255 0 0 255 
-0.173103 0.536479 2.111 255 0 0 255 
-0.166715 0.53446 2.103 255 0 0 255 
-0.160677 0.533457 2.099 255 0 0 255 
-0.155029 0.533724 2.1 255 0 0 255 
-0.149659 0.535007 2.105 255 0 0 255 
-0.144468 0.537052 2.113 255 0 0 255 
-0.139297 0.539351 2.122 255 0 0 255 
-0.133889 0.540888 2.128 255 0 0 255 
-0.128207 0.541407 2.13 255 0 0 255 
-0.122341 0.541163 2.129 255 0 0 255 
-0.11648 0.540919 2.128 255 0 0 255 
-0.110573 0.54042 2.126 255 0 0 255 
-0.104676 0.53992 2.124 255 0 0 255 
-0.09879 0.539421 2.122 255 0 0 255 
-0.093002 0.539429 2.122 255 0 0 255 
-0.087213 0.539436 2.122 255 0 0 255 
-0.081425 0.539443 2.122 255 0 0 255 
-0.075494 0.538433 2.118 255 0 0 255 
-0.069617 0.537677 2.115 255 0 0 255 
-0.063636 0.535903 2.108 255 0 0 255 
-0.05761 0.533366 2.098 255 0 0 255 
-0.051663 0.531082 2.089 255 0 0 255 
-0.045876 0.530069 2.085 255 0 0 255 
-0.040245 0.530836 2.088 255 0 0 255 
-0.034664 0.532619 2.095 255 0 0 255 
-0.029072 0.534909 2.104 255 0 0 255 
-0.023353 0.53542 2.106 255 0 0 255 
-0.017615 0.535676 2.107 255 0 0 255 
-0.011883 0.53644 2.11 255 0 0 255 
-0.006137 0.537458 2.114 255 0 0 255 
-0.000369 0.538221 2.117 255 0 0 255 
0.005405 0.537966 2.116 255 0 0 255 
0.011179 0.537966 2.116 255 0 0 255 
0.016944 0.53771 2.115 255 0 0 255 
0.022694 0.5372 2.113 255 0 0 255 
0.028419 0.536435 2.11 255 0 0 255 
0.034144 0.535924 2.108 255 0 0 255 
0.039914 0.536175 2.109 255 0 0 255 
0.045668 0.536171 2.109 255 0 0 255 
0.051423 0.536167 2.109 255 0 0 255 
0.057177 0.536163 2.109 255 0 0 255 
0.06299 0.536666 2.111 255 0 0 255 
0.068814 0.537169 2.113 255 0 0 255 
0.074649 0.537671 2.115 255 0 0 255 
0.080457 0.537919 2.116 255 0 0 255 
0.086229 0.537912 2.116 255 0 0 255 
0.092131 0.538667 2.119 255 0 0 255 
0.098096 0.539676 2.123 255 0 0 255 
0.104327 0.541955 2.132 255 0 0 255 
0.110503 0.543726 2.139 255 0 0 255 
0.116826 0.546004 2.148 255 0 0 255 
0.123027 0.547519 2.154 255 0 0 255 
-0.067387 0.695483 2.17628 255 255 0 255 
-0.125335 0.687009 2.09361 255 255 0 255 
-0.118151 0.68531 2.08584 255 255 0 255 
-0.183986 0.622521 2.20878 0 255 0 255 
-0.17575 0.624041 2.21491 0 255 0 255 
-0.169279 0.625755 2.22235 0 255 0 255 
-0.150375 0.626181 2.22089 0 255 0 255 
-0.139441 0.627454 2.22522 0 255 0 255 
-0.122269 0.628098 2.22518 0 255 0 255 
-0.109523 0.629215 2.22837 0 255 0 255 
-0.088745 0.629532 2.22597 0 255 0 255 
-0.323402 0.541357 2.155 255 0 0 255 
-0.316952 0.540374 2.151 255 0 0 255 
-0.310524 0.539392 2.147 255 0 0 255 
-0.304401 0.538911 2.145 255 0 0 255 
-0.298148 0.538179 2.142 255 0 0 255 
-0.291912 0.537446 2.139 255 0 0 255 
-0.285825 0.536965 2.137 255 0 0 255 
-0.28001 0.536985 2.137 255 0 0 255 
-0.274194 0.537006 2.137 255 0 0 255 
-0.268002 0.536272 2.134 255 0 0 255 
-0.262071 0.536041 2.133 255 0 0 255 
-0.256024 0.535557 2.131 255 0 0 255 
-0.250223 0.535577 2.131 255 0 0 255 
-0.244765 0.536349 2.134 255 0 0 255 
-0.239066 0.536619 2.135 255 0 0 255 
-0.233252 0.536637 2.135 255 0 0 255 
-0.227118 0.535901 2.132 255 0 0 255 
-0.221 0.535164 2.129 255 0 0 255 
-0.215302 0.535433 2.13 255 0 0 255 
-0.209008 0.534193 2.125 255 0 0 255 
-0.20274 0.532952 2.12 255 0 0 255 
-0.196499 0.531711 2.115 255 0 0 255 
-0.190736 0.531726 2.115 255 0 0 255 
-0.184886 0.53149 2.114 255 0 0 255 
-0.179124 0.531504 2.114 255 0 0 255 
-0.173117 0.530764 2.111 255 0 0 255 
-0.167046 0.529772 2.107 255 0 0 255 
-0.160919 0.528528 2.102 255 0 0 255 
-0.155115 0.52829 2.101 255 0 0 255 
-0.149387 0.528302 2.101 255 0 0 255 
-0.144001 0.529572 2.106 255 0 0 255 
-0.138718 0.531343 2.113 255 0 0 255 
-0.133586 0.533869 2.123 255 0 0 255 
-0.128157 0.535389 2.129 255 0 0 255 
-0.122351 0.535399 2.129 255 0 0 255 
-0.116435 0.534906 2.127 255 0 0 255 
-0.110478 0.534161 2.124 255 0 0 255 
-0.104635 0.533919 2.123 255 0 0 255 
-0.098798 0.533676 2.122 255 0 0 255 
-0.093009 0.533684 2.122 255 0 0 255 
-0.087138 0.533189 2.12 255 0 0 255 
-0.081317 0.532944 2.119 255 0 0 255 
-0.075286 0.53119 2.112 255 0 0 255 
-0.069392 0.53019 2.108 255 0 0 255 
-0.063369 0.527932 2.099 255 0 0 255 
-0.05745 0.526177 2.092 255 0 0 255 
-0.051594 0.524672 2.086 255 0 0 255 
-0.045858 0.524173 2.084 255 0 0 255 
-0.040248 0.525183 2.088 255 0 0 255 
-0.03465 0.526696 2.094 255 0 0 255 
-0.029033 0.528459 2.101 255 0 0 255 
-0.023322 0.528964 2.103 255 0 0 255 
-0.017583 0.528966 2.103 255 0 0 255 
-0.011861 0.529722 2.106 255 0 0 255 
-0.006129 0.53098 2.111 255 0 0 255 
-0.000369 0.532238 2.116 255 0 0 255 
0.005408 0.53249 2.117 255 0 0 255 
0.01118 0.532237 2.116 255 0 0 255 
0.016938 0.531733 2.114 255 0 0 255 
0.022664 0.530725 2.11 255 0 0 255 
0.028421 0.530723 2.11 255 0 0 255 
0.034147 0.530217 2.108 255 0 0 255 
0.039936 0.530717 2.11 255 0 0 255 
0.045651 0.53021 2.108 255 0 0 255 
0.051427 0.530458 2.109 255 0 0 255 
0.057154 0.530202 2.108 255 0 0 255 
0.063025 0.531203 2.112 255 0 0 255 
0.068853 0.5317 2.114 255 0 0 255 
0.074691 0.532197 2.116 255 0 0 255 
0.080464 0.532191 2.116 255 0 0 255 
0.086277 0.532435 2.117 255 0 0 255 
0.092183 0.533182 2.12 255 0 0 255 
0.09815 0.53418 2.124 255 0 0 255 
0.104189 0.535429 2.129 255 0 0 255 
0.110254 0.536677 2.134 255 0 0 255 
0.116455 0.538428 2.141 255 0 0 255 
0.122637 0.539927 2.147 255 0 0 255 
0.128971 0.541929 2.155 255 0 0 255 
-0.12932 0.694126 2.20968 255 255 0 255 
-0.125371 0.690286 2.18655 255 255 0 255 
-0.07032 0.680739 2.14932 255 255 0 255 
-0.100236 0.677341 2.11372 255 255 0 255 
-0.123438 0.670156 2.05643 255 255 0 255 
-0.199601 0.61158 2.20927 0 255 0 255 
-0.188466 0.615154 2.22533 0 255 0 255 
-0.183779 0.617042 2.23401 0 255 0 255 
-0.169332 0.61789 2.2357 0 255 0 255 
-0.152201 0.618469 2.23556 0 255 0 255 
-0.129716 0.618504 2.23172 0 255 0 255 
-0.116092 0.619496 2.23426 0 255 0 255 
-0.099779 0.620224 2.23499 0 255 0 255 
-0.084336 0.621062 2.23641 0 255 0 255 
-0.334173 0.54345 2.187 255 0 0 255 
-0.324024 0.536515 2.159 255 0 0 255 
-0.317417 0.535295 2.154 255 0 0 255 
-0.31069 0.533826 2.148 255 0 0 255 
-0.304422 0.533102 2.145 255 0 0 255 
-0.29817 0.532378 2.142 255 0 0 255 
-0.292206 0.532151 2.141 255 0 0 255 
-0.286247 0.531924 2.14 255 0 0 255 
-0.280161 0.531447 2.138 255 0 0 255 
-0.274086 0.530971 2.136 255 0 0 255 
-0.267896 0.530245 2.133 255 0 0 255 
-0.261967 0.530016 2.132 255 0 0 255 
-0.256043 0.529787 2.131 255 0 0 255 
-0.250476 0.530304 2.133 255 0 0 255 
-0.244898 0.53082 2.135 255 0 0 255 
-0.239084 0.530838 2.135 255 0 0 255 
-0.233161 0.530608 2.134 255 0 0 255 
-0.227136 0.530128 2.132 255 0 0 255 
-0.221121 0.529648 2.13 255 0 0 255 
-0.215218 0.529417 2.129 255 0 0 255 
-0.208827 0.527941 2.123 255 0 0 255 
-0.202565 0.526714 2.118 255 0 0 255 
-0.196515 0.525984 2.115 255 0 0 255 
-0.190752 0.525999 2.115 255 0 0 255 
-0.1849 0.525766 2.114 255 0 0 255 
-0.179054 0.525532 2.113 255 0 0 255 
-0.173213 0.525297 2.112 255 0 0 255 
-0.167455 0.525311 2.112 255 0 0 255 
-0.161468 0.524578 2.109 255 0 0 255 
-0.155497 0.523845 2.106 255 0 0 255 
-0.149542 0.523111 2.103 255 0 0 255 
-0.143739 0.522874 2.102 255 0 0 255 
-0.13827 0.523881 2.106 255 0 0 255 
-0.133093 0.526131 2.115 255 0 0 255 
-0.127927 0.528629 2.125 255 0 0 255 
-0.122419 0.529884 2.13 255 0 0 255 
-0.116555 0.529645 2.129 255 0 0 255 
-0.110643 0.529157 2.127 255 0 0 255 
-0.104792 0.528917 2.126 255 0 0 255 
-0.098853 0.528179 2.123 255 0 0 255 
-0.092973 0.52769 2.121 255 0 0 255 
-0.087105 0.5272 2.119 255 0 0 255 
-0.081247 0.526709 2.117 255 0 0 255 
-0.07515 0.524477 2.108 255 0 0 255 
-0.069266 0.523488 2.104 255 0 0 255 
-0.063284 0.521503 2.096 255 0 0 255 
-0.057482 0.520761 2.093 255 0 0 255 
-0.051623 0.519273 2.087 255 0 0 255 
-0.045928 0.519277 2.087 255 0 0 255 
-0.04031 0.520276 2.091 255 0 0 255 
-0.03467 0.521275 2.095 255 0 0 255 
-0.029021 0.522522 2.1 255 0 0 255 
-0.023279 0.522275 2.099 255 0 0 255 
-0.017559 0.522526 2.1 255 0 0 255 
-0.01184 0.523024 2.102 255 0 0 255 
-0.006121 0.524518 2.108 255 0 0 255 
-0.000369 0.526011 2.114 255 0 0 255 
0.005406 0.526509 2.116 255 0 0 255 
0.01117 0.52601 2.114 255 0 0 255 
0.016915 0.525263 2.111 255 0 0 255 
0.022644 0.524515 2.108 255 0 0 255 
0.028397 0.524512 2.108 255 0 0 255 
0.034166 0.524759 2.109 255 0 0 255 
0.039959 0.525253 2.111 255 0 0 255 
0.045698 0.525001 2.11 255 0 0 255 
0.051456 0.524996 2.11 255 0 0 255 
0.057213 0.524992 2.11 255 0 0 255 
0.06306 0.525733 2.113 255 0 0 255 
0.068891 0.526225 2.115 255 0 0 255 
0.074768 0.526965 2.118 255 0 0 255 
0.080585 0.527208 2.119 255 0 0 255 
0.086407 0.527449 2.12 255 0 0 255 
0.092234 0.527691 2.121 255 0 0 255 
0.098205 0.528678 2.125 255 0 0 255 
0.104198 0.529665 2.129 255 0 0 255 
0.110108 0.530153 2.131 255 0 0 255 
0.116248 0.531636 2.137 255 0 0 255 
0.122419 0.533119 2.143 255 0 0 255 
0.128743 0.535099 2.151 255 0 0 255 
-0.116461 0.671849 2.14204 255 255 0 255 
-0.108425 0.670212 2.13493 255 255 0 255 
-0.104707 0.668369 2.12461 255 255 0 255 
-0.107017 0.666225 2.10974 255 255 0 255 
-0.12245 0.659318 2.05831 255 255 0 255 
-0.227791 0.599755 2.20704 0 255 0 255 
-0.220482 0.601315 2.2137 0 255 0 255 
-0.214934 0.60308 2.22167 0 255 0 255 
-0.200539 0.603858 2.22322 0 255 0 255 
-0.187009 0.604751 2.22548 0 255 0 255 
-0.187636 0.607226 2.238 0 255 0 255 
-0.175856 0.608332 2.2416 0 255 0 255 
-0.159626 0.608965 2.24209 0 255 0 255 
-0.135381 0.608748 2.23698 0 255 0 255 
-0.117323 0.609228 2.23639 0 255 0 255 
-0.104575 0.6103 2.23962 0 255 0 255 
-0.089142 0.611101 2.24105 0 255 0 255 
-0.332516 0.534823 2.176 255 0 0 255 
-0.324648 0.531651 2.163 255 0 0 255 
-0.317881 0.530199 2.157 255 0 0 255 
-0.311147 0.528746 2.151 255 0 0 255 
-0.304728 0.527785 2.147 255 0 0 255 
-0.29847 0.527069 2.144 255 0 0 255 
-0.292364 0.526599 2.142 255 0 0 255 
-0.286401 0.526374 2.141 255 0 0 255 
-0.280182 0.525657 2.138 255 0 0 255 
-0.274235 0.525432 2.137 255 0 0 255 
-0.268167 0.52496 2.135 255 0 0 255 
-0.262233 0.524734 2.134 255 0 0 255 
-0.256303 0.524508 2.133 255 0 0 255 
-0.25073 0.525019 2.135 255 0 0 255 
-0.244917 0.525038 2.135 255 0 0 255 
-0.238879 0.524564 2.133 255 0 0 255 
-0.232851 0.524091 2.131 255 0 0 255 
-0.22694 0.523863 2.13 255 0 0 255 
-0.221034 0.523634 2.129 255 0 0 255 
-0.215032 0.523159 2.127 255 0 0 255 
-0.208844 0.522192 2.123 255 0 0 255 
-0.202677 0.521224 2.119 255 0 0 255 
-0.196809 0.520994 2.118 255 0 0 255 
-0.191037 0.52101 2.118 255 0 0 255 
-0.185265 0.521025 2.118 255 0 0 255 
-0.179407 0.520793 2.117 255 0 0 255 
-0.173637 0.520808 2.117 255 0 0 255 
-0.168024 0.521314 2.119 255 0 0 255 
-0.162247 0.521327 2.119 255 0 0 255 
-0.156174 0.520356 2.115 255 0 0 255 
-0.149767 0.518154 2.106 255 0 0 255 
-0.143546 0.516444 2.099 255 0 0 255 
-0.137822 0.516455 2.099 255 0 0 255 
-0.132538 0.518189 2.106 255 0 0 255 
-0.127516 0.521152 2.118 255 0 0 255 
-0.122199 0.523131 2.126 255 0 0 255 
-0.116564 0.523879 2.129 255 0 0 255 
-0.110705 0.523643 2.128 255 0 0 255 
-0.104801 0.52316 2.126 255 0 0 255 
-0.098861 0.52243 2.123 255 0 0 255 
-0.092937 0.5217 2.12 255 0 0 255 
-0.086948 0.520477 2.115 255 0 0 255 
-0.080947 0.519008 2.109 255 0 0 255 
-0.074907 0.517045 2.101 255 0 0 255 
-0.069141 0.516805 2.1 255 0 0 255 
-0.06335 0.516319 2.098 255 0 0 255 
-0.057597 0.516078 2.097 255 0 0 255 
-0.0518 0.515344 2.094 255 0 0 255 
-0.046108 0.515594 2.095 255 0 0 255 
-0.040429 0.51609 2.097 255 0 0 255 
-0.034755 0.516832 2.1 255 0 0 255 
-0.029052 0.517327 2.102 255 0 0 255 
-0.023292 0.516837 2.1 255 0 0 255 
-0.017544 0.516346 2.098 255 0 0 255 
-0.011835 0.517086 2.101 255 0 0 255 
-0.006124 0.519056 2.109 255 0 0 255 
-0.000369 0.520533 2.115 255 0 0 255 
0.005406 0.520779 2.116 255 0 0 255 
0.011166 0.520039 2.113 255 0 0 255 
0.016893 0.518808 2.108 255 0 0 255 
0.022624 0.518314 2.106 255 0 0 255 
0.028386 0.518558 2.107 255 0 0 255 
0.034169 0.519047 2.109 255 0 0 255 
0.039981 0.519782 2.112 255 0 0 255 
0.045745 0.519779 2.112 255 0 0 255 
0.051533 0.520021 2.113 255 0 0 255 
0.057272 0.51977 2.112 255 0 0 255 
0.063125 0.520503 2.115 255 0 0 255 
0.068929 0.520744 2.116 255 0 0 255 
0.074809 0.521476 2.119 255 0 0 255 
0.080667 0.521961 2.121 255 0 0 255 
0.086577 0.522693 2.124 255 0 0 255 
0.092416 0.522931 2.125 255 0 0 255 
0.098398 0.523908 2.129 255 0 0 255 
0.104304 0.524391 2.131 255 0 0 255 
0.110118 0.524382 2.131 255 0 0 255 
0.116148 0.525357 2.135 255 0 0 255 
0.122372 0.52707 2.142 255 0 0 255 
0.128693 0.529028 2.15 255 0 0 255 
0.13487 0.530247 2.155 255 0 0 255 
-0.11107 0.667421 2.18634 255 255 0 255 
-0.107365 0.665578 2.17605 255 255 0 255 
-0.105387 0.663648 2.16448 255 255 0 255 
-0.099952 0.661895 2.15547 255 255 0 255 
-0.104008 0.659653 2.13938 255 255 0 255 
-0.11063 0.657268 2.1213 255 255 0 255 
-0.120673 0.654691 2.10056 255 255 0 255 
-0.114355 0.652975 2.09213 255 255 0 255 
-0.252612 0.58532 2.19056 0 255 0 255 
-0.245083 0.589212 2.20898 0 255 0 255 
-0.237791 0.590748 2.21559 0 255 0 255 
-0.22167 0.591263 2.21575 0 255 0 255 
-0.217889 0.593227 2.22502 0 255 0 255 
-0.202618 0.59387 2.22593 0 255 0 255 
-0.195287 0.595441 2.23267 0 255 0 255 
-0.190605 0.597319 2.24135 0 255 0 255 
-0.180604 0.5986 2.24622 0 255 0 255 
-0.163497 0.599094 2.24608 0 255 0 255 
-0.138379 0.598716 2.24035 0 255 0 255 
-0.120331 0.599153 2.23976 0 255 0 255 
-0.104924 0.599903 2.24113 0 255 0 255 
-0.085937 0.600279 2.24008 0 255 0 255 
-0.075829 0.601645 2.24531 0 255 0 255 
-0.331775 0.527713 2.171 255 0 0 255 
-0.32452 0.525549 2.162 255 0 0 255 
-0.317756 0.524113 2.156 255 0 0 255 
-0.311169 0.52292 2.151 255 0 0 255 
-0.30475 0.521969 2.147 255 0 0 255 
-0.29877 0.521748 2.146 255 0 0 255 
-0.292521 0.52104 2.143 255 0 0 255 
-0.286422 0.520575 2.141 255 0 0 255 
-0.280072 0.519623 2.137 255 0 0 255 
-0.274255 0.519643 2.137 255 0 0 255 
-0.268313 0.519421 2.136 255 0 0 255 
-0.262621 0.519684 2.137 255 0 0 255 
-0.256563 0.519217 2.135 255 0 0 255 
-0.250749 0.519236 2.135 255 0 0 255 
-0.244821 0.519012 2.134 255 0 0 255 
-0.239009 0.51903 2.134 255 0 0 255 
-0.232978 0.518562 2.132 255 0 0 255 
-0.226851 0.51785 2.129 255 0 0 255 
-0.22074 0.517138 2.126 255 0 0 255 
-0.214746 0.516668 2.124 255 0 0 255 
-0.208959 0.516685 2.124 255 0 0 255 
-0.203075 0.516458 2.123 255 0 0 255 
-0.197197 0.516231 2.122 255 0 0 255 
-0.191233 0.51576 2.12 255 0 0 255 
-0.185455 0.515775 2.12 255 0 0 255 
-0.179676 0.515789 2.12 255 0 0 255 
-0.173979 0.516047 2.121 255 0 0 255 
-0.168196 0.516061 2.121 255 0 0 255 
-0.16249 0.516318 2.122 255 0 0 255 
-0.156482 0.515601 2.119 255 0 0 255 
-0.150206 0.51391 2.112 255 0 0 255 
-0.143831 0.511732 2.103 255 0 0 255 
-0.137833 0.51077 2.099 255 0 0 255 
-0.132234 0.511268 2.101 255 0 0 255 
-0.126985 0.513226 2.109 255 0 0 255 
-0.121807 0.51567 2.119 255 0 0 255 
-0.116355 0.51714 2.125 255 0 0 255 
-0.110766 0.518122 2.129 255 0 0 255 
-0.104859 0.517645 2.127 255 0 0 255 
-0.098916 0.516923 2.124 255 0 0 255 
-0.09277 0.514984 2.116 255 0 0 255 
-0.086749 0.513532 2.11 255 0 0 255 
-0.080723 0.511835 2.103 255 0 0 255 
-0.074913 0.511355 2.101 255 0 0 255 
-0.069179 0.511361 2.101 255 0 0 255 
-0.063476 0.51161 2.102 255 0 0 255 
-0.057767 0.511858 2.103 255 0 0 255 
-0.052027 0.511863 2.103 255 0 0 255 
-0.04631 0.512111 2.104 255 0 0 255 
-0.040586 0.512358 2.105 255 0 0 255 
-0.034841 0.512361 2.105 255 0 0 255 
-0.029095 0.512364 2.105 255 0 0 255 
-0.023328 0.511879 2.103 255 0 0 255 
-0.017571 0.511394 2.101 255 0 0 255 
-0.011853 0.512126 2.104 255 0 0 255 
-0.006125 0.513343 2.109 255 0 0 255 
-0.000369 0.514804 2.115 255 0 0 255 
0.005402 0.514561 2.114 255 0 0 255 
0.011156 0.51383 2.111 255 0 0 255 
0.016878 0.512611 2.106 255 0 0 255 
0.022616 0.512366 2.105 255 0 0 255 
0.028388 0.512851 2.107 255 0 0 255 
0.034188 0.513578 2.11 255 0 0 255 
0.040004 0.514305 2.113 255 0 0 255 
0.045792 0.514545 2.114 255 0 0 255 
0.051586 0.514784 2.115 255 0 0 255 
0.057386 0.515023 2.116 255 0 0 255 
0.063191 0.515262 2.117 255 0 0 255 
0.069 0.515499 2.118 255 0 0 255 
0.074886 0.516223 2.121 255 0 0 255 
0.080788 0.516947 2.124 255 0 0 255 
0.086625 0.517183 2.125 255 0 0 255 
0.09251 0.517662 2.127 255 0 0 255 
0.098545 0.518871 2.132 255 0 0 255 
0.10446 0.519349 2.134 255 0 0 255 
0.110179 0.518854 2.132 255 0 0 255 
0.116049 0.519088 2.133 255 0 0 255 
0.122211 0.520538 2.139 255 0 0 255 
0.128525 0.522474 2.147 255 0 0 255 
0.134694 0.52368 2.152 255 0 0 255 
0.141216 0.526102 2.162 255 0 0 255 
-0.117282 0.658379 2.19596 255 255 0 255 
-0.104917 0.656988 2.19201 255 255 0 255 
-0.099486 0.655238 2.18301 255 255 0 255 
-0.091469 0.653631 2.17593 255 255 0 255 
-0.115684 0.646168 2.11865 255 255 0 255 
-0.26658 0.572085 2.17815 0 255 0 255 
-0.2637 0.574129 2.188 0 255 0 255 
-0.252033 0.5751 2.19128 0 255 0 255 
-0.251786 0.577473 2.20311 0 255 0 255 
-0.240101 0.57846 2.20646 0 255 0 255 
-0.23721 0.580518 2.21634 0 255 0 255 
-0.226386 0.581629 2.2204 0 255 0 255 
-0.218195 0.583065 2.22643 0 255 0 255 
-0.209996 0.584508 2.23249 0 255 0 255 
-0.20002 0.585752 2.2373 0 255 0 255 
-0.193573 0.587418 2.24469 0 255 0 255 
-0.184462 0.588781 2.2502 0 255 0 255 
-0.165594 0.58903 2.2488 0 255 0 255 
-0.148472 0.589502 2.24875 0 255 0 255 
-0.13044 0.589891 2.24815 0 255 0 255 
-0.116824 0.590802 2.25075 0 255 0 255 
-0.098745 0.591227 2.2503 0 255 0 255 
-0.08598 0.592268 2.25365 0 255 0 255 
-0.33879 0.523491 2.178 255 0 0 255 
-0.330728 0.520149 2.164 255 0 0 255 
-0.323943 0.51873 2.158 255 0 0 255 
-0.317779 0.518272 2.156 255 0 0 255 
-0.31148 0.517573 2.153 255 0 0 255 
-0.305198 0.516874 2.15 255 0 0 255 
-0.29907 0.516415 2.148 255 0 0 255 
-0.292816 0.515715 2.145 255 0 0 255 
-0.286711 0.515256 2.143 255 0 0 255 
-0.280354 0.514315 2.139 255 0 0 255 
-0.274661 0.514576 2.14 255 0 0 255 
-0.268836 0.514596 2.14 255 0 0 255 
-0.263132 0.514856 2.141 255 0 0 255 
-0.256943 0.514154 2.138 255 0 0 255 
-0.251003 0.513933 2.137 255 0 0 255 
-0.244725 0.51299 2.133 255 0 0 255 
-0.238692 0.512528 2.131 255 0 0 255 
-0.232778 0.512305 2.13 255 0 0 255 
-0.226762 0.511842 2.128 255 0 0 255 
-0.220654 0.511138 2.125 255 0 0 255 
-0.214561 0.510433 2.122 255 0 0 255 
-0.208877 0.510691 2.123 255 0 0 255 
-0.203187 0.510947 2.124 255 0 0 255 
-0.197306 0.510723 2.123 255 0 0 255 
-0.191339 0.510257 2.121 255 0 0 255 
-0.185645 0.510513 2.122 255 0 0 255 
-0.179945 0.510768 2.123 255 0 0 255 
-0.174239 0.511023 2.124 255 0 0 255 
-0.168369 0.510796 2.123 255 0 0 255 
-0.162656 0.51105 2.124 255 0 0 255 
-0.156791 0.510823 2.123 255 0 0 255 
-0.150574 0.509392 2.117 255 0 0 255 
-0.144185 0.507238 2.108 255 0 0 255 
-0.138041 0.505806 2.102 255 0 0 255 
-0.132182 0.505336 2.1 255 0 0 255 
-0.126574 0.505828 2.102 255 0 0 255 
-0.121127 0.507041 2.107 255 0 0 255 
-0.115817 0.508976 2.115 255 0 0 255 
-0.110463 0.510911 2.123 255 0 0 255 
-0.104621 0.51068 2.122 255 0 0 255 
-0.098645 0.509725 2.118 255 0 0 255 
-0.092558 0.508049 2.111 255 0 0 255 
-0.086551 0.506612 2.105 255 0 0 255 
-0.080615 0.505416 2.1 255 0 0 255 
-0.074848 0.505182 2.099 255 0 0 255 
-0.069218 0.50591 2.102 255 0 0 255 
-0.063572 0.506638 2.105 255 0 0 255 
-0.057827 0.506643 2.105 255 0 0 255 
-0.052131 0.507129 2.107 255 0 0 255 
-0.046402 0.507374 2.108 255 0 0 255 
-0.040667 0.507618 2.109 255 0 0 255 
-0.034877 0.50714 2.107 255 0 0 255 
-0.029112 0.506902 2.106 255 0 0 255 
-0.023341 0.506423 2.104 255 0 0 255 
-0.017597 0.506425 2.104 255 0 0 255 
-0.011871 0.507148 2.107 255 0 0 255 
-0.006128 0.507871 2.11 255 0 0 255 
-0.000369 0.508593 2.113 255 0 0 255 
0.005394 0.508112 2.111 255 0 0 255 
0.011146 0.50763 2.109 255 0 0 255 
0.016879 0.506906 2.106 255 0 0 255 
0.022628 0.506905 2.106 255 0 0 255 
0.028417 0.507624 2.109 255 0 0 255 
0.034207 0.508103 2.111 255 0 0 255 
0.040007 0.508581 2.113 255 0 0 255 
0.045796 0.508818 2.114 255 0 0 255 
0.051615 0.509296 2.116 255 0 0 255 
0.057418 0.509532 2.117 255 0 0 255 
0.063226 0.509767 2.118 255 0 0 255 
0.069006 0.509762 2.118 255 0 0 255 
0.074963 0.510959 2.123 255 0 0 255 
0.080871 0.511674 2.126 255 0 0 255 
0.086836 0.51263 2.13 255 0 0 255 
0.092692 0.512863 2.131 255 0 0 255 
0.098738 0.514058 2.136 255 0 0 255 
0.104615 0.514291 2.137 255 0 0 255 
0.110291 0.51356 2.134 255 0 0 255 
0.116113 0.51355 2.134 255 0 0 255 
0.122335 0.515225 2.141 255 0 0 255 
0.128595 0.516899 2.148 255 0 0 255 
0.134705 0.51785 2.152 255 0 0 255 
0.141032 0.519524 2.159 255 0 0 255 
-0.105927 0.64823 2.20541 255 255 0 255 
-0.089251 0.647109 2.20464 255 255 0 255 
-0.086429 0.645227 2.19377 255 255 0 255 
-0.078425 0.643638 2.18673 255 255 0 255 
-0.076467 0.641708 2.17522 255 255 0 255 
-0.106961 0.635833 2.12634 255 255 0 255 
-0.279396 0.561166 2.17696 0 255 0 255 
-0.273016 0.56276 2.18415 0 255 0 255 
-0.271896 0.565024 2.1953 0 255 0 255 
-0.260241 0.565966 2.19857 0 255 0 255 
-0.250328 0.567139 2.20319 0 255 0 255 
-0.243044 0.568648 2.20981 0 255 0 255 
-0.240155 0.570706 2.21968 0 255 0 255 
-0.229336 0.571794 2.22374 0 255 0 255 
-0.227323 0.573967 2.23428 0 255 0 255 
-0.217368 0.575178 2.23904 0 255 0 255 
-0.210936 0.576824 2.24639 0 255 0 255 
-0.200076 0.577946 2.25058 0 255 0 255 
-0.183009 0.578342 2.25038 0 255 0 255 
-0.162376 0.578337 2.24774 0 255 0 255 
-0.147032 0.578981 2.24897 0 255 0 255 
-0.136104 0.580158 2.25339 0 255 0 255 
-0.122498 0.581037 2.25599 0 255 0 255 
-0.104431 0.581416 2.25554 0 255 0 255 
-0.088118 0.58202 2.25641 0 255 0 255 
-0.338035 0.516402 2.173 255 0 0 255 
-0.330751 0.514286 2.164 255 0 0 255 
-0.323965 0.512883 2.158 255 0 0 255 
-0.317949 0.512668 2.157 255 0 0 255 
-0.311502 0.51174 2.153 255 0 0 255 
-0.305503 0.511524 2.152 255 0 0 255 
-0.29937 0.511071 2.15 255 0 0 255 
-0.293383 0.510854 2.149 255 0 0 255 
-0.287 0.509925 2.145 255 0 0 255 
-0.280506 0.508757 2.14 255 0 0 255 
-0.27481 0.509015 2.141 255 0 0 255 
-0.268981 0.509036 2.141 255 0 0 255 
-0.263275 0.509293 2.142 255 0 0 255 
-0.256962 0.508362 2.138 255 0 0 255 
-0.25114 0.508381 2.138 255 0 0 255 
-0.244973 0.507687 2.135 255 0 0 255 
-0.238822 0.506992 2.132 255 0 0 255 
-0.232796 0.506534 2.13 255 0 0 255 
-0.22678 0.506077 2.128 255 0 0 255 
-0.220671 0.505381 2.125 255 0 0 255 
-0.214678 0.504922 2.123 255 0 0 255 
-0.208795 0.504701 2.122 255 0 0 255 
-0.203203 0.505193 2.124 255 0 0 255 
-0.197414 0.505209 2.124 255 0 0 255 
-0.191534 0.504986 2.123 255 0 0 255 
-0.18566 0.504764 2.122 255 0 0 255 
-0.179875 0.504778 2.122 255 0 0 255 
-0.174089 0.504793 2.122 255 0 0 255 
-0.168224 0.504568 2.121 255 0 0 255 
-0.162517 0.50482 2.122 255 0 0 255 
-0.15673 0.504833 2.122 255 0 0 255 
-0.150871 0.504607 2.121 255 0 0 255 
-0.144744 0.50343 2.116 255 0 0 255 
-0.138644 0.502252 2.111 255 0 0 255 
-0.132508 0.500836 2.105 255 0 0 255 
-0.126464 0.499657 2.1 255 0 0 255 
-0.120735 0.499667 2.1 255 0 0 255 
-0.115334 0.501105 2.106 255 0 0 255 
-0.110004 0.503018 2.114 255 0 0 255 
-0.104334 0.503502 2.116 255 0 0 255 
-0.098327 0.502321 2.111 255 0 0 255 
-0.092391 0.501377 2.107 255 0 0 255 
-0.086476 0.500433 2.103 255 0 0 255 
-0.08066 0.499964 2.101 255 0 0 255 
-0.074926 0.499971 2.101 255 0 0 255 
-0.069257 0.500453 2.103 255 0 0 255 
-0.063577 0.500934 2.105 255 0 0 255 
-0.057804 0.500701 2.104 255 0 0 255 
-0.05211 0.501182 2.106 255 0 0 255 
-0.046384 0.501424 2.107 255 0 0 255 
-0.04067 0.501904 2.109 255 0 0 255 
-0.034897 0.501669 2.108 255 0 0 255 
-0.029142 0.501672 2.108 255 0 0 255 
-0.023376 0.501436 2.107 255 0 0 255 
-0.017624 0.501438 2.107 255 0 0 255 
-0.011889 0.502153 2.11 255 0 0 255 
-0.006128 0.502154 2.11 255 0 0 255 
-0.000368 0.502154 2.11 255 0 0 255 
0.00539 0.501916 2.109 255 0 0 255 
0.011142 0.501677 2.108 255 0 0 255 
0.016881 0.5012 2.106 255 0 0 255 
0.022641 0.501436 2.107 255 0 0 255 
0.02842 0.50191 2.109 255 0 0 255 
0.03421 0.502383 2.111 255 0 0 255 
0.039972 0.50238 2.111 255 0 0 255 
0.045778 0.502853 2.113 255 0 0 255 
0.05162 0.503562 2.116 255 0 0 255 
0.05745 0.504034 2.118 255 0 0 255 
0.063291 0.504505 2.12 255 0 0 255 
0.06911 0.504737 2.121 255 0 0 255 
0.075076 0.505921 2.126 255 0 0 255 
0.080992 0.506628 2.129 255 0 0 255 
0.086925 0.507335 2.132 255 0 0 255 
0.09283 0.507803 2.134 255 0 0 255 
0.098885 0.508985 2.139 255 0 0 255 
0.10482 0.509452 2.141 255 0 0 255 
0.110507 0.508729 2.138 255 0 0 255 
0.116286 0.508482 2.137 255 0 0 255 
0.122517 0.510138 2.144 255 0 0 255 
0.128725 0.511555 2.15 255 0 0 255 
0.134966 0.512971 2.156 255 0 0 255 
0.14124 0.514388 2.162 255 0 0 255 
0.148022 0.517469 2.175 255 0 0 255 
-0.094582 0.638138 2.21484 255 255 0 255 
-0.080516 0.636909 2.21219 255 255 0 255 
-0.07511 0.63518 2.20325 255 255 0 255 
-0.067119 0.633609 2.19623 255 255 0 255 
-0.066031 0.631627 2.18412 255 255 0 255 
-0.076993 0.628907 2.16299 255 255 0 255 
-0.099965 0.625432 2.13273 255 255 0 255 
-0.258079 0.545826 2.14985 0 255 0 255 
-0.279694 0.55108 2.17832 0 255 0 255 
-0.282077 0.553803 2.19212 0 255 0 255 
-0.276577 0.555503 2.19996 0 255 0 255 
-0.264929 0.556418 2.20323 0 255 0 255 
-0.255902 0.557682 2.2085 0 255 0 255 
-0.245986 0.558842 2.21315 0 255 0 255 
-0.244858 0.561123 2.22432 0 255 0 255 
-0.241973 0.563181 2.23418 0 255 0 255 
-0.232036 0.564361 2.2389 0 255 0 255 
-0.228263 0.566316 2.24814 0 255 0 255 
-0.219191 0.56762 2.25355 0 255 0 255 
-0.203041 0.568066 2.25392 0 255 0 255 
-0.184214 0.568206 2.25246 0 255 0 255 
-0.161821 0.567936 2.24857 0 255 0 255 
-0.150026 0.568973 2.25233 0 255 0 255 
-0.13999 0.570233 2.25737 0 255 0 255 
-0.129942 0.571503 2.26246 0 255 0 255 
-0.111001 0.571732 2.26139 0 255 0 255 
-0.095588 0.572399 2.26288 0 255 0 255 
-0.087273 0.573915 2.26935 0 255 0 255 
-0.338059 0.510513 2.173 255 0 0 255 
-0.331538 0.509597 2.169 255 0 0 255 
-0.324739 0.50821 2.163 255 0 0 255 
-0.318561 0.507763 2.161 255 0 0 255 
-0.311959 0.506611 2.156 255 0 0 255 
-0.305809 0.506163 2.154 255 0 0 255 
-0.299391 0.505245 2.15 255 0 0 255 
-0.293677 0.505501 2.151 255 0 0 255 
-0.287422 0.504817 2.148 255 0 0 255 
-0.281182 0.504133 2.145 255 0 0 255 
-0.274958 0.503449 2.142 255 0 0 255 
-0.269127 0.503469 2.142 255 0 0 255 
-0.263172 0.503254 2.141 255 0 0 255 
-0.256981 0.502568 2.138 255 0 0 255 
-0.250924 0.502117 2.136 255 0 0 255 
-0.244648 0.501196 2.132 255 0 0 255 
-0.238504 0.500509 2.129 255 0 0 255 
-0.232705 0.500527 2.129 255 0 0 255 
-0.226904 0.500545 2.129 255 0 0 255 
-0.221 0.500328 2.128 255 0 0 255 
-0.214796 0.499404 2.124 255 0 0 255 
-0.208811 0.498951 2.122 255 0 0 255 
-0.203124 0.499202 2.123 255 0 0 255 
-0.19743 0.499453 2.124 255 0 0 255 
-0.19155 0.499233 2.123 255 0 0 255 
-0.185675 0.499013 2.122 255 0 0 255 
-0.179889 0.499028 2.122 255 0 0 255 
-0.174103 0.499042 2.122 255 0 0 255 
-0.168396 0.499291 2.123 255 0 0 255 
-0.162606 0.499305 2.123 255 0 0 255 
-0.156816 0.499318 2.123 255 0 0 255 
-0.150884 0.49886 2.121 255 0 0 255 
-0.144961 0.498402 2.119 255 0 0 255 
-0.138918 0.497472 2.115 255 0 0 255 
-0.132833 0.496308 2.11 255 0 0 255 
-0.126715 0.494907 2.104 255 0 0 255 
-0.120687 0.493741 2.099 255 0 0 255 
-0.11507 0.494221 2.101 255 0 0 255 
-0.109545 0.495172 2.105 255 0 0 255 
-0.103998 0.496122 2.109 255 0 0 255 
-0.098196 0.495895 2.108 255 0 0 255 
-0.092355 0.495432 2.106 255 0 0 255 
-0.086401 0.494263 2.101 255 0 0 255 
-0.08059 0.4938 2.099 255 0 0 255 
-0.074896 0.494042 2.1 255 0 0 255 
-0.069197 0.494283 2.101 255 0 0 255 
-0.063522 0.494759 2.103 255 0 0 255 
-0.057754 0.494529 2.102 255 0 0 255 
-0.052041 0.494769 2.103 255 0 0 255 
-0.046299 0.494773 2.103 255 0 0 255 
-0.040616 0.495483 2.106 255 0 0 255 
-0.034883 0.495721 2.107 255 0 0 255 
-0.029131 0.495724 2.107 255 0 0 255 
-0.023389 0.495962 2.108 255 0 0 255 
-0.017634 0.495963 2.108 255 0 0 255 
-0.011879 0.495965 2.108 255 0 0 255 
-0.006123 0.495965 2.108 255 0 0 255 
-0.000368 0.49573 2.107 255 0 0 255 
0.005388 0.495965 2.108 255 0 0 255 
0.011132 0.495494 2.106 255 0 0 255 
0.01689 0.495728 2.107 255 0 0 255 
0.022643 0.495727 2.107 255 0 0 255 
0.028436 0.49643 2.11 255 0 0 255 
0.034213 0.496663 2.111 255 0 0 255 
0.039995 0.496895 2.112 255 0 0 255 
0.045782 0.497127 2.113 255 0 0 255 
0.051624 0.497828 2.116 255 0 0 255 
0.057455 0.498294 2.118 255 0 0 255 
0.063296 0.49876 2.12 255 0 0 255 
0.069148 0.499225 2.122 255 0 0 255 
0.075153 0.50063 2.128 255 0 0 255 
0.081075 0.501329 2.131 255 0 0 255 
0.087055 0.502263 2.135 255 0 0 255 
0.092969 0.502726 2.137 255 0 0 255 
0.099032 0.503894 2.142 255 0 0 255 
0.104976 0.504356 2.144 255 0 0 255 
0.110775 0.504112 2.143 255 0 0 255 
0.116623 0.504102 2.143 255 0 0 255 
0.122756 0.505269 2.148 255 0 0 255 
0.128976 0.506669 2.154 255 0 0 255 
0.135165 0.507835 2.159 255 0 0 255 
0.141382 0.508999 2.164 255 0 0 255 
0.147762 0.510634 2.171 255 0 0 255 
-0.115746 0.630264 2.22656 255 255 0 255 
-0.099916 0.62915 2.22505 255 255 0 255 
-0.082381 0.628156 2.22488 255 255 0 255 
-0.071789 0.62675 2.21973 255 255 0 255 
-0.064664 0.625137 2.21208 255 255 0 255 
-0.058409 0.623475 2.20381 255 255 0 255 
-0.043334 0.620325 2.18924 255 255 0 255 
-0.252276 0.534836 2.14657 0 255 0 255 
-0.282619 0.541335 2.18167 0 255 0 255 
-0.289377 0.544655 2.19876 0 255 0 255 
-0.28476 0.546461 2.20724 0 255 0 255 
-0.274 0.547463 2.21115 0 255 0 255 
-0.264106 0.54859 2.21575 0 255 0 255 
-0.255957 0.549955 2.22169 0 255 0 255 
-0.249558 0.551555 2.22895 0 255 0 255 
-0.242275 0.553047 2.23558 0 255 0 255 
-0.238507 0.554996 2.2448 0 255 0 255 
-0.230331 0.556387 2.25082 0 255 0 255 
-0.221263 0.557674 2.25624 0 255 0 255 
-0.205121 0.558082 2.25662 0 255 0 255 
-0.183653 0.557844 2.25328 0 255 0 255 
-0.164808 0.55796 2.25193 0 255 0 255 
-0.153904 0.55908 2.25631 0 255 0 255 
-0.146533 0.560646 2.26323 0 255 0 255 
-0.133832 0.561568 2.26644 0 255 0 255 
-0.114015 0.561642 2.26476 0 255 0 255 
-0.097723 0.562166 2.26564 0 255 0 255 
-0.0903 0.563774 2.27272 0 255 0 255 
-0.339327 0.506482 2.181 255 0 0 255 
-0.332326 0.50488 2.174 255 0 0 255 
-0.325062 0.502813 2.165 255 0 0 255 
-0.318436 0.501674 2.16 255 0 0 255 
-0.311981 0.500767 2.156 255 0 0 255 
-0.305973 0.500557 2.155 255 0 0 255 
-0.299692 0.499882 2.152 255 0 0 255 
-0.293835 0.499904 2.152 255 0 0 255 
-0.287443 0.498996 2.148 255 0 0 255 
-0.281072 0.498087 2.144 255 0 0 255 
-0.274722 0.497179 2.14 255 0 0 255 
-0.268896 0.497199 2.14 255 0 0 255 
-0.263069 0.497219 2.14 255 0 0 255 
-0.256881 0.496541 2.137 255 0 0 255 
-0.250826 0.496096 2.135 255 0 0 255 
-0.244781 0.49565 2.133 255 0 0 255 
-0.238859 0.495436 2.132 255 0 0 255 
-0.232832 0.49499 2.13 255 0 0 255 
-0.226815 0.494543 2.128 255 0 0 255 
-0.220705 0.493863 2.125 255 0 0 255 
-0.214813 0.493648 2.124 255 0 0 255 
-0.208926 0.493432 2.123 255 0 0 255 
-0.20314 0.493448 2.123 255 0 0 255 
-0.197446 0.493696 2.124 255 0 0 255 
-0.191565 0.493479 2.123 255 0 0 255 
-0.185689 0.493262 2.122 255 0 0 255 
-0.179903 0.493277 2.122 255 0 0 255 
-0.174281 0.493756 2.124 255 0 0 255 
-0.168489 0.49377 2.124 255 0 0 255 
-0.16262 0.493551 2.123 255 0 0 255 
-0.156681 0.493099 2.121 255 0 0 255 
-0.150896 0.493111 2.121 255 0 0 255 
-0.145042 0.492891 2.12 255 0 0 255 
-0.139061 0.492205 2.117 255 0 0 255 
-0.133033 0.491286 2.113 255 0 0 255 
-0.127027 0.490367 2.109 255 0 0 255 
-0.120927 0.488982 2.103 255 0 0 255 
-0.115079 0.488527 2.101 255 0 0 255 
-0.109346 0.488536 2.101 255 0 0 255 
-0.103858 0.489708 2.106 255 0 0 255 
-0.098157 0.489949 2.107 255 0 0 255 
-0.092275 0.489259 2.104 255 0 0 255 
-0.086367 0.488336 2.1 255 0 0 255 
-0.08052 0.487646 2.097 255 0 0 255 
-0.074831 0.487885 2.098 255 0 0 255 
-0.069104 0.487891 2.098 255 0 0 255 
-0.063437 0.488362 2.1 255 0 0 255 
-0.057704 0.488367 2.1 255 0 0 255 
-0.05202 0.488837 2.102 255 0 0 255 
-0.046303 0.489073 2.103 255 0 0 255 
-0.0406 0.489542 2.105 255 0 0 255 
-0.034869 0.489778 2.106 255 0 0 255 
-0.029133 0.490013 2.107 255 0 0 255 
-0.02338 0.490015 2.107 255 0 0 255 
-0.017627 0.490017 2.107 255 0 0 255 
-0.011863 0.489553 2.105 255 0 0 255 
-0.006115 0.489554 2.105 255 0 0 255 
-0.000367 0.489787 2.106 255 0 0 255 
0.005388 0.490252 2.108 255 0 0 255 
0.011133 0.489786 2.106 255 0 0 255 
0.016892 0.490017 2.107 255 0 0 255 
0.022656 0.490248 2.108 255 0 0 255 
0.028465 0.491176 2.112 255 0 0 255 
0.034264 0.491639 2.114 255 0 0 255 
0.040055 0.491868 2.115 255 0 0 255 
0.04583 0.491865 2.115 255 0 0 255 
0.051628 0.492093 2.116 255 0 0 255 
0.05746 0.492553 2.118 255 0 0 255 
0.063361 0.493479 2.122 255 0 0 255 
0.069285 0.494403 2.126 255 0 0 255 
0.075265 0.49556 2.131 255 0 0 255 
0.081196 0.496251 2.134 255 0 0 255 
0.087144 0.496941 2.137 255 0 0 255 
0.093107 0.497631 2.14 255 0 0 255 
0.099133 0.498553 2.144 255 0 0 255 
0.105131 0.499243 2.147 255 0 0 255 
0.110991 0.499234 2.147 255 0 0 255 
0.116904 0.499457 2.148 255 0 0 255 
0.122937 0.500144 2.151 255 0 0 255 
0.129166 0.501529 2.157 255 0 0 255 
0.135427 0.502913 2.163 255 0 0 255 
0.14172 0.504297 2.169 255 0 0 255 
0.148114 0.505912 2.176 255 0 0 255 
0.154404 0.507062 2.181 255 0 0 255 
-0.102654 0.62031 2.23717 255 255 0 255 
-0.092035 0.618909 2.23193 255 255 0 255 
-0.082296 0.617459 2.2261 255 255 0 255 
-0.068251 0.616297 2.22347 255 255 0 255 
-0.058541 0.614864 2.21772 255 255 0 255 
-0.02969 0.61265 2.21337 255 255 0 255 
-0.008661 0.60996 2.20346 255 255 0 255 
-0.006752 0.608042 2.1921 255 255 0 255 
-0.272428 0.529805 2.1751 0 255 0 255 
-0.285929 0.536509 2.20926 0 255 0 255 
-0.274297 0.537371 2.21252 0 255 0 255 
-0.268793 0.539066 2.22039 0 255 0 255 
-0.259772 0.540298 2.22567 0 255 0 255 
-0.254256 0.542003 2.23357 0 255 0 255 
-0.244339 0.543135 2.23827 0 255 0 255 
-0.239691 0.544966 2.24684 0 255 0 255 
-0.231517 0.546343 2.25287 0 255 0 255 
-0.223335 0.547727 2.25893 0 255 0 255 
-0.213379 0.548892 2.26375 0 255 0 255 
-0.195461 0.549049 2.26293 0 255 0 255 
-0.178403 0.549338 2.26282 0 255 0 255 
-0.16486 0.550093 2.2653 0 255 0 255 
-0.155727 0.551418 2.27095 0 255 0 255 
-0.142152 0.552198 2.27352 0 255 0 255 
-0.120577 0.551999 2.2706 0 255 0 255 
-0.100745 0.552043 2.26901 0 255 0 255 
-0.093325 0.553638 2.27609 0 255 0 255 
-0.340128 0.501718 2.186 255 0 0 255 
-0.332655 0.499446 2.176 255 0 0 255 
-0.325235 0.497174 2.166 255 0 0 255 
-0.318458 0.495819 2.16 255 0 0 255 
-0.312293 0.495382 2.158 255 0 0 255 
-0.306421 0.495405 2.158 255 0 0 255 
-0.299992 0.494508 2.154 255 0 0 255 
-0.293857 0.494071 2.152 255 0 0 255 
-0.28733 0.492944 2.147 255 0 0 255 
-0.281093 0.492276 2.144 255 0 0 255 
-0.274871 0.491608 2.141 255 0 0 255 
-0.269042 0.491628 2.141 255 0 0 255 
-0.263089 0.491418 2.14 255 0 0 255 
-0.2569 0.490749 2.137 255 0 0 255 
-0.250845 0.490309 2.135 255 0 0 255 
-0.244455 0.489179 2.13 255 0 0 255 
-0.238541 0.488968 2.129 255 0 0 255 
-0.232522 0.488527 2.127 255 0 0 255 
-0.22662 0.488315 2.126 255 0 0 255 
-0.220619 0.487873 2.124 255 0 0 255 
-0.214628 0.487431 2.122 255 0 0 255 
-0.208943 0.487677 2.123 255 0 0 255 
-0.203156 0.487693 2.123 255 0 0 255 
-0.197368 0.487709 2.123 255 0 0 255 
-0.1914 0.487265 2.121 255 0 0 255 
-0.185704 0.48751 2.122 255 0 0 255 
-0.180003 0.487754 2.123 255 0 0 255 
-0.174295 0.487998 2.124 255 0 0 255 
-0.168423 0.487782 2.123 255 0 0 255 
-0.16248 0.487336 2.121 255 0 0 255 
-0.156546 0.48689 2.119 255 0 0 255 
-0.150837 0.487132 2.12 255 0 0 255 
-0.144985 0.486914 2.119 255 0 0 255 
-0.139138 0.486696 2.118 255 0 0 255 
-0.13317 0.486018 2.115 255 0 0 255 
-0.127218 0.485339 2.112 255 0 0 255 
-0.121167 0.4842 2.107 255 0 0 255 
-0.115089 0.482831 2.101 255 0 0 255 
-0.109355 0.482841 2.101 255 0 0 255 
-0.103719 0.483309 2.103 255 0 0 255 
-0.098072 0.483777 2.105 255 0 0 255 
-0.092195 0.483096 2.102 255 0 0 255 
-0.086333 0.482414 2.099 255 0 0 255 
-0.08045 0.481501 2.095 255 0 0 255 
-0.074802 0.481968 2.097 255 0 0 255 
-0.06911 0.482203 2.098 255 0 0 255 
-0.063442 0.482669 2.1 255 0 0 255 
-0.057736 0.482904 2.101 255 0 0 255 
-0.052 0.482908 2.101 255 0 0 255 
-0.046263 0.482913 2.101 255 0 0 255 
-0.040546 0.483146 2.102 255 0 0 255 
-0.034806 0.483149 2.102 255 0 0 255 
-0.02908 0.483382 2.103 255 0 0 255 
-0.023349 0.483614 2.104 255 0 0 255 
-0.017603 0.483616 2.104 255 0 0 255 
-0.011858 0.483617 2.104 255 0 0 255 
-0.006113 0.483618 2.104 255 0 0 255 
-0.000368 0.484078 2.106 255 0 0 255 
0.005386 0.484307 2.107 255 0 0 255 
0.01114 0.484307 2.107 255 0 0 255 
0.016893 0.484305 2.107 255 0 0 255 
0.022668 0.484763 2.109 255 0 0 255 
0.028481 0.485681 2.113 255 0 0 255 
0.034283 0.486138 2.115 255 0 0 255 
0.040096 0.486594 2.117 255 0 0 255 
0.045877 0.486591 2.117 255 0 0 255 
0.051706 0.487046 2.119 255 0 0 255 
0.057519 0.487271 2.12 255 0 0 255 
0.063426 0.488186 2.124 255 0 0 255 
0.069453 0.489789 2.131 255 0 0 255 
0.075412 0.490702 2.135 255 0 0 255 
0.081317 0.491155 2.137 255 0 0 255 
0.087273 0.491838 2.14 255 0 0 255 
0.093289 0.492749 2.144 255 0 0 255 
0.09928 0.493431 2.147 255 0 0 255 
0.105238 0.493882 2.149 255 0 0 255 
0.111207 0.494333 2.151 255 0 0 255 
0.117077 0.494323 2.151 255 0 0 255 
0.123119 0.495003 2.154 255 0 0 255 
0.129356 0.496371 2.16 255 0 0 255 
0.135626 0.497739 2.166 255 0 0 255 
0.141863 0.498876 2.171 255 0 0 255 
0.148126 0.500013 2.176 255 0 0 255 
0.154488 0.50138 2.182 255 0 0 255 
-0.109726 0.611184 2.24618 255 255 0 255 
-0.096501 0.609967 2.24277 255 255 0 255 
-0.086755 0.60853 2.23692 255 255 0 255 
-0.074431 0.607275 2.23298 255 255 0 255 
-0.061261 0.606088 2.22973 255 255 0 255 
-0.045524 0.605089 2.22843 255 255 0 255 
-0.041872 0.603271 2.2183 255 255 0 255 
-0.030476 0.601993 2.21391 255 255 0 255 
-0.019956 0.600663 2.20893 255 255 0 255 
0.006867 0.600496 2.21621 255 255 0 255 
0.025061 0.599742 2.21716 255 255 0 255 
0.044082 0.599066 2.21885 255 255 0 255 
0.055367 0.597848 2.21477 255 255 0 255 
-0.282096 0.523419 2.19555 0 255 0 255 
-0.280097 0.525585 2.20603 0 255 0 255 
-0.272845 0.527029 2.21259 0 255 0 255 
-0.2726 0.529438 2.22437 0 255 0 255 
-0.266217 0.531009 2.23159 0 255 0 255 
-0.259829 0.532586 2.23884 0 255 0 255 
-0.24816 0.533459 2.24224 0 255 0 255 
-0.239117 0.534697 2.24761 0 255 0 255 
-0.230064 0.535943 2.25301 0 255 0 255 
-0.221882 0.537315 2.25908 0 255 0 255 
-0.213692 0.538693 2.26518 0 255 0 255 
-0.197547 0.53904 2.26564 0 255 0 255 
-0.182264 0.539518 2.26679 0 255 0 255 
-0.16873 0.540242 2.26927 0 255 0 255 
-0.158718 0.541435 2.27429 0 255 0 255 
-0.150465 0.542864 2.28059 0 255 0 255 
-0.132452 0.543059 2.28013 0 255 0 255 
-0.111752 0.542937 2.27791 0 255 0 255 
-0.100791 0.544066 2.28253 0 255 0 255 
-0.092482 0.545541 2.28902 0 255 0 255 
-0.349738 0.500984 2.209 255 0 0 255 
-0.340152 0.495792 2.186 255 0 0 255 
-0.332831 0.493774 2.177 255 0 0 255 
-0.325258 0.491302 2.166 255 0 0 255 
-0.318481 0.489963 2.16 255 0 0 255 
-0.312315 0.489532 2.158 255 0 0 255 
-0.306869 0.490235 2.161 255 0 0 255 
-0.300571 0.489576 2.158 255 0 0 255 
-0.294288 0.488917 2.155 255 0 0 255 
-0.287485 0.48735 2.148 255 0 0 255 
-0.281113 0.486463 2.144 255 0 0 255 
-0.27502 0.48603 2.142 255 0 0 255 
-0.269062 0.485823 2.141 255 0 0 255 
-0.263231 0.485843 2.141 255 0 0 255 
-0.25716 0.485409 2.139 255 0 0 255 
-0.251099 0.484974 2.137 255 0 0 255 
-0.244589 0.483632 2.131 255 0 0 255 
-0.238783 0.48365 2.131 255 0 0 255 
-0.23254 0.48276 2.127 255 0 0 255 
-0.226744 0.482778 2.127 255 0 0 255 
-0.220532 0.481888 2.123 255 0 0 255 
-0.214645 0.481678 2.122 255 0 0 255 
-0.208959 0.481921 2.123 255 0 0 255 
-0.203076 0.48171 2.122 255 0 0 255 
-0.197291 0.481726 2.122 255 0 0 255 
-0.191325 0.481288 2.12 255 0 0 255 
-0.185632 0.481529 2.121 255 0 0 255 
-0.179763 0.481317 2.12 255 0 0 255 
-0.173981 0.481331 2.12 255 0 0 255 
-0.168119 0.481118 2.119 255 0 0 255 
-0.16234 0.481131 2.119 255 0 0 255 
-0.156485 0.480917 2.118 255 0 0 255 
-0.150778 0.481157 2.119 255 0 0 255 
-0.144928 0.480942 2.118 255 0 0 255 
-0.139018 0.480499 2.116 255 0 0 255 
-0.133244 0.48051 2.116 255 0 0 255 
-0.127349 0.480067 2.114 255 0 0 255 
-0.12135 0.479169 2.11 255 0 0 255 
-0.115263 0.477816 2.104 255 0 0 255 
-0.109416 0.477371 2.102 255 0 0 255 
-0.103629 0.477153 2.101 255 0 0 255 
-0.097941 0.477388 2.102 255 0 0 255 
-0.092071 0.476715 2.099 255 0 0 255 
-0.086341 0.476723 2.099 255 0 0 255 
-0.080533 0.476275 2.097 255 0 0 255 
-0.074844 0.476509 2.098 255 0 0 255 
-0.069182 0.476969 2.1 255 0 0 255 
-0.063508 0.477429 2.102 255 0 0 255 
-0.057796 0.477661 2.103 255 0 0 255 
-0.052054 0.477666 2.103 255 0 0 255 
-0.046311 0.47767 2.103 255 0 0 255 
-0.040568 0.477674 2.103 255 0 0 255 
-0.034793 0.477223 2.101 255 0 0 255 
-0.029069 0.477452 2.102 255 0 0 255 
-0.02334 0.477682 2.103 255 0 0 255 
-0.017613 0.478138 2.105 255 0 0 255 
-0.011865 0.478139 2.105 255 0 0 255 
-0.006116 0.47814 2.105 255 0 0 255 
-0.000368 0.478367 2.106 255 0 0 255 
0.005384 0.478367 2.106 255 0 0 255 
0.011146 0.478821 2.108 255 0 0 255 
0.016903 0.47882 2.108 255 0 0 255 
0.022692 0.479499 2.111 255 0 0 255 
0.028497 0.480179 2.114 255 0 0 255 
0.034286 0.480403 2.115 255 0 0 255 
0.040138 0.481308 2.119 255 0 0 255 
0.045946 0.481532 2.12 255 0 0 255 
0.051759 0.481755 2.121 255 0 0 255 
0.057551 0.48175 2.121 255 0 0 255 
0.063551 0.483335 2.128 255 0 0 255 
0.069622 0.485147 2.136 255 0 0 255 
0.075631 0.486276 2.141 255 0 0 255 
0.08159 0.486951 2.144 255 0 0 255 
0.087566 0.487625 2.147 255 0 0 255 
0.093514 0.488072 2.149 255 0 0 255 
0.099381 0.488064 2.149 255 0 0 255 
0.105296 0.488282 2.15 255 0 0 255 
0.111268 0.488728 2.152 255 0 0 255 
0.11725 0.489172 2.154 255 0 0 255 
0.123301 0.489844 2.157 255 0 0 255 
0.129547 0.491196 2.163 255 0 0 255 
0.135762 0.49232 2.168 255 0 0 255 
0.142005 0.493444 2.173 255 0 0 255 
0.148275 0.494568 2.178 255 0 0 255 
0.154642 0.495918 2.184 255 0 0 255 
0.160674 0.496132 2.185 255 0 0 255 
-0.113334 0.602268 2.2577 255 255 0 255 
-0.106167 0.600657 2.24991 255 255 0 255 
-0.096411 0.599231 2.24401 255 255 0 255 
-0.081479 0.598173 2.2419 255 255 0 255 
-0.064844 0.597248 2.24111 255 255 0 255 
-0.049962 0.596216 2.23914 255 255 0 255 
-0.037689 0.595011 2.23532 255 255 0 255 
-0.033183 0.593258 2.22585 255 255 0 255 
-0.021799 0.592007 2.22147 255 255 0 255 
-0.01043 0.590764 2.21715 255 255 0 255 
0.011222 0.590291 2.22058 255 255 0 255 
0.030264 0.589646 2.22218 255 255 0 255 
0.050129 0.589083 2.22451 255 255 0 255 
0.061405 0.58789 2.22044 255 255 0 255 
0.055571 0.585403 2.20336 255 255 0 255 
0.048903 0.582841 2.18556 255 255 0 255 
-0.266063 0.508524 2.17256 0 255 0 255 
-0.279777 0.512937 2.19495 0 255 0 255 
-0.280399 0.51548 2.2074 0 255 0 255 
-0.279276 0.517773 2.21853 0 255 0 255 
-0.278157 0.520065 2.22965 0 255 0 255 
-0.273534 0.521869 2.23816 0 255 0 255 
-0.266275 0.523311 2.24474 0 255 0 255 
-0.250224 0.523553 2.24492 0 255 0 255 
-0.241184 0.524773 2.25029 0 255 0 255 
-0.228615 0.525523 2.25315 0 255 0 255 
-0.224837 0.527478 2.26241 0 255 0 255 
-0.219296 0.529197 2.2704 0 255 0 255 
-0.207574 0.530094 2.274 0 255 0 255 
-0.19054 0.530297 2.27389 0 255 0 255 
-0.172598 0.530401 2.27323 0 255 0 255 
-0.155515 0.530641 2.27328 0 255 0 255 
-0.148147 0.532174 2.28022 0 255 0 255 
-0.133684 0.532791 2.28225 0 255 0 255 
-0.119201 0.533422 2.28434 0 255 0 255 
-0.107362 0.534412 2.28834 0 255 0 255 
-0.093732 0.535185 2.29116 0 255 0 255 
-0.34802 0.49253 2.198 255 0 0 255 
-0.34002 0.48964 2.185 255 0 0 255 
-0.333007 0.488095 2.178 255 0 0 255 
-0.325731 0.486101 2.169 255 0 0 255 
-0.318798 0.484555 2.162 255 0 0 255 
-0.312627 0.484129 2.16 255 0 0 255 
-0.306891 0.484375 2.161 255 0 0 255 
-0.300732 0.483949 2.159 255 0 0 255 
-0.294309 0.483074 2.155 255 0 0 255 
-0.287774 0.481974 2.15 255 0 0 255 
-0.281528 0.481323 2.147 255 0 0 255 
-0.275554 0.481119 2.146 255 0 0 255 
-0.269584 0.480915 2.145 255 0 0 255 
-0.263497 0.480487 2.143 255 0 0 255 
-0.2573 0.479833 2.14 255 0 0 255 
-0.251118 0.47918 2.137 255 0 0 255 
-0.244722 0.478078 2.132 255 0 0 255 
-0.23869 0.477648 2.13 255 0 0 255 
-0.232558 0.476993 2.127 255 0 0 255 
-0.226655 0.476786 2.126 255 0 0 255 
-0.220653 0.476355 2.124 255 0 0 255 
-0.214661 0.475923 2.122 255 0 0 255 
-0.208975 0.476164 2.123 255 0 0 255 
-0.202996 0.475732 2.121 255 0 0 255 
-0.197121 0.475523 2.12 255 0 0 255 
-0.19125 0.475314 2.119 255 0 0 255 
-0.185384 0.475105 2.118 255 0 0 255 
-0.179608 0.47512 2.118 255 0 0 255 
-0.173831 0.475134 2.118 255 0 0 255 
-0.168054 0.475147 2.118 255 0 0 255 
-0.162199 0.474936 2.117 255 0 0 255 
-0.15635 0.474725 2.116 255 0 0 255 
-0.150648 0.474962 2.117 255 0 0 255 
-0.144803 0.47475 2.116 255 0 0 255 
-0.139095 0.474985 2.117 255 0 0 255 
-0.133318 0.474997 2.117 255 0 0 255 
-0.12748 0.474783 2.116 255 0 0 255 
-0.121475 0.473896 2.112 255 0 0 255 
-0.115382 0.472559 2.106 255 0 0 255 
-0.109529 0.47212 2.104 255 0 0 255 
-0.103638 0.471455 2.101 255 0 0 255 
-0.097902 0.471464 2.101 255 0 0 255 
-0.092079 0.471023 2.099 255 0 0 255 
-0.086389 0.471255 2.1 255 0 0 255 
-0.080655 0.471262 2.1 255 0 0 255 
-0.074957 0.471493 2.101 255 0 0 255 
-0.069286 0.471947 2.103 255 0 0 255 
-0.063604 0.472402 2.105 255 0 0 255 
-0.057883 0.472631 2.106 255 0 0 255 
-0.052108 0.472412 2.105 255 0 0 255 
-0.046337 0.472191 2.104 255 0 0 255 
-0.040553 0.471746 2.102 255 0 0 255 
-0.034812 0.471749 2.102 255 0 0 255 
-0.029085 0.471976 2.103 255 0 0 255 
-0.023364 0.472427 2.105 255 0 0 255 
-0.017623 0.472654 2.106 255 0 0 255 
-0.011871 0.472655 2.106 255 0 0 255 
-0.006117 0.472431 2.105 255 0 0 255 
-0.000368 0.47288 2.107 255 0 0 255 
0.005387 0.47288 2.107 255 0 0 255 
0.011152 0.473328 2.109 255 0 0 255 
0.016912 0.473327 2.109 255 0 0 255 
0.022704 0.473999 2.112 255 0 0 255 
0.028499 0.474445 2.114 255 0 0 255 
0.034305 0.474892 2.116 255 0 0 255 
0.040179 0.476011 2.121 255 0 0 255 
0.046015 0.476456 2.123 255 0 0 255 
0.051861 0.476901 2.125 255 0 0 255 
0.057664 0.476896 2.125 255 0 0 255 
0.063706 0.478686 2.133 255 0 0 255 
0.069824 0.4807 2.142 255 0 0 255 
0.075849 0.481816 2.147 255 0 0 255 
0.081787 0.482259 2.149 255 0 0 255 
0.087696 0.482476 2.15 255 0 0 255 
0.093653 0.482917 2.152 255 0 0 255 
0.099667 0.483582 2.155 255 0 0 255 
0.105599 0.483798 2.156 255 0 0 255 
0.111587 0.484238 2.158 255 0 0 255 
0.117478 0.484228 2.158 255 0 0 255 
0.123482 0.484667 2.16 255 0 0 255 
0.129677 0.485779 2.165 255 0 0 255 
0.135899 0.48689 2.17 255 0 0 255 
0.142082 0.487776 2.174 255 0 0 255 
0.148219 0.488437 2.177 255 0 0 255 
0.154513 0.489547 2.182 255 0 0 255 
0.160834 0.490656 2.187 255 0 0 255 
