ply
format ascii 1.0
comment VCGLIB generated
element vertex 1246
property float x
property float y
property float z
property uchar red
property uchar green
property uchar blue
property uchar alpha
element face 0
property list uchar int vertex_indices
end_header
0.1273 0.344922 2.29611 255 255 0 255 
-0.270214 0.266072 2.2274 0 255 0 255 
-0.267831 0.270997 2.24986 0 255 0 255 
-0.256275 0.271254 2.25349 0 255 0 255 
-0.233461 0.269143 2.24901 0 255 0 255 
-0.161065 0.270494 2.2705 0 255 0 255 
-0.164173 0.273899 2.28495 0 255 0 255 
-0.164678 0.27676 2.29753 0 255 0 255 
-0.174778 0.281578 2.31675 0 255 0 255 
-0.17356 0.28407 2.32805 0 255 0 255 
-0.169725 0.28603 2.33754 0 255 0 255 
-0.152782 0.285343 2.33807 0 255 0 255 
-0.14631 0.286786 2.34583 0 255 0 255 
-0.141582 0.288585 2.35478 0 255 0 255 
-0.133348 0.289686 2.36139 0 255 0 255 
-0.115459 0.288876 2.36156 0 255 0 255 
-0.0993 0.288433 2.36299 0 255 0 255 
-0.078343 0.289844 2.37361 0 255 0 255 
-0.063886 0.289789 2.37638 0 255 0 255 
-0.045888 0.289061 2.37693 0 255 0 255 
-0.344454 0.351155 2.21 255 0 0 255 
-0.336906 0.349586 2.2 255 0 0 255 
-0.330465 0.34913 2.197 255 0 0 255 
-0.324334 0.348991 2.196 255 0 0 255 
-0.318353 0.349011 2.196 255 0 0 255 
-0.312229 0.348872 2.195 255 0 0 255 
-0.30611 0.348732 2.194 255 0 0 255 
-0.300131 0.348751 2.194 255 0 0 255 
-0.294018 0.348611 2.193 255 0 0 255 
-0.288041 0.348629 2.193 255 0 0 255 
-0.282063 0.348647 2.193 255 0 0 255 
-0.276209 0.348824 2.194 255 0 0 255 
-0.270473 0.34916 2.196 255 0 0 255 
-0.264725 0.349495 2.198 255 0 0 255 
-0.259436 0.350466 2.204 255 0 0 255 
-0.254459 0.351914 2.213 255 0 0 255 
-0.249768 0.353839 2.225 255 0 0 255 
-0.24523 0.356082 2.239 255 0 0 255 
-0.240295 0.357847 2.25 255 0 0 255 
-0.234466 0.35834 2.253 255 0 0 255 
-0.227201 0.356606 2.242 255 0 0 255 
-0.219799 0.354553 2.229 255 0 0 255 
-0.212371 0.352341 2.215 255 0 0 255 
-0.205577 0.351082 2.207 255 0 0 255 
-0.199007 0.350142 2.201 255 0 0 255 
-0.19247 0.3492 2.195 255 0 0 255 
-0.185369 0.347145 2.182 255 0 0 255 
-0.178175 0.344771 2.167 255 0 0 255 
-0.171619 0.34351 2.159 255 0 0 255 
-0.165643 0.343363 2.158 255 0 0 255 
-0.159672 0.343215 2.157 255 0 0 255 
-0.153705 0.343067 2.156 255 0 0 255 
-0.147813 0.343077 2.156 255 0 0 255 
-0.141788 0.342769 2.154 255 0 0 255 
-0.135836 0.342619 2.153 255 0 0 255 
-0.12995 0.342629 2.153 255 0 0 255 
-0.124064 0.342638 2.153 255 0 0 255 
-0.118122 0.342487 2.152 255 0 0 255 
-0.112081 0.342018 2.149 255 0 0 255 
-0.106204 0.342025 2.149 255 0 0 255 
-0.10028 0.341874 2.148 255 0 0 255 
-0.094361 0.341721 2.147 255 0 0 255 
-0.088489 0.341728 2.147 255 0 0 255 
-0.082578 0.341575 2.146 255 0 0 255 
-0.076707 0.34158 2.146 255 0 0 255 
-0.070738 0.341108 2.143 255 0 0 255 
-0.064845 0.340954 2.142 255 0 0 255 
-0.058985 0.340958 2.142 255 0 0 255 
-0.053149 0.341121 2.143 255 0 0 255 
-0.047308 0.341284 2.144 255 0 0 255 
-0.041422 0.341128 2.143 255 0 0 255 
-0.035575 0.34129 2.144 255 0 0 255 
-0.029723 0.341452 2.145 255 0 0 255 
-0.023875 0.341772 2.147 255 0 0 255 
-0.018017 0.342092 2.149 255 0 0 255 
-0.012137 0.342093 2.149 255 0 0 255 
-0.006262 0.342412 2.151 255 0 0 255 
-0.000376 0.342571 2.152 255 0 0 255 
0.005518 0.34289 2.154 255 0 0 255 
0.011444 0.343844 2.16 255 0 0 255 
0.017402 0.344798 2.166 255 0 0 255 
0.023394 0.345752 2.172 255 0 0 255 
0.029405 0.346546 2.177 255 0 0 255 
0.035459 0.347499 2.183 255 0 0 255 
0.041546 0.348451 2.189 255 0 0 255 
0.047731 0.34988 2.198 255 0 0 255 
0.054062 0.351946 2.211 255 0 0 255 
0.060492 0.35417 2.225 255 0 0 255 
0.067028 0.356554 2.24 255 0 0 255 
0.073842 0.359891 2.261 255 0 0 255 
0.080381 0.361477 2.271 255 0 0 255 
0.086479 0.360994 2.268 255 0 0 255 
0.092274 0.359396 2.258 255 0 0 255 
0.098102 0.358116 2.25 255 0 0 255 
0.103839 0.356676 2.241 255 0 0 255 
0.109526 0.355236 2.232 255 0 0 255 
0.115267 0.354114 2.225 255 0 0 255 
0.121188 0.353629 2.222 255 0 0 255 
0.127263 0.35362 2.222 255 0 0 255 
0.133219 0.353292 2.22 255 0 0 255 
0.139225 0.353124 2.219 255 0 0 255 
0.145291 0.353114 2.219 255 0 0 255 
0.151766 0.354058 2.225 255 0 0 255 
0.158202 0.354843 2.23 255 0 0 255 
0.164591 0.355468 2.234 255 0 0 255 
0.170849 0.355775 2.236 255 0 0 255 
0.177117 0.356081 2.238 255 0 0 255 
0.183641 0.356864 2.243 255 0 0 255 
-0.086094 0.345055 2.37128 255 255 0 255 
-0.079817 0.343573 2.3628 255 255 0 255 
-0.069251 0.342707 2.35732 255 255 0 255 
-0.065564 0.340864 2.34709 255 255 0 255 
-0.063591 0.338775 2.33566 255 255 0 255 
-0.054766 0.337676 2.32905 255 255 0 255 
-0.032267 0.338575 2.33214 255 255 0 255 
-0.012371 0.33912 2.33352 255 255 0 255 
-0.002752 0.338178 2.32768 255 255 0 255 
-0.000818 0.336109 2.31636 255 255 0 255 
-0.001436 0.333661 2.30319 255 255 0 255 
0.004761 0.332223 2.29493 255 255 0 255 
0.0237 0.332696 2.29598 255 255 0 255 
0.056189 0.335228 2.30709 255 255 0 255 
0.081833 0.336767 2.31337 255 255 0 255 
0.096417 0.336658 2.31162 255 255 0 255 
0.099976 0.334885 2.30174 255 255 0 255 
0.111988 0.334407 2.29819 255 255 0 255 
-0.273504 0.253567 2.21887 0 255 0 255 
-0.28092 0.257914 2.23649 0 255 0 255 
-0.284906 0.261501 2.2515 0 255 0 255 
-0.27251 0.261532 2.25446 0 255 0 255 
-0.256644 0.260831 2.25494 0 255 0 255 
-0.229519 0.257734 2.24734 0 255 0 255 
-0.155776 0.255879 2.25571 0 255 0 255 
-0.156258 0.258763 2.26836 0 255 0 255 
-0.159356 0.26219 2.28282 0 255 0 255 
-0.162465 0.26561 2.29724 0 255 0 255 
-0.166456 0.269203 2.31223 0 255 0 255 
-0.170459 0.272789 2.32718 0 255 0 255 
-0.167494 0.274929 2.33728 0 255 0 255 
-0.157541 0.275636 2.34261 0 255 0 255 
-0.147578 0.276353 2.34798 0 255 0 255 
-0.138476 0.277256 2.35398 0 255 0 255 
-0.124988 0.277281 2.35707 0 255 0 255 
-0.114986 0.278026 2.36257 0 255 0 255 
-0.103219 0.278429 2.36693 0 255 0 255 
-0.100214 0.280601 2.37717 0 255 0 255 
-0.088424 0.281021 2.38161 0 255 0 255 
-0.072223 0.280577 2.38321 0 255 0 255 
-0.048958 0.278756 2.3803 0 255 0 255 
-0.038872 0.279567 2.38609 0 255 0 255 
-0.331087 0.343774 2.201 255 0 0 255 
-0.324797 0.343482 2.199 255 0 0 255 
-0.318518 0.343189 2.197 255 0 0 255 
-0.312248 0.342896 2.195 255 0 0 255 
-0.306129 0.342759 2.194 255 0 0 255 
-0.300013 0.342621 2.193 255 0 0 255 
-0.293902 0.342483 2.192 255 0 0 255 
-0.287796 0.342345 2.191 255 0 0 255 
-0.28208 0.342676 2.193 255 0 0 255 
-0.276605 0.343319 2.197 255 0 0 255 
-0.27086 0.343649 2.199 255 0 0 255 
-0.265224 0.344135 2.202 255 0 0 255 
-0.259924 0.345089 2.208 255 0 0 255 
-0.254935 0.346513 2.217 255 0 0 255 
-0.250009 0.348092 2.227 255 0 0 255 
-0.245137 0.349827 2.238 255 0 0 255 
-0.23999 0.35125 2.247 255 0 0 255 
-0.234169 0.351735 2.25 255 0 0 255 
-0.227318 0.350656 2.243 255 0 0 255 
-0.220109 0.348951 2.232 255 0 0 255 
-0.21296 0.347245 2.221 255 0 0 255 
-0.20615 0.346009 2.213 255 0 0 255 
-0.199563 0.345084 2.207 255 0 0 255 
-0.192746 0.34369 2.198 255 0 0 255 
-0.185212 0.340888 2.18 255 0 0 255 
-0.178187 0.338868 2.167 255 0 0 255 
-0.171789 0.337941 2.161 255 0 0 255 
-0.165884 0.337953 2.161 255 0 0 255 
-0.159831 0.337651 2.159 255 0 0 255 
-0.153859 0.337505 2.158 255 0 0 255 
-0.148029 0.337672 2.159 255 0 0 255 
-0.141995 0.337369 2.157 255 0 0 255 
-0.135972 0.337066 2.155 255 0 0 255 
-0.13002 0.336919 2.154 255 0 0 255 
-0.12413 0.336928 2.154 255 0 0 255 
-0.118185 0.33678 2.153 255 0 0 255 
-0.112089 0.336162 2.149 255 0 0 255 
-0.106162 0.336013 2.148 255 0 0 255 
-0.100287 0.33602 2.148 255 0 0 255 
-0.094412 0.336027 2.148 255 0 0 255 
-0.088578 0.33619 2.149 255 0 0 255 
-0.08266 0.33604 2.148 255 0 0 255 
-0.076713 0.335732 2.146 255 0 0 255 
-0.070809 0.335581 2.145 255 0 0 255 
-0.06488 0.335273 2.143 255 0 0 255 
-0.059044 0.335434 2.144 255 0 0 255 
-0.053128 0.335125 2.142 255 0 0 255 
-0.047333 0.335598 2.145 255 0 0 255 
-0.041445 0.335445 2.144 255 0 0 255 
-0.035594 0.335604 2.145 255 0 0 255 
-0.029725 0.335606 2.145 255 0 0 255 
-0.023888 0.336077 2.148 255 0 0 255 
-0.018027 0.336392 2.15 255 0 0 255 
-0.012149 0.336549 2.151 255 0 0 255 
-0.006268 0.336863 2.153 255 0 0 255 
-0.000377 0.337176 2.155 255 0 0 255 
0.005531 0.337802 2.159 255 0 0 255 
0.011466 0.338583 2.164 255 0 0 255 
0.017428 0.339365 2.169 255 0 0 255 
0.023417 0.340146 2.174 255 0 0 255 
0.029407 0.340613 2.177 255 0 0 255 
0.035478 0.341706 2.184 255 0 0 255 
0.041644 0.343268 2.194 255 0 0 255 
0.04793 0.345299 2.207 255 0 0 255 
0.054311 0.347485 2.221 255 0 0 255 
0.060714 0.349359 2.233 255 0 0 255 
0.067153 0.351075 2.244 255 0 0 255 
0.073913 0.354043 2.263 255 0 0 255 
0.080493 0.355758 2.274 255 0 0 255 
0.086638 0.355439 2.272 255 0 0 255 
0.092485 0.354025 2.263 255 0 0 255 
0.098283 0.352611 2.254 255 0 0 255 
0.104031 0.351196 2.245 255 0 0 255 
0.109632 0.349467 2.234 255 0 0 255 
0.115379 0.348364 2.227 255 0 0 255 
0.121305 0.347887 2.224 255 0 0 255 
0.127272 0.347565 2.222 255 0 0 255 
0.133168 0.347087 2.219 255 0 0 255 
0.139235 0.347078 2.219 255 0 0 255 
0.145367 0.347224 2.22 255 0 0 255 
0.151845 0.348152 2.226 255 0 0 255 
0.158142 0.348611 2.229 255 0 0 255 
0.164676 0.349538 2.235 255 0 0 255 
0.170861 0.349683 2.236 255 0 0 255 
0.177129 0.349984 2.238 255 0 0 255 
0.183653 0.350754 2.243 255 0 0 255 
-0.085123 0.334261 2.37319 255 255 0 255 
-0.080565 0.332537 2.36352 255 255 0 255 
-0.069142 0.331817 2.35862 255 255 0 255 
-0.067168 0.329722 2.34719 255 255 0 255 
-0.061764 0.32813 2.33815 255 255 0 255 
-0.052086 0.327174 2.33213 255 255 0 255 
-0.029598 0.328131 2.33522 255 255 0 255 
-0.012274 0.328344 2.33477 255 255 0 255 
-0.00095 0.327675 2.33014 255 255 0 255 
0.001836 0.325731 2.31943 255 255 0 255 
0.001219 0.32327 2.30626 255 255 0 255 
0.004863 0.321452 2.29615 255 255 0 255 
0.023796 0.321972 2.2972 255 255 0 255 
0.090381 0.327505 2.32078 255 255 0 255 
0.099871 0.326647 2.31528 255 255 0 255 
0.100045 0.324348 2.30289 255 255 0 255 
0.108675 0.323367 2.2968 255 255 0 255 
-0.278703 0.246953 2.23601 0 255 0 255 
-0.282681 0.250563 2.25103 0 255 0 255 
-0.27115 0.250758 2.25463 0 255 0 255 
-0.257878 0.250587 2.25702 0 255 0 255 
-0.221265 0.245348 2.24255 0 255 0 255 
-0.137104 0.241124 2.24375 0 255 0 255 
-0.153197 0.247361 2.26746 0 255 0 255 
-0.165847 0.252838 2.28863 0 255 0 255 
-0.168956 0.256273 2.30303 0 255 0 255 
-0.170334 0.259334 2.31619 0 255 0 255 
-0.163879 0.260745 2.3239 0 255 0 255 
-0.166139 0.263984 2.33763 0 255 0 255 
-0.164043 0.266309 2.34834 0 255 0 255 
-0.154087 0.267002 2.3537 0 255 0 255 
-0.140623 0.266981 2.35674 0 255 0 255 
-0.325851 0.338569 2.206 255 0 0 255 
-0.318972 0.337667 2.2 255 0 0 255 
-0.312694 0.337379 2.198 255 0 0 255 
-0.306706 0.337398 2.198 255 0 0 255 
-0.300442 0.33711 2.196 255 0 0 255 
-0.294189 0.336821 2.194 255 0 0 255 
-0.288208 0.336839 2.194 255 0 0 255 
-0.282355 0.337011 2.195 255 0 0 255 
-0.276748 0.337489 2.198 255 0 0 255 
-0.271124 0.337967 2.201 255 0 0 255 
-0.265723 0.338751 2.206 255 0 0 255 
-0.260294 0.339536 2.211 255 0 0 255 
-0.255067 0.340627 2.218 255 0 0 255 
-0.250025 0.342026 2.227 255 0 0 255 
-0.245043 0.343578 2.237 255 0 0 255 
-0.239792 0.344822 2.245 255 0 0 255 
-0.233977 0.345298 2.248 255 0 0 255 
-0.227231 0.344392 2.242 255 0 0 255 
-0.220321 0.343177 2.234 255 0 0 255 
-0.213358 0.341809 2.225 255 0 0 255 
-0.206536 0.340594 2.217 255 0 0 255 
-0.199757 0.339378 2.209 255 0 0 255 
-0.192496 0.33724 2.195 255 0 0 255 
-0.184885 0.334334 2.176 255 0 0 255 
-0.178117 0.332809 2.166 255 0 0 255 
-0.17204 0.332514 2.164 255 0 0 255 
-0.166203 0.332679 2.165 255 0 0 255 
-0.160138 0.332383 2.163 255 0 0 255 
-0.154083 0.332086 2.161 255 0 0 255 
-0.148039 0.331789 2.159 255 0 0 255 
-0.142005 0.331491 2.157 255 0 0 255 
-0.136044 0.331347 2.156 255 0 0 255 
-0.130089 0.331203 2.155 255 0 0 255 
-0.124196 0.331211 2.155 255 0 0 255 
-0.118248 0.331066 2.154 255 0 0 255 
-0.112201 0.330613 2.151 255 0 0 255 
-0.106268 0.330467 2.15 255 0 0 255 
-0.100388 0.330474 2.15 255 0 0 255 
-0.094506 0.33048 2.15 255 0 0 255 
-0.088707 0.330794 2.152 255 0 0 255 
-0.082705 0.330339 2.149 255 0 0 255 
-0.076754 0.330037 2.147 255 0 0 255 
-0.070814 0.329735 2.145 255 0 0 255 
-0.064945 0.32974 2.145 255 0 0 255 
-0.059103 0.329898 2.146 255 0 0 255 
-0.053206 0.329748 2.145 255 0 0 255 
-0.047337 0.329751 2.145 255 0 0 255 
-0.041467 0.329754 2.145 255 0 0 255 
-0.035597 0.329757 2.145 255 0 0 255 
-0.029741 0.329913 2.146 255 0 0 255 
-0.023912 0.33053 2.15 255 0 0 255 
-0.018045 0.330839 2.152 255 0 0 255 
-0.012161 0.330994 2.153 255 0 0 255 
-0.006272 0.331148 2.154 255 0 0 255 
-0.000377 0.331456 2.156 255 0 0 255 
0.005534 0.332071 2.16 255 0 0 255 
0.011477 0.332992 2.166 255 0 0 255 
0.017445 0.33376 2.171 255 0 0 255 
0.02344 0.334527 2.176 255 0 0 255 
0.029449 0.33514 2.18 255 0 0 255 
0.035561 0.336522 2.189 255 0 0 255 
0.041799 0.338518 2.202 255 0 0 255 
0.048085 0.340359 2.214 255 0 0 255 
0.054486 0.342508 2.228 255 0 0 255 
0.060881 0.344195 2.239 255 0 0 255 
0.067457 0.346496 2.254 255 0 0 255 
0.074179 0.349105 2.271 255 0 0 255 
0.080747 0.350636 2.281 255 0 0 255 
0.086797 0.349862 2.276 255 0 0 255 
0.092696 0.348626 2.268 255 0 0 255 
0.098508 0.347236 2.259 255 0 0 255 
0.104131 0.345384 2.247 255 0 0 255 
0.109737 0.343686 2.236 255 0 0 255 
0.115387 0.342295 2.227 255 0 0 255 
0.121368 0.34198 2.225 255 0 0 255 
0.127281 0.34151 2.222 255 0 0 255 
0.133177 0.34104 2.219 255 0 0 255 
0.139182 0.340877 2.218 255 0 0 255 
0.145311 0.341021 2.219 255 0 0 255 
0.151719 0.341779 2.224 255 0 0 255 
0.158011 0.34223 2.227 255 0 0 255 
0.164614 0.343294 2.234 255 0 0 255 
0.170796 0.343437 2.235 255 0 0 255 
0.177141 0.343886 2.238 255 0 0 255 
0.183256 0.343874 2.238 255 0 0 255 
-0.077273 0.324477 2.37981 255 255 0 255 
-0.069286 0.323269 2.37252 255 255 0 255 
-0.060451 0.322194 2.36585 255 255 0 255 
-0.063626 0.319327 2.35087 255 255 0 255 
-0.059082 0.317613 2.34124 255 255 0 255 
-0.046842 0.317064 2.33703 255 255 0 255 
-0.026077 0.317822 2.3389 255 255 0 255 
-0.007055 0.318338 2.33966 255 255 0 255 
0.003409 0.317564 2.33442 255 255 0 255 
0.010452 0.316274 2.32678 255 255 0 255 
0.005576 0.313146 2.31057 255 255 0 255 
0.003267 0.310407 2.29615 255 255 0 255 
0.013706 0.309647 2.29099 255 255 0 255 
0.073317 0.316602 2.3219 255 255 0 255 
0.086215 0.316284 2.31883 255 255 0 255 
0.103324 0.316646 2.31894 255 255 0 255 
0.102653 0.314204 2.30593 255 255 0 255 
-0.281652 0.237123 2.23935 0 255 0 255 
-0.284767 0.240561 2.25373 0 255 0 255 
-0.278412 0.241881 2.26112 0 255 0 255 
-0.265151 0.241676 2.2635 0 255 0 255 
-0.24324 0.239577 2.25969 0 255 0 255 
-0.150142 0.235928 2.26657 0 255 0 255 
-0.182395 0.248453 2.31366 0 255 0 255 
-0.175081 0.249661 2.32074 0 255 0 255 
-0.166889 0.250689 2.32726 0 255 0 255 
-0.167403 0.253573 2.33978 0 255 0 255 
-0.167923 0.256453 2.35227 0 255 0 255 
-0.156227 0.256757 2.35645 0 255 0 255 
-0.14277 0.256706 2.35949 0 255 0 255 
-0.329711 0.336481 2.232 255 0 0 255 
-0.320296 0.333033 2.209 255 0 0 255 
-0.314278 0.333052 2.209 255 0 0 255 
-0.308259 0.333071 2.209 255 0 0 255 
-0.301829 0.332637 2.206 255 0 0 255 
-0.29528 0.332052 2.202 255 0 0 255 
-0.289408 0.332221 2.203 255 0 0 255 
-0.283659 0.33254 2.205 255 0 0 255 
-0.277899 0.332859 2.207 255 0 0 255 
-0.272249 0.333328 2.21 255 0 0 255 
-0.266824 0.334099 2.215 255 0 0 255 
-0.26137 0.33487 2.22 255 0 0 255 
-0.256118 0.335942 2.227 255 0 0 255 
-0.250939 0.337165 2.235 255 0 0 255 
-0.245826 0.338539 2.244 255 0 0 255 
-0.240342 0.33946 2.25 255 0 0 255 
-0.234096 0.339324 2.249 255 0 0 255 
-0.227246 0.338283 2.242 255 0 0 255 
-0.220434 0.337241 2.235 255 0 0 255 
-0.213564 0.336048 2.227 255 0 0 255 
-0.206829 0.335005 2.22 255 0 0 255 
-0.199951 0.333661 2.211 255 0 0 255 
-0.192508 0.331259 2.195 255 0 0 255 
-0.185067 0.328706 2.178 255 0 0 255 
-0.178458 0.32751 2.17 255 0 0 255 
-0.17229 0.327069 2.167 255 0 0 255 
-0.166291 0.326929 2.166 255 0 0 255 
-0.160222 0.326638 2.164 255 0 0 255 
-0.154093 0.326196 2.161 255 0 0 255 
-0.148049 0.325904 2.159 255 0 0 255 
-0.14208 0.325763 2.158 255 0 0 255 
-0.13618 0.325773 2.158 255 0 0 255 
-0.130158 0.32548 2.156 255 0 0 255 
-0.124262 0.325488 2.156 255 0 0 255 
-0.118256 0.325195 2.154 255 0 0 255 
-0.112313 0.325051 2.153 255 0 0 255 
-0.106424 0.325059 2.153 255 0 0 255 
-0.100535 0.325066 2.153 255 0 0 255 
-0.094689 0.325224 2.154 255 0 0 255 
-0.088796 0.32523 2.154 255 0 0 255 
-0.082826 0.324934 2.152 255 0 0 255 
-0.076831 0.324486 2.149 255 0 0 255 
-0.070885 0.324189 2.147 255 0 0 255 
-0.06501 0.324194 2.147 255 0 0 255 
-0.059162 0.324349 2.148 255 0 0 255 
-0.053235 0.324051 2.146 255 0 0 255 
-0.047362 0.324055 2.146 255 0 0 255 
-0.041508 0.324209 2.147 255 0 0 255 
-0.035649 0.324362 2.148 255 0 0 255 
-0.029784 0.324516 2.149 255 0 0 255 
-0.023925 0.32482 2.151 255 0 0 255 
-0.018055 0.325123 2.153 255 0 0 255 
-0.012173 0.325426 2.155 255 0 0 255 
-0.006278 0.325578 2.156 255 0 0 255 
-0.000377 0.32588 2.158 255 0 0 255 
0.005542 0.326635 2.163 255 0 0 255 
0.011494 0.32754 2.169 255 0 0 255 
0.01747 0.328294 2.174 255 0 0 255 
0.023474 0.329048 2.179 255 0 0 255 
0.029532 0.330103 2.186 255 0 0 255 
0.035678 0.331611 2.196 255 0 0 255 
0.041953 0.333722 2.21 255 0 0 255 
0.048197 0.335078 2.219 255 0 0 255 
0.054612 0.337189 2.233 255 0 0 255 
0.061049 0.338997 2.245 255 0 0 255 
0.067731 0.34171 2.263 255 0 0 255 
0.07438 0.34382 2.277 255 0 0 255 
0.080894 0.345022 2.285 255 0 0 255 
0.086993 0.344412 2.281 255 0 0 255 
0.092907 0.343198 2.273 255 0 0 255 
0.098776 0.341984 2.265 255 0 0 255 
0.104324 0.339863 2.251 255 0 0 255 
0.109843 0.337893 2.238 255 0 0 255 
0.115498 0.336527 2.229 255 0 0 255 
0.121377 0.335915 2.225 255 0 0 255 
0.12729 0.335453 2.222 255 0 0 255 
0.133066 0.33469 2.217 255 0 0 255 
0.139066 0.334529 2.216 255 0 0 255 
0.14519 0.334671 2.217 255 0 0 255 
0.151592 0.335416 2.222 255 0 0 255 
0.157809 0.335707 2.224 255 0 0 255 
0.164477 0.336904 2.232 255 0 0 255 
0.170807 0.337346 2.235 255 0 0 255 
0.17739 0.33824 2.241 255 0 0 255 
0.183678 0.338529 2.243 255 0 0 255 
-0.086878 0.314505 2.38727 255 255 0 255 
-0.072007 0.31434 2.38465 255 255 0 255 
-0.068318 0.312497 2.37442 255 255 0 255 
-0.060343 0.311307 2.36715 255 255 0 255 
-0.061799 0.308681 2.35336 255 255 0 255 
-0.057255 0.30697 2.34373 255 255 0 255 
-0.04502 0.306447 2.33951 255 255 0 255 
-0.025972 0.306993 2.34016 255 255 0 255 
-0.010368 0.307024 2.33849 255 255 0 255 
0.001801 0.306535 2.33445 255 255 0 255 
0.009696 0.305387 2.3274 255 255 0 255 
0.004827 0.302233 2.31119 255 255 0 255 
0.001676 0.299339 2.29616 255 255 0 255 
0.011265 0.298464 2.29036 255 255 0 255 
0.088828 0.306114 2.32186 255 255 0 255 
0.109313 0.307063 2.32448 255 255 0 255 
0.110328 0.304884 2.31274 255 255 0 255 
-0.279108 0.228804 2.25073 0 255 0 255 
-0.271887 0.229925 2.25752 0 255 0 255 
-0.267246 0.231633 2.26621 0 255 0 255 
-0.177447 0.231117 2.28704 0 255 0 255 
-0.18887 0.239187 2.31943 0 255 0 255 
-0.183302 0.240756 2.32771 0 255 0 255 
-0.173378 0.24139 2.333 0 255 0 255 
-0.173894 0.244281 2.34551 0 255 0 255 
-0.171801 0.246608 2.3562 0 255 0 255 
-0.161857 0.247257 2.36157 0 255 0 255 
-0.151029 0.24773 2.36637 0 255 0 255 
-0.326185 0.326849 2.208 255 0 0 255 
-0.321765 0.328497 2.219 255 0 0 255 
-0.316004 0.328812 2.221 255 0 0 255 
-0.310092 0.328978 2.222 255 0 0 255 
-0.303489 0.328404 2.218 255 0 0 255 
-0.296907 0.32783 2.214 255 0 0 255 
-0.29074 0.3277 2.213 255 0 0 255 
-0.284835 0.327866 2.214 255 0 0 255 
-0.279175 0.328327 2.217 255 0 0 255 
-0.273375 0.32864 2.219 255 0 0 255 
-0.267925 0.329398 2.224 255 0 0 255 
-0.262446 0.330155 2.229 255 0 0 255 
-0.257284 0.331356 2.237 255 0 0 255 
-0.252415 0.333001 2.248 255 0 0 255 
-0.249019 0.33672 2.273 255 0 0 255 
-0.241212 0.334514 2.258 255 0 0 255 
-0.233903 0.332899 2.247 255 0 0 255 
-0.226855 0.33158 2.238 255 0 0 255 
-0.220251 0.330854 2.233 255 0 0 255 
-0.213577 0.329979 2.227 255 0 0 255 
-0.206936 0.329103 2.221 255 0 0 255 
-0.199784 0.327338 2.209 255 0 0 255 
-0.192258 0.324832 2.192 255 0 0 255 
-0.185079 0.322769 2.178 255 0 0 255 
-0.178552 0.321744 2.171 255 0 0 255 
-0.17238 0.321311 2.168 255 0 0 255 
-0.166378 0.321173 2.167 255 0 0 255 
-0.160381 0.321036 2.166 255 0 0 255 
-0.154246 0.320602 2.163 255 0 0 255 
-0.148127 0.320167 2.16 255 0 0 255 
-0.142156 0.320029 2.159 255 0 0 255 
-0.136126 0.319741 2.157 255 0 0 255 
-0.130167 0.319602 2.156 255 0 0 255 
-0.124213 0.319462 2.155 255 0 0 255 
-0.118319 0.31947 2.155 255 0 0 255 
-0.112425 0.319478 2.155 255 0 0 255 
-0.10653 0.319486 2.155 255 0 0 255 
-0.100681 0.319641 2.156 255 0 0 255 
-0.094695 0.319351 2.154 255 0 0 255 
-0.088802 0.319357 2.154 255 0 0 255 
-0.082832 0.319066 2.152 255 0 0 255 
-0.076872 0.318775 2.15 255 0 0 255 
-0.070923 0.318484 2.148 255 0 0 255 
-0.065075 0.318637 2.149 255 0 0 255 
-0.059221 0.318789 2.15 255 0 0 255 
-0.053313 0.318645 2.149 255 0 0 255 
-0.047387 0.318352 2.147 255 0 0 255 
-0.041531 0.318503 2.148 255 0 0 255 
-0.035685 0.318802 2.15 255 0 0 255 
-0.029814 0.318953 2.151 255 0 0 255 
-0.023927 0.318954 2.151 255 0 0 255 
-0.018073 0.319549 2.155 255 0 0 255 
-0.012185 0.319847 2.157 255 0 0 255 
-0.00629 0.320292 2.16 255 0 0 255 
-0.000378 0.320441 2.161 255 0 0 255 
0.00555 0.321182 2.166 255 0 0 255 
0.011505 0.321923 2.171 255 0 0 255 
0.017504 0.32296 2.178 255 0 0 255 
0.02354 0.323996 2.185 255 0 0 255 
0.029643 0.325329 2.194 255 0 0 255 
0.03581 0.326809 2.204 255 0 0 255 
0.042032 0.32829 2.214 255 0 0 255 
0.048287 0.329621 2.223 255 0 0 255 
0.054713 0.331693 2.237 255 0 0 255 
0.061243 0.333914 2.252 255 0 0 255 
0.067915 0.33643 2.269 255 0 0 255 
0.074516 0.338204 2.281 255 0 0 255 
0.081041 0.339385 2.289 255 0 0 255 
0.087152 0.338786 2.285 255 0 0 255 
0.093118 0.337742 2.278 255 0 0 255 
0.098958 0.336401 2.269 255 0 0 255 
0.104516 0.334319 2.255 255 0 0 255 
0.110047 0.332384 2.242 255 0 0 255 
0.11561 0.330746 2.231 255 0 0 255 
0.121385 0.329849 2.225 255 0 0 255 
0.127241 0.329247 2.221 255 0 0 255 
0.133075 0.328646 2.217 255 0 0 255 
0.139012 0.32834 2.215 255 0 0 255 
0.145134 0.328479 2.216 255 0 0 255 
0.151466 0.329062 2.22 255 0 0 255 
0.157961 0.329941 2.226 255 0 0 255 
0.164488 0.33082 2.232 255 0 0 255 
0.170971 0.33155 2.237 255 0 0 255 
-0.087626 0.303429 2.38801 255 255 0 255 
-0.073616 0.303165 2.38479 255 255 0 255 
-0.066492 0.301851 2.37691 255 255 0 255 
-0.06109 0.300275 2.36786 255 255 0 255 
-0.056548 0.298568 2.35823 255 255 0 255 
-0.051153 0.296996 2.34921 255 255 0 255 
-0.042344 0.295964 2.3426 255 255 0 255 
-0.024159 0.296422 2.34264 255 255 0 255 
-0.006857 0.296761 2.34216 255 255 0 255 
0.002751 0.295892 2.3363 255 255 0 255 
0.011496 0.294894 2.32986 255 255 0 255 
0.000683 0.290756 2.30937 255 255 0 255 
0.002634 0.288662 2.29801 255 255 0 255 
0.030878 0.290833 2.30579 255 255 0 255 
0.067542 0.294412 2.31992 255 255 0 255 
0.095672 0.296641 2.32802 255 255 0 255 
0.111915 0.296951 2.32751 255 255 0 255 
0.113776 0.294904 2.3164 255 255 0 255 
-0.268999 0.210425 2.22015 0 255 0 255 
-0.28669 0.217281 2.24539 0 255 0 255 
-0.282918 0.219174 2.25469 0 255 0 255 
-0.275702 0.220281 2.26148 0 255 0 255 
-0.261587 0.219822 2.26327 0 255 0 255 
-0.192587 0.223758 2.29893 0 255 0 255 
-0.19743 0.227624 2.3145 0 255 0 255 
-0.191868 0.229181 2.32277 0 255 0 255 
-0.188908 0.231315 2.33285 0 255 0 255 
-0.179862 0.232115 2.33874 0 255 0 255 
-0.176028 0.234064 2.34825 0 255 0 255 
-0.169579 0.235447 2.35597 0 255 0 255 
-0.161379 0.236456 2.36253 0 255 0 255 
-0.157535 0.238414 2.37207 0 255 0 255 
-0.327091 0.321706 2.214 255 0 0 255 
-0.322219 0.322888 2.222 255 0 0 255 
-0.316023 0.322761 2.221 255 0 0 255 
-0.31011 0.322925 2.222 255 0 0 255 
-0.303918 0.322798 2.221 255 0 0 255 
-0.297729 0.32267 2.22 255 0 0 255 
-0.291808 0.322833 2.221 255 0 0 255 
-0.286139 0.323287 2.224 255 0 0 255 
-0.280577 0.323885 2.228 255 0 0 255 
-0.27487 0.324338 2.231 255 0 0 255 
-0.269387 0.325082 2.236 255 0 0 255 
-0.264111 0.326116 2.243 255 0 0 255 
-0.259601 0.328167 2.257 255 0 0 255 
-0.242188 0.329668 2.267 255 0 0 255 
-0.233813 0.326629 2.246 255 0 0 255 
-0.22687 0.32548 2.238 255 0 0 255 
-0.220265 0.324767 2.233 255 0 0 255 
-0.213687 0.324054 2.228 255 0 0 255 
-0.206949 0.323049 2.221 255 0 0 255 
-0.199706 0.321171 2.208 255 0 0 255 
-0.192182 0.318711 2.191 255 0 0 255 
-0.185261 0.317123 2.18 255 0 0 255 
-0.178728 0.316116 2.173 255 0 0 255 
-0.172551 0.315691 2.17 255 0 0 255 
-0.166466 0.315411 2.168 255 0 0 255 
-0.160392 0.315131 2.166 255 0 0 255 
-0.154399 0.314995 2.165 255 0 0 255 
-0.148274 0.314569 2.162 255 0 0 255 
-0.142297 0.314433 2.161 255 0 0 255 
-0.136135 0.31386 2.157 255 0 0 255 
-0.130115 0.313578 2.155 255 0 0 255 
-0.124164 0.313441 2.154 255 0 0 255 
-0.118327 0.313594 2.155 255 0 0 255 
-0.112484 0.313747 2.156 255 0 0 255 
-0.106537 0.313609 2.155 255 0 0 255 
-0.100688 0.313762 2.156 255 0 0 255 
-0.094746 0.313622 2.155 255 0 0 255 
-0.088808 0.313483 2.154 255 0 0 255 
-0.082799 0.313052 2.151 255 0 0 255 
-0.076877 0.312912 2.15 255 0 0 255 
-0.07096 0.312771 2.149 255 0 0 255 
-0.06514 0.313067 2.151 255 0 0 255 
-0.059308 0.313362 2.153 255 0 0 255 
-0.053391 0.313221 2.152 255 0 0 255 
-0.047479 0.313078 2.151 255 0 0 255 
-0.041591 0.313081 2.151 255 0 0 255 
-0.035754 0.313521 2.154 255 0 0 255 
-0.029844 0.313377 2.153 255 0 0 255 
-0.023939 0.313234 2.152 255 0 0 255 
-0.018074 0.313672 2.155 255 0 0 255 
-0.012198 0.314255 2.159 255 0 0 255 
-0.006296 0.314692 2.162 255 0 0 255 
-0.000379 0.314984 2.164 255 0 0 255 
0.005555 0.315566 2.168 255 0 0 255 
0.011522 0.316438 2.174 255 0 0 255 
0.017537 0.317602 2.182 255 0 0 255 
0.023617 0.319056 2.192 255 0 0 255 
0.029753 0.32051 2.202 255 0 0 255 
0.03591 0.321672 2.21 255 0 0 255 
0.042111 0.322834 2.218 255 0 0 255 
0.048421 0.324432 2.229 255 0 0 255 
0.054839 0.32632 2.242 255 0 0 255 
0.061356 0.328354 2.256 255 0 0 255 
0.06792 0.330242 2.269 255 0 0 255 
0.074521 0.331984 2.281 255 0 0 255 
0.081117 0.333434 2.291 255 0 0 255 
0.08731 0.333137 2.289 255 0 0 255 
0.093246 0.331967 2.281 255 0 0 255 
0.099051 0.330505 2.271 255 0 0 255 
0.104616 0.328461 2.257 255 0 0 255 
0.110202 0.326707 2.245 255 0 0 255 
0.115773 0.325099 2.234 255 0 0 255 
0.121502 0.324073 2.227 255 0 0 255 
0.127364 0.323482 2.223 255 0 0 255 
0.133324 0.323183 2.221 255 0 0 255 
0.139586 0.32361 2.224 255 0 0 255 
0.145995 0.324328 2.229 255 0 0 255 
0.152363 0.324901 2.233 255 0 0 255 
0.15861 0.325181 2.235 255 0 0 255 
0.165384 0.32648 2.244 255 0 0 255 
-0.08751 0.292471 2.38934 255 255 0 255 
-0.071787 0.292508 2.38728 255 255 0 255 
-0.063807 0.29134 2.37999 255 255 0 255 
-0.056694 0.290042 2.37213 255 255 0 255 
-0.053011 0.288202 2.36191 255 255 0 255 
-0.049329 0.286364 2.3517 255 255 0 255 
-0.043939 0.284799 2.34268 255 255 0 255 
-0.030022 0.284613 2.3397 255 255 0 255 
-0.014423 0.284714 2.33798 255 255 0 255 
-0.003107 0.284135 2.3333 255 255 0 255 
0.008193 0.283566 2.32866 255 255 0 255 
0.003339 0.280357 2.31245 255 255 0 255 
0.008684 0.278818 2.30355 255 255 0 255 
0.033521 0.280506 2.30886 255 255 0 255 
0.075246 0.285031 2.32668 255 255 0 255 
0.100819 0.286916 2.33291 255 255 0 255 
0.117052 0.287267 2.33241 255 255 0 255 
0.122285 0.285785 2.32382 255 255 0 255 
-0.28397 0.203363 2.23242 0 255 0 255 
-0.276413 0.207153 2.25108 0 255 0 255 
-0.266612 0.207653 2.25601 0 255 0 255 
-0.258522 0.208561 2.26222 0 255 0 255 
-0.19645 0.213938 2.3029 0 255 0 255 
-0.200423 0.21763 2.31785 0 255 0 255 
-0.194864 0.219179 2.32611 0 255 0 255 
-0.191038 0.221119 2.33559 0 255 0 255 
-0.184602 0.22248 2.34328 0 255 0 255 
-0.175552 0.22327 2.3492 0 255 0 255 
-0.169973 0.224835 2.35753 0 255 0 255 
-0.159162 0.225255 2.36233 0 255 0 255 
-0.156187 0.227404 2.37246 0 255 0 255 
-0.145356 0.22784 2.37733 0 255 0 255 
-0.137132 0.228855 2.38399 0 255 0 255 
-0.1289 0.229878 2.39067 0 255 0 255 
-0.123284 0.231474 2.39913 0 255 0 255 
-0.327848 0.316387 2.219 255 0 0 255 
-0.322528 0.317119 2.224 255 0 0 255 
-0.316326 0.316995 2.223 255 0 0 255 
-0.310268 0.317013 2.223 255 0 0 255 
-0.304209 0.317031 2.223 255 0 0 255 
-0.298149 0.317049 2.223 255 0 0 255 
-0.292351 0.317351 2.225 255 0 0 255 
-0.286542 0.317654 2.227 255 0 0 255 
-0.281098 0.318384 2.232 255 0 0 255 
-0.27538 0.318828 2.235 255 0 0 255 
-0.270005 0.319701 2.241 255 0 0 255 
-0.264951 0.321001 2.25 255 0 0 255 
-0.260307 0.322872 2.263 255 0 0 255 
-0.241562 0.322632 2.261 255 0 0 255 
-0.233724 0.320364 2.245 255 0 0 255 
-0.226783 0.319236 2.237 255 0 0 255 
-0.220279 0.31868 2.233 255 0 0 255 
-0.213604 0.317837 2.227 255 0 0 255 
-0.206869 0.316851 2.22 255 0 0 255 
-0.199447 0.314723 2.205 255 0 0 255 
-0.192019 0.312451 2.189 255 0 0 255 
-0.185103 0.310893 2.178 255 0 0 255 
-0.178822 0.310334 2.174 255 0 0 255 
-0.1728 0.310202 2.173 255 0 0 255 
-0.166784 0.31007 2.172 255 0 0 255 
-0.16055 0.30951 2.168 255 0 0 255 
-0.15448 0.309234 2.166 255 0 0 255 
-0.148352 0.308816 2.163 255 0 0 255 
-0.142438 0.308825 2.163 255 0 0 255 
-0.13627 0.308263 2.159 255 0 0 255 
-0.130245 0.307986 2.157 255 0 0 255 
-0.12423 0.307709 2.155 255 0 0 255 
-0.11839 0.30786 2.156 255 0 0 255 
-0.112492 0.307867 2.156 255 0 0 255 
-0.106544 0.307732 2.155 255 0 0 255 
-0.100601 0.307596 2.154 255 0 0 255 
-0.094708 0.307602 2.154 255 0 0 255 
-0.088731 0.307322 2.152 255 0 0 255 
-0.082804 0.307185 2.151 255 0 0 255 
-0.076882 0.307048 2.15 255 0 0 255 
-0.070998 0.307053 2.15 255 0 0 255 
-0.065144 0.3072 2.151 255 0 0 255 
-0.059367 0.307775 2.155 255 0 0 255 
-0.053444 0.307636 2.154 255 0 0 255 
-0.04757 0.307782 2.155 255 0 0 255 
-0.041671 0.307785 2.155 255 0 0 255 
-0.035806 0.308074 2.157 255 0 0 255 
-0.029873 0.30779 2.155 255 0 0 255 
-0.023974 0.307792 2.155 255 0 0 255 
-0.018092 0.308079 2.157 255 0 0 255 
-0.01221 0.308651 2.161 255 0 0 255 
-0.006308 0.309366 2.166 255 0 0 255 
-0.00038 0.309938 2.17 255 0 0 255 
0.005566 0.310223 2.172 255 0 0 255 
0.011544 0.31108 2.178 255 0 0 255 
0.017562 0.312078 2.185 255 0 0 255 
0.023662 0.313648 2.196 255 0 0 255 
0.029809 0.315075 2.206 255 0 0 255 
0.035961 0.316072 2.213 255 0 0 255 
0.042171 0.317212 2.221 255 0 0 255 
0.048533 0.319066 2.234 255 0 0 255 
0.054941 0.320776 2.246 255 0 0 255 
0.061442 0.322629 2.259 255 0 0 255 
0.067954 0.324196 2.27 255 0 0 255 
0.074624 0.326191 2.284 255 0 0 255 
0.081441 0.32847 2.3 255 0 0 255 
0.087621 0.328036 2.297 255 0 0 255 
0.093539 0.326745 2.288 255 0 0 255 
0.099276 0.325025 2.276 255 0 0 255 
0.104947 0.323305 2.264 255 0 0 255 
0.110552 0.321584 2.252 255 0 0 255 
0.116299 0.320434 2.244 255 0 0 255 
0.12211 0.31957 2.238 255 0 0 255 
0.128232 0.319561 2.238 255 0 0 255 
0.134533 0.319981 2.241 255 0 0 255 
0.140976 0.320686 2.246 255 0 0 255 
0.147511 0.321534 2.252 255 0 0 255 
0.154011 0.322238 2.257 255 0 0 255 
0.160324 0.322513 2.259 255 0 0 255 
-0.095398 0.282671 2.39805 255 255 0 255 
-0.083957 0.28205 2.39301 255 255 0 255 
-0.067384 0.282262 2.39153 255 255 0 255 
-0.055981 0.281661 2.3866 255 255 0 255 
-0.04802 0.280515 2.37935 255 255 0 255 
-0.044344 0.278679 2.36915 255 255 0 255 
-0.044941 0.276148 2.35597 255 255 0 255 
-0.043823 0.273893 2.34397 255 255 0 255 
-0.037583 0.272476 2.33556 255 255 0 255 
-0.023684 0.272327 2.3326 255 255 0 255 
-0.004702 0.273037 2.33334 255 255 0 255 
0.011696 0.273338 2.33234 255 255 0 255 
0.005146 0.269821 2.31491 255 255 0 255 
0.004553 0.26729 2.30172 255 255 0 255 
0.030232 0.269183 2.30762 255 255 0 255 
0.0992 0.276062 2.33284 255 255 0 255 
0.112896 0.276018 2.33044 255 255 0 255 
0.124883 0.275696 2.32685 255 255 0 255 
-0.286063 0.193322 2.23513 0 255 0 255 
-0.284003 0.19562 2.24572 0 255 0 255 
-0.275073 0.196296 2.25126 0 255 0 255 
-0.266992 0.197182 2.25746 0 255 0 255 
-0.262345 0.198882 2.26619 0 255 0 255 
-0.201178 0.204325 2.30746 0 255 0 255 
-0.208615 0.208826 2.32482 0 255 0 255 
-0.206531 0.21115 2.33548 0 255 0 255 
-0.198374 0.212099 2.34193 0 255 0 255 
-0.192814 0.213643 2.35021 0 255 0 255 
-0.183773 0.214411 2.35611 0 255 0 255 
-0.179942 0.216353 2.36561 0 255 0 255 
-0.1674 0.216357 2.36921 0 255 0 255 
-0.161816 0.217921 2.37756 0 255 0 255 
-0.150121 0.218139 2.38184 0 255 0 255 
-0.139283 0.218559 2.38674 0 255 0 255 
-0.132802 0.21995 2.3946 0 255 0 255 
-0.130688 0.222302 2.40535 0 255 0 255 
-0.070075 0.223302 2.42687 0 255 0 255 
-0.334062 0.310462 2.22 255 0 0 255 
-0.327867 0.310341 2.219 255 0 0 255 
-0.322546 0.311059 2.224 255 0 0 255 
-0.316487 0.311077 2.224 255 0 0 255 
-0.310146 0.310815 2.222 255 0 0 255 
-0.303816 0.310553 2.22 255 0 0 255 
-0.298167 0.31099 2.223 255 0 0 255 
-0.292894 0.311847 2.229 255 0 0 255 
-0.287331 0.312423 2.233 255 0 0 255 
-0.281618 0.31286 2.236 255 0 0 255 
-0.275766 0.313156 2.238 255 0 0 255 
-0.270383 0.314012 2.244 255 0 0 255 
-0.265202 0.315147 2.252 255 0 0 255 
-0.243287 0.318707 2.277 255 0 0 255 
-0.233634 0.314103 2.244 255 0 0 255 
-0.226898 0.313277 2.238 255 0 0 255 
-0.22049 0.312871 2.235 255 0 0 255 
-0.213906 0.312184 2.23 255 0 0 255 
-0.206975 0.310937 2.221 255 0 0 255 
-0.19946 0.30871 2.205 255 0 0 255 
-0.192119 0.306622 2.19 255 0 0 255 
-0.18537 0.305374 2.181 255 0 0 255 
-0.179162 0.304965 2.178 255 0 0 255 
-0.173129 0.304836 2.177 255 0 0 255 
-0.166948 0.304427 2.174 255 0 0 255 
-0.160709 0.303877 2.17 255 0 0 255 
-0.154633 0.303607 2.168 255 0 0 255 
-0.148499 0.303196 2.165 255 0 0 255 
-0.142513 0.303066 2.164 255 0 0 255 
-0.136342 0.302514 2.16 255 0 0 255 
-0.130374 0.302383 2.159 255 0 0 255 
-0.124411 0.302251 2.158 255 0 0 255 
-0.118452 0.302119 2.157 255 0 0 255 
-0.112499 0.301986 2.156 255 0 0 255 
-0.106551 0.301853 2.155 255 0 0 255 
-0.100655 0.30186 2.155 255 0 0 255 
-0.094758 0.301866 2.155 255 0 0 255 
-0.088779 0.301592 2.153 255 0 0 255 
-0.082771 0.301177 2.15 255 0 0 255 
-0.076816 0.300902 2.148 255 0 0 255 
-0.07097 0.301047 2.149 255 0 0 255 
-0.065148 0.301332 2.151 255 0 0 255 
-0.059371 0.301896 2.155 255 0 0 255 
-0.053497 0.30204 2.156 255 0 0 255 
-0.04764 0.302323 2.158 255 0 0 255 
-0.041694 0.302046 2.156 255 0 0 255 
-0.035808 0.302189 2.157 255 0 0 255 
-0.029903 0.302191 2.157 255 0 0 255 
-0.024009 0.302333 2.158 255 0 0 255 
-0.018118 0.302614 2.16 255 0 0 255 
-0.012227 0.303176 2.164 255 0 0 255 
-0.006315 0.303737 2.168 255 0 0 255 
-0.00038 0.304297 2.172 255 0 0 255 
0.005569 0.304437 2.173 255 0 0 255 
0.011555 0.305418 2.18 255 0 0 255 
0.017579 0.306397 2.187 255 0 0 255 
0.023696 0.308077 2.199 255 0 0 255 
0.029838 0.309336 2.208 255 0 0 255 
0.035996 0.310315 2.215 255 0 0 255 
0.04223 0.311573 2.224 255 0 0 255 
0.048623 0.313531 2.238 255 0 0 255 
0.054993 0.314929 2.248 255 0 0 255 
0.061473 0.316606 2.26 255 0 0 255 
0.068048 0.318423 2.273 255 0 0 255 
0.074825 0.3208 2.29 255 0 0 255 
0.081836 0.323737 2.311 255 0 0 255 
0.088047 0.323311 2.308 255 0 0 255 
0.093954 0.321904 2.298 255 0 0 255 
0.099762 0.320357 2.287 255 0 0 255 
0.10565 0.31923 2.279 255 0 0 255 
0.111394 0.317822 2.269 255 0 0 255 
0.117343 0.317114 2.264 255 0 0 255 
0.123264 0.316406 2.259 255 0 0 255 
0.129558 0.316678 2.261 255 0 0 255 
0.136043 0.31737 2.266 255 0 0 255 
0.142617 0.318201 2.272 255 0 0 255 
0.149224 0.319032 2.278 255 0 0 255 
0.15559 0.319303 2.28 255 0 0 255 
0.161683 0.319013 2.278 255 0 0 255 
0.165331 0.314101 2.243 255 0 0 255 
-0.088403 0.272791 2.40404 255 255 0 255 
-0.075255 0.272476 2.40018 255 255 0 255 
-0.062126 0.272171 2.39637 255 255 0 255 
-0.057585 0.270471 2.38673 255 255 0 255 
-0.051334 0.269055 2.37829 255 255 0 255 
-0.044234 0.267783 2.37045 255 255 0 255 
-0.037141 0.266515 2.36263 255 255 0 255 
-0.036881 0.264113 2.35005 255 255 0 255 
-0.035761 0.261851 2.33805 255 255 0 255 
-0.02357 0.261447 2.33388 255 255 0 255 
-0.002044 0.262634 2.33642 255 255 0 255 
0.010949 0.262399 2.33298 255 255 0 255 
0.001013 0.258271 2.31311 255 255 0 255 
0.000429 0.255725 2.2999 255 255 0 255 
0.028642 0.25812 2.30761 255 255 0 255 
0.072873 0.263314 2.32721 255 255 0 255 
0.100964 0.265771 2.33525 255 255 0 255 
0.108746 0.264731 2.32848 255 255 0 255 
0.121578 0.26458 2.32549 255 255 0 255 
-0.283016 0.182043 2.23403 0 255 0 255 
-0.278377 0.18373 2.24274 0 255 0 255 
-0.268586 0.184187 2.24767 0 255 0 255 
-0.26308 0.185678 2.25578 0 255 0 255 
-0.199847 0.193325 2.30778 0 255 0 255 
-0.20814 0.198058 2.32574 0 255 0 255 
-0.208653 0.200984 2.33821 0 255 0 255 
-0.2005 0.201918 2.34467 0 255 0 255 
-0.194942 0.203454 2.35294 0 255 0 255 
-0.185035 0.204005 2.35826 0 255 0 255 
-0.183813 0.206537 2.36953 0 255 0 255 
-0.173891 0.207102 2.3749 0 255 0 255 
-0.170054 0.209047 2.38442 0 255 0 255 
-0.159241 0.20943 2.38927 0 255 0 255 
-0.151033 0.210408 2.39591 0 255 0 255 
-0.143689 0.211588 2.40315 0 255 0 255 
-0.139833 0.213549 2.41273 0 255 0 255 
-0.081035 0.214774 2.4353 0 255 0 255 
-0.333027 0.303453 2.213 255 0 0 255 
-0.328033 0.304431 2.22 255 0 0 255 
-0.32242 0.30486 2.223 255 0 0 255 
-0.316647 0.305153 2.225 255 0 0 255 
-0.310443 0.305033 2.224 255 0 0 255 
-0.304244 0.304913 2.223 255 0 0 255 
-0.298586 0.305342 2.226 255 0 0 255 
-0.293043 0.305908 2.23 255 0 0 255 
-0.287476 0.306473 2.234 255 0 0 255 
-0.281887 0.307038 2.238 255 0 0 255 
-0.276152 0.307466 2.241 255 0 0 255 
-0.270761 0.308305 2.247 255 0 0 255 
-0.265572 0.309419 2.255 255 0 0 255 
-0.241699 0.31044 2.262 255 0 0 255 
-0.233544 0.307846 2.243 255 0 0 255 
-0.22681 0.307037 2.237 255 0 0 255 
-0.220405 0.306638 2.234 255 0 0 255 
-0.213631 0.305691 2.227 255 0 0 255 
-0.206708 0.304468 2.218 255 0 0 255 
-0.199291 0.302421 2.203 255 0 0 255 
-0.192394 0.301061 2.193 255 0 0 255 
-0.185636 0.299837 2.184 255 0 0 255 
-0.17942 0.299436 2.181 255 0 0 255 
-0.173061 0.298761 2.176 255 0 0 255 
-0.166959 0.298497 2.174 255 0 0 255 
-0.160793 0.298095 2.171 255 0 0 255 
-0.154857 0.298105 2.171 255 0 0 255 
-0.148646 0.297565 2.167 255 0 0 255 
-0.142588 0.2973 2.165 255 0 0 255 
-0.136414 0.296759 2.161 255 0 0 255 
-0.130503 0.296767 2.161 255 0 0 255 
-0.124476 0.296501 2.159 255 0 0 255 
-0.118515 0.296371 2.158 255 0 0 255 
-0.112454 0.295967 2.155 255 0 0 255 
-0.106558 0.295974 2.155 255 0 0 255 
-0.100755 0.296255 2.157 255 0 0 255 
-0.094852 0.296261 2.157 255 0 0 255 
-0.088867 0.295992 2.155 255 0 0 255 
-0.082815 0.295448 2.151 255 0 0 255 
-0.076856 0.295179 2.149 255 0 0 255 
-0.070974 0.295183 2.149 255 0 0 255 
-0.065153 0.295463 2.151 255 0 0 255 
-0.059402 0.296153 2.156 255 0 0 255 
-0.053525 0.296294 2.157 255 0 0 255 
-0.047687 0.29671 2.16 255 0 0 255 
-0.041735 0.296438 2.158 255 0 0 255 
-0.035844 0.296578 2.159 255 0 0 255 
-0.029933 0.29658 2.159 255 0 0 255 
-0.024033 0.296719 2.16 255 0 0 255 
-0.018145 0.297132 2.163 255 0 0 255 
-0.012251 0.29782 2.168 255 0 0 255 
-0.006327 0.29837 2.172 255 0 0 255 
-0.000381 0.29892 2.176 255 0 0 255 
0.00558 0.299057 2.177 255 0 0 255 
0.011577 0.300018 2.184 255 0 0 255 
0.017605 0.300842 2.19 255 0 0 255 
0.023708 0.302214 2.2 255 0 0 255 
0.02984 0.303311 2.208 255 0 0 255 
0.036031 0.304545 2.217 255 0 0 255 
0.042309 0.306054 2.228 255 0 0 255 
0.048648 0.307562 2.239 255 0 0 255 
0.054997 0.308795 2.248 255 0 0 255 
0.061532 0.310714 2.262 255 0 0 255 
0.068143 0.312633 2.276 255 0 0 255 
0.074961 0.315101 2.294 255 0 0 255 
0.082019 0.318118 2.316 255 0 0 255 
0.088892 0.320035 2.33 255 0 0 255 
0.094532 0.317557 2.312 255 0 0 255 
0.10038 0.31604 2.301 255 0 0 255 
0.106305 0.314935 2.293 255 0 0 255 
0.112138 0.313692 2.284 255 0 0 255 
0.118335 0.313547 2.283 255 0 0 255 
0.124418 0.313127 2.28 255 0 0 255 
0.13077 0.313394 2.282 255 0 0 255 
0.137012 0.313385 2.282 255 0 0 255 
0.143191 0.313239 2.281 255 0 0 255 
0.149496 0.313367 2.282 255 0 0 255 
0.155668 0.31322 2.281 255 0 0 255 
0.161835 0.313073 2.28 255 0 0 255 
0.164752 0.306884 2.235 255 0 0 255 
-0.085708 0.262233 2.40712 255 255 0 255 
-0.072566 0.261947 2.40325 255 255 0 255 
-0.065444 0.260673 2.39535 255 255 0 255 
-0.059184 0.25926 2.38687 255 255 0 255 
-0.052076 0.257994 2.379 255 255 0 255 
-0.037286 0.258028 2.37649 255 255 0 255 
-0.026786 0.257352 2.37107 255 255 0 255 
-0.023976 0.255379 2.36031 255 255 0 255 
-0.022015 0.25326 2.34894 255 255 0 255 
-0.009842 0.25289 2.34479 255 255 0 255 
0.003164 0.252675 2.34131 255 255 0 255 
0.008508 0.251151 2.33241 255 255 0 255 
-0.003114 0.246685 2.31131 255 255 0 255 
-0.002842 0.24427 2.2987 255 255 0 255 
0.02621 0.246887 2.30699 255 255 0 255 
0.078877 0.25369 2.33273 255 255 0 255 
0.105261 0.255927 2.33952 255 255 0 255 
0.105446 0.253557 2.32716 255 255 0 255 
0.114908 0.252832 2.32165 255 255 0 255 
-0.264935 0.164235 2.20956 0 255 0 255 
-0.275693 0.169689 2.22976 0 255 0 255 
-0.27019 0.171168 2.23786 0 255 0 255 
-0.267258 0.173274 2.24787 0 255 0 255 
-0.263467 0.175173 2.25725 0 255 0 255 
-0.200249 0.18271 2.3093 0 255 0 255 
-0.210264 0.187882 2.32847 0 255 0 255 
-0.208178 0.190212 2.33914 0 255 0 255 
-0.205226 0.192341 2.3492 0 255 0 255 
-0.198805 0.193666 2.35687 0 255 0 255 
-0.190641 0.194596 2.36337 0 255 0 255 
-0.185944 0.196332 2.37227 0 255 0 255 
-0.186464 0.199266 2.38471 0 255 0 255 
-0.183507 0.201401 2.39479 0 255 0 255 
-0.172709 0.201753 2.39961 0 255 0 255 
-0.160154 0.201721 2.40331 0 255 0 255 
-0.148455 0.201898 2.40764 0 255 0 255 
-0.145476 0.204051 2.41779 0 255 0 255 
-0.084089 0.204553 2.43865 0 255 0 255 
-0.331841 0.296346 2.205 255 0 0 255 
-0.328051 0.29838 2.22 255 0 0 255 
-0.322292 0.298666 2.222 255 0 0 255 
-0.316522 0.298953 2.224 255 0 0 255 
-0.310461 0.29897 2.224 255 0 0 255 
-0.304535 0.299122 2.225 255 0 0 255 
-0.298872 0.299542 2.228 255 0 0 255 
-0.293191 0.299962 2.231 255 0 0 255 
-0.287621 0.300517 2.235 255 0 0 255 
-0.281903 0.300936 2.238 255 0 0 255 
-0.276537 0.301759 2.244 255 0 0 255 
-0.271258 0.302716 2.251 255 0 0 255 
-0.266058 0.303808 2.259 255 0 0 255 
-0.241179 0.303598 2.257 255 0 0 255 
-0.233558 0.301729 2.243 255 0 0 255 
-0.227128 0.301339 2.24 255 0 0 255 
-0.220813 0.301083 2.238 255 0 0 255 
-0.213836 0.299885 2.229 255 0 0 255 
-0.206721 0.298418 2.218 255 0 0 255 
-0.199213 0.296278 2.202 255 0 0 255 
-0.192494 0.295213 2.194 255 0 0 255 
-0.185902 0.294282 2.187 255 0 0 255 
-0.179678 0.29389 2.184 255 0 0 255 
-0.17331 0.293228 2.179 255 0 0 255 
-0.167199 0.292969 2.177 255 0 0 255 
-0.161099 0.29271 2.175 255 0 0 255 
-0.155152 0.29272 2.175 255 0 0 255 
-0.148929 0.292191 2.171 255 0 0 255 
-0.142794 0.291796 2.168 255 0 0 255 
-0.136422 0.290863 2.161 255 0 0 255 
-0.130511 0.290871 2.161 255 0 0 255 
-0.124484 0.29061 2.159 255 0 0 255 
-0.118522 0.290483 2.158 255 0 0 255 
-0.112409 0.289951 2.154 255 0 0 255 
-0.106565 0.290093 2.155 255 0 0 255 
-0.100808 0.290503 2.158 255 0 0 255 
-0.094902 0.290509 2.158 255 0 0 255 
-0.088914 0.290246 2.156 255 0 0 255 
-0.082897 0.289847 2.153 255 0 0 255 
-0.076897 0.289449 2.15 255 0 0 255 
-0.071012 0.289453 2.15 255 0 0 255 
-0.065187 0.289727 2.152 255 0 0 255 
-0.059461 0.290539 2.158 255 0 0 255 
-0.053554 0.290542 2.158 255 0 0 255 
-0.047668 0.29068 2.159 255 0 0 255 
-0.041718 0.290414 2.157 255 0 0 255 
-0.035846 0.290685 2.159 255 0 0 255 
-0.029949 0.290822 2.16 255 0 0 255 
-0.024068 0.291228 2.163 255 0 0 255 
-0.018163 0.291498 2.165 255 0 0 255 
-0.012269 0.292307 2.171 255 0 0 255 
-0.006333 0.292712 2.174 255 0 0 255 
-0.000381 0.292981 2.176 255 0 0 255 
0.005582 0.29325 2.178 255 0 0 255 
0.011583 0.294192 2.185 255 0 0 255 
0.017638 0.295403 2.194 255 0 0 255 
0.023742 0.296614 2.203 255 0 0 255 
0.029896 0.297824 2.212 255 0 0 255 
0.036114 0.299168 2.222 255 0 0 255 
0.042388 0.300512 2.232 255 0 0 255 
0.048694 0.301721 2.241 255 0 0 255 
0.055074 0.303064 2.251 255 0 0 255 
0.061672 0.305214 2.267 255 0 0 255 
0.068327 0.30723 2.282 255 0 0 255 
0.074965 0.308841 2.294 255 0 0 255 
0.081847 0.311124 2.311 255 0 0 255 
0.089012 0.314081 2.333 255 0 0 255 
0.094784 0.312056 2.318 255 0 0 255 
0.100779 0.310972 2.31 255 0 0 255 
0.106776 0.310024 2.303 255 0 0 255 
0.112783 0.309209 2.297 255 0 0 255 
0.118965 0.308932 2.295 255 0 0 255 
0.124971 0.308252 2.29 255 0 0 255 
0.131065 0.30784 2.287 255 0 0 255 
0.137141 0.307428 2.284 255 0 0 255 
0.143263 0.30715 2.282 255 0 0 255 
0.14957 0.307275 2.283 255 0 0 255 
0.155814 0.307266 2.283 255 0 0 255 
0.161845 0.306852 2.28 255 0 0 255 
0.165278 0.301728 2.242 255 0 0 255 
-0.102187 0.250938 2.4101 255 255 0 255 
-0.091599 0.250235 2.40441 255 255 0 255 
-0.076738 0.250265 2.40168 255 255 0 255 
-0.067041 0.249434 2.3955 255 255 0 255 
-0.058213 0.248465 2.38878 255 255 0 255 
-0.046832 0.24794 2.38385 255 255 0 255 
-0.032905 0.247864 2.38075 255 255 0 255 
-0.024119 0.246916 2.37414 255 255 0 255 
-0.015343 0.245974 2.36756 255 255 0 255 
-0.009984 0.244446 2.35861 255 255 0 255 
0.001324 0.243959 2.35389 255 255 0 255 
0.005819 0.24229 2.34438 255 255 0 255 
0.005222 0.239726 2.33123 255 255 0 255 
-0.002148 0.23596 2.31318 255 255 0 255 
-0.000181 0.233835 2.3018 255 255 0 255 
0.028857 0.236531 2.31007 255 255 0 255 
0.076427 0.242579 2.33207 255 255 0 255 
0.107023 0.245643 2.34194 255 255 0 255 
0.108897 0.243567 2.33082 255 255 0 255 
0.110773 0.24149 2.31968 255 255 0 255 
-0.273031 0.155593 2.21675 0 255 0 255 
-0.277796 0.159604 2.23248 0 255 0 255 
-0.271438 0.160864 2.23995 0 255 0 255 
-0.264219 0.161919 2.24682 0 255 0 255 
-0.261282 0.164029 2.25684 0 255 0 255 
-0.169951 0.16191 2.27699 0 255 0 255 
-0.202381 0.172495 2.31205 0 255 0 255 
-0.203741 0.175656 2.32517 0 255 0 255 
-0.201647 0.177994 2.33586 0 255 0 255 
-0.203019 0.181147 2.34894 0 255 0 255 
-0.199198 0.183075 2.35841 0 255 0 255 
-0.191903 0.184193 2.36552 0 255 0 255 
-0.183734 0.185115 2.37206 0 255 0 255 
-0.188594 0.18907 2.38745 0 255 0 255 
-0.185637 0.191205 2.39752 0 255 0 255 
-0.174844 0.191534 2.40235 0 255 0 255 
-0.162295 0.191473 2.40605 0 255 0 255 
-0.150602 0.191624 2.41039 0 255 0 255 
-0.144131 0.19298 2.41824 0 255 0 255 
-0.091525 0.195319 2.44481 0 255 0 255 
-0.331106 0.289677 2.2 255 0 0 255 
-0.327625 0.291933 2.217 255 0 0 255 
-0.322165 0.292477 2.221 255 0 0 255 
-0.316255 0.292626 2.222 255 0 0 255 
-0.310478 0.292907 2.224 255 0 0 255 
-0.304963 0.29345 2.228 255 0 0 255 
-0.299559 0.294126 2.233 255 0 0 255 
-0.293601 0.294274 2.234 255 0 0 255 
-0.287766 0.294554 2.236 255 0 0 255 
-0.282045 0.294965 2.239 255 0 0 255 
-0.276799 0.295903 2.246 255 0 0 255 
-0.271515 0.296841 2.253 255 0 0 255 
-0.266309 0.29791 2.261 255 0 0 255 
-0.240231 0.296255 2.248 255 0 0 255 
-0.234196 0.296401 2.249 255 0 0 255 
-0.227547 0.295756 2.244 255 0 0 255 
-0.22122 0.295505 2.242 255 0 0 255 
-0.213752 0.293673 2.228 255 0 0 255 
-0.206733 0.292367 2.218 255 0 0 255 
-0.199406 0.290533 2.204 255 0 0 255 
-0.192768 0.289622 2.197 255 0 0 255 
-0.186084 0.288579 2.189 255 0 0 255 
-0.179771 0.288063 2.185 255 0 0 255 
-0.173559 0.287678 2.182 255 0 0 255 
-0.16744 0.287424 2.18 255 0 0 255 
-0.161257 0.287039 2.177 255 0 0 255 
-0.155161 0.286785 2.175 255 0 0 255 
-0.148938 0.286266 2.171 255 0 0 255 
-0.142803 0.28588 2.168 255 0 0 255 
-0.136557 0.285229 2.163 255 0 0 255 
-0.130579 0.285105 2.162 255 0 0 255 
-0.124607 0.284981 2.161 255 0 0 255 
-0.11853 0.284593 2.158 255 0 0 255 
-0.11252 0.284336 2.156 255 0 0 255 
-0.106571 0.284211 2.155 255 0 0 255 
-0.100814 0.284613 2.158 255 0 0 255 
-0.094908 0.284619 2.158 255 0 0 255 
-0.088919 0.284361 2.156 255 0 0 255 
-0.082979 0.284235 2.155 255 0 0 255 
-0.077045 0.284108 2.154 255 0 0 255 
-0.071148 0.284112 2.154 255 0 0 255 
-0.065282 0.284249 2.155 255 0 0 255 
-0.059493 0.28478 2.159 255 0 0 255 
-0.053607 0.284916 2.16 255 0 0 255 
-0.047715 0.285051 2.161 255 0 0 255 
-0.041798 0.285053 2.161 255 0 0 255 
-0.035915 0.28532 2.163 255 0 0 255 
-0.029964 0.285058 2.161 255 0 0 255 
-0.02407 0.285323 2.163 255 0 0 255 
