ply
format ascii 1.0
comment VCGLIB generated
element vertex 1232
property float x
property float y
property float z
property uchar red
property uchar green
property uchar blue
property uchar alpha
element face 0
property list uchar int vertex_indices
end_header
0.043434 -0.130412 2.284 255 0 0 255 
0.049674 -0.130354 2.283 255 0 0 255 
0.055981 -0.130467 2.285 255 0 0 255 
-0.15213 -0.522012 2.6709 255 255 0 255 
-0.137351 -0.51971 2.66666 255 255 0 255 
-0.075574 -0.535851 2.54857 255 255 0 255 
-0.031139 -0.521698 2.56398 255 255 0 255 
-0.020746 -0.520912 2.55776 255 255 0 255 
-0.028566 -0.527323 2.53978 255 255 0 255 
-0.040493 -0.535386 2.51904 255 255 0 255 
-0.047433 -0.541495 2.50145 255 255 0 255 
-0.030441 -0.53808 2.49956 255 255 0 255 
-0.012654 -0.534322 2.49831 255 255 0 255 
-0.020728 -0.544256 2.46684 255 255 0 255 
-0.014479 -0.545104 2.45795 255 255 0 255 
-0.160153 -0.552766 2.65197 0 255 0 255 
-0.14029 -0.547406 2.68945 0 255 0 255 
-0.149071 -0.540025 2.7068 0 255 0 255 
-0.27115 -0.140694 2.354 255 0 0 255 
-0.264156 -0.140403 2.349 255 0 0 255 
-0.257957 -0.14053 2.351 255 0 0 255 
-0.251852 -0.140716 2.354 255 0 0 255 
-0.245209 -0.140604 2.352 255 0 0 255 
-0.238271 -0.140312 2.347 255 0 0 255 
-0.231558 -0.14014 2.344 255 0 0 255 
-0.224763 -0.139907 2.34 255 0 0 255 
-0.218177 -0.139794 2.338 255 0 0 255 
-0.211782 -0.1398 2.338 255 0 0 255 
-0.205122 -0.139627 2.335 255 0 0 255 
-0.199329 -0.140052 2.342 255 0 0 255 
-0.192755 -0.139938 2.34 255 0 0 255 
-0.186988 -0.140422 2.348 255 0 0 255 
-0.180639 -0.140487 2.349 255 0 0 255 
-0.174654 -0.140851 2.355 255 0 0 255 
-0.168635 -0.141215 2.361 255 0 0 255 
-0.162857 -0.141819 2.371 255 0 0 255 
-0.156827 -0.142242 2.378 255 0 0 255 
-0.150188 -0.142127 2.376 255 0 0 255 
-0.143499 -0.141952 2.373 255 0 0 255 
-0.137288 -0.142256 2.378 255 0 0 255 
-0.131379 -0.142918 2.389 255 0 0 255 
-0.125305 -0.14346 2.398 255 0 0 255 
-0.118884 -0.143643 2.401 255 0 0 255 
-0.103084 -0.14006 2.341 255 0 0 255 
-0.095761 -0.138747 2.319 255 0 0 255 
-0.089174 -0.138391 2.313 255 0 0 255 
-0.082405 -0.137676 2.301 255 0 0 255 
-0.075867 -0.137259 2.294 255 0 0 255 
-0.069367 -0.136843 2.287 255 0 0 255 
-0.062906 -0.136426 2.28 255 0 0 255 
-0.056457 -0.135949 2.272 255 0 0 255 
-0.050052 -0.135472 2.264 255 0 0 255 
-0.043865 -0.135533 2.265 255 0 0 255 
-0.037655 -0.135535 2.265 255 0 0 255 
-0.031377 -0.135236 2.26 255 0 0 255 
-0.025136 -0.134998 2.256 255 0 0 255 
-0.018943 -0.134939 2.255 255 0 0 255 
-0.012754 -0.134879 2.254 255 0 0 255 
-0.006581 -0.134999 2.256 255 0 0 255 
-0.000395 -0.134999 2.256 255 0 0 255 
0.005805 -0.135358 2.262 255 0 0 255 
0.011996 -0.135238 2.26 255 0 0 255 
0.018257 -0.135717 2.268 255 0 0 255 
0.024518 -0.135955 2.272 255 0 0 255 
0.030869 -0.136493 2.281 255 0 0 255 
0.037139 -0.136552 2.282 255 0 0 255 
0.043414 -0.13661 2.283 255 0 0 255 
0.049694 -0.136669 2.284 255 0 0 255 
0.055906 -0.136548 2.282 255 0 0 255 
0.06227 -0.136785 2.286 255 0 0 255 
-0.134622 -0.530503 2.66981 255 255 0 255 
-0.043464 -0.531594 2.58338 255 255 0 255 
-0.055447 -0.539674 2.56284 255 255 0 255 
-0.066568 -0.547441 2.54272 255 255 0 255 
-0.054482 -0.545993 2.53745 255 255 0 255 
-0.030841 -0.539915 2.53972 255 255 0 255 
-0.039451 -0.546707 2.52113 255 255 0 255 
-0.034836 -0.548216 2.51111 255 255 0 255 
-0.026103 -0.548066 2.50382 255 255 0 255 
-0.154547 -0.559778 2.67482 0 255 0 255 
-0.137971 -0.563602 2.67741 0 255 0 255 
-0.131513 -0.562914 2.68597 0 255 0 255 
-0.132664 -0.558857 2.69895 0 255 0 255 
-0.270221 -0.146636 2.346 255 0 0 255 
-0.263586 -0.146519 2.344 255 0 0 255 
-0.257839 -0.146901 2.35 255 0 0 255 
-0.251952 -0.147222 2.355 255 0 0 255 
-0.245723 -0.147354 2.357 255 0 0 255 
-0.239076 -0.147236 2.355 255 0 0 255 
-0.231946 -0.146806 2.348 255 0 0 255 
-0.224853 -0.146375 2.341 255 0 0 255 
-0.218077 -0.146132 2.337 255 0 0 255 
-0.211775 -0.146201 2.338 255 0 0 255 
-0.205379 -0.146208 2.338 255 0 0 255 
-0.199493 -0.146589 2.344 255 0 0 255 
-0.193079 -0.146595 2.344 255 0 0 255 
-0.187301 -0.147101 2.352 255 0 0 255 
-0.180864 -0.147107 2.352 255 0 0 255 
-0.174648 -0.1473 2.355 255 0 0 255 
-0.168201 -0.147306 2.355 255 0 0 255 
-0.162509 -0.147999 2.366 255 0 0 255 
-0.156888 -0.148817 2.379 255 0 0 255 
-0.150626 -0.149072 2.383 255 0 0 255 
-0.143918 -0.148889 2.38 255 0 0 255 
-0.137573 -0.149081 2.383 255 0 0 255 
-0.131375 -0.149461 2.389 255 0 0 255 
-0.125406 -0.150153 2.4 255 0 0 255 
-0.119128 -0.150533 2.406 255 0 0 255 
-0.103257 -0.146723 2.345 255 0 0 255 
-0.095923 -0.14535 2.323 255 0 0 255 
-0.089403 -0.145102 2.319 255 0 0 255 
-0.082654 -0.144417 2.308 255 0 0 255 
-0.075997 -0.143794 2.298 255 0 0 255 
-0.069365 -0.143108 2.287 255 0 0 255 
-0.062848 -0.142547 2.278 255 0 0 255 
-0.056381 -0.141986 2.269 255 0 0 255 
-0.05005 -0.141674 2.264 255 0 0 255 
-0.043825 -0.141613 2.263 255 0 0 255 
-0.037688 -0.141865 2.267 255 0 0 255 
-0.031431 -0.141678 2.264 255 0 0 255 
-0.025202 -0.141554 2.262 255 0 0 255 
-0.018992 -0.141492 2.261 255 0 0 255 
-0.012788 -0.14143 2.26 255 0 0 255 
-0.006595 -0.141493 2.261 255 0 0 255 
-0.000396 -0.141305 2.258 255 0 0 255 
0.005805 -0.141556 2.262 255 0 0 255 
0.012007 -0.141555 2.262 255 0 0 255 
0.018273 -0.142056 2.27 255 0 0 255 
0.024571 -0.142493 2.277 255 0 0 255 
0.030868 -0.142742 2.281 255 0 0 255 
0.037105 -0.142679 2.28 255 0 0 255 
0.043355 -0.142677 2.28 255 0 0 255 
0.049605 -0.142676 2.28 255 0 0 255 
0.055855 -0.142674 2.28 255 0 0 255 
0.06235 -0.143235 2.289 255 0 0 255 
-0.145932 -0.53668 2.70356 255 255 0 255 
-0.176718 -0.562092 2.63331 255 255 0 255 
-0.151041 -0.555475 2.63554 255 255 0 255 
-0.017774 -0.549703 2.53666 255 255 0 255 
-0.024725 -0.555869 2.51914 255 255 0 255 
-0.020121 -0.557369 2.50916 255 255 0 255 
-0.037733 -0.567899 2.48447 255 255 0 255 
-0.184448 -0.568573 2.65733 0 255 0 255 
-0.168775 -0.572096 2.66025 0 255 0 255 
-0.172456 -0.566894 2.6747 0 255 0 255 
-0.267794 -0.151685 2.325 255 0 0 255 
-0.263803 -0.153063 2.346 255 0 0 255 
-0.257722 -0.153267 2.349 255 0 0 255 
-0.252158 -0.153797 2.357 255 0 0 255 
-0.245507 -0.153674 2.355 255 0 0 255 
-0.238968 -0.153617 2.354 255 0 0 255 
-0.231939 -0.153233 2.348 255 0 0 255 
-0.225134 -0.152979 2.344 255 0 0 255 
-0.218537 -0.152856 2.342 255 0 0 255 
-0.212312 -0.152993 2.344 255 0 0 255 
-0.206163 -0.153196 2.347 255 0 0 255 
-0.199827 -0.153267 2.348 255 0 0 255 
-0.193238 -0.153143 2.346 255 0 0 255 
-0.187056 -0.153345 2.349 255 0 0 255 
-0.180935 -0.153612 2.353 255 0 0 255 
-0.174865 -0.153944 2.358 255 0 0 255 
-0.16841 -0.15395 2.358 255 0 0 255 
-0.162504 -0.154478 2.366 255 0 0 255 
-0.156685 -0.155136 2.376 255 0 0 255 
-0.150748 -0.155729 2.385 255 0 0 255 
-0.144155 -0.155668 2.384 255 0 0 255 
-0.137568 -0.155608 2.383 255 0 0 255 
-0.131206 -0.155808 2.386 255 0 0 255 
-0.125245 -0.15653 2.397 255 0 0 255 
-0.119619 -0.157775 2.416 255 0 0 255 
-0.103342 -0.153277 2.347 255 0 0 255 
-0.096291 -0.1523 2.332 255 0 0 255 
-0.089515 -0.15165 2.322 255 0 0 255 
-0.082722 -0.15087 2.31 255 0 0 255 
-0.075896 -0.149892 2.295 255 0 0 255 
-0.069272 -0.149176 2.284 255 0 0 255 
-0.062764 -0.148591 2.275 255 0 0 255 
-0.056354 -0.148136 2.268 255 0 0 255 
-0.050137 -0.148137 2.268 255 0 0 255 
-0.043862 -0.147943 2.265 255 0 0 255 
-0.03767 -0.14801 2.266 255 0 0 255 
-0.031416 -0.147815 2.263 255 0 0 255 
-0.02519 -0.147685 2.261 255 0 0 255 
-0.018975 -0.147555 2.259 255 0 0 255 
-0.012788 -0.147621 2.26 255 0 0 255 
-0.006598 -0.147752 2.262 255 0 0 255 
-0.000397 -0.147883 2.264 255 0 0 255 
0.005818 -0.148079 2.267 255 0 0 255 
0.012059 -0.148405 2.272 255 0 0 255 
0.018344 -0.148862 2.279 255 0 0 255 
0.024624 -0.149057 2.282 255 0 0 255 
0.030894 -0.149121 2.283 255 0 0 255 
0.037104 -0.148924 2.28 255 0 0 255 
0.043373 -0.148988 2.281 255 0 0 255 
0.049604 -0.148921 2.28 255 0 0 255 
0.055927 -0.149116 2.283 255 0 0 255 
0.062484 -0.149832 2.294 255 0 0 255 
-0.150781 -0.550419 2.70231 255 255 0 255 
-0.134315 -0.547367 2.69897 255 255 0 255 
-0.074582 -0.567502 2.56661 255 255 0 255 
-0.06994 -0.569018 2.55651 255 255 0 255 
-0.064471 -0.570198 2.54695 255 255 0 255 
-0.059008 -0.571376 2.5374 255 255 0 255 
-0.015446 -0.563805 2.52662 255 255 0 255 
-0.010028 -0.564961 2.5172 255 255 0 255 
-0.198611 -0.580779 2.64291 0 255 0 255 
-0.262895 -0.158939 2.338 255 0 0 255 
-0.257604 -0.159627 2.348 255 0 0 255 
-0.252257 -0.160315 2.358 255 0 0 255 
-0.245708 -0.160255 2.357 255 0 0 255 
-0.23896 -0.160059 2.354 255 0 0 255 
-0.232129 -0.159795 2.35 255 0 0 255 
-0.225511 -0.159666 2.348 255 0 0 255 
-0.218903 -0.159538 2.346 255 0 0 255 
-0.212577 -0.159613 2.347 255 0 0 255 
-0.206508 -0.159892 2.351 255 0 0 255 
-0.199991 -0.159831 2.35 255 0 0 255 
-0.193643 -0.159905 2.351 255 0 0 255 
-0.187289 -0.15998 2.352 255 0 0 255 
-0.181006 -0.160122 2.354 255 0 0 255 
-0.174711 -0.160264 2.356 255 0 0 255 
-0.16819 -0.160202 2.355 255 0 0 255 
-0.16243 -0.160888 2.365 255 0 0 255 
-0.156218 -0.161166 2.369 255 0 0 255 
-0.150174 -0.161647 2.376 255 0 0 255 
-0.143727 -0.16172 2.377 255 0 0 255 
-0.137506 -0.162065 2.382 255 0 0 255 
-0.131147 -0.162274 2.385 255 0 0 255 
-0.102722 -0.158752 2.333 255 0 0 255 
-0.097733 -0.161069 2.367 255 0 0 255 
-0.089628 -0.158214 2.325 255 0 0 255 
-0.082648 -0.15706 2.308 255 0 0 255 
-0.07586 -0.15611 2.294 255 0 0 255 
-0.069209 -0.155296 2.282 255 0 0 255 
-0.062817 -0.154958 2.277 255 0 0 255 
-0.056451 -0.15462 2.272 255 0 0 255 
-0.050268 -0.154758 2.274 255 0 0 255 
-0.043957 -0.154487 2.27 255 0 0 255 
-0.037685 -0.154285 2.267 255 0 0 255 
-0.031415 -0.154014 2.263 255 0 0 255 
-0.025189 -0.153879 2.261 255 0 0 255 
-0.018983 -0.153811 2.26 255 0 0 255 
-0.012787 -0.153812 2.26 255 0 0 255 
-0.0066 -0.154016 2.263 255 0 0 255 
-0.000397 -0.154289 2.267 255 0 0 255 
0.005833 -0.154697 2.273 255 0 0 255 
0.012107 -0.155241 2.281 255 0 0 255 
0.018376 -0.155377 2.283 255 0 0 255 
0.024656 -0.155512 2.285 255 0 0 255 
0.030933 -0.155579 2.286 255 0 0 255 
0.037216 -0.155646 2.287 255 0 0 255 
0.043504 -0.155713 2.288 255 0 0 255 
0.049732 -0.155575 2.286 255 0 0 255 
0.056023 -0.155641 2.287 255 0 0 255 
0.062618 -0.156456 2.299 255 0 0 255 
-0.134477 -0.562641 2.6875 255 255 0 255 
-0.15329 -0.573449 2.66341 255 255 0 255 
-0.149427 -0.575321 2.65266 255 255 0 255 
-0.088968 -0.581747 2.57207 255 255 0 255 
-0.084311 -0.583267 2.56193 255 255 0 255 
-0.075516 -0.583102 2.55443 255 255 0 255 
-0.037641 -0.577843 2.53958 255 255 0 255 
-0.023472 -0.578808 2.52278 255 255 0 255 
-0.006526 -0.575214 2.5209 255 255 0 255 
-0.257595 -0.166051 2.348 255 0 0 255 
-0.252035 -0.166626 2.356 255 0 0 255 
-0.245491 -0.166563 2.355 255 0 0 255 
-0.238647 -0.166289 2.351 255 0 0 255 
-0.23222 -0.166297 2.351 255 0 0 255 
-0.225791 -0.166304 2.351 255 0 0 255 
-0.219455 -0.166383 2.352 255 0 0 255 
-0.213022 -0.16639 2.352 255 0 0 255 
-0.206852 -0.16661 2.355 255 0 0 255 
-0.200494 -0.166688 2.356 255 0 0 255 
-0.194048 -0.166695 2.356 255 0 0 255 
-0.18784 -0.166914 2.359 255 0 0 255 
-0.18123 -0.166778 2.357 255 0 0 255 
-0.175076 -0.167068 2.361 255 0 0 255 
-0.168756 -0.167215 2.363 255 0 0 255 
-0.162836 -0.167787 2.371 255 0 0 255 
-0.156147 -0.167581 2.368 255 0 0 255 
-0.149789 -0.167728 2.37 255 0 0 255 
-0.143299 -0.167733 2.37 255 0 0 255 
-0.137386 -0.168446 2.38 255 0 0 255 
-0.131362 -0.169087 2.389 255 0 0 255 
-0.089355 -0.164086 2.318 255 0 0 255 
-0.08243 -0.162956 2.302 255 0 0 255 
-0.075725 -0.162109 2.29 255 0 0 255 
-0.069297 -0.161758 2.285 255 0 0 255 
-0.062925 -0.161477 2.281 255 0 0 255 
-0.056574 -0.161196 2.277 255 0 0 255 
-0.050244 -0.160915 2.273 255 0 0 255 
-0.043994 -0.160846 2.272 255 0 0 255 
-0.0377 -0.160564 2.268 255 0 0 255 
-0.031442 -0.160353 2.265 255 0 0 255 
-0.025199 -0.160142 2.262 255 0 0 255 
-0.018982 -0.160001 2.26 255 0 0 255 
-0.012792 -0.160072 2.261 255 0 0 255 
-0.006603 -0.160285 2.264 255 0 0 255 
-0.000397 -0.160639 2.269 255 0 0 255 
0.005835 -0.160993 2.274 255 0 0 255 
0.012101 -0.161418 2.28 255 0 0 255 
0.018391 -0.161771 2.285 255 0 0 255 
0.024677 -0.161912 2.287 255 0 0 255 
0.031 -0.162194 2.291 255 0 0 255 
0.037296 -0.162264 2.292 255 0 0 255 
0.043598 -0.162333 2.293 255 0 0 255 
0.049818 -0.162119 2.29 255 0 0 255 
0.056168 -0.162329 2.293 255 0 0 255 
-0.087084 -0.592844 2.57473 255 255 0 255 
-0.096514 -0.60012 2.5557 255 255 0 255 
-0.083567 -0.59825 2.55078 255 255 0 255 
-0.049972 -0.587877 2.55911 255 255 0 255 
-0.051129 -0.591759 2.54535 255 255 0 255 
-0.03 -0.58645 2.54594 255 255 0 255 
-0.025392 -0.587943 2.53594 255 255 0 255 
-0.028194 -0.592508 2.5211 255 255 0 255 
-0.263665 -0.172245 2.345 255 0 0 255 
-0.258464 -0.173063 2.356 255 0 0 255 
-0.252454 -0.173365 2.36 255 0 0 255 
-0.245899 -0.173301 2.359 255 0 0 255 
-0.238842 -0.172868 2.353 255 0 0 255 
-0.232409 -0.172877 2.353 255 0 0 255 
-0.226071 -0.172958 2.354 255 0 0 255 
-0.219727 -0.17304 2.355 255 0 0 255 
-0.213105 -0.172901 2.353 255 0 0 255 
-0.206845 -0.173055 2.355 255 0 0 255 
-0.200828 -0.17343 2.36 255 0 0 255 
-0.1947 -0.173731 2.364 255 0 0 255 
-0.18855 -0.174032 2.368 255 0 0 255 
-0.181916 -0.173892 2.366 255 0 0 255 
-0.175366 -0.173825 2.365 255 0 0 255 
-0.168892 -0.173831 2.365 255 0 0 255 
-0.162968 -0.174425 2.373 255 0 0 255 
-0.156471 -0.174431 2.373 255 0 0 255 
-0.149973 -0.174436 2.373 255 0 0 255 
-0.143354 -0.174295 2.371 255 0 0 255 
-0.137669 -0.175329 2.385 255 0 0 255 
-0.089313 -0.170359 2.317 255 0 0 255 
-0.082499 -0.169407 2.304 255 0 0 255 
-0.075821 -0.168601 2.293 255 0 0 255 
-0.069325 -0.168089 2.286 255 0 0 255 
-0.06295 -0.167797 2.282 255 0 0 255 
-0.056596 -0.167505 2.278 255 0 0 255 
-0.050286 -0.167287 2.275 255 0 0 255 
-0.04409 -0.167436 2.277 255 0 0 255 
-0.037799 -0.167217 2.274 255 0 0 255 
-0.031482 -0.166777 2.268 255 0 0 255 
-0.025221 -0.166484 2.264 255 0 0 255 
-0.018998 -0.166337 2.262 255 0 0 255 
-0.012809 -0.166485 2.264 255 0 0 255 
-0.006614 -0.16678 2.268 255 0 0 255 
-0.000398 -0.166927 2.27 255 0 0 255 
0.005845 -0.167515 2.278 255 0 0 255 
0.012101 -0.167662 2.28 255 0 0 255 
0.018383 -0.167955 2.284 255 0 0 255 
0.024654 -0.168028 2.285 255 0 0 255 
0.030972 -0.168321 2.289 255 0 0 255 
0.037311 -0.168614 2.293 255 0 0 255 
0.043558 -0.168465 2.291 255 0 0 255 
0.049816 -0.16839 2.29 255 0 0 255 
0.056362 -0.169197 2.301 255 0 0 255 
-0.098764 -0.612964 2.55575 255 255 0 255 
-0.080854 -0.609015 2.55396 255 255 0 255 
-0.058017 -0.602997 2.55542 255 255 0 255 
-0.021191 -0.591133 2.566 255 255 0 255 
-0.026489 -0.596736 2.54964 255 255 0 255 
-0.007057 -0.592039 2.54927 255 255 0 255 
-0.02057 -0.601088 2.52749 255 255 0 255 
-0.273171 -0.180707 2.372 255 0 0 255 
-0.265229 -0.179727 2.359 255 0 0 255 
-0.259113 -0.179965 2.362 255 0 0 255 
-0.252552 -0.179898 2.361 255 0 0 255 
-0.245682 -0.179602 2.357 255 0 0 255 
-0.238529 -0.179077 2.35 255 0 0 255 
-0.232598 -0.179467 2.355 255 0 0 255 
-0.226736 -0.179933 2.361 255 0 0 255 
-0.220373 -0.180017 2.362 255 0 0 255 
-0.213732 -0.179873 2.36 255 0 0 255 
-0.207101 -0.179728 2.358 255 0 0 255 
-0.201161 -0.180193 2.364 255 0 0 255 
-0.19494 -0.180429 2.367 255 0 0 255 
-0.188623 -0.180589 2.369 255 0 0 255 
-0.181909 -0.180367 2.366 255 0 0 255 
-0.175508 -0.18045 2.367 255 0 0 255 
-0.169243 -0.180685 2.37 255 0 0 255 
-0.163442 -0.181454 2.38 255 0 0 255 
-0.157058 -0.181613 2.382 255 0 0 255 
-0.150473 -0.181542 2.381 255 0 0 255 
-0.143833 -0.181395 2.379 255 0 0 255 
-0.13801 -0.182316 2.391 255 0 0 255 
-0.096195 -0.177691 2.33 255 0 0 255 
-0.089271 -0.176627 2.316 255 0 0 255 
-0.082603 -0.175944 2.307 255 0 0 255 
-0.075852 -0.174955 2.294 255 0 0 255 
-0.069383 -0.174501 2.288 255 0 0 255 
-0.063003 -0.174198 2.284 255 0 0 255 
-0.056669 -0.173972 2.281 255 0 0 255 
-0.050307 -0.173592 2.276 255 0 0 255 
-0.044049 -0.173518 2.275 255 0 0 255 
-0.037764 -0.173291 2.272 255 0 0 255 
-0.031495 -0.173063 2.269 255 0 0 255 
-0.025253 -0.172912 2.267 255 0 0 255 
-0.019031 -0.172836 2.266 255 0 0 255 
-0.01282 -0.172837 2.266 255 0 0 255 
-0.006611 -0.172914 2.267 255 0 0 255 
-0.000397 -0.173066 2.269 255 0 0 255 
0.00584 -0.1736 2.276 255 0 0 255 
0.012084 -0.173676 2.277 255 0 0 255 
0.018382 -0.174209 2.284 255 0 0 255 
0.024642 -0.174209 2.284 255 0 0 255 
0.030971 -0.174589 2.289 255 0 0 255 
0.037228 -0.174511 2.288 255 0 0 255 
0.04348 -0.174433 2.287 255 0 0 255 
0.049879 -0.174889 2.293 255 0 0 255 
0.056629 -0.176336 2.312 255 0 0 255 
-0.035834 -0.608978 2.55804 255 255 0 255 
-0.008018 -0.607551 2.5371 255 255 0 255 
-0.016568 -0.614584 2.51851 255 255 0 255 
-0.009501 -0.615027 2.51013 255 255 0 255 
-0.008999 -0.61825 2.49742 255 255 0 255 
-0.267019 -0.187441 2.375 255 0 0 255 
-0.26042 -0.187372 2.374 255 0 0 255 
-0.252863 -0.186593 2.364 255 0 0 255 
-0.245986 -0.186286 2.36 255 0 0 255 
-0.238723 -0.185664 2.352 255 0 0 255 
-0.232787 -0.186068 2.357 255 0 0 255 
-0.226919 -0.18655 2.363 255 0 0 255 
-0.220644 -0.186716 2.365 255 0 0 255 
-0.213814 -0.186409 2.361 255 0 0 255 
-0.207181 -0.186259 2.359 255 0 0 255 
-0.200983 -0.186504 2.362 255 0 0 255 
-0.19485 -0.186827 2.366 255 0 0 255 
-0.188616 -0.187072 2.369 255 0 0 255 
-0.182133 -0.187079 2.369 255 0 0 255 
-0.175872 -0.187323 2.372 255 0 0 255 
-0.169665 -0.187645 2.376 255 0 0 255 
-0.163642 -0.188205 2.383 255 0 0 255 
-0.157118 -0.188211 2.383 255 0 0 255 
-0.150531 -0.188138 2.382 255 0 0 255 
-0.144129 -0.188302 2.384 255 0 0 255 
-0.138178 -0.189097 2.394 255 0 0 255 
-0.089499 -0.183441 2.322 255 0 0 255 
-0.082743 -0.182576 2.311 255 0 0 255 
-0.075981 -0.181552 2.298 255 0 0 255 
-0.069471 -0.181002 2.291 255 0 0 255 
-0.063083 -0.180688 2.287 255 0 0 255 
-0.056691 -0.180296 2.282 255 0 0 255 
-0.050349 -0.179982 2.278 255 0 0 255 
-0.044009 -0.179589 2.273 255 0 0 255 
-0.037779 -0.17959 2.273 255 0 0 255 
-0.031507 -0.179355 2.27 255 0 0 255 
-0.025297 -0.179435 2.271 255 0 0 255 
-0.019047 -0.179199 2.268 255 0 0 255 
-0.012836 -0.179278 2.269 255 0 0 255 
-0.006614 -0.1792 2.268 255 0 0 255 
-0.000398 -0.179595 2.273 255 0 0 255 
0.005853 -0.180227 2.281 255 0 0 255 
0.012121 -0.180464 2.284 255 0 0 255 
0.018405 -0.1807 2.287 255 0 0 255 
0.024652 -0.180541 2.285 255 0 0 255 
0.030956 -0.180777 2.288 255 0 0 255 
0.037227 -0.180776 2.288 255 0 0 255 
0.043555 -0.181011 2.291 255 0 0 255 
0.050051 -0.181799 2.301 255 0 0 255 
0.056896 -0.183535 2.323 255 0 0 255 
-0.033062 -0.636843 2.49598 255 255 0 255 
0.03721 -0.61707 2.50366 255 255 0 255 
-0.005584 -0.63894 2.46182 255 255 0 255 
-0.267908 -0.19459 2.383 255 0 0 255 
-0.259971 -0.193538 2.37 255 0 0 255 
-0.252426 -0.192732 2.36 255 0 0 255 
-0.245664 -0.192496 2.357 255 0 0 255 
-0.238815 -0.192179 2.353 255 0 0 255 
-0.232679 -0.192433 2.356 255 0 0 255 
-0.226526 -0.192687 2.359 255 0 0 255 
-0.220169 -0.192778 2.36 255 0 0 255 
-0.213534 -0.192623 2.358 255 0 0 255 
-0.207173 -0.192713 2.359 255 0 0 255 
-0.200975 -0.192966 2.362 255 0 0 255 
-0.194843 -0.193301 2.366 255 0 0 255 
-0.188528 -0.193472 2.368 255 0 0 255 
-0.182126 -0.193561 2.369 255 0 0 255 
-0.176013 -0.193977 2.374 255 0 0 255 
-0.169873 -0.194392 2.379 255 0 0 255 
-0.163979 -0.195134 2.388 255 0 0 255 
-0.15731 -0.194978 2.386 255 0 0 255 
-0.150777 -0.194984 2.386 255 0 0 255 
-0.144547 -0.195398 2.391 255 0 0 255 
-0.138692 -0.196385 2.403 255 0 0 255 
-0.089341 -0.18947 2.318 255 0 0 255 
-0.082704 -0.18882 2.31 255 0 0 255 
-0.076143 -0.188251 2.303 255 0 0 255 
-0.06962 -0.187682 2.296 255 0 0 255 
-0.063218 -0.187358 2.292 255 0 0 255 
-0.056763 -0.186788 2.285 255 0 0 255 
-0.050325 -0.186136 2.277 255 0 0 255 
-0.043949 -0.185566 2.27 255 0 0 255 
-0.037728 -0.185568 2.27 255 0 0 255 
-0.03152 -0.185651 2.271 255 0 0 255 
-0.025307 -0.185734 2.272 255 0 0 255 
-0.019063 -0.185571 2.27 255 0 0 255 
-0.012847 -0.185654 2.271 255 0 0 255 
-0.006617 -0.18549 2.269 255 0 0 255 
-0.000398 -0.185899 2.274 255 0 0 255 
0.005847 -0.186308 2.279 255 0 0 255 
0.012126 -0.186798 2.285 255 0 0 255 
0.018421 -0.187124 2.289 255 0 0 255 
0.024673 -0.18696 2.287 255 0 0 255 
0.030968 -0.187122 2.289 255 0 0 255 
0.037193 -0.186876 2.286 255 0 0 255 
0.043572 -0.187365 2.292 255 0 0 255 
0.050158 -0.188507 2.306 255 0 0 255 
0.056845 -0.189731 2.321 255 0 0 255 
-0.267897 -0.201106 2.383 255 0 0 255 
-0.26029 -0.200273 2.373 255 0 0 255 
-0.252951 -0.199608 2.365 255 0 0 255 
-0.246383 -0.199533 2.364 255 0 0 255 
-0.239719 -0.199374 2.362 255 0 0 255 
-0.23346 -0.199553 2.364 255 0 0 255 
-0.226805 -0.199393 2.362 255 0 0 255 
-0.220254 -0.199318 2.361 255 0 0 255 
-0.213797 -0.199327 2.361 255 0 0 255 
-0.207691 -0.199673 2.365 255 0 0 255 
-0.201818 -0.200272 2.372 255 0 0 255 
-0.195494 -0.200449 2.374 255 0 0 255 
-0.189158 -0.200626 2.376 255 0 0 255 
-0.182733 -0.200718 2.377 255 0 0 255 
-0.176599 -0.201148 2.382 255 0 0 255 
-0.170294 -0.201408 2.385 255 0 0 255 
-0.164041 -0.201753 2.389 255 0 0 255 
-0.157369 -0.201591 2.387 255 0 0 255 
-0.150961 -0.201766 2.389 255 0 0 255 
-0.144662 -0.20211 2.393 255 0 0 255 
-0.138975 -0.203383 2.408 255 0 0 255 
-0.133535 -0.205163 2.429 255 0 0 255 
-0.089453 -0.196068 2.321 255 0 0 255 
-0.082808 -0.195396 2.313 255 0 0 255 
-0.076206 -0.194723 2.305 255 0 0 255 
-0.069648 -0.194051 2.297 255 0 0 255 
-0.06316 -0.193462 2.29 255 0 0 255 
-0.056662 -0.192704 2.281 255 0 0 255 
-0.0503 -0.192284 2.276 255 0 0 255 
-0.043986 -0.191948 2.272 255 0 0 255 
-0.037759 -0.19195 2.272 255 0 0 255 
-0.031533 -0.191952 2.272 255 0 0 255 
-0.025306 -0.191953 2.272 255 0 0 255 
-0.019062 -0.191785 2.27 255 0 0 255 
-0.012852 -0.191954 2.272 255 0 0 255 
-0.006619 -0.191786 2.27 255 0 0 255 
-0.000398 -0.192208 2.275 255 0 0 255 
0.005845 -0.192462 2.278 255 0 0 255 
0.012125 -0.193053 2.285 255 0 0 255 
0.01842 -0.19339 2.289 255 0 0 255 
0.024704 -0.193474 2.29 255 0 0 255 
0.030967 -0.193388 2.289 255 0 0 255 
0.037175 -0.193049 2.285 255 0 0 255 
0.043551 -0.193554 2.291 255 0 0 255 
0.050199 -0.194988 2.308 255 0 0 255 
0.056965 -0.196506 2.326 255 0 0 255 
-0.267887 -0.207622 2.383 255 0 0 255 
-0.260609 -0.207023 2.376 255 0 0 255 
-0.253689 -0.206685 2.372 255 0 0 255 
-0.246999 -0.206521 2.37 255 0 0 255 
-0.240318 -0.206356 2.368 255 0 0 255 
-0.233846 -0.206366 2.368 255 0 0 255 
-0.227276 -0.206289 2.367 255 0 0 255 
-0.220618 -0.206124 2.365 255 0 0 255 
-0.214422 -0.206394 2.368 255 0 0 255 
-0.20821 -0.206665 2.371 255 0 0 255 
-0.20232 -0.207283 2.378 255 0 0 255 
-0.195815 -0.207292 2.378 255 0 0 255 
-0.189468 -0.207474 2.38 255 0 0 255 
-0.183187 -0.207744 2.383 255 0 0 255 
-0.17674 -0.207839 2.384 255 0 0 255 
-0.17043 -0.208108 2.387 255 0 0 255 
-0.164102 -0.208376 2.39 255 0 0 255 
-0.157824 -0.208732 2.394 255 0 0 255 
-0.151397 -0.208913 2.396 255 0 0 255 
-0.145079 -0.209268 2.4 255 0 0 255 
-0.139027 -0.210059 2.409 255 0 0 255 
-0.089796 -0.203205 2.33 255 0 0 255 
-0.083055 -0.202336 2.32 255 0 0 255 
-0.076269 -0.201206 2.307 255 0 0 255 
-0.069554 -0.200075 2.294 255 0 0 255 
-0.06291 -0.198944 2.281 255 0 0 255 
-0.056461 -0.198249 2.273 255 0 0 255 
-0.050144 -0.197903 2.269 255 0 0 255 
-0.043984 -0.198167 2.272 255 0 0 255 
-0.037758 -0.198168 2.272 255 0 0 255 
-0.031545 -0.198257 2.273 255 0 0 255 
-0.025282 -0.197997 2.27 255 0 0 255 
-0.01907 -0.198085 2.271 255 0 0 255 
-0.012834 -0.197911 2.269 255 0 0 255 
-0.006613 -0.197824 2.268 255 0 0 255 
-0.000398 -0.198348 2.274 255 0 0 255 
0.005849 -0.198871 2.28 255 0 0 255 
0.01213 -0.199394 2.286 255 0 0 255 
0.018419 -0.199655 2.289 255 0 0 255 
0.024714 -0.199829 2.291 255 0 0 255 
0.030952 -0.199566 2.288 255 0 0 255 
0.037108 -0.198954 2.281 255 0 0 255 
0.043492 -0.199562 2.288 255 0 0 255 
0.050306 -0.201741 2.313 255 0 0 255 
-0.269449 -0.215395 2.397 255 0 0 255 
-0.262134 -0.214777 2.39 255 0 0 255 
-0.255283 -0.214518 2.387 255 0 0 255 
-0.248239 -0.214079 2.382 255 0 0 255 
-0.241323 -0.21373 2.378 255 0 0 255 
-0.234428 -0.213381 2.374 255 0 0 255 
-0.227458 -0.212941 2.369 255 0 0 255 
-0.221075 -0.213041 2.37 255 0 0 255 
-0.215047 -0.2135 2.375 255 0 0 255 
-0.208903 -0.213868 2.379 255 0 0 255 
-0.202822 -0.214327 2.384 255 0 0 255 
-0.1963 -0.214335 2.384 255 0 0 255 
-0.189778 -0.214344 2.384 255 0 0 255 
-0.18341 -0.214532 2.386 255 0 0 255 
-0.176732 -0.21436 2.384 255 0 0 255 
-0.170708 -0.214997 2.391 255 0 0 255 
-0.164233 -0.215094 2.392 255 0 0 255 
-0.158213 -0.215821 2.4 255 0 0 255 
-0.151769 -0.216007 2.402 255 0 0 255 
-0.145435 -0.216374 2.406 255 0 0 255 
-0.139021 -0.21665 2.409 255 0 0 255 
-0.089908 -0.20985 2.333 255 0 0 255 
-0.08298 -0.208505 2.318 255 0 0 255 
-0.076133 -0.207159 2.303 255 0 0 255 
-0.069551 -0.206353 2.294 255 0 0 255 
-0.062934 -0.205276 2.282 255 0 0 255 
-0.056508 -0.204649 2.275 255 0 0 255 
-0.050141 -0.204112 2.269 255 0 0 255 
-0.043982 -0.204384 2.272 255 0 0 255 
-0.037739 -0.204296 2.271 255 0 0 255 
-0.031516 -0.204297 2.271 255 0 0 255 
-0.025292 -0.204299 2.271 255 0 0 255 
-0.019094 -0.20457 2.274 255 0 0 255 
-0.012851 -0.20439 2.272 255 0 0 255 
-0.006619 -0.204211 2.27 255 0 0 255 
-0.000399 -0.204751 2.276 255 0 0 255 
0.005859 -0.20547 2.284 255 0 0 255 
0.012129 -0.20565 2.286 255 0 0 255 
0.018402 -0.205739 2.287 255 0 0 255 
0.024691 -0.205918 2.289 255 0 0 255 
0.030964 -0.205917 2.289 255 0 0 255 
0.03722 -0.205825 2.288 255 0 0 255 
0.04368 -0.206723 2.298 255 0 0 255 
0.050608 -0.20933 2.327 255 0 0 255 
-0.271236 -0.223428 2.413 255 0 0 255 
-0.263109 -0.222144 2.399 255 0 0 255 
-0.256127 -0.221784 2.395 255 0 0 255 
-0.249062 -0.221332 2.39 255 0 0 255 
-0.241719 -0.220602 2.382 255 0 0 255 
-0.234221 -0.219686 2.372 255 0 0 255 
-0.227257 -0.219233 2.367 255 0 0 255 
-0.220972 -0.219429 2.369 255 0 0 255 
-0.214947 -0.219901 2.374 255 0 0 255 
-0.208806 -0.220281 2.378 255 0 0 255 
-0.202813 -0.220846 2.384 255 0 0 255 
-0.196457 -0.22104 2.386 255 0 0 255 
-0.18977 -0.220864 2.384 255 0 0 255 
-0.183401 -0.221057 2.386 255 0 0 255 
-0.176724 -0.22088 2.384 255 0 0 255 
-0.170843 -0.221722 2.393 255 0 0 255 
-0.164363 -0.221822 2.394 255 0 0 255 
-0.158469 -0.222756 2.404 255 0 0 255 
-0.152331 -0.223412 2.411 255 0 0 255 
-0.146275 -0.224253 2.42 255 0 0 255 
-0.13988 -0.22463 2.424 255 0 0 255 
-0.100463 -0.22559 2.434 255 0 0 255 
-0.089634 -0.215584 2.326 255 0 0 255 
-0.082833 -0.214476 2.314 255 0 0 255 
-0.07613 -0.21346 2.303 255 0 0 255 
-0.069608 -0.212815 2.296 255 0 0 255 
-0.063042 -0.211891 2.286 255 0 0 255 
-0.05658 -0.211152 2.278 255 0 0 255 
-0.05025 -0.210784 2.274 255 0 0 255 
-0.044019 -0.210786 2.274 255 0 0 255 
-0.037721 -0.210417 2.27 255 0 0 255 
-0.031487 -0.210326 2.269 255 0 0 255 
-0.025291 -0.210513 2.271 255 0 0 255 
-0.019118 -0.21107 2.277 255 0 0 255 
-0.012862 -0.210793 2.274 255 0 0 255 
-0.006633 -0.210886 2.275 255 0 0 255 
-0.000399 -0.211257 2.279 255 0 0 255 
0.005862 -0.211813 2.285 255 0 0 255 
0.012129 -0.211905 2.286 255 0 0 255 
0.018393 -0.211904 2.286 255 0 0 255 
0.024669 -0.211996 2.287 255 0 0 255 
0.030936 -0.211995 2.287 255 0 0 255 
0.0373 -0.212549 2.293 255 0 0 255 
0.043944 -0.214309 2.312 255 0 0 255 
0.050758 -0.216346 2.334 255 0 0 255 
-0.271 -0.229833 2.411 255 0 0 255 
-0.262988 -0.228606 2.398 255 0 0 255 
-0.256009 -0.228236 2.394 255 0 0 255 
-0.249051 -0.227866 2.39 255 0 0 255 
-0.241607 -0.227018 2.381 255 0 0 255 
-0.23421 -0.226171 2.372 255 0 0 255 
-0.227342 -0.2258 2.368 255 0 0 255 
-0.221149 -0.226096 2.371 255 0 0 255 
-0.215028 -0.226488 2.375 255 0 0 255 
-0.208972 -0.226974 2.38 255 0 0 255 
-0.202889 -0.22746 2.385 255 0 0 255 
-0.196612 -0.227755 2.388 255 0 0 255 
-0.189921 -0.227574 2.386 255 0 0 255 
-0.183547 -0.227773 2.388 255 0 0 255 
-0.177161 -0.227972 2.39 255 0 0 255 
-0.170835 -0.228266 2.393 255 0 0 255 
-0.164561 -0.228656 2.397 255 0 0 255 
-0.158726 -0.229713 2.408 255 0 0 255 
-0.153082 -0.231151 2.423 255 0 0 255 
-0.146993 -0.232016 2.432 255 0 0 255 
-0.140797 -0.232786 2.44 255 0 0 255 
-0.089668 -0.222043 2.327 255 0 0 255 
-0.082864 -0.220902 2.315 255 0 0 255 
-0.076192 -0.219951 2.305 255 0 0 255 
-0.069665 -0.219287 2.298 255 0 0 255 
-0.063204 -0.218717 2.292 255 0 0 255 
-0.056751 -0.218052 2.285 255 0 0 255 
-0.05038 -0.217578 2.28 255 0 0 255 
-0.043997 -0.216912 2.273 255 0 0 255 
-0.037669 -0.216341 2.267 255 0 0 255 
-0.03143 -0.216152 2.265 255 0 0 255 
-0.02529 -0.216726 2.271 255 0 0 255 
-0.019109 -0.217204 2.276 255 0 0 255 
-0.012867 -0.217109 2.275 255 0 0 255 
-0.00663 -0.217015 2.274 255 0 0 255 
-0.000398 -0.21711 2.275 255 0 0 255 
0.005849 -0.217587 2.28 255 0 0 255 
0.012102 -0.217682 2.281 255 0 0 255 
0.018376 -0.217968 2.284 255 0 0 255 
0.024646 -0.218062 2.285 255 0 0 255 
0.030907 -0.218061 2.285 255 0 0 255 
0.037396 -0.219395 2.299 255 0 0 255 
0.044284 -0.222352 2.33 255 0 0 255 
0.051082 -0.224162 2.349 255 0 0 255 
-0.273573 -0.238677 2.434 255 0 0 255 
-0.262757 -0.234963 2.396 255 0 0 255 
-0.255463 -0.234288 2.389 255 0 0 255 
-0.248727 -0.234104 2.387 255 0 0 255 
-0.241494 -0.233428 2.38 255 0 0 255 
-0.234595 -0.233047 2.376 255 0 0 255 
-0.228004 -0.23296 2.375 255 0 0 255 
-0.221605 -0.233068 2.376 255 0 0 255 
-0.215199 -0.233176 2.377 255 0 0 255 
-0.208787 -0.233284 2.378 255 0 0 255 
-0.202454 -0.23349 2.38 255 0 0 255 
-0.196274 -0.233892 2.384 255 0 0 255 
-0.190071 -0.234294 2.388 255 0 0 255 
-0.183846 -0.234695 2.392 255 0 0 255 
-0.17782 -0.23539 2.399 255 0 0 255 
-0.171184 -0.2353 2.398 255 0 0 255 
-0.165102 -0.235995 2.405 255 0 0 255 
-0.159048 -0.236788 2.413 255 0 0 255 
-0.153454 -0.238366 2.429 255 0 0 255 
-0.14753 -0.23955 2.441 255 0 0 255 
-0.141598 -0.240833 2.454 255 0 0 255 
-0.089818 -0.2288 2.331 255 0 0 255 
-0.083075 -0.227823 2.321 255 0 0 255 
-0.076387 -0.226845 2.311 255 0 0 255 
-0.069723 -0.225769 2.3 255 0 0 255 
-0.063201 -0.224987 2.292 255 0 0 255 
-0.056698 -0.224106 2.283 255 0 0 255 
-0.050377 -0.223814 2.28 255 0 0 255 
-0.044014 -0.223228 2.274 255 0 0 255 
-0.037734 -0.222935 2.271 255 0 0 255 
-0.031428 -0.222348 2.265 255 0 0 255 
-0.025244 -0.222546 2.267 255 0 0 255 
-0.019058 -0.222841 2.27 255 0 0 255 
-0.01286 -0.223235 2.274 255 0 0 255 
-0.006629 -0.223235 2.274 255 0 0 255 
-0.000398 -0.223333 2.275 255 0 0 255 
0.005838 -0.223431 2.276 255 0 0 255 
0.01209 -0.223725 2.279 255 0 0 255 
0.018351 -0.223921 2.281 255 0 0 255 
0.024612 -0.224018 2.282 255 0 0 255 
0.030892 -0.224213 2.284 255 0 0 255 
0.037492 -0.226273 2.305 255 0 0 255 
0.044434 -0.22951 2.338 255 0 0 255 
0.051514 -0.232551 2.369 255 0 0 255 
-0.262306 -0.241107 2.392 255 0 0 255 
-0.255024 -0.240414 2.385 255 0 0 255 
-0.248299 -0.240224 2.383 255 0 0 255 
-0.241686 -0.240135 2.382 255 0 0 255 
-0.23488 -0.239843 2.379 255 0 0 255 
-0.228377 -0.239854 2.379 255 0 0 255 
-0.222061 -0.240067 2.381 255 0 0 255 
-0.215732 -0.240279 2.383 255 0 0 255 
-0.209128 -0.240188 2.382 255 0 0 255 
-0.202444 -0.239996 2.38 255 0 0 255 
-0.196018 -0.240107 2.381 255 0 0 255 
-0.189982 -0.240721 2.387 255 0 0 255 
-0.183991 -0.241436 2.394 255 0 0 255 
-0.178108 -0.242352 2.403 255 0 0 255 
-0.171604 -0.242462 2.404 255 0 0 255 
-0.165438 -0.243075 2.41 255 0 0 255 
-0.159304 -0.243789 2.417 255 0 0 255 
-0.153826 -0.245612 2.435 255 0 0 255 
-0.148007 -0.247032 2.449 255 0 0 255 
-0.142283 -0.248754 2.466 255 0 0 255 
-0.089968 -0.235578 2.335 255 0 0 255 
-0.083143 -0.234372 2.323 255 0 0 255 
-0.076416 -0.233266 2.312 255 0 0 255 
-0.06978 -0.232261 2.302 255 0 0 255 
-0.063253 -0.231457 2.294 255 0 0 255 
-0.056745 -0.230552 2.285 255 0 0 255 
-0.050353 -0.229949 2.279 255 0 0 255 
-0.043954 -0.229144 2.271 255 0 0 255 
-0.037699 -0.228945 2.269 255 0 0 255 
-0.031399 -0.228341 2.263 255 0 0 255 
-0.02521 -0.228443 2.264 255 0 0 255 
-0.019023 -0.228646 2.266 255 0 0 255 
-0.012854 -0.229353 2.273 255 0 0 255 
-0.006632 -0.229556 2.275 255 0 0 255 
-0.000399 -0.229657 2.276 255 0 0 255 
0.005838 -0.229657 2.276 255 0 0 255 
0.01209 -0.229959 2.279 255 0 0 255 
0.018358 -0.230261 2.282 255 0 0 255 
0.024611 -0.23026 2.282 255 0 0 255 
0.030985 -0.231166 2.291 255 0 0 255 
0.037604 -0.233284 2.312 255 0 0 255 
0.044622 -0.236914 2.348 255 0 0 255 
-0.255332 -0.247241 2.388 255 0 0 255 
-0.248391 -0.246839 2.384 255 0 0 255 
-0.241979 -0.246954 2.385 255 0 0 255 
-0.235165 -0.246655 2.382 255 0 0 255 
-0.22875 -0.24677 2.383 255 0 0 255 
-0.22233 -0.246884 2.384 255 0 0 255 
-0.215722 -0.246791 2.383 255 0 0 255 
-0.209206 -0.246802 2.383 255 0 0 255 
-0.20252 -0.246605 2.381 255 0 0 255 
-0.196255 -0.246925 2.384 255 0 0 255 
-0.189734 -0.246935 2.384 255 0 0 255 
-0.183674 -0.247566 2.39 255 0 0 255 
-0.178025 -0.248818 2.402 255 0 0 255 
-0.172238 -0.249966 2.413 255 0 0 255 
-0.16591 -0.250389 2.417 255 0 0 255 
-0.159494 -0.250708 2.42 255 0 0 255 
-0.153439 -0.251648 2.429 255 0 0 255 
-0.14812 -0.253935 2.451 255 0 0 255 
-0.090194 -0.242585 2.341 255 0 0 255 
-0.083139 -0.240724 2.323 255 0 0 255 
-0.076445 -0.239692 2.313 255 0 0 255 
-0.069807 -0.238659 2.303 255 0 0 255 
-0.06325 -0.23773 2.294 255 0 0 255 
-0.056767 -0.236904 2.286 255 0 0 255 
-0.050372 -0.236285 2.28 255 0 0 255 
-0.044029 -0.235769 2.275 255 0 0 255 
-0.03773 -0.235357 2.271 255 0 0 255 
-0.031453 -0.234944 2.267 255 0 0 255 
-0.025231 -0.234842 2.266 255 0 0 255 
-0.019039 -0.23505 2.268 255 0 0 255 
-0.012842 -0.235362 2.271 255 0 0 255 
-0.006626 -0.23557 2.273 255 0 0 255 
-0.000398 -0.23557 2.273 255 0 0 255 
0.005837 -0.235881 2.276 255 0 0 255 
0.012084 -0.236088 2.278 255 0 0 255 
0.018358 -0.236501 2.282 255 0 0 255 
0.02461 -0.2365 2.282 255 0 0 255 
0.031024 -0.237743 2.294 255 0 0 255 
0.037618 -0.23971 2.313 255 0 0 255 
0.04481 -0.244371 2.358 255 0 0 255 
-0.264146 -0.255984 2.409 255 0 0 255 
-0.255641 -0.254084 2.391 255 0 0 255 
-0.248379 -0.253352 2.384 255 0 0 255 
-0.241967 -0.253471 2.385 255 0 0 255 
-0.235153 -0.253164 2.382 255 0 0 255 
-0.228835 -0.253388 2.384 255 0 0 255 
-0.222505 -0.253611 2.386 255 0 0 255 
-0.215983 -0.253622 2.386 255 0 0 255 
-0.209722 -0.253952 2.389 255 0 0 255 
-0.202935 -0.253643 2.386 255 0 0 255 
-0.196739 -0.254079 2.39 255 0 0 255 
-0.190043 -0.253876 2.388 255 0 0 255 
-0.18428 -0.254948 2.398 255 0 0 255 
-0.178535 -0.256127 2.409 255 0 0 255 
-0.172658 -0.257199 2.419 255 0 0 255 
-0.165902 -0.256995 2.417 255 0 0 255 
-0.15942 -0.257216 2.419 255 0 0 255 
-0.153242 -0.257968 2.426 255 0 0 255 
-0.145574 -0.256168 2.409 255 0 0 255 
-0.083242 -0.247395 2.326 255 0 0 255 
-0.076507 -0.246229 2.315 255 0 0 255 
-0.069894 -0.245275 2.306 255 0 0 255 
-0.06344 -0.244747 2.301 255 0 0 255 
-0.056938 -0.243899 2.293 255 0 0 255 
-0.050436 -0.242838 2.283 255 0 0 255 
-0.044046 -0.242096 2.276 255 0 0 255 
-0.037712 -0.24146 2.27 255 0 0 255 
-0.031493 -0.241462 2.27 255 0 0 255 
-0.025274 -0.241463 2.27 255 0 0 255 
-0.019088 -0.24189 2.274 255 0 0 255 
-0.012858 -0.241891 2.274 255 0 0 255 
-0.006625 -0.241785 2.273 255 0 0 255 
-0.000398 -0.241679 2.272 255 0 0 255 
0.005837 -0.242104 2.276 255 0 0 255 
0.012078 -0.24221 2.277 255 0 0 255 
0.01834 -0.242528 2.28 255 0 0 255 
0.024576 -0.242421 2.279 255 0 0 255 
0.030982 -0.243696 2.291 255 0 0 255 
0.037584 -0.245822 2.311 255 0 0 255 
-0.255307 -0.260288 2.388 255 0 0 255 
-0.248159 -0.259647 2.382 255 0 0 255 
-0.241549 -0.25955 2.381 255 0 0 255 
-0.23524 -0.25978 2.383 255 0 0 255 
-0.228728 -0.259792 2.383 255 0 0 255 
-0.222308 -0.259912 2.384 255 0 0 255 
-0.215338 -0.259378 2.379 255 0 0 255 
-0.209449 -0.260152 2.386 255 0 0 255 
-0.20318 -0.26049 2.389 255 0 0 255 
-0.197305 -0.261373 2.397 255 0 0 255 
-0.190988 -0.26171 2.4 255 0 0 255 
-0.185039 -0.262592 2.408 255 0 0 255 
-0.179044 -0.263474 2.416 255 0 0 255 
-0.172934 -0.264246 2.423 255 0 0 255 
-0.166236 -0.264146 2.422 255 0 0 255 
-0.159807 -0.264482 2.425 255 0 0 255 
-0.152918 -0.264054 2.421 255 0 0 255 
-0.083738 -0.25528 2.34 255 0 0 255 
-0.076702 -0.253212 2.321 255 0 0 255 
-0.070042 -0.252125 2.311 255 0 0 255 
-0.063574 -0.251583 2.306 255 0 0 255 
-0.057059 -0.250713 2.298 255 0 0 255 
-0.050499 -0.249407 2.286 255 0 0 255 
-0.044121 -0.248755 2.28 255 0 0 255 
-0.037776 -0.248102 2.274 255 0 0 255 
-0.031588 -0.248432 2.277 255 0 0 255 
-0.025306 -0.247997 2.273 255 0 0 255 
-0.019104 -0.248325 2.276 255 0 0 255 
-0.012852 -0.247999 2.273 255 0 0 255 
-0.006631 -0.248217 2.275 255 0 0 255 
-0.000398 -0.248109 2.274 255 0 0 255 
0.005839 -0.248436 2.277 255 0 0 255 
0.012077 -0.248435 2.277 255 0 0 255 
0.018307 -0.248325 2.276 255 0 0 255 
0.024532 -0.248215 2.275 255 0 0 255 
0.030872 -0.249086 2.283 255 0 0 255 
0.037289 -0.250176 2.293 255 0 0 255 
-0.255936 -0.267481 2.394 255 0 0 255 
-0.248354 -0.266376 2.384 255 0 0 255 
-0.242044 -0.266612 2.386 255 0 0 255 
-0.235524 -0.266625 2.386 255 0 0 255 
-0.229004 -0.266637 2.386 255 0 0 255 
-0.222576 -0.26676 2.387 255 0 0 255 
-0.21587 -0.266548 2.385 255 0 0 255 
-0.209701 -0.267006 2.389 255 0 0 255 
-0.203594 -0.267576 2.394 255 0 0 255 
-0.197542 -0.268257 2.4 255 0 0 255 
-0.191615 -0.269161 2.408 255 0 0 255 
-0.185413 -0.26973 2.413 255 0 0 255 
-0.179257 -0.27041 2.419 255 0 0 255 
-0.172925 -0.270867 2.423 255 0 0 255 
-0.166433 -0.2711 2.425 255 0 0 255 
-0.160062 -0.271555 2.429 255 0 0 255 
-0.153352 -0.271452 2.428 255 0 0 255 
-0.146345 -0.270789 2.422 255 0 0 255 
-0.084557 -0.264248 2.363 255 0 0 255 
-0.076929 -0.260339 2.328 255 0 0 255 
-0.07025 -0.259224 2.318 255 0 0 255 
-0.063791 -0.258781 2.314 255 0 0 255 
-0.057131 -0.25733 2.301 255 0 0 255 
-0.050519 -0.255767 2.287 255 0 0 255 
-0.0441 -0.254875 2.279 255 0 0 255 
-0.037791 -0.25443 2.275 255 0 0 255 
-0.0316 -0.254768 2.278 255 0 0 255 
-0.025316 -0.254322 2.274 255 0 0 255 
-0.019112 -0.254658 2.277 255 0 0 255 
-0.012863 -0.254436 2.275 255 0 0 255 
-0.006639 -0.254772 2.278 255 0 0 255 
-0.000399 -0.255107 2.281 255 0 0 255 
0.005854 -0.255331 2.283 255 0 0 255 
0.012109 -0.25533 2.283 255 0 0 255 
0.018338 -0.254994 2.28 255 0 0 255 
0.024563 -0.254769 2.278 255 0 0 255 
0.030843 -0.255103 2.281 255 0 0 255 
0.037189 -0.255772 2.287 255 0 0 255 
-0.257526 -0.275735 2.409 255 0 0 255 
-0.249383 -0.274031 2.394 255 0 0 255 
-0.242336 -0.273472 2.389 255 0 0 255 
-0.235808 -0.273485 2.389 255 0 0 255 
-0.229088 -0.273268 2.387 255 0 0 255 
-0.222471 -0.273165 2.386 255 0 0 255 
-0.215678 -0.272833 2.383 255 0 0 255 
-0.209339 -0.273074 2.385 255 0 0 255 
-0.203839 -0.274459 2.397 255 0 0 255 
-0.197696 -0.275042 2.402 255 0 0 255 
-0.191525 -0.275625 2.407 255 0 0 255 
-0.185096 -0.275864 2.409 255 0 0 255 
-0.179174 -0.276905 2.418 255 0 0 255 
-0.173202 -0.277945 2.427 255 0 0 255 
-0.166836 -0.278412 2.431 255 0 0 255 
-0.160449 -0.278879 2.435 255 0 0 255 
-0.153596 -0.278544 2.432 255 0 0 255 
-0.147908 -0.280385 2.448 255 0 0 255 
-0.084302 -0.269904 2.356 255 0 0 255 
-0.077255 -0.267846 2.338 255 0 0 255 
-0.070549 -0.266705 2.328 255 0 0 255 
-0.06387 -0.265448 2.317 255 0 0 255 
-0.057276 -0.264306 2.307 255 0 0 255 
-0.050627 -0.26259 2.292 255 0 0 255 
-0.044233 -0.261906 2.286 255 0 0 255 
-0.037855 -0.261106 2.279 255 0 0 255 
-0.031613 -0.261108 2.279 255 0 0 255 
-0.025292 -0.260308 2.272 255 0 0 255 
-0.019085 -0.260538 2.274 255 0 0 255 
-0.012845 -0.26031 2.272 255 0 0 255 
-0.006639 -0.260998 2.278 255 0 0 255 
-0.000399 -0.261342 2.281 255 0 0 255 
0.00587 -0.262258 2.289 255 0 0 255 
0.012145 -0.262372 2.29 255 0 0 255 
0.018426 -0.262486 2.291 255 0 0 255 
0.024658 -0.262026 2.287 255 0 0 255 
0.030896 -0.261796 2.285 255 0 0 255 
0.037269 -0.262596 2.292 255 0 0 255 
-0.249891 -0.281154 2.399 255 0 0 255 
-0.242729 -0.280464 2.393 255 0 0 255 
-0.235993 -0.280243 2.391 255 0 0 255 
-0.229556 -0.280372 2.392 255 0 0 255 
-0.223112 -0.280502 2.393 255 0 0 255 
-0.216662 -0.280631 2.394 255 0 0 255 
-0.21003 -0.280525 2.393 255 0 0 255 
-0.204168 -0.281474 2.401 255 0 0 255 
-0.197932 -0.281954 2.405 255 0 0 255 
-0.191674 -0.282434 2.409 255 0 0 255 
-0.18524 -0.282679 2.411 255 0 0 255 
-0.179608 -0.284213 2.424 255 0 0 255 
-0.173549 -0.285161 2.432 255 0 0 255 
-0.167445 -0.286108 2.44 255 0 0 255 
-0.160769 -0.286117 2.44 255 0 0 255 
-0.154409 -0.286712 2.445 255 0 0 255 
-0.148564 -0.288363 2.459 255 0 0 255 
-0.084798 -0.277983 2.37 255 0 0 255 
-0.077581 -0.275408 2.348 255 0 0 255 
-0.070788 -0.274004 2.336 255 0 0 255 
-0.064032 -0.272483 2.323 255 0 0 255 
-0.057422 -0.271314 2.313 255 0 0 255 
-0.050845 -0.270026 2.302 255 0 0 255 
-0.044385 -0.269091 2.294 255 0 0 255 
-0.037952 -0.268037 2.285 255 0 0 255 
-0.031611 -0.267336 2.279 255 0 0 255 
-0.025291 -0.266516 2.272 255 0 0 255 
-0.019076 -0.266635 2.273 255 0 0 255 
-0.012839 -0.266401 2.271 255 0 0 255 
-0.006627 -0.266753 2.274 255 0 0 255 
-0.000399 -0.267223 2.278 255 0 0 255 
0.005874 -0.268748 2.291 255 0 0 255 
0.012176 -0.269334 2.296 255 0 0 255 
0.018497 -0.269802 2.3 255 0 0 255 
0.024765 -0.269449 2.297 255 0 0 255 
0.031083 -0.269682 2.299 255 0 0 255 
0.037494 -0.270501 2.306 255 0 0 255 
0.044019 -0.271789 2.317 255 0 0 255 
-0.250503 -0.288424 2.405 255 0 0 255 
-0.242513 -0.286758 2.391 255 0 0 255 
-0.236079 -0.286891 2.392 255 0 0 255 
-0.229927 -0.287383 2.396 255 0 0 255 
-0.223286 -0.287276 2.395 255 0 0 255 
-0.216559 -0.287048 2.393 255 0 0 255 
-0.210018 -0.28706 2.393 255 0 0 255 
-0.204412 -0.288391 2.404 255 0 0 255 
-0.198251 -0.289002 2.409 255 0 0 255 
-0.191982 -0.289493 2.413 255 0 0 255 
-0.185844 -0.290223 2.419 255 0 0 255 
-0.179895 -0.291313 2.428 255 0 0 255 
-0.17361 -0.291923 2.433 255 0 0 255 
-0.167367 -0.292653 2.439 255 0 0 255 
-0.16076 -0.292782 2.44 255 0 0 255 
-0.154968 -0.294471 2.454 255 0 0 255 
-0.149281 -0.296519 2.471 255 0 0 255 
-0.077973 -0.283263 2.36 255 0 0 255 
-0.070966 -0.281106 2.342 255 0 0 255 
-0.064166 -0.27943 2.328 255 0 0 255 
-0.057667 -0.278833 2.323 255 0 0 255 
-0.051173 -0.278116 2.317 255 0 0 255 
-0.044595 -0.276679 2.305 255 0 0 255 
-0.038083 -0.275241 2.293 255 0 0 255 
-0.031637 -0.273802 2.281 255 0 0 255 
-0.025323 -0.273084 2.275 255 0 0 255 
-0.019092 -0.273085 2.275 255 0 0 255 
-0.012855 -0.272966 2.274 255 0 0 255 
-0.006638 -0.273447 2.278 255 0 0 255 
-0.000399 -0.273567 2.279 255 0 0 255 
0.005871 -0.274887 2.29 255 0 0 255 
0.012181 -0.275727 2.297 255 0 0 255 
0.018528 -0.276566 2.304 255 0 0 255 
0.024828 -0.276445 2.303 255 0 0 255 
0.031163 -0.276683 2.305 255 0 0 255 
0.037589 -0.277522 2.312 255 0 0 255 
0.044187 -0.2792 2.326 255 0 0 255 
-0.241992 -0.292672 2.386 255 0 0 255 
-0.235869 -0.293176 2.39 255 0 0 255 
-0.23001 -0.294047 2.397 255 0 0 255 
-0.22346 -0.29406 2.397 255 0 0 255 
-0.217 -0.294195 2.398 255 0 0 255 
-0.210709 -0.294575 2.401 255 0 0 255 
-0.20491 -0.295691 2.41 255 0 0 255 
-0.198569 -0.29607 2.413 255 0 0 255 
-0.19205 -0.296204 2.414 255 0 0 255 
-0.185987 -0.297074 2.421 255 0 0 255 
-0.180107 -0.298312 2.431 255 0 0 255 
-0.173815 -0.298935 2.436 255 0 0 255 
-0.167494 -0.299559 2.441 255 0 0 255 
-0.161278 -0.300427 2.448 255 0 0 255 
-0.155844 -0.302891 2.468 255 0 0 255 
-0.149876 -0.304495 2.481 255 0 0 255 
-0.078464 -0.29155 2.375 255 0 0 255 
-0.071052 -0.287872 2.345 255 0 0 255 
-0.0643 -0.286403 2.333 255 0 0 255 
-0.057738 -0.285547 2.326 255 0 0 255 
-0.05128 -0.285059 2.322 255 0 0 255 
-0.044612 -0.283098 2.306 255 0 0 255 
-0.038131 -0.281873 2.296 255 0 0 255 
-0.03169 -0.280524 2.285 255 0 0 255 
-0.025399 -0.280158 2.282 255 0 0 255 
-0.019141 -0.280036 2.281 255 0 0 255 
-0.012888 -0.279914 2.28 255 0 0 255 
-0.006649 -0.280161 2.282 255 0 0 255 
-0.0004 -0.280284 2.283 255 0 0 255 
0.005869 -0.28102 2.289 255 0 0 255 
0.012159 -0.281511 2.293 255 0 0 255 
0.018503 -0.282492 2.301 255 0 0 255 
0.024848 -0.282982 2.305 255 0 0 255 
0.031228 -0.283594 2.31 255 0 0 255 
0.037603 -0.28396 2.313 255 0 0 255 
0.044128 -0.285185 2.323 255 0 0 255 
-0.243094 -0.300563 2.397 255 0 0 255 
-0.236645 -0.300702 2.398 255 0 0 255 
-0.230189 -0.300841 2.399 255 0 0 255 
-0.223541 -0.300728 2.398 255 0 0 255 
-0.217259 -0.301117 2.401 255 0 0 255 
-0.210872 -0.30138 2.403 255 0 0 255 
-0.204899 -0.30227 2.41 255 0 0 255 
-0.198557 -0.302658 2.413 255 0 0 255 
-0.19188 -0.302544 2.412 255 0 0 255 
-0.185669 -0.303182 2.417 255 0 0 255 
-0.179726 -0.304322 2.426 255 0 0 255 
-0.173876 -0.305712 2.437 255 0 0 255 
-0.167691 -0.3066 2.444 255 0 0 255 
-0.161532 -0.307613 2.452 255 0 0 255 
-0.15615 -0.310257 2.473 255 0 0 255 
-0.071139 -0.294653 2.348 255 0 0 255 
-0.064517 -0.293779 2.341 255 0 0 255 
-0.057933 -0.292904 2.334 255 0 0 255 
-0.051321 -0.291652 2.324 255 0 0 255 
-0.044667 -0.289773 2.309 255 0 0 255 
-0.038228 -0.288897 2.302 255 0 0 255 
-0.031758 -0.287393 2.29 255 0 0 255 
-0.025431 -0.286767 2.285 255 0 0 255 
-0.019148 -0.286392 2.282 255 0 0 255 
-0.01291 -0.286644 2.284 255 0 0 255 
-0.006655 -0.286644 2.284 255 0 0 255 
-0.000399 -0.286268 2.281 255 0 0 255 
0.005853 -0.286519 2.283 255 0 0 255 
0.01211 -0.286644 2.284 255 0 0 255 
0.01843 -0.287647 2.292 255 0 0 255 
0.024825 -0.289026 2.303 255 0 0 255 
0.031227 -0.289903 2.31 255 0 0 255 
0.03765 -0.290654 2.316 255 0 0 255 
-0.244805 -0.309283 2.414 255 0 0 255 
-0.237125 -0.307887 2.403 255 0 0 255 
-0.230272 -0.307516 2.4 255 0 0 255 
-0.223994 -0.307914 2.403 255 0 0 255 
-0.217789 -0.308439 2.407 255 0 0 255 
-0.211211 -0.308452 2.407 255 0 0 255 
-0.204717 -0.308592 2.408 255 0 0 255 
-0.198463 -0.309116 2.412 255 0 0 255 
-0.192108 -0.309512 2.415 255 0 0 255 
-0.185735 -0.309908 2.418 255 0 0 255 
-0.179567 -0.310688 2.424 255 0 0 255 
-0.173937 -0.312493 2.438 255 0 0 255 
-0.16823 -0.314297 2.452 255 0 0 255 
-0.16205 -0.315333 2.46 255 0 0 255 
-0.156457 -0.31765 2.478 255 0 0 255 
-0.150463 -0.319325 2.491 255 0 0 255 
-0.071528 -0.302731 2.361 255 0 0 255 
-0.064761 -0.301325 2.35 255 0 0 255 
-0.058054 -0.299919 2.339 255 0 0 255 
-0.051407 -0.298511 2.328 255 0 0 255 
-0.044819 -0.297104 2.317 255 0 0 255 
-0.038359 -0.296209 2.31 255 0 0 255 
-0.031881 -0.2948 2.299 255 0 0 255 
-0.025463 -0.293392 2.288 255 0 0 255 
-0.019155 -0.292752 2.283 255 0 0 255 
-0.01292 -0.293137 2.286 255 0 0 255 
-0.006651 -0.292753 2.283 255 0 0 255 
-0.000399 -0.292497 2.281 255 0 0 255 
0.005834 -0.291856 2.276 255 0 0 255 
0.012078 -0.292112 2.278 255 0 0 255 
0.018388 -0.293265 2.287 255 0 0 255 
0.024845 -0.295572 2.305 255 0 0 255 
0.031279 -0.296724 2.314 255 0 0 255 
0.03781 -0.298261 2.326 255 0 0 255 
-0.246109 -0.31757 2.427 255 0 0 255 
-0.238295 -0.316014 2.415 255 0 0 255 
-0.231218 -0.315374 2.41 255 0 0 255 
-0.22454 -0.315256 2.409 255 0 0 255 
-0.218138 -0.315531 2.411 255 0 0 255 
-0.211286 -0.315151 2.408 255 0 0 255 
-0.20462 -0.315033 2.407 255 0 0 255 
-0.198123 -0.315176 2.408 255 0 0 255 
-0.192176 -0.316234 2.416 255 0 0 255 
-0.185878 -0.316769 2.42 255 0 0 255 
-0.179705 -0.317566 2.426 255 0 0 255 
-0.173713 -0.318754 2.435 255 0 0 255 
-0.167945 -0.320466 2.448 255 0 0 255 
-0.161447 -0.320869 2.451 255 0 0 255 
-0.15569 -0.322843 2.466 255 0 0 255 
-0.149729 -0.324554 2.479 255 0 0 255 
-0.071676 -0.309832 2.366 255 0 0 255 
-0.064895 -0.308396 2.355 255 0 0 255 
-0.05815 -0.306828 2.343 255 0 0 255 
-0.05158 -0.305915 2.336 255 0 0 255 
-0.045087 -0.305263 2.331 255 0 0 255 
-0.038622 -0.304611 2.326 255 0 0 255 
-0.032059 -0.30278 2.312 255 0 0 255 
-0.02555 -0.300686 2.296 255 0 0 255 
-0.019171 -0.299247 2.285 255 0 0 255 
-0.012908 -0.299117 2.284 255 0 0 255 
-0.006657 -0.299249 2.285 255 0 0 255 
-0.000399 -0.298987 2.283 255 0 0 255 
0.005847 -0.298725 2.281 255 0 0 255 
0.012072 -0.298201 2.277 255 0 0 255 
0.018379 -0.299378 2.286 255 0 0 255 
0.024822 -0.301603 2.303 255 0 0 255 
0.031304 -0.303304 2.316 255 0 0 255 
0.037922 -0.305528 2.333 255 0 0 255 
-0.254701 -0.326715 2.446 255 0 0 255 
-0.24579 -0.323791 2.424 255 0 0 255 
-0.238479 -0.32287 2.417 255 0 0 255 
-0.231684 -0.322617 2.415 255 0 0 255 
-0.224434 -0.321695 2.408 255 0 0 255 
