ply
format ascii 1.0
comment VCGLIB generated
element vertex 1249
property float x
property float y
property float z
property uchar red
property uchar green
property uchar blue
property uchar alpha
element face 0
property list uchar int vertex_indices
end_header
-0.01909 0.473194 2.28813 255 255 0 255 
-1.9e-05 0.473041 2.28925 255 255 0 255 
0.008742 0.471791 2.28296 255 255 0 255 
0.022626 0.471107 2.28047 255 255 0 255 
0.02794 0.469496 2.27172 255 255 0 255 
0.029835 0.467512 2.26046 255 255 0 255 
0.02491 0.464769 2.2441 255 255 0 255 
0.027672 0.462874 2.23344 255 255 0 255 
0.038947 0.461934 2.22917 255 255 0 255 
0.056158 0.461675 2.22945 255 255 0 255 
0.070791 0.461142 2.22787 255 255 0 255 
0.082856 0.46033 2.22442 255 255 0 255 
0.101683 0.460307 2.22621 255 255 0 255 
0.146851 0.461196 2.23597 255 255 0 255 
0.157124 0.460241 2.23148 255 255 0 255 
0.157257 0.458105 2.21909 255 255 0 255 
-0.23169 0.394565 2.23348 0 255 0 255 
-0.23749 0.398177 2.24979 0 255 0 255 
-0.245923 0.402232 2.26794 0 255 0 255 
-0.251756 0.405822 2.28413 0 255 0 255 
-0.24274 0.406851 2.28963 0 255 0 255 
-0.231089 0.407441 2.29328 0 255 0 255 
-0.222051 0.408489 2.29885 0 255 0 255 
-0.209497 0.408951 2.30198 0 255 0 255 
-0.187276 0.407799 2.29838 0 255 0 255 
-0.164144 0.406524 2.29428 0 255 0 255 
-0.14625 0.406156 2.29396 0 255 0 255 
-0.136249 0.407123 2.29921 0 255 0 255 
-0.132397 0.40912 2.30873 0 255 0 255 
-0.122376 0.410102 2.31403 0 255 0 255 
-0.107935 0.410371 2.31637 0 255 0 255 
-0.099652 0.411663 2.32296 0 255 0 255 
-0.094894 0.413536 2.33196 0 255 0 255 
-0.299811 0.428807 2.238 255 0 0 255 
-0.292008 0.426336 2.225 255 0 0 255 
-0.285432 0.42559 2.221 255 0 0 255 
-0.279381 0.42561 2.221 255 0 0 255 
-0.273082 0.425247 2.219 255 0 0 255 
-0.266433 0.424308 2.214 255 0 0 255 
-0.259104 0.422218 2.203 255 0 0 255 
-0.252065 0.420512 2.194 255 0 0 255 
-0.245971 0.420338 2.193 255 0 0 255 
-0.240647 0.421506 2.199 255 0 0 255 
-0.235397 0.422865 2.206 255 0 0 255 
-0.229693 0.423458 2.209 255 0 0 255 
-0.223566 0.423283 2.208 255 0 0 255 
-0.216951 0.422149 2.202 255 0 0 255 
-0.210081 0.420439 2.193 255 0 0 255 
-0.203074 0.418346 2.182 255 0 0 255 
-0.195855 0.415677 2.168 255 0 0 255 
-0.188974 0.413582 2.157 255 0 0 255 
-0.182068 0.411295 2.145 255 0 0 255 
-0.175802 0.41035 2.14 255 0 0 255 
-0.169722 0.409788 2.137 255 0 0 255 
-0.16381 0.409609 2.136 255 0 0 255 
-0.157904 0.40943 2.135 255 0 0 255 
-0.151932 0.409058 2.133 255 0 0 255 
-0.146106 0.409069 2.133 255 0 0 255 
-0.140084 0.408505 2.13 255 0 0 255 
-0.134266 0.408516 2.13 255 0 0 255 
-0.128327 0.408142 2.128 255 0 0 255 
-0.122629 0.408536 2.13 255 0 0 255 
-0.1167 0.408161 2.128 255 0 0 255 
-0.110886 0.40817 2.128 255 0 0 255 
-0.105022 0.407987 2.127 255 0 0 255 
-0.099257 0.408187 2.128 255 0 0 255 
-0.093486 0.408386 2.129 255 0 0 255 
-0.087585 0.40801 2.127 255 0 0 255 
-0.081619 0.407249 2.123 255 0 0 255 
-0.075745 0.406872 2.121 255 0 0 255 
-0.069816 0.40611 2.117 255 0 0 255 
-0.063939 0.40554 2.114 255 0 0 255 
-0.058078 0.404969 2.111 255 0 0 255 
-0.052308 0.404974 2.111 255 0 0 255 
-0.046537 0.404978 2.111 255 0 0 255 
-0.040767 0.404981 2.111 255 0 0 255 
-0.034963 0.404601 2.109 255 0 0 255 
-0.029155 0.404028 2.106 255 0 0 255 
-0.023398 0.40403 2.106 255 0 0 255 
-0.017624 0.403648 2.104 255 0 0 255 
-0.011872 0.403649 2.104 255 0 0 255 
-0.006117 0.403458 2.103 255 0 0 255 
-0.000367 0.403458 2.103 255 0 0 255 
0.005377 0.403074 2.101 255 0 0 255 
0.011121 0.403073 2.101 255 0 0 255 
0.016857 0.40288 2.1 255 0 0 255 
0.022608 0.403071 2.101 255 0 0 255 
0.028366 0.40326 2.102 255 0 0 255 
0.034145 0.403642 2.104 255 0 0 255 
0.039972 0.404406 2.108 255 0 0 255 
0.045821 0.40517 2.112 255 0 0 255 
0.051692 0.405934 2.116 255 0 0 255 
0.057558 0.406505 2.119 255 0 0 255 
0.06344 0.407075 2.122 255 0 0 255 
0.069338 0.407646 2.125 255 0 0 255 
0.075252 0.408215 2.128 255 0 0 255 
0.081182 0.408785 2.131 255 0 0 255 
0.087088 0.409162 2.133 255 0 0 255 
0.09296 0.409346 2.134 255 0 0 255 
0.099116 0.410682 2.141 255 0 0 255 
0.105799 0.413934 2.158 255 0 0 255 
0.112731 0.417762 2.178 255 0 0 255 
0.119499 0.42063 2.193 255 0 0 255 
0.125147 0.41947 2.187 255 0 0 255 
0.131061 0.419268 2.186 255 0 0 255 
0.13697 0.419066 2.185 255 0 0 255 
0.142742 0.418479 2.182 255 0 0 255 
0.148292 0.417317 2.176 255 0 0 255 
0.153739 0.415963 2.169 255 0 0 255 
0.159441 0.415376 2.166 255 0 0 255 
0.165126 0.414788 2.163 255 0 0 255 
0.170953 0.414584 2.162 255 0 0 255 
0.176773 0.414379 2.161 255 0 0 255 
0.182926 0.41494 2.164 255 0 0 255 
0.189181 0.415693 2.168 255 0 0 255 
0.195548 0.416637 2.173 255 0 0 255 
0.201571 0.416814 2.174 255 0 0 255 
0.207598 0.41699 2.175 255 0 0 255 
0.213435 0.416783 2.174 255 0 0 255 
-0.114745 0.470076 2.32393 255 255 0 255 
-0.099799 0.469408 2.32147 255 255 0 255 
-0.091785 0.468017 2.31424 255 255 0 255 
-0.086366 0.466355 2.30521 255 255 0 255 
-0.082675 0.464509 2.29497 255 255 0 255 
-0.07468 0.46313 2.28779 255 255 0 255 
-0.062396 0.462224 2.28371 255 255 0 255 
-0.038965 0.462551 2.28771 255 255 0 255 
-0.016434 0.462806 2.2912 255 255 0 255 
0.003486 0.462795 2.29294 255 255 0 255 
0.013954 0.461752 2.2879 255 255 0 255 
0.024407 0.460718 2.2829 255 255 0 255 
0.022886 0.458342 2.26912 255 255 0 255 
0.02735 0.456639 2.25974 255 255 0 255 
0.029254 0.454646 2.24845 255 255 0 255 
0.032864 0.452847 2.23843 255 255 0 255 
0.033923 0.450754 2.22649 255 255 0 255 
0.040086 0.449251 2.21839 255 255 0 255 
0.057279 0.44904 2.21869 255 255 0 255 
0.075291 0.448943 2.21971 255 255 0 255 
0.101743 0.449861 2.22732 255 255 0 255 
0.127301 0.450704 2.23441 255 255 0 255 
0.152811 0.451572 2.24163 255 255 0 255 
0.161388 0.450437 2.23583 255 255 0 255 
-0.231171 0.384061 2.23428 0 255 0 255 
-0.252366 0.39302 2.27379 0 255 0 255 
-0.254705 0.396021 2.28745 0 255 0 255 
-0.24482 0.396879 2.29232 0 255 0 255 
-0.234924 0.397747 2.29722 0 255 0 255 
-0.231143 0.399686 2.30651 0 255 0 255 
-0.214221 0.399361 2.30654 0 255 0 255 
-0.161877 0.395616 2.29395 0 255 0 255 
-0.144867 0.395356 2.29426 0 255 0 255 
-0.133109 0.396007 2.2983 0 255 0 255 
-0.130133 0.398153 2.30845 0 255 0 255 
-0.122755 0.399561 2.31557 0 255 0 255 
-0.115369 0.400975 2.32273 0 255 0 255 
-0.101802 0.401368 2.32572 0 255 0 255 
-0.090866 0.402214 2.33055 0 255 0 255 
-0.300368 0.423481 2.242 255 0 0 255 
-0.291635 0.419724 2.222 255 0 0 255 
-0.285581 0.419744 2.222 255 0 0 255 
-0.279652 0.419953 2.223 255 0 0 255 
-0.273471 0.419783 2.222 255 0 0 255 
-0.266813 0.418858 2.217 255 0 0 255 
-0.259593 0.416987 2.207 255 0 0 255 
-0.252427 0.415116 2.197 255 0 0 255 
-0.246213 0.414756 2.195 255 0 0 255 
-0.240774 0.415719 2.2 255 0 0 255 
-0.235628 0.417248 2.208 255 0 0 255 
-0.230022 0.418021 2.212 255 0 0 255 
-0.224291 0.418605 2.215 255 0 0 255 
-0.218248 0.418621 2.215 255 0 0 255 
-0.211917 0.41807 2.212 255 0 0 255 
-0.204578 0.415439 2.198 255 0 0 255 
-0.196682 0.411485 2.177 255 0 0 255 
-0.189426 0.408664 2.162 255 0 0 255 
-0.182591 0.406599 2.151 255 0 0 255 
-0.176308 0.405667 2.146 255 0 0 255 
-0.170052 0.404735 2.141 255 0 0 255 
-0.163976 0.404181 2.138 255 0 0 255 
-0.15799 0.403815 2.136 255 0 0 255 
-0.152014 0.403449 2.134 255 0 0 255 
-0.146186 0.40346 2.134 255 0 0 255 
-0.14016 0.402904 2.131 255 0 0 255 
-0.134402 0.403104 2.132 255 0 0 255 
-0.128458 0.402736 2.13 255 0 0 255 
-0.122696 0.402934 2.131 255 0 0 255 
-0.116819 0.402755 2.13 255 0 0 255 
-0.110999 0.402764 2.13 255 0 0 255 
-0.105179 0.402772 2.13 255 0 0 255 
-0.099358 0.40278 2.13 255 0 0 255 
-0.093581 0.402977 2.131 255 0 0 255 
-0.087634 0.402416 2.128 255 0 0 255 
-0.081702 0.401856 2.125 255 0 0 255 
-0.075822 0.401484 2.123 255 0 0 255 
-0.069921 0.400922 2.12 255 0 0 255 
-0.064005 0.400171 2.116 255 0 0 255 
-0.058055 0.399041 2.11 255 0 0 255 
-0.052262 0.398856 2.109 255 0 0 255 
-0.046519 0.399049 2.11 255 0 0 255 
-0.04077 0.399242 2.111 255 0 0 255 
-0.034965 0.398867 2.109 255 0 0 255 
-0.029185 0.39868 2.108 255 0 0 255 
-0.023422 0.398682 2.108 255 0 0 255 
-0.01765 0.398495 2.107 255 0 0 255 
-0.01189 0.398496 2.107 255 0 0 255 
-0.006123 0.398118 2.105 255 0 0 255 
-0.000368 0.398119 2.105 255 0 0 255 
0.00538 0.397551 2.102 255 0 0 255 
0.011116 0.397172 2.1 255 0 0 255 
0.016858 0.397171 2.1 255 0 0 255 
0.02261 0.397358 2.101 255 0 0 255 
0.028381 0.397735 2.103 255 0 0 255 
0.03418 0.3983 2.106 255 0 0 255 
0.040013 0.399053 2.11 255 0 0 255 
0.04589 0.399995 2.115 255 0 0 255 
0.051745 0.400559 2.118 255 0 0 255 
0.057617 0.401122 2.121 255 0 0 255 
0.063534 0.401874 2.125 255 0 0 255 
0.069441 0.402436 2.128 255 0 0 255 
0.075328 0.402808 2.13 255 0 0 255 
0.081188 0.402991 2.131 255 0 0 255 
0.087094 0.403363 2.133 255 0 0 255 
0.093011 0.403734 2.135 255 0 0 255 
0.09917 0.40505 2.142 255 0 0 255 
0.106004 0.408824 2.162 255 0 0 255 
0.113154 0.413354 2.186 255 0 0 255 
0.120108 0.416748 2.204 255 0 0 255 
0.125786 0.415604 2.198 255 0 0 255 
0.131731 0.415405 2.197 255 0 0 255 
0.137482 0.414638 2.193 255 0 0 255 
0.143145 0.413682 2.188 255 0 0 255 
0.14844 0.41178 2.178 255 0 0 255 
0.153963 0.410634 2.172 255 0 0 255 
0.1596 0.409866 2.168 255 0 0 255 
0.165368 0.409476 2.166 255 0 0 255 
0.171203 0.409274 2.165 255 0 0 255 
0.177032 0.409072 2.164 255 0 0 255 
0.183193 0.409625 2.167 255 0 0 255 
0.189283 0.409989 2.169 255 0 0 255 
0.195563 0.410731 2.173 255 0 0 255 
0.201679 0.411094 2.175 255 0 0 255 
0.207805 0.411457 2.177 255 0 0 255 
0.213843 0.41163 2.178 255 0 0 255 
-0.11291 0.459386 2.32643 255 255 0 255 
-0.096242 0.45894 2.32516 255 255 0 255 
-0.087368 0.457658 2.31854 255 255 0 255 
-0.082816 0.455907 2.30891 255 255 0 255 
-0.078265 0.454157 2.29928 255 255 0 255 
-0.069416 0.452889 2.29272 255 255 0 255 
-0.053703 0.452396 2.29111 255 255 0 255 
-0.029431 0.452883 2.29573 255 255 0 255 
-0.008633 0.453005 2.29799 255 255 0 255 
0.008701 0.452754 2.29787 255 255 0 255 
0.014884 0.451244 2.28971 255 255 0 255 
0.02277 0.449934 2.28282 255 255 0 255 
0.019547 0.447343 2.26778 255 255 0 255 
0.027427 0.446037 2.26091 255 255 0 255 
0.031038 0.444238 2.25089 255 255 0 255 
0.0355 0.442539 2.24151 255 255 0 255 
0.034008 0.440137 2.22765 255 255 0 255 
0.036773 0.438236 2.21698 255 255 0 255 
0.049723 0.437555 2.21403 255 255 0 255 
0.117892 0.441353 2.24077 255 255 0 255 
0.151033 0.443199 2.25375 255 255 0 255 
0.164681 0.442697 2.25186 255 255 0 255 
0.170712 0.441271 2.24411 255 255 0 255 
-0.239357 0.375114 2.24144 0 255 0 255 
-0.248634 0.379403 2.26025 0 255 0 255 
-0.250086 0.382271 2.27332 0 255 0 255 
-0.248928 0.384667 2.28448 0 255 0 255 
-0.245154 0.386597 2.29375 0 255 0 255 
-0.241379 0.388528 2.30303 0 255 0 255 
-0.235853 0.390153 2.31106 0 255 0 255 
-0.22507 0.39086 2.31541 0 255 0 255 
-0.202882 0.389589 2.31181 0 255 0 255 
-0.171892 0.386817 2.30219 0 255 0 255 
-0.147877 0.385295 2.29762 0 255 0 255 
-0.132611 0.385315 2.29923 0 255 0 255 
-0.130512 0.387613 2.30999 0 255 0 255 
-0.124895 0.38931 2.31833 0 255 0 255 
-0.115752 0.390412 2.32428 0 255 0 255 
-0.105716 0.391373 2.32967 0 255 0 255 
-0.092139 0.391748 2.33273 0 255 0 255 
-0.082077 0.392729 2.33821 0 255 0 255 
0.201396 0.376692 2.2923 0 255 0 255 
-0.300254 0.417202 2.241 255 0 0 255 
-0.290999 0.412754 2.217 255 0 0 255 
-0.285087 0.41296 2.218 255 0 0 255 
-0.27942 0.413538 2.221 255 0 0 255 
-0.27349 0.413744 2.222 255 0 0 255 
-0.267073 0.413205 2.219 255 0 0 255 
-0.260082 0.411734 2.211 255 0 0 255 
-0.25279 0.409703 2.2 255 0 0 255 
-0.246455 0.409163 2.197 255 0 0 255 
-0.241011 0.410111 2.202 255 0 0 255 
-0.235859 0.411619 2.21 255 0 0 255 
-0.230246 0.41238 2.214 255 0 0 255 
-0.22451 0.412956 2.217 255 0 0 255 
-0.218856 0.413717 2.221 255 0 0 255 
-0.213083 0.414292 2.224 255 0 0 255 
-0.20599 0.412258 2.213 255 0 0 255 
-0.197691 0.407616 2.188 255 0 0 255 
-0.189966 0.403904 2.168 255 0 0 255 
-0.183199 0.402055 2.158 255 0 0 255 
-0.17665 0.400578 2.15 255 0 0 255 
-0.170383 0.39966 2.145 255 0 0 255 
-0.164065 0.398554 2.139 255 0 0 255 
-0.15815 0.39838 2.138 255 0 0 255 
-0.152097 0.397833 2.135 255 0 0 255 
-0.146129 0.397472 2.133 255 0 0 255 
-0.140237 0.397296 2.132 255 0 0 255 
-0.134476 0.397493 2.133 255 0 0 255 
-0.128648 0.397503 2.133 255 0 0 255 
-0.122821 0.397513 2.133 255 0 0 255 
-0.116993 0.397522 2.133 255 0 0 255 
-0.111112 0.397345 2.132 255 0 0 255 
-0.105335 0.397539 2.133 255 0 0 255 
-0.099459 0.397361 2.132 255 0 0 255 
-0.093632 0.397368 2.132 255 0 0 255 
-0.087682 0.396816 2.129 255 0 0 255 
-0.081747 0.396264 2.126 255 0 0 255 
-0.0759 0.396084 2.125 255 0 0 255 
-0.070025 0.395716 2.123 255 0 0 255 
-0.064131 0.395163 2.12 255 0 0 255 
-0.05817 0.394049 2.114 255 0 0 255 
-0.052266 0.393121 2.109 255 0 0 255 
-0.046456 0.392752 2.107 255 0 0 255 
-0.040696 0.392756 2.107 255 0 0 255 
-0.034951 0.392945 2.108 255 0 0 255 
-0.029188 0.392948 2.108 255 0 0 255 
-0.023424 0.39295 2.108 255 0 0 255 
-0.017652 0.392765 2.107 255 0 0 255 
-0.011891 0.392766 2.107 255 0 0 255 
-0.006124 0.392394 2.105 255 0 0 255 
-0.000367 0.391835 2.102 255 0 0 255 
0.005375 0.391462 2.1 255 0 0 255 
0.011112 0.391275 2.099 255 0 0 255 
0.016867 0.391647 2.101 255 0 0 255 
0.022623 0.391831 2.102 255 0 0 255 
0.028411 0.392389 2.105 255 0 0 255 
0.034215 0.392945 2.108 255 0 0 255 
0.040073 0.393875 2.113 255 0 0 255 
0.045937 0.394617 2.117 255 0 0 255 
0.051798 0.395172 2.12 255 0 0 255 
0.057703 0.395914 2.124 255 0 0 255 
0.063629 0.396654 2.128 255 0 0 255 
0.069544 0.397208 2.131 255 0 0 255 
0.07544 0.397575 2.133 255 0 0 255 
0.081271 0.397569 2.133 255 0 0 255 
0.087224 0.398122 2.136 255 0 0 255 
0.093236 0.39886 2.14 255 0 0 255 
0.099502 0.40053 2.149 255 0 0 255 
0.106453 0.404623 2.171 255 0 0 255 
0.113732 0.40946 2.197 255 0 0 255 
0.120662 0.412619 2.214 255 0 0 255 
0.126311 0.411305 2.207 255 0 0 255 
0.132221 0.410922 2.205 255 0 0 255 
0.13812 0.410539 2.203 255 0 0 255 
0.14368 0.409224 2.196 255 0 0 255 
0.148929 0.407163 2.185 255 0 0 255 
0.154259 0.405474 2.176 255 0 0 255 
0.159686 0.404158 2.169 255 0 0 255 
0.165304 0.403401 2.165 255 0 0 255 
0.171058 0.403015 2.163 255 0 0 255 
0.177127 0.403375 2.165 255 0 0 255 
0.183207 0.403734 2.167 255 0 0 255 
0.189472 0.404465 2.171 255 0 0 255 
0.195668 0.40501 2.174 255 0 0 255 
0.201787 0.405368 2.176 255 0 0 255 
0.207629 0.405166 2.175 255 0 0 255 
0.213466 0.404964 2.174 255 0 0 255 
-0.112803 0.448503 2.32773 255 255 0 255 
-0.099594 0.447709 2.32405 255 255 0 255 
-0.088993 0.446633 2.31861 255 255 0 255 
-0.084437 0.444884 2.30897 255 255 0 255 
-0.077302 0.443429 2.30116 255 255 0 255 
-0.065874 0.442471 2.29643 255 255 0 255 
-0.046735 0.442411 2.29726 255 255 0 255 
-0.024196 0.442765 2.30065 255 255 0 255 
-0.005124 0.442741 2.30168 255 255 0 255 
0.010489 0.442333 2.30031 255 255 0 255 
0.017525 0.440931 2.29278 255 255 0 255 
0.022845 0.439331 2.28401 255 255 0 255 
0.021334 0.436921 2.27022 255 255 0 255 
0.026654 0.435323 2.26145 255 255 0 255 
0.032822 0.43383 2.25333 255 255 0 255 
0.039835 0.432442 2.24586 255 255 0 255 
0.040893 0.430336 2.23393 255 255 0 255 
0.03856 0.427812 2.21942 255 255 0 255 
0.049807 0.426951 2.21518 255 255 0 255 
0.08391 0.428926 2.22843 255 255 0 255 
0.13318 0.432828 2.25354 255 255 0 255 
0.159528 0.433927 2.26134 255 255 0 255 
0.168941 0.43293 2.25619 255 255 0 255 
0.160629 0.429702 2.2373 255 255 0 255 
-0.238839 0.364605 2.24224 0 255 0 255 
-0.254199 0.370047 2.26548 0 255 0 255 
-0.248682 0.371655 2.2735 0 255 0 255 
-0.247521 0.374059 2.28466 0 255 0 255 
-0.24549 0.376304 2.29519 0 255 0 255 
-0.245207 0.378863 2.30696 0 255 0 255 
-0.237062 0.380009 2.31313 0 255 0 255 
-0.224534 0.380382 2.31625 0 255 0 255 
-0.206735 0.379833 2.31574 0 255 0 255 
-0.131239 0.374453 2.29956 0 255 0 255 
-0.127379 0.376449 2.30911 0 255 0 255 
-0.119122 0.377683 2.31566 0 255 0 255 
-0.113496 0.379381 2.32404 0 255 0 255 
-0.106103 0.380779 2.33124 0 255 0 255 
-0.097822 0.382032 2.33787 0 255 0 255 
-0.084237 0.382388 2.34098 0 255 0 255 
0.189638 0.364315 2.28828 0 255 0 255 
0.212443 0.363456 2.28681 0 255 0 255 
-0.291807 0.407828 2.223 255 0 0 255 
-0.285621 0.407665 2.222 255 0 0 255 
-0.279566 0.407684 2.222 255 0 0 255 
-0.273509 0.407704 2.222 255 0 0 255 
-0.267212 0.407356 2.22 255 0 0 255 
-0.260807 0.406824 2.217 255 0 0 255 
-0.253728 0.405191 2.208 255 0 0 255 
-0.247258 0.404474 2.204 255 0 0 255 
-0.241356 0.404675 2.205 255 0 0 255 
-0.236089 0.405977 2.212 255 0 0 255 
-0.230575 0.406912 2.217 255 0 0 255 
-0.224932 0.407662 2.221 255 0 0 255 
-0.219561 0.408963 2.228 255 0 0 255 
-0.214152 0.410264 2.235 255 0 0 255 
-0.207308 0.408811 2.227 255 0 0 255 
-0.19888 0.404053 2.201 255 0 0 255 
-0.190681 0.399478 2.176 255 0 0 255 
-0.183552 0.396922 2.162 255 0 0 255 
-0.176746 0.394916 2.151 255 0 0 255 
-0.170475 0.394011 2.146 255 0 0 255 
-0.164154 0.392921 2.14 255 0 0 255 
-0.158162 0.392566 2.138 255 0 0 255 
-0.152038 0.391844 2.134 255 0 0 255 
-0.146209 0.391855 2.134 255 0 0 255 
-0.140379 0.391866 2.134 255 0 0 255 
-0.134612 0.39206 2.135 255 0 0 255 
-0.128779 0.39207 2.135 255 0 0 255 
-0.12306 0.392447 2.137 255 0 0 255 
-0.117166 0.392272 2.136 255 0 0 255 
-0.111277 0.392097 2.135 255 0 0 255 
-0.105343 0.391738 2.133 255 0 0 255 
-0.099514 0.391746 2.133 255 0 0 255 
-0.09364 0.39157 2.132 255 0 0 255 
-0.08773 0.39121 2.13 255 0 0 255 
-0.081753 0.390482 2.126 255 0 0 255 
-0.07587 0.39012 2.124 255 0 0 255 
-0.069997 0.389759 2.122 255 0 0 255 
-0.064075 0.389029 2.118 255 0 0 255 
-0.058119 0.387932 2.112 255 0 0 255 
-0.052196 0.386834 2.106 255 0 0 255 
-0.04646 0.387022 2.107 255 0 0 255 
-0.040718 0.387209 2.108 255 0 0 255 
-0.034987 0.387579 2.11 255 0 0 255 
-0.029218 0.387582 2.11 255 0 0 255 
-0.023448 0.387584 2.11 255 0 0 255 
-0.01767 0.387402 2.109 255 0 0 255 
-0.011897 0.387219 2.108 255 0 0 255 
-0.006124 0.386669 2.105 255 0 0 255 
-0.000368 0.386485 2.104 255 0 0 255 
0.005381 0.386118 2.102 255 0 0 255 
0.011123 0.385933 2.101 255 0 0 255 
0.016869 0.385932 2.101 255 0 0 255 
0.022635 0.386298 2.103 255 0 0 255 
0.02844 0.387031 2.107 255 0 0 255 
0.034299 0.38813 2.113 255 0 0 255 
0.040152 0.388862 2.117 255 0 0 255 
0.046028 0.389594 2.121 255 0 0 255 
0.051876 0.389957 2.123 255 0 0 255 
0.057789 0.390688 2.127 255 0 0 255 
0.063694 0.391234 2.13 255 0 0 255 
0.069615 0.39178 2.133 255 0 0 255 
0.075552 0.392325 2.136 255 0 0 255 
0.081506 0.39287 2.139 255 0 0 255 
0.087557 0.393782 2.144 255 0 0 255 
0.093635 0.394693 2.149 255 0 0 255 
0.099972 0.396522 2.159 255 0 0 255 
0.106952 0.400555 2.181 255 0 0 255 
0.114414 0.405872 2.21 255 0 0 255 
0.121325 0.408802 2.226 255 0 0 255 
0.127122 0.407874 2.221 255 0 0 255 
0.132951 0.407129 2.217 255 0 0 255 
0.138757 0.406385 2.213 255 0 0 255 
0.144083 0.404354 2.202 255 0 0 255 
0.149213 0.401956 2.189 255 0 0 255 
0.154483 0.400108 2.179 255 0 0 255 
0.159919 0.398811 2.172 255 0 0 255 
0.165316 0.397513 2.165 255 0 0 255 
0.17115 0.397317 2.164 255 0 0 255 
0.177304 0.397855 2.167 255 0 0 255 
0.18339 0.398209 2.169 255 0 0 255 
0.189486 0.398562 2.171 255 0 0 255 
0.195682 0.399098 2.174 255 0 0 255 
0.201894 0.399635 2.177 255 0 0 255 
0.207931 0.399803 2.178 255 0 0 255 
0.213875 0.399788 2.178 255 0 0 255 
0.220019 0.400139 2.18 255 0 0 255 
-0.123325 0.43868 2.33457 255 255 0 255 
-0.113557 0.43751 2.32843 255 255 0 255 
-0.10294 0.436445 2.32294 255 255 0 255 
-0.094061 0.435189 2.31627 255 255 0 255 
-0.078057 0.432493 2.30182 255 255 0 255 
-0.059757 0.432365 2.30196 255 255 0 255 
-0.037196 0.432761 2.30525 255 255 0 255 
-0.013818 0.433279 2.30926 255 255 0 255 
-0.000761 0.432589 2.30598 255 255 0 255 
0.008854 0.431499 2.30027 255 255 0 255 
0.011618 0.42959 2.28961 255 255 0 255 
0.023776 0.428821 2.28582 255 255 0 255 
0.028239 0.427124 2.27643 255 255 0 255 
0.026736 0.424697 2.26263 255 255 0 255 
0.027798 0.42258 2.25071 255 255 0 255 
0.032265 0.420883 2.2413 255 255 0 255 
0.036731 0.419188 2.2319 255 255 0 255 
0.036952 0.416962 2.21931 255 255 0 255 
0.053285 0.416764 2.21891 255 255 0 255 
0.096682 0.420015 2.23925 255 255 0 255 
0.137458 0.422985 2.25787 255 255 0 255 
0.166326 0.42448 2.26761 255 255 0 255 
0.168979 0.422635 2.25725 255 255 0 255 
0.169105 0.420461 2.24492 255 255 0 255 
-0.235964 0.358921 2.2655 0 255 0 255 
-0.238275 0.361983 2.27921 0 255 0 255 
-0.238851 0.364718 2.29164 0 255 0 255 
-0.242924 0.368089 2.30654 0 255 0 255 
-0.233905 0.369064 2.31211 0 255 0 255 
-0.224876 0.370046 2.31771 0 255 0 255 
-0.200959 0.368348 2.31293 0 255 0 255 
-0.12987 0.36357 2.29989 0 255 0 255 
-0.125131 0.36541 2.30885 0 255 0 255 
-0.119509 0.367097 2.31722 0 255 0 255 
-0.111245 0.368324 2.32381 0 255 0 255 
-0.103852 0.369712 2.33102 0 255 0 255 
-0.099095 0.371568 2.34004 0 255 0 255 
-0.089044 0.372507 2.34552 0 255 0 255 
0.2119 0.352058 2.28865 0 255 0 255 
-0.305119 0.411524 2.277 255 0 0 255 
-0.292614 0.402869 2.229 255 0 0 255 
-0.286026 0.402166 2.225 255 0 0 255 
-0.279837 0.402005 2.224 255 0 0 255 
-0.273652 0.401843 2.223 255 0 0 255 
-0.267471 0.401681 2.222 255 0 0 255 
-0.261296 0.401519 2.221 255 0 0 255 
-0.254435 0.400272 2.214 255 0 0 255 
-0.247724 0.399205 2.208 255 0 0 255 
-0.241593 0.399041 2.207 255 0 0 255 
-0.236106 0.399962 2.212 255 0 0 255 
-0.2308 0.401245 2.219 255 0 0 255 
-0.225151 0.401984 2.223 255 0 0 255 
-0.219972 0.403628 2.232 255 0 0 255 
-0.21436 0.404548 2.237 255 0 0 255 
-0.207602 0.403297 2.23 255 0 0 255 
-0.199166 0.39861 2.204 255 0 0 255 
-0.191134 0.394464 2.181 255 0 0 255 
-0.183905 0.391765 2.166 255 0 0 255 
-0.177087 0.389789 2.155 255 0 0 255 
-0.170726 0.388717 2.149 255 0 0 255 
-0.164397 0.387644 2.143 255 0 0 255 
-0.158396 0.387294 2.141 255 0 0 255 
-0.152334 0.386763 2.138 255 0 0 255 
-0.146425 0.386593 2.137 255 0 0 255 
-0.14039 0.386061 2.134 255 0 0 255 
-0.134622 0.386253 2.135 255 0 0 255 
-0.128849 0.386443 2.136 255 0 0 255 
-0.123127 0.386815 2.138 255 0 0 255 
-0.11723 0.386643 2.137 255 0 0 255 
-0.111337 0.386471 2.136 255 0 0 255 
-0.105401 0.386117 2.134 255 0 0 255 
-0.099614 0.386306 2.135 255 0 0 255 
-0.093735 0.386132 2.134 255 0 0 255 
-0.087819 0.385777 2.132 255 0 0 255 
-0.081837 0.38506 2.128 255 0 0 255 
-0.075947 0.384704 2.126 255 0 0 255 
-0.070069 0.384348 2.124 255 0 0 255 
-0.06411 0.383448 2.119 255 0 0 255 
-0.058206 0.382729 2.115 255 0 0 255 
-0.05225 0.381467 2.108 255 0 0 255 
-0.046486 0.381471 2.108 255 0 0 255 
-0.040702 0.381293 2.107 255 0 0 255 
-0.03499 0.381839 2.11 255 0 0 255 
-0.029206 0.38166 2.109 255 0 0 255 
-0.023439 0.381663 2.109 255 0 0 255 
-0.017663 0.381483 2.108 255 0 0 255 
-0.011898 0.381484 2.108 255 0 0 255 
-0.006127 0.381123 2.106 255 0 0 255 
-0.000368 0.381123 2.106 255 0 0 255 
0.005391 0.381123 2.106 255 0 0 255 
0.011145 0.380941 2.105 255 0 0 255 
0.016894 0.380759 2.104 255 0 0 255 
0.022669 0.38112 2.106 255 0 0 255 
0.02851 0.382204 2.112 255 0 0 255 
0.03435 0.382925 2.116 255 0 0 255 
0.040231 0.383827 2.121 255 0 0 255 
0.046096 0.384367 2.124 255 0 0 255 
0.052002 0.385087 2.128 255 0 0 255 
0.057956 0.385987 2.133 255 0 0 255 
0.063818 0.386163 2.134 255 0 0 255 
0.069784 0.386882 2.138 255 0 0 255 
0.0757 0.387238 2.14 255 0 0 255 
0.081741 0.388137 2.145 255 0 0 255 
0.087891 0.389397 2.152 255 0 0 255 
0.094078 0.390657 2.159 255 0 0 255 
0.100628 0.393183 2.173 255 0 0 255 
0.107647 0.397155 2.195 255 0 0 255 
0.114889 0.401489 2.219 255 0 0 255 
0.121716 0.404013 2.233 255 0 0 255 
0.127761 0.403823 2.232 255 0 0 255 
0.13386 0.403813 2.232 255 0 0 255 
0.139708 0.403079 2.228 255 0 0 255 
0.144618 0.399812 2.21 255 0 0 255 
0.149633 0.397087 2.195 255 0 0 255 
0.154707 0.394724 2.182 255 0 0 255 
0.160078 0.393265 2.174 255 0 0 255 
0.165482 0.391987 2.167 255 0 0 255 
0.171321 0.391793 2.166 255 0 0 255 
0.177399 0.392142 2.168 255 0 0 255 
0.183488 0.392491 2.17 255 0 0 255 
0.189412 0.392477 2.17 255 0 0 255 
0.195516 0.392824 2.172 255 0 0 255 
0.201723 0.393352 2.175 255 0 0 255 
0.208042 0.394061 2.179 255 0 0 255 
0.214185 0.394407 2.181 255 0 0 255 
0.22054 0.395115 2.185 255 0 0 255 
-0.10913 0.427108 2.33273 255 255 0 255 
-0.103693 0.425455 2.32363 255 255 0 255 
-0.098261 0.423804 2.31455 255 255 0 255 
-0.092832 0.422156 2.30548 255 255 0 255 
-0.07709 0.421748 2.3037 255 255 0 255 
-0.051926 0.422493 2.30871 255 255 0 255 
-0.028524 0.423053 2.31261 255 255 0 255 
-0.008592 0.423216 2.31418 255 255 0 255 
0.002745 0.422348 2.30966 255 255 0 255 
0.010644 0.421066 2.30271 255 255 0 255 
0.015971 0.419472 2.29392 255 255 0 255 
0.027268 0.418624 2.28951 255 255 0 255 
0.033434 0.417145 2.28138 255 255 0 255 
0.030227 0.414489 2.26634 255 255 0 255 
0.027033 0.411827 2.25125 255 255 0 255 
0.025554 0.409374 2.2374 255 255 0 255 
0.100981 0.410071 2.24359 255 255 0 255 
0.140889 0.413047 2.26155 255 255 0 255 
0.174923 0.413108 2.26288 255 255 0 255 
0.180944 0.411708 2.25515 255 255 0 255 
-0.222076 0.348532 2.26878 0 255 0 255 
-0.232222 0.353081 2.28811 0 255 0 255 
-0.237157 0.35664 2.30364 0 255 0 255 
-0.229008 0.357764 2.30986 0 255 0 255 
-0.215607 0.357926 2.31241 0 255 0 255 
-0.189944 0.355852 2.30645 0 255 0 255 
-0.164242 0.353806 2.30061 0 255 0 255 
-0.14113 0.352269 2.29673 0 255 0 255 
-0.12763 0.352507 2.29962 0 255 0 255 
-0.123766 0.354503 2.3092 0 255 0 255 
-0.120778 0.356659 2.31938 0 255 0 255 
-0.116032 0.358501 2.32836 0 255 0 255 
-0.106005 0.359404 2.33379 0 255 0 255 
-0.10213 0.361411 2.34339 0 255 0 255 
-0.088559 0.361705 2.34652 0 255 0 255 
0.201571 0.342299 2.29667 0 255 0 255 
-0.300986 0.399814 2.246 255 0 0 255 
-0.293159 0.39752 2.233 255 0 0 255 
-0.286432 0.39665 2.228 255 0 0 255 
-0.280108 0.396313 2.226 255 0 0 255 
-0.273794 0.395976 2.224 255 0 0 255 
-0.26761 0.395817 2.223 255 0 0 255 
-0.261549 0.395835 2.223 255 0 0 255 
-0.254913 0.394963 2.218 255 0 0 255 
-0.248078 0.393734 2.211 255 0 0 255 
-0.241938 0.393573 2.21 255 0 0 255 
-0.236336 0.394302 2.214 255 0 0 255 
-0.231024 0.395566 2.221 255 0 0 255 
-0.225471 0.396472 2.226 255 0 0 255 
-0.220283 0.398091 2.235 255 0 0 255 
-0.214375 0.398463 2.237 255 0 0 255 
-0.207431 0.396875 2.228 255 0 0 255 
-0.19918 0.392615 2.204 255 0 0 255 
-0.191498 0.389244 2.185 255 0 0 255 
-0.184598 0.387299 2.174 255 0 0 255 
-0.177758 0.385352 2.163 255 0 0 255 
-0.171136 0.383762 2.154 255 0 0 255 
-0.164869 0.382883 2.149 255 0 0 255 
-0.158778 0.382361 2.146 255 0 0 255 
-0.15263 0.381659 2.142 255 0 0 255 
-0.146642 0.381314 2.14 255 0 0 255 
-0.140663 0.380969 2.138 255 0 0 255 
-0.134822 0.380979 2.138 255 0 0 255 
-0.128919 0.38081 2.137 255 0 0 255 
-0.123137 0.380998 2.138 255 0 0 255 
-0.117184 0.380651 2.136 255 0 0 255 
-0.111294 0.380481 2.135 255 0 0 255 
-0.105409 0.380311 2.134 255 0 0 255 
-0.099669 0.380675 2.136 255 0 0 255 
-0.093874 0.380861 2.137 255 0 0 255 
-0.088031 0.380868 2.137 255 0 0 255 
-0.081997 0.379983 2.132 255 0 0 255 
-0.075989 0.379098 2.127 255 0 0 255 
-0.070074 0.378569 2.124 255 0 0 255 
-0.064146 0.377861 2.12 255 0 0 255 
-0.058238 0.377153 2.116 255 0 0 255 
-0.052353 0.376444 2.112 255 0 0 255 
-0.046577 0.376448 2.112 255 0 0 255 
-0.040782 0.376273 2.111 255 0 0 255 
-0.035009 0.376276 2.111 255 0 0 255 
-0.029208 0.375922 2.109 255 0 0 255 
-0.023463 0.37628 2.111 255 0 0 255 
-0.017689 0.376282 2.111 255 0 0 255 
-0.011922 0.376461 2.112 255 0 0 255 
-0.006137 0.375927 2.109 255 0 0 255 
-0.000369 0.376106 2.11 255 0 0 255 
0.005399 0.375927 2.109 255 0 0 255 
0.011167 0.375927 2.109 255 0 0 255 
0.016927 0.375747 2.108 255 0 0 255 
0.022725 0.376281 2.111 255 0 0 255 
0.028552 0.376992 2.115 255 0 0 255 
0.034418 0.377881 2.12 255 0 0 255 
0.040291 0.378591 2.124 255 0 0 255 
0.046165 0.379122 2.127 255 0 0 255 
0.052104 0.38001 2.132 255 0 0 255 
0.058042 0.380718 2.136 255 0 0 255 
0.063973 0.381248 2.139 255 0 0 255 
0.06992 0.381778 2.142 255 0 0 255 
0.075847 0.382129 2.144 255 0 0 255 
0.0819 0.383014 2.149 255 0 0 255 
0.088102 0.384433 2.157 255 0 0 255 
0.094391 0.38603 2.166 255 0 0 255 
0.100868 0.388162 2.178 255 0 0 255 
0.1079 0.392074 2.2 255 0 0 255 
0.115053 0.395987 2.222 255 0 0 255 
0.121943 0.398651 2.237 255 0 0 255 
0.128172 0.398998 2.239 255 0 0 255 
0.13471 0.400235 2.246 255 0 0 255 
0.140722 0.399869 2.244 255 0 0 255 
0.145283 0.395581 2.22 255 0 0 255 
0.150053 0.392185 2.201 255 0 0 255 
0.154932 0.389323 2.185 255 0 0 255 
0.160311 0.387885 2.177 255 0 0 255 
0.165876 0.386983 2.172 255 0 0 255 
0.171571 0.386436 2.169 255 0 0 255 
0.177658 0.386779 2.171 255 0 0 255 
0.183501 0.386588 2.17 255 0 0 255 
0.189514 0.386752 2.171 255 0 0 255 
0.195531 0.386916 2.172 255 0 0 255 
0.201924 0.387793 2.177 255 0 0 255 
0.208343 0.388668 2.182 255 0 0 255 
0.214593 0.389188 2.185 255 0 0 255 
0.220858 0.389706 2.188 255 0 0 255 
-0.109019 0.416202 2.33403 255 255 0 255 
-0.105306 0.414344 2.32373 255 255 0 255 
-0.099871 0.412697 2.31464 255 255 0 255 
-0.086697 0.412 2.311 255 255 0 255 
-0.069248 0.411842 2.31044 255 255 0 255 
-0.044102 0.412656 2.31545 255 255 0 255 
-0.023289 0.412959 2.31752 255 255 0 255 
-0.007652 0.412639 2.31601 255 255 0 255 
-0.001453 0.411147 2.30779 255 255 0 255 
0.00816 0.410092 2.30205 255 255 0 255 
0.015198 0.408718 2.29449 255 255 0 255 
0.027347 0.408001 2.29069 255 255 0 255 
0.034365 0.406638 2.28319 255 255 0 255 
0.03031 0.403851 2.26752 255 255 0 255 
0.029673 0.401498 2.25433 255 255 0 255 
0.020551 0.398034 2.23477 255 255 0 255 
0.058541 0.396195 2.22507 255 255 0 255 
0.112043 0.401042 2.25309 255 255 0 255 
0.146852 0.403458 2.26717 255 255 0 255 
0.174843 0.404999 2.27624 255 255 0 255 
0.185921 0.40429 2.27242 255 255 0 255 
0.185193 0.401988 2.25948 255 255 0 255 
-0.22212 0.34073 2.2821 0 255 0 255 
-0.23227 0.34531 2.30138 0 255 0 255 
-0.22761 0.34708 2.31009 0 255 0 255 
-0.21596 0.347542 2.31389 0 255 0 255 
-0.168119 0.343942 2.30457 0 255 0 255 
-0.144146 0.342181 2.30009 0 255 0 255 
-0.132406 0.342712 2.30419 0 255 0 255 
-0.129421 0.344865 2.31436 0 255 0 255 
-0.125559 0.346858 2.32393 0 255 0 255 
-0.119939 0.348533 2.33231 0 255 0 255 
-0.109918 0.349414 2.33774 0 255 0 255 
-0.100764 0.350464 2.34379 0 255 0 255 
-0.087197 0.350729 2.34693 0 255 0 255 
-0.299934 0.392304 2.238 255 0 0 255 
-0.292523 0.390571 2.228 255 0 0 255 
-0.286194 0.39024 2.226 255 0 0 255 
-0.280253 0.390434 2.227 255 0 0 255 
-0.274182 0.390453 2.227 255 0 0 255 
-0.26799 0.390296 2.226 255 0 0 255 
-0.261803 0.390139 2.225 255 0 0 255 
-0.25516 0.38928 2.22 255 0 0 255 
-0.24832 0.38807 2.213 255 0 0 255 
-0.242174 0.387912 2.212 255 0 0 255 
-0.236567 0.388631 2.216 255 0 0 255 
-0.231353 0.39005 2.224 255 0 0 255 
-0.225689 0.390768 2.228 255 0 0 255 
-0.220299 0.392011 2.235 255 0 0 255 
-0.214486 0.392553 2.238 255 0 0 255 
-0.207632 0.391165 2.23 255 0 0 255 
-0.199556 0.38732 2.208 255 0 0 255 
-0.19195 0.384177 2.19 255 0 0 255 
-0.185121 0.382436 2.18 255 0 0 255 
-0.178346 0.380695 2.17 255 0 0 255 
-0.171943 0.379655 2.164 255 0 0 255 
-0.165725 0.378966 2.16 255 0 0 255 
-0.159455 0.378101 2.155 255 0 0 255 
-0.153212 0.377235 2.15 255 0 0 255 
-0.147064 0.376544 2.146 255 0 0 255 
-0.140937 0.375853 2.142 255 0 0 255 
-0.135021 0.375688 2.141 255 0 0 255 
-0.12911 0.375522 2.14 255 0 0 255 
-0.123261 0.375531 2.14 255 0 0 255 
-0.117357 0.375365 2.139 255 0 0 255 
-0.111458 0.375198 2.138 255 0 0 255 
-0.105565 0.375031 2.137 255 0 0 255 
-0.09977 0.375214 2.138 255 0 0 255 
-0.093968 0.375397 2.139 255 0 0 255 
-0.08812 0.375403 2.139 255 0 0 255 
-0.082195 0.375059 2.137 255 0 0 255 
-0.076138 0.374012 2.131 255 0 0 255 
-0.070212 0.373491 2.128 255 0 0 255 
-0.064241 0.372618 2.123 255 0 0 255 
-0.058353 0.372096 2.12 255 0 0 255 
-0.052456 0.371399 2.116 255 0 0 255 
-0.046669 0.371402 2.116 255 0 0 255 
-0.040844 0.371055 2.114 255 0 0 255 
-0.035062 0.371057 2.114 255 0 0 255 
-0.029252 0.370709 2.112 255 0 0 255 
-0.023487 0.370886 2.113 255 0 0 255 
-0.017699 0.370712 2.112 255 0 0 255 
-0.011928 0.370889 2.113 255 0 0 255 
-0.006149 0.37089 2.113 255 0 0 255 
-0.00037 0.371066 2.114 255 0 0 255 
0.00541 0.37089 2.113 255 0 0 255 
0.011184 0.370714 2.112 255 0 0 255 
0.016961 0.370713 2.112 255 0 0 255 
0.022759 0.371062 2.114 255 0 0 255 
0.028608 0.371938 2.119 255 0 0 255 
0.034501 0.372989 2.125 255 0 0 255 
0.040389 0.373688 2.129 255 0 0 255 
0.046299 0.374387 2.133 255 0 0 255 
0.052205 0.374909 2.136 255 0 0 255 
0.058183 0.375783 2.141 255 0 0 255 
0.064157 0.37648 2.145 255 0 0 255 
0.070153 0.377177 2.149 255 0 0 255 
0.076065 0.377347 2.15 255 0 0 255 
0.082058 0.377868 2.153 255 0 0 255 
0.088231 0.37909 2.16 255 0 0 255 
0.094572 0.380838 2.17 255 0 0 255 
0.101107 0.383112 2.183 255 0 0 255 
0.108252 0.387316 2.207 255 0 0 255 
0.115372 0.390993 2.228 255 0 0 255 
0.122062 0.392915 2.239 255 0 0 255 
0.128238 0.393081 2.24 255 0 0 255 
0.1349 0.39465 2.249 255 0 0 255 
0.141485 0.395868 2.256 255 0 0 255 
0.145883 0.39112 2.229 255 0 0 255 
0.150541 0.387424 2.208 255 0 0 255 
0.155368 0.38443 2.191 255 0 0 255 
0.160544 0.382488 2.18 255 0 0 255 
0.166041 0.381424 2.174 255 0 0 255 
0.171662 0.38071 2.17 255 0 0 255 
0.177752 0.381048 2.172 255 0 0 255 
0.183599 0.380859 2.171 255 0 0 255 
0.189527 0.380846 2.171 255 0 0 255 
0.195635 0.381183 2.173 255 0 0 255 
0.201938 0.38187 2.177 255 0 0 255 
0.208454 0.382908 2.183 255 0 0 255 
0.214805 0.383594 2.187 255 0 0 255 
0.221278 0.384456 2.192 255 0 0 255 
0.22757 0.384966 2.195 255 0 0 255 
-0.111494 0.404964 2.33355 255 255 0 255 
-0.101745 0.403854 2.32743 255 255 0 255 
-0.091149 0.402858 2.32195 255 255 0 255 
-0.077128 0.402301 2.31892 255 255 0 255 
-0.059694 0.40219 2.31838 255 255 0 255 
-0.040574 0.402311 2.31913 255 255 0 255 
-0.025771 0.401902 2.31693 255 255 0 255 
-0.019553 0.400409 2.30864 255 255 0 255 
-0.010775 0.399249 2.30223 255 255 0 255 
0.00568 0.399091 2.30141 255 255 0 255 
0.020402 0.398725 2.29942 255 255 0 255 
0.032542 0.398037 2.29563 255 255 0 255 
0.035297 0.396126 2.285 255 255 0 255 
0.033799 0.393653 2.27122 255 255 0 255 
0.028063 0.39061 2.25425 255 255 0 255 
0.116333 0.39115 2.25743 255 255 0 255 
0.156189 0.394357 2.27537 255 255 0 255 
0.184159 0.395978 2.28445 255 255 0 255 
0.196067 0.395413 2.2813 255 255 0 255 
0.191965 0.392635 2.26577 255 255 0 255 
0.166861 0.386914 2.23379 255 255 0 255 
-0.221609 0.330156 2.28295 0 255 0 255 
-0.23175 0.334776 2.30222 0 255 0 255 
-0.222728 0.335708 2.30785 0 255 0 255 
-0.213696 0.336647 2.31352 0 255 0 255 
-0.193297 0.335439 2.31128 0 255 0 255 
-0.168497 0.333425 2.30609 0 255 0 255 
-0.143661 0.33144 2.30102 0 255 0 255 
-0.134551 0.332439 2.30695 0 255 0 255 
-0.128937 0.334101 2.31532 0 255 0 255 
-0.128583 0.336746 2.32729 0 255 0 255 
-0.122965 0.338413 2.33567 0 255 0 255 
-0.113827 0.339435 2.34169 0 255 0 255 
-0.102041 0.33998 2.34596 0 255 0 255 
-0.086719 0.339894 2.34794 0 255 0 255 
-0.299552 0.385699 2.235 255 0 0 255 
-0.292542 0.38451 2.228 255 0 0 255 
-0.286342 0.384357 2.227 255 0 0 255 
-0.280523 0.384721 2.229 255 0 0 255 
-0.27457 0.384913 2.23 255 0 0 255 
-0.268369 0.384759 2.229 255 0 0 255 
-0.261938 0.384259 2.226 255 0 0 255 
-0.255408 0.383586 2.222 255 0 0 255 
-0.248786 0.38274 2.217 255 0 0 255 
-0.242738 0.382757 2.217 255 0 0 255 
-0.23701 0.383292 2.22 255 0 0 255 
-0.231473 0.384172 2.225 255 0 0 255 
-0.225908 0.385051 2.23 255 0 0 255 
-0.220413 0.386103 2.236 255 0 0 255 
-0.215077 0.3875 2.244 255 0 0 255 
-0.208578 0.386824 2.24 255 0 0 255 
-0.200926 0.383903 2.223 255 0 0 255 
-0.192928 0.380117 2.201 255 0 0 255 
-0.185814 0.377886 2.188 255 0 0 255 
-0.179017 0.376172 2.178 255 0 0 255 
-0.172671 0.375321 2.173 255 0 0 255 
-0.166351 0.37447 2.168 255 0 0 255 
-0.159911 0.373272 2.161 255 0 0 255 
-0.153579 0.372247 2.155 255 0 0 255 
-0.147349 0.371395 2.15 255 0 0 255 
-0.141145 0.370542 2.145 255 0 0 255 
-0.135157 0.370206 2.143 255 0 0 255 
-0.12918 0.36987 2.141 255 0 0 255 
-0.123385 0.370053 2.142 255 0 0 255 
-0.117476 0.369889 2.141 255 0 0 255 
-0.111519 0.369552 2.139 255 0 0 255 
-0.105573 0.369214 2.137 255 0 0 255 
-0.099777 0.369395 2.138 255 0 0 255 
-0.093976 0.369575 2.139 255 0 0 255 
-0.088168 0.369754 2.14 255 0 0 255 
-0.082201 0.369242 2.137 255 0 0 255 
-0.076179 0.368384 2.132 255 0 0 255 
-0.070184 0.367526 2.127 255 0 0 255 
-0.064276 0.367012 2.124 255 0 0 255 
-0.05833 0.366153 2.119 255 0 0 255 
-0.05251 0.365984 2.118 255 0 0 255 
-0.046695 0.365815 2.117 255 0 0 255 
-0.040885 0.365646 2.116 255 0 0 255 
-0.035081 0.365476 2.115 255 0 0 255 
-0.029296 0.365478 2.115 255 0 0 255 
-0.023522 0.365653 2.116 255 0 0 255 
-0.017734 0.365655 2.116 255 0 0 255 
-0.01194 0.365483 2.115 255 0 0 255 
-0.006155 0.365484 2.115 255 0 0 255 
-0.00037 0.365484 2.115 255 0 0 255 
0.005411 0.365138 2.113 255 0 0 255 
0.011196 0.36531 2.114 255 0 0 255 
0.016978 0.365309 2.114 255 0 0 255 
0.022815 0.366172 2.119 255 0 0 255 
0.028651 0.366688 2.122 255 0 0 255 
0.034569 0.367896 2.129 255 0 0 255 
0.040449 0.368411 2.132 255 0 0 255 
0.046367 0.369099 2.136 255 0 0 255 
0.052258 0.369441 2.138 255 0 0 255 
0.058269 0.370474 2.144 255 0 0 255 
0.064252 0.37116 2.148 255 0 0 255 
0.070257 0.371846 2.152 255 0 0 255 
0.076212 0.372186 2.154 255 0 0 255 
0.082293 0.373044 2.159 255 0 0 255 
0.088483 0.374247 2.166 255 0 0 255 
0.094884 0.376141 2.177 255 0 0 255 
0.101485 0.378553 2.191 255 0 0 255 
0.10875 0.383037 2.217 255 0 0 255 
0.115795 0.386311 2.236 255 0 0 255 
0.122289 0.387512 2.243 255 0 0 255 
0.128134 0.386639 2.238 255 0 0 255 
0.13437 0.386975 2.24 255 0 0 255 
0.141809 0.390592 2.261 255 0 0 255 
0.146286 0.38609 2.235 255 0 0 255 
0.150962 0.382452 2.214 255 0 0 255 
0.155947 0.379849 2.199 255 0 0 255 
0.160924 0.377419 2.185 255 0 0 255 
0.166358 0.376199 2.178 255 0 0 255 
0.171912 0.375323 2.173 255 0 0 255 
0.178011 0.375655 2.175 255 0 0 255 
0.183951 0.375642 2.175 255 0 0 255 
0.18989 0.375629 2.175 255 0 0 255 
0.195919 0.375788 2.176 255 0 0 255 
0.202231 0.376464 2.18 255 0 0 255 
0.208755 0.377486 2.186 255 0 0 255 
0.215213 0.378334 2.191 255 0 0 255 
0.221798 0.379355 2.197 255 0 0 255 
0.228209 0.38003 2.201 255 0 0 255 
-0.109654 0.394245 2.33606 255 255 0 255 
-0.097325 0.393482 2.33173 255 255 0 255 
-0.085015 0.392729 2.32745 255 255 0 255 
-0.069286 0.392427 2.32563 255 255 0 255 
-0.05444 0.392028 2.32328 255 255 0 255 
-0.037046 0.391975 2.32282 255 255 0 255 
-0.027391 0.39093 2.31695 255 255 0 255 
-0.021171 0.389443 2.30865 255 255 0 255 
-0.014103 0.388072 2.30099 255 255 0 255 
0.003205 0.388064 2.30077 255 255 0 255 
0.013661 0.387161 2.29566 255 255 0 255 
0.025806 0.386494 2.29183 255 255 0 255 
0.032825 0.38515 2.28431 255 255 0 255 
0.035586 0.383234 2.27366 255 255 0 255 
0.031553 0.380394 2.25796 255 255 0 255 
0.113862 0.380331 2.25661 255 255 0 255 
0.164674 0.385184 2.28291 255 255 0 255 
0.18335 0.385579 2.28486 255 255 0 255 
0.192729 0.384681 2.27974 255 255 0 255 
0.19789 0.383192 2.27139 255 255 0 255 
0.187922 0.379546 2.25125 255 255 0 255 
-0.227442 0.326159 2.31241 0 255 0 255 
-0.221905 0.327755 2.32052 0 255 0 255 
-0.203268 0.326828 2.31949 0 255 0 255 
-0.179363 0.324914 2.3149 0 255 0 255 
-0.137571 0.322333 2.31031 0 255 0 255 
-0.125828 0.322822 2.31447 0 255 0 255 
-0.125468 0.325478 2.32646 0 255 0 255 
-0.123358 0.327801 2.33723 0 255 0 255 
-0.113344 0.328642 2.34267 0 255 0 255 
-0.10244 0.329328 2.34755 0 255 0 255 
-0.088004 0.329369 2.35013 0 255 0 255 
-0.081473 0.330893 2.35804 0 255 0 255 
-0.033596 0.330328 2.3634 0 255 0 255 
-0.010231 0.328832 2.36055 0 255 0 255 
-0.29917 0.379109 2.232 255 0 0 255 
-0.292693 0.378619 2.229 255 0 0 255 
-0.286875 0.378978 2.231 255 0 0 255 
-0.280794 0.378997 2.231 255 0 0 255 
-0.274835 0.379185 2.232 255 0 0 255 
-0.268628 0.379034 2.231 255 0 0 255 
-0.262309 0.378712 2.229 255 0 0 255 
-0.256 0.37839 2.227 255 0 0 255 
-0.249364 0.377557 2.222 255 0 0 255 
-0.243084 0.377234 2.22 255 0 0 255 
-0.237133 0.377421 2.221 255 0 0 255 
-0.231697 0.378457 2.227 255 0 0 255 
-0.226227 0.379492 2.233 255 0 0 255 
-0.220921 0.380868 2.241 255 0 0 255 
-0.215859 0.382752 2.252 255 0 0 255 
-0.210269 0.383787 2.258 255 0 0 255 
-0.20302 0.381762 2.246 255 0 0 255 
-0.19452 0.377187 2.219 255 0 0 255 
-0.186677 0.373631 2.198 255 0 0 255 
-0.179605 0.371434 2.185 255 0 0 255 
-0.17308 0.370257 2.178 255 0 0 255 
-0.166594 0.369079 2.171 255 0 0 255 
-0.160293 0.36824 2.166 255 0 0 255 
-0.153876 0.367062 2.159 255 0 0 255 
-0.147702 0.366393 2.155 255 0 0 255 
-0.141287 0.365043 2.147 255 0 0 255 
-0.135293 0.364713 2.145 255 0 0 255 
-0.12937 0.364552 2.144 255 0 0 255 
-0.123625 0.364902 2.146 255 0 0 255 
-0.117759 0.364911 2.146 255 0 0 255 
-0.111684 0.364239 2.142 255 0 0 255 
-0.105778 0.364077 2.141 255 0 0 255 
-0.099878 0.363914 2.14 255 0 0 255 
-0.09407 0.364092 2.141 255 0 0 255 
-0.088134 0.363758 2.139 255 0 0 255 
-0.082207 0.363424 2.137 255 0 0 255 
-0.076256 0.36292 2.134 255 0 0 255 
-0.070288 0.362245 2.13 255 0 0 255 
-0.064342 0.36157 2.126 255 0 0 255 
-0.058362 0.360554 2.12 255 0 0 255 
-0.052538 0.360388 2.119 255 0 0 255 
-0.04672 0.360222 2.118 255 0 0 255 
-0.040927 0.360225 2.118 255 0 0 255 
-0.035117 0.360058 2.117 255 0 0 255 
-0.029326 0.36006 2.117 255 0 0 255 
-0.023535 0.360062 2.117 255 0 0 255 
-0.017735 0.359894 2.116 255 0 0 255 
-0.011947 0.359895 2.116 255 0 0 255 
-0.006164 0.360236 2.118 255 0 0 255 
-0.00037 0.360406 2.119 255 0 0 255 
0.005424 0.360236 2.118 255 0 0 255 
0.011212 0.360065 2.117 255 0 0 255 
0.017012 0.360234 2.118 255 0 0 255 
0.022849 0.360913 2.122 255 0 0 255 
0.028707 0.361591 2.126 255 0 0 255 
0.034604 0.362439 2.131 255 0 0 255 
0.040547 0.363457 2.137 255 0 0 255 
0.046479 0.364134 2.141 255 0 0 255 
0.052409 0.364641 2.144 255 0 0 255 
0.058382 0.365317 2.148 255 0 0 255 
0.064406 0.366163 2.153 255 0 0 255 
0.070392 0.366668 2.156 255 0 0 255 
0.076324 0.366832 2.157 255 0 0 255 
0.082452 0.367847 2.163 255 0 0 255 
0.088734 0.369371 2.172 255 0 0 255 
0.095284 0.371745 2.186 255 0 0 255 
0.102187 0.375139 2.206 255 0 0 255 
0.109445 0.379382 2.231 255 0 0 255 
0.116114 0.381245 2.242 255 0 0 255 
0.122298 0.381406 2.243 255 0 0 255 
0.128143 0.380547 2.238 255 0 0 255 
0.140942 0.382057 2.247 255 0 0 255 
0.146166 0.379666 2.233 255 0 0 255 
0.150904 0.376255 2.213 255 0 0 255 
0.156313 0.374714 2.204 255 0 0 255 
0.161304 0.372322 2.19 255 0 0 255 
0.166676 0.37095 2.182 255 0 0 255 
0.172241 0.370088 2.177 255 0 0 255 
0.178269 0.370246 2.178 255 0 0 255 
0.184302 0.370403 2.179 255 0 0 255 
0.190166 0.370219 2.178 255 0 0 255 
0.196293 0.370546 2.18 255 0 0 255 
0.202524 0.371041 2.183 255 0 0 255 
0.20877 0.371537 2.186 255 0 0 255 
0.215326 0.372542 2.192 255 0 0 255 
0.221915 0.373546 2.198 255 0 0 255 
0.228328 0.37421 2.202 255 0 0 255 
0.234018 0.373684 2.199 255 0 0 255 
-0.121018 0.38416 2.34236 255 255 0 255 
-0.110398 0.38319 2.33678 255 255 0 255 
-0.094629 0.382902 2.33482 255 255 0 255 
-0.078885 0.382626 2.33294 255 255 0 255 
-0.064025 0.38225 2.33053 255 255 0 255 
-0.045759 0.382341 2.3306 255 255 0 255 
-0.030093 0.382106 2.32893 255 255 0 255 
-0.020446 0.381082 2.32307 255 255 0 255 
-0.015089 0.37949 2.31418 255 255 0 255 
-0.008027 0.378132 2.30652 255 255 0 255 
0.005002 0.377589 2.30322 255 255 0 255 
0.011191 0.376125 2.295 255 255 0 255 
0.019077 0.374899 2.28805 255 255 0 255 
0.028656 0.373912 2.28237 255 255 0 255 
0.039072 0.37305 2.27735 255 255 0 255 
0.035041 0.370187 2.26167 255 255 0 255 
0.115617 0.370087 2.25902 255 255 0 255 
0.161343 0.374361 2.28141 255 255 0 255 
0.184229 0.375407 2.28658 255 255 0 255 
0.194448 0.374649 2.2821 255 255 0 255 
0.200449 0.373287 2.2744 255 255 0 255 
0.203084 0.371438 2.2641 255 255 0 255 
-0.23768 0.315043 2.30886 0 255 0 255 
-0.226926 0.315593 2.31326 0 255 0 255 
-0.224004 0.317698 2.32323 0 255 0 255 
-0.20276 0.316211 2.32038 0 255 0 255 
-0.183231 0.315089 2.31885 0 255 0 255 
-0.132718 0.310706 2.30825 0 255 0 255 
-0.120975 0.311175 2.31244 0 255 0 255 
-0.124112 0.314516 2.32683 0 255 0 255 
-0.119368 0.316341 2.33583 0 255 0 255 
-0.111109 0.317499 2.34247 0 255 0 255 
-0.101085 0.31833 2.34796 0 255 0 255 
-0.092807 0.319504 2.35467 0 255 0 255 
-0.073583 0.321377 2.36642 0 255 0 255 
-0.037553 0.320168 2.36736 0 255 0 255 
0.0083 0.317243 2.36236 0 255 0 255 
-0.306365 0.374353 2.24 255 0 0 255 
-0.299457 0.37337 2.234 255 0 0 255 
-0.293106 0.373055 2.232 255 0 0 255 
-0.28728 0.373409 2.234 255 0 0 255 
-0.280812 0.372926 2.231 255 0 0 255 
-0.274607 0.372777 2.23 255 0 0 255 
-0.268526 0.372795 2.23 255 0 0 255 
-0.262445 0.372813 2.23 255 0 0 255 
-0.256477 0.372998 2.231 255 0 0 255 
-0.249943 0.372346 2.227 255 0 0 255 
-0.243429 0.371694 2.223 255 0 0 255 
-0.237363 0.37171 2.223 255 0 0 255 
-0.231921 0.37273 2.229 255 0 0 255 
-0.226648 0.374083 2.237 255 0 0 255 
-0.22143 0.375604 2.246 255 0 0 255 
-0.216545 0.377793 2.259 255 0 0 255 
-0.211495 0.379815 2.271 255 0 0 255 
-0.204661 0.378659 2.264 255 0 0 255 
-0.196462 0.374826 2.241 255 0 0 255 
-0.187964 0.370156 2.213 255 0 0 255 
-0.180686 0.36766 2.198 255 0 0 255 
-0.17357 0.365331 2.184 255 0 0 255 
-0.166759 0.363503 2.173 255 0 0 255 
-0.160304 0.362344 2.166 255 0 0 255 
-0.153958 0.361351 2.16 255 0 0 255 
-0.14785 0.36086 2.157 255 0 0 255 
-0.14156 0.359867 2.151 255 0 0 255 
-0.135555 0.359542 2.149 255 0 0 255 
-0.129621 0.359384 2.148 255 0 0 255 
-0.123807 0.359561 2.149 255 0 0 255 
-0.117932 0.35957 2.149 255 0 0 255 
-0.1119 0.359076 2.146 255 0 0 255 
-0.105934 0.358749 2.144 255 0 0 255 
-0.099978 0.358422 2.142 255 0 0 255 
-0.094077 0.358262 2.141 255 0 0 255 
-0.08814 0.357934 2.139 255 0 0 255 
-0.082175 0.357438 2.136 255 0 0 255 
-0.076262 0.357109 2.134 255 0 0 255 
-0.070293 0.356445 2.13 255 0 0 255 
-0.064407 0.356116 2.128 255 0 0 255 
-0.058476 0.355451 2.124 255 0 0 255 
-0.052666 0.355455 2.124 255 0 0 255 
-0.046812 0.355124 2.122 255 0 0 255 
-0.040949 0.354625 2.119 255 0 0 255 
-0.035136 0.35446 2.118 255 0 0 255 
-0.029328 0.354295 2.117 255 0 0 255 
-0.023559 0.354632 2.119 255 0 0 255 
-0.017753 0.354466 2.118 255 0 0 255 
-0.011959 0.354467 2.118 255 0 0 255 
-0.006165 0.354468 2.118 255 0 0 255 
-0.00037 0.354636 2.119 255 0 0 255 
0.005429 0.354803 2.12 255 0 0 255 
0.011229 0.354802 2.12 255 0 0 255 
0.017037 0.354969 2.121 255 0 0 255 
0.022872 0.355469 2.124 255 0 0 255 
0.028736 0.356137 2.128 255 0 0 255 
0.034639 0.356971 2.133 255 0 0 255 
0.040569 0.357805 2.138 255 0 0 255 
0.046504 0.358471 2.142 255 0 0 255 
0.052486 0.359304 2.147 255 0 0 255 
0.058495 0.360137 2.152 255 0 0 255 
0.064531 0.360969 2.157 255 0 0 255 
0.070561 0.361634 2.161 255 0 0 255 
0.076578 0.36213 2.164 255 0 0 255 
0.082763 0.363296 2.171 255 0 0 255 
0.089108 0.364963 2.181 255 0 0 255 
0.095814 0.367801 2.198 255 0 0 255 
0.102843 0.371475 2.22 255 0 0 255 
0.109797 0.374479 2.238 255 0 0 255 
0.116019 0.374806 2.24 255 0 0 255 
0.122198 0.374964 2.241 255 0 0 255 
0.128095 0.374286 2.237 255 0 0 255 
0.13547 0.37779 2.258 255 0 0 255 
0.141265 0.376776 2.252 255 0 0 255 
0.146242 0.373754 2.234 255 0 0 255 
0.151052 0.370565 2.215 255 0 0 255 
0.156679 0.36955 2.209 255 0 0 255 
0.161831 0.367531 2.197 255 0 0 255 
0.167299 0.366348 2.19 255 0 0 255 
0.172728 0.365165 2.183 255 0 0 255 
0.178691 0.365153 2.183 255 0 0 255 
0.184654 0.36514 2.183 255 0 0 255 
0.190441 0.364792 2.181 255 0 0 255 
0.196487 0.364946 2.182 255 0 0 255 
0.202723 0.365434 2.185 255 0 0 255 
0.209071 0.366088 2.189 255 0 0 255 
0.21544 0.366743 2.193 255 0 0 255 
0.221829 0.367396 2.197 255 0 0 255 
0.228033 0.367715 2.199 255 0 0 255 
0.233927 0.367532 2.198 255 0 0 255 
-0.120897 0.373183 2.34368 255 255 0 255 
-0.107695 0.372577 2.33988 255 255 0 255 
-0.094514 0.37198 2.33613 255 255 0 255 
-0.078775 0.371741 2.33423 255 255 0 255 
