ply
format ascii 1.0
comment VCGLIB generated
element vertex 1243
property float x
property float y
property float z
property uchar red
property uchar green
property uchar blue
property uchar alpha
element face 0
property list uchar int vertex_indices
end_header
0.144057 0.344096 2.2 255 0 0 255 
0.150071 0.344086 2.2 255 0 0 255 
0.156155 0.344232 2.201 255 0 0 255 
0.162171 0.344221 2.201 255 0 0 255 
0.168263 0.344366 2.202 255 0 0 255 
0.174517 0.344824 2.205 255 0 0 255 
0.18087 0.345437 2.209 255 0 0 255 
0.187243 0.34605 2.213 255 0 0 255 
0.193725 0.346819 2.218 255 0 0 255 
0.200504 0.348057 2.226 255 0 0 255 
-0.12528 0.333268 2.3715 255 255 0 255 
-0.103462 0.334003 2.37347 255 255 0 255 
-0.077381 0.33538 2.37849 255 255 0 255 
-0.06166 0.335284 2.37654 255 255 0 255 
-0.060558 0.33307 2.36456 255 255 0 255 
-0.054305 0.331608 2.35614 255 255 0 255 
-0.050628 0.329771 2.34594 255 255 0 255 
-0.045241 0.328187 2.33695 255 255 0 255 
-0.039002 0.326733 2.32857 255 255 0 255 
-0.021667 0.326941 2.32809 255 255 0 255 
-0.006068 0.326907 2.32648 255 255 0 255 
0.000984 0.325602 2.31882 255 255 0 255 
0.000368 0.323141 2.30565 255 255 0 255 
0.002312 0.321064 2.29431 255 255 0 255 
0.007657 0.319505 2.28543 255 255 0 255 
0.007908 0.317167 2.27283 255 255 0 255 
0.020031 0.316656 2.26895 255 255 0 255 
0.038063 0.317072 2.26951 255 255 0 255 
0.084821 0.321979 2.29156 255 255 0 255 
0.106986 0.323103 2.29554 255 255 0 255 
0.115606 0.322127 2.28947 255 255 0 255 
0.118315 0.320227 2.27898 255 255 0 255 
0.130289 0.319793 2.27552 255 255 0 255 
-0.249591 0.246026 2.23883 0 255 0 255 
-0.249247 0.248699 2.25073 0 255 0 255 
-0.244589 0.250429 2.25947 0 255 0 255 
-0.24598 0.253475 2.27259 0 255 0 255 
-0.232668 0.253335 2.27512 0 255 0 255 
-0.214143 0.252089 2.27399 0 255 0 255 
-0.170453 0.245468 2.25506 0 255 0 255 
-0.15156 0.252595 2.2909 0 255 0 255 
-0.142477 0.253467 2.29686 0 255 0 255 
-0.151681 0.258186 2.31549 0 255 0 255 
-0.156546 0.261979 2.33104 0 255 0 255 
-0.150951 0.263582 2.3394 0 255 0 255 
-0.153214 0.26682 2.35311 0 255 0 255 
-0.138874 0.26662 2.35555 0 255 0 255 
-0.315255 0.340142 2.216 255 0 0 255 
-0.307682 0.338473 2.205 255 0 0 255 
-0.301674 0.338492 2.205 255 0 0 255 
-0.295798 0.338663 2.206 255 0 0 255 
-0.289785 0.338682 2.206 255 0 0 255 
-0.28377 0.338699 2.206 255 0 0 255 
-0.277755 0.338717 2.206 255 0 0 255 
-0.271986 0.339041 2.208 255 0 0 255 
-0.266325 0.339519 2.211 255 0 0 255 
-0.261 0.340457 2.217 255 0 0 255 
-0.255642 0.341395 2.223 255 0 0 255 
-0.250474 0.34264 2.231 255 0 0 255 
-0.245262 0.343885 2.239 255 0 0 255 
-0.239899 0.344976 2.246 255 0 0 255 
-0.234497 0.346066 2.253 255 0 0 255 
-0.229056 0.347157 2.26 255 0 0 255 
-0.222589 0.346711 2.257 255 0 0 255 
-0.215659 0.345496 2.249 255 0 0 255 
-0.208772 0.344281 2.241 255 0 0 255 
-0.201928 0.343066 2.233 255 0 0 255 
-0.195039 0.341696 2.224 255 0 0 255 
-0.187774 0.339558 2.21 255 0 0 255 
-0.180173 0.336651 2.191 255 0 0 255 
-0.173312 0.334972 2.18 255 0 0 255 
-0.166894 0.334062 2.174 255 0 0 255 
-0.160804 0.333766 2.172 255 0 0 255 
-0.154653 0.333315 2.169 255 0 0 255 
-0.148519 0.332865 2.166 255 0 0 255 
-0.142466 0.332567 2.164 255 0 0 255 
-0.136486 0.332423 2.163 255 0 0 255 
-0.130512 0.332278 2.162 255 0 0 255 
-0.1246 0.332287 2.162 255 0 0 255 
-0.118578 0.331988 2.16 255 0 0 255 
-0.112514 0.331535 2.157 255 0 0 255 
-0.106565 0.331389 2.156 255 0 0 255 
-0.100621 0.331242 2.155 255 0 0 255 
-0.094682 0.331095 2.154 255 0 0 255 
-0.088707 0.330794 2.152 255 0 0 255 
-0.08282 0.3308 2.152 255 0 0 255 
-0.076861 0.330498 2.15 255 0 0 255 
-0.070946 0.33035 2.149 255 0 0 255 
-0.065005 0.330047 2.147 255 0 0 255 
-0.059158 0.330205 2.148 255 0 0 255 
-0.053305 0.330363 2.149 255 0 0 255 
-0.047469 0.330674 2.151 255 0 0 255 
-0.041602 0.330831 2.152 255 0 0 255 
-0.035713 0.330833 2.152 255 0 0 255 
-0.029824 0.330836 2.152 255 0 0 255 
-0.023923 0.330684 2.151 255 0 0 255 
-0.018028 0.330531 2.15 255 0 0 255 
-0.012155 0.33084 2.152 255 0 0 255 
-0.006275 0.331302 2.155 255 0 0 255 
-0.000378 0.332224 2.161 255 0 0 255 
0.005541 0.332532 2.163 255 0 0 255 
0.011466 0.332685 2.164 255 0 0 255 
0.017389 0.332684 2.164 255 0 0 255 
0.023343 0.333144 2.167 255 0 0 255 
0.029314 0.333603 2.17 255 0 0 255 
0.035301 0.334062 2.173 255 0 0 255 
0.041324 0.334674 2.177 255 0 0 255 
0.047347 0.335132 2.18 255 0 0 255 
0.053385 0.33559 2.183 255 0 0 255 
0.059413 0.335894 2.185 255 0 0 255 
0.065751 0.337734 2.197 255 0 0 255 
0.072219 0.339881 2.211 255 0 0 255 
0.078977 0.34295 2.231 255 0 0 255 
0.085462 0.344482 2.241 255 0 0 255 
0.091797 0.345244 2.246 255 0 0 255 
0.097679 0.344315 2.24 255 0 0 255 
0.103436 0.343079 2.232 255 0 0 255 
0.109247 0.342149 2.226 255 0 0 255 
0.114972 0.341065 2.219 255 0 0 255 
0.120768 0.340289 2.214 255 0 0 255 
0.126594 0.339666 2.21 255 0 0 255 
0.132457 0.339196 2.207 255 0 0 255 
0.13824 0.338572 2.203 255 0 0 255 
0.144132 0.338255 2.201 255 0 0 255 
0.15015 0.338245 2.201 255 0 0 255 
0.156308 0.338542 2.203 255 0 0 255 
0.162182 0.338223 2.201 255 0 0 255 
0.168198 0.338212 2.201 255 0 0 255 
0.174529 0.338815 2.205 255 0 0 255 
0.180882 0.339418 2.209 255 0 0 255 
0.187086 0.339713 2.211 255 0 0 255 
0.193301 0.340008 2.213 255 0 0 255 
0.199797 0.340763 2.218 255 0 0 255 
-0.116537 0.323504 2.37869 255 255 0 255 
-0.090433 0.324931 2.3836 255 255 0 255 
-0.073834 0.324985 2.38216 255 255 0 255 
-0.062415 0.324289 2.37725 255 255 0 255 
-0.059593 0.322322 2.36645 255 255 0 255 
-0.053342 0.320867 2.35803 255 255 0 255 
-0.049664 0.31903 2.34783 255 255 0 255 
-0.044276 0.317452 2.33883 255 255 0 255 
-0.038892 0.315876 2.32984 255 255 0 255 
-0.021564 0.316125 2.32935 255 255 0 255 
-0.001706 0.31678 2.33077 255 255 0 255 
0.007045 0.31575 2.32434 255 255 0 255 
-0.000379 0.312226 2.30627 255 255 0 255 
0.003267 0.310407 2.29615 255 255 0 255 
0.00182 0.307793 2.28232 255 255 0 255 
0.000384 0.305175 2.26846 255 255 0 255 
0.005736 0.303619 2.25956 255 255 0 255 
0.041549 0.30688 2.27322 255 255 0 255 
0.081519 0.310848 2.29021 255 255 0 255 
0.10959 0.31297 2.29858 255 255 0 255 
0.112303 0.311064 2.28808 255 255 0 255 
0.11923 0.309836 2.28075 255 255 0 255 
-0.25342 0.236318 2.24282 0 255 0 255 
-0.253076 0.238998 2.2547 0 255 0 255 
-0.249283 0.240912 2.26407 0 255 0 255 
-0.24549 0.242828 2.27344 0 255 0 255 
-0.233912 0.243038 2.27722 0 255 0 255 
-0.196354 0.237585 2.2625 0 255 0 255 
-0.159794 0.243605 2.29791 0 255 0 255 
-0.161161 0.246686 2.31109 0 255 0 255 
-0.158181 0.248835 2.32125 0 255 0 255 
-0.163045 0.252649 2.33678 0 255 0 255 
-0.157456 0.254242 2.34513 0 255 0 255 
-0.1571 0.256941 2.35704 0 255 0 255 
-0.148012 0.257805 2.36303 0 255 0 255 
-0.31119 0.336237 2.23 255 0 0 255 
-0.303881 0.334899 2.221 255 0 0 255 
-0.297559 0.334615 2.219 255 0 0 255 
-0.291116 0.334181 2.216 255 0 0 255 
-0.284946 0.334048 2.215 255 0 0 255 
-0.27878 0.333915 2.214 255 0 0 255 
-0.272988 0.334233 2.216 255 0 0 255 
-0.267305 0.334703 2.219 255 0 0 255 
-0.262076 0.335775 2.226 255 0 0 255 
-0.256693 0.336697 2.232 255 0 0 255 
-0.251388 0.337769 2.239 255 0 0 255 
-0.245935 0.33869 2.245 255 0 0 255 
-0.240556 0.339761 2.252 255 0 0 255 
-0.234928 0.340531 2.257 255 0 0 255 
-0.229375 0.341451 2.263 255 0 0 255 
-0.222604 0.340561 2.257 255 0 0 255 
-0.215769 0.339519 2.25 255 0 0 255 
-0.209158 0.338778 2.245 255 0 0 255 
-0.202303 0.337584 2.237 255 0 0 255 
-0.19549 0.33639 2.229 255 0 0 255 
-0.187871 0.333686 2.211 255 0 0 255 
-0.180267 0.330831 2.192 255 0 0 255 
-0.173403 0.329182 2.181 255 0 0 255 
-0.166982 0.328288 2.175 255 0 0 255 
-0.160963 0.328148 2.174 255 0 0 255 
-0.154735 0.327555 2.17 255 0 0 255 
-0.148734 0.327414 2.169 255 0 0 255 
-0.142541 0.32682 2.165 255 0 0 255 
-0.136559 0.326678 2.164 255 0 0 255 
-0.13052 0.326385 2.162 255 0 0 255 
-0.124666 0.326545 2.163 255 0 0 255 
-0.118641 0.326251 2.161 255 0 0 255 
-0.112626 0.325957 2.159 255 0 0 255 
-0.106572 0.325512 2.156 255 0 0 255 
-0.100581 0.325217 2.154 255 0 0 255 
-0.094689 0.325224 2.154 255 0 0 255 
-0.088755 0.325079 2.153 255 0 0 255 
-0.082826 0.324934 2.152 255 0 0 255 
-0.076902 0.324788 2.151 255 0 0 255 
-0.070984 0.324642 2.15 255 0 0 255 
-0.06507 0.324496 2.149 255 0 0 255 
-0.05919 0.3245 2.149 255 0 0 255 
-0.053383 0.324957 2.152 255 0 0 255 
-0.047516 0.325112 2.153 255 0 0 255 
-0.041624 0.325115 2.153 255 0 0 255 
-0.035732 0.325117 2.153 255 0 0 255 
-0.02984 0.32512 2.153 255 0 0 255 
-0.023936 0.324971 2.152 255 0 0 255 
-0.018038 0.324821 2.151 255 0 0 255 
-0.012168 0.325275 2.154 255 0 0 255 
-0.006287 0.326031 2.159 255 0 0 255 
-0.000378 0.326484 2.162 255 0 0 255 
0.005544 0.326786 2.164 255 0 0 255 
0.011472 0.326936 2.165 255 0 0 255 
0.017406 0.327086 2.166 255 0 0 255 
0.023356 0.327387 2.168 255 0 0 255 
0.02933 0.327838 2.171 255 0 0 255 
0.035336 0.32844 2.175 255 0 0 255 
0.041346 0.32889 2.178 255 0 0 255 
0.047393 0.329491 2.182 255 0 0 255 
0.053462 0.330092 2.186 255 0 0 255 
0.059553 0.330692 2.19 255 0 0 255 
0.065845 0.332198 2.2 255 0 0 255 
0.072322 0.334307 2.214 255 0 0 255 
0.079053 0.33717 2.233 255 0 0 255 
0.085658 0.339128 2.246 255 0 0 255 
0.092008 0.339877 2.251 255 0 0 255 
0.097948 0.339115 2.246 255 0 0 255 
0.103629 0.337598 2.236 255 0 0 255 
0.109401 0.336534 2.229 255 0 0 255 
0.115084 0.335319 2.221 255 0 0 255 
0.120831 0.334405 2.215 255 0 0 255 
0.126602 0.333642 2.21 255 0 0 255 
0.132406 0.333029 2.206 255 0 0 255 
0.138124 0.332265 2.201 255 0 0 255 
0.144077 0.332105 2.2 255 0 0 255 
0.150091 0.332095 2.2 255 0 0 255 
0.156177 0.332235 2.201 255 0 0 255 
0.161972 0.331772 2.198 255 0 0 255 
0.16798 0.331761 2.198 255 0 0 255 
0.174224 0.332202 2.201 255 0 0 255 
0.180648 0.332945 2.206 255 0 0 255 
0.187099 0.333688 2.211 255 0 0 255 
0.193314 0.333977 2.213 255 0 0 255 
-0.104358 0.314295 2.3882 255 255 0 255 
-0.082578 0.31515 2.39019 255 255 0 255 
-0.069429 0.314729 2.38641 255 255 0 255 
-0.061451 0.313537 2.37914 255 255 0 255 
-0.05434 0.31222 2.37131 255 255 0 255 
-0.04895 0.310645 2.3623 255 255 0 255 
-0.043564 0.309073 2.3533 255 255 0 255 
-0.040746 0.307107 2.34251 255 255 0 255 
-0.034511 0.305669 2.33413 255 255 0 255 
-0.019752 0.305563 2.33183 255 255 0 255 
-0.00246 0.305869 2.33141 255 255 0 255 
0.007143 0.304986 2.32557 255 255 0 255 
0.007378 0.302635 2.31303 255 255 0 255 
0.011019 0.30082 2.30293 255 255 0 255 
0.00872 0.298059 2.2885 255 255 0 255 
0.004738 0.295022 2.2728 255 255 0 255 
0.010086 0.293472 2.2639 255 255 0 255 
0.041649 0.296153 2.27442 255 255 0 255 
0.080757 0.300095 2.29075 255 255 0 255 
0.105441 0.301742 2.29657 255 255 0 255 
0.114062 0.300795 2.29048 255 255 0 255 
0.12183 0.299716 2.28379 255 255 0 255 
-0.264136 0.228175 2.25184 0 255 0 255 
-0.260876 0.232957 2.27367 0 255 0 255 
-0.255365 0.234479 2.28176 0 255 0 255 
-0.236022 0.232928 2.27994 0 255 0 255 
-0.182283 0.234968 2.30265 0 255 0 255 
-0.181052 0.237486 2.31398 0 255 0 255 
-0.175477 0.23906 2.32228 0 255 0 255 
-0.171637 0.241014 2.3318 0 255 0 255 
-0.173023 0.244094 2.34491 0 255 0 255 
-0.166571 0.245487 2.35263 0 255 0 255 
-0.16273 0.247444 2.36216 0 255 0 255 
-0.154522 0.248473 2.36873 0 255 0 255 
-0.313441 0.332532 2.246 255 0 0 255 
-0.305678 0.330774 2.234 255 0 0 255 
-0.299321 0.330496 2.232 255 0 0 255 
-0.292711 0.329921 2.228 255 0 0 255 
-0.286379 0.329643 2.226 255 0 0 255 
-0.280057 0.329364 2.224 255 0 0 255 
-0.274237 0.329677 2.226 255 0 0 255 
-0.268406 0.32999 2.228 255 0 0 255 
-0.262799 0.330599 2.232 255 0 0 255 
-0.257514 0.331652 2.239 255 0 0 255 
-0.25219 0.332705 2.246 255 0 0 255 
-0.246937 0.333906 2.254 255 0 0 255 
-0.241425 0.33481 2.26 255 0 0 255 
-0.236401 0.336455 2.271 255 0 0 255 
-0.229795 0.335877 2.267 255 0 0 255 
-0.222816 0.334706 2.259 255 0 0 255 
-0.215879 0.333535 2.251 255 0 0 255 
-0.209265 0.332808 2.246 255 0 0 255 
-0.202406 0.331635 2.238 255 0 0 255 
-0.195415 0.330166 2.228 255 0 0 255 
-0.187628 0.327215 2.208 255 0 0 255 
-0.180115 0.32456 2.19 255 0 0 255 
-0.173494 0.323385 2.182 255 0 0 255 
-0.167146 0.322656 2.177 255 0 0 255 
-0.161048 0.32237 2.175 255 0 0 255 
-0.154888 0.321936 2.172 255 0 0 255 
-0.148744 0.321501 2.169 255 0 0 255 
-0.142682 0.321214 2.167 255 0 0 255 
-0.136694 0.321075 2.166 255 0 0 255 
-0.13065 0.320788 2.164 255 0 0 255 
-0.124617 0.3205 2.162 255 0 0 255 
-0.118649 0.32036 2.161 255 0 0 255 
-0.112581 0.319923 2.158 255 0 0 255 
-0.106579 0.319634 2.156 255 0 0 255 
-0.100588 0.319344 2.154 255 0 0 255 
-0.094695 0.319351 2.154 255 0 0 255 
-0.088802 0.319357 2.154 255 0 0 255 
-0.082909 0.319363 2.154 255 0 0 255 
-0.076979 0.31922 2.153 255 0 0 255 
-0.071055 0.319077 2.152 255 0 0 255 
-0.065166 0.319081 2.152 255 0 0 255 
-0.059304 0.319234 2.153 255 0 0 255 
-0.053437 0.319386 2.154 255 0 0 255 
-0.047564 0.319538 2.155 255 0 0 255 
-0.041627 0.319244 2.153 255 0 0 255 
-0.035751 0.319395 2.154 255 0 0 255 
-0.029869 0.319546 2.155 255 0 0 255 
-0.02396 0.319399 2.154 255 0 0 255 
-0.018056 0.319252 2.153 255 0 0 255 
-0.012174 0.31955 2.155 255 0 0 255 
-0.006293 0.32044 2.161 255 0 0 255 
-0.000379 0.320885 2.164 255 0 0 255 
0.00555 0.321182 2.166 255 0 0 255 
0.011489 0.321478 2.168 255 0 0 255 
0.017447 0.321922 2.171 255 0 0 255 
0.023411 0.322217 2.173 255 0 0 255 
0.029372 0.322363 2.174 255 0 0 255 
0.035371 0.322806 2.177 255 0 0 255 
0.041368 0.3231 2.179 255 0 0 255 
0.047418 0.32369 2.183 255 0 0 255 
0.053515 0.324428 2.188 255 0 0 255 
0.059639 0.325165 2.193 255 0 0 255 
0.06594 0.326644 2.203 255 0 0 255 
0.072491 0.329011 2.219 255 0 0 255 
0.0792 0.331675 2.237 255 0 0 255 
0.085893 0.333894 2.252 255 0 0 255 
0.092341 0.334925 2.259 255 0 0 255 
0.098216 0.333881 2.252 255 0 0 255 
0.103867 0.332243 2.241 255 0 0 255 
0.109605 0.33105 2.233 255 0 0 255 
0.115247 0.329708 2.224 255 0 0 255 
0.120948 0.328663 2.217 255 0 0 255 
0.126611 0.327617 2.21 255 0 0 255 
0.132355 0.326867 2.205 255 0 0 255 
0.138071 0.326117 2.2 255 0 0 255 
0.14389 0.325662 2.197 255 0 0 255 
0.149829 0.325505 2.196 255 0 0 255 
0.155761 0.325346 2.195 255 0 0 255 
0.161688 0.325187 2.194 255 0 0 255 
0.167838 0.325473 2.196 255 0 0 255 
0.174315 0.326351 2.202 255 0 0 255 
0.180742 0.32708 2.207 255 0 0 255 
0.187196 0.327809 2.212 255 0 0 255 
-0.076448 0.305142 2.39561 255 255 0 255 
-0.074474 0.303033 2.3842 255 255 0 255 
-0.067349 0.301719 2.37632 255 255 0 255 
-0.056804 0.300941 2.37083 255 255 0 255 
-0.046274 0.300171 2.36538 255 255 0 255 
-0.044311 0.298068 2.35399 255 255 0 255 
-0.043199 0.295829 2.342 255 255 0 255 
-0.031839 0.295208 2.33722 255 255 0 255 
-0.01453 0.295542 2.33672 255 255 0 255 
-0.001507 0.295213 2.33326 255 255 0 255 
0.009794 0.294621 2.32864 255 255 0 255 
0.011731 0.292534 2.31733 255 255 0 255 
0.014519 0.290583 2.30662 255 255 0 255 
0.008829 0.287255 2.28973 255 255 0 255 
0.009936 0.285022 2.27775 255 255 0 255 
0.021202 0.284449 2.27323 255 255 0 255 
0.051896 0.287082 2.28312 255 255 0 255 
0.081687 0.289605 2.29255 255 255 0 255 
0.1013 0.290478 2.29457 255 255 0 255 
0.110766 0.289684 2.2891 255 255 0 255 
0.126954 0.290023 2.28874 255 255 0 255 
-0.262791 0.217326 2.25203 0 255 0 255 
-0.262449 0.220018 2.2639 0 255 0 255 
-0.259525 0.22212 2.27387 0 255 0 255 
-0.253149 0.22344 2.28136 0 255 0 255 
-0.244177 0.224182 2.287 0 255 0 255 
-0.18702 0.225318 2.30722 0 255 0 255 
-0.191 0.228989 2.32217 0 255 0 255 
-0.18804 0.231124 2.33225 0 255 0 255 
-0.180732 0.232306 2.33934 0 255 0 255 
-0.176898 0.234254 2.34885 0 255 0 255 
-0.165222 0.234499 2.353 0 255 0 255 
-0.160508 0.236267 2.36194 0 255 0 255 
-0.15579 0.238037 2.37089 0 255 0 255 
-0.312204 0.325105 2.237 255 0 0 255 
-0.305286 0.324251 2.231 255 0 0 255 
-0.299339 0.324414 2.232 255 0 0 255 
-0.293385 0.324577 2.233 255 0 0 255 
-0.287425 0.32474 2.234 255 0 0 255 
-0.281459 0.324903 2.235 255 0 0 255 
-0.275363 0.32492 2.235 255 0 0 255 
-0.269628 0.325372 2.238 255 0 0 255 
-0.263875 0.325825 2.241 255 0 0 255 
-0.25845 0.326713 2.247 255 0 0 255 
-0.253217 0.327892 2.255 255 0 0 255 
-0.247938 0.329071 2.263 255 0 0 255 
-0.242936 0.330686 2.274 255 0 0 255 
-0.238498 0.333173 2.291 255 0 0 255 
-0.231026 0.331443 2.279 255 0 0 255 
-0.223422 0.329421 2.265 255 0 0 255 
-0.216276 0.327981 2.255 255 0 0 255 
-0.209372 0.326831 2.247 255 0 0 255 
-0.202419 0.325535 2.238 255 0 0 255 
-0.195077 0.323511 2.224 255 0 0 255 
-0.187216 0.320468 2.203 255 0 0 255 
-0.179962 0.318298 2.188 255 0 0 255 
-0.173346 0.317146 2.18 255 0 0 255 
-0.167157 0.31672 2.177 255 0 0 255 
-0.161058 0.31644 2.175 255 0 0 255 
-0.155041 0.316305 2.174 255 0 0 255 
-0.148823 0.315733 2.17 255 0 0 255 
-0.142823 0.315597 2.169 255 0 0 255 
-0.136703 0.31517 2.166 255 0 0 255 
-0.130719 0.315033 2.165 255 0 0 255 
-0.124625 0.314605 2.162 255 0 0 255 
-0.118711 0.314613 2.162 255 0 0 255 
-0.112641 0.314184 2.159 255 0 0 255 
-0.106685 0.314046 2.158 255 0 0 255 
-0.100642 0.313616 2.155 255 0 0 255 
-0.094746 0.313622 2.155 255 0 0 255 
-0.088808 0.313483 2.154 255 0 0 255 
-0.082876 0.313343 2.153 255 0 0 255 
-0.076984 0.313349 2.153 255 0 0 255 
-0.071092 0.313354 2.153 255 0 0 255 
-0.0652 0.313358 2.153 255 0 0 255 
-0.059281 0.313217 2.152 255 0 0 255 
-0.053416 0.313366 2.153 255 0 0 255 
-0.047545 0.313515 2.154 255 0 0 255 
-0.04163 0.313372 2.153 255 0 0 255 
-0.035754 0.313521 2.154 255 0 0 255 
-0.029871 0.313668 2.155 255 0 0 255 
-0.023962 0.313525 2.154 255 0 0 255 
-0.018057 0.313381 2.153 255 0 0 255 
-0.012181 0.313818 2.156 255 0 0 255 
-0.006293 0.314547 2.161 255 0 0 255 
-0.000379 0.314984 2.164 255 0 0 255 
0.005553 0.31542 2.167 255 0 0 255 
0.011506 0.316002 2.171 255 0 0 255 
0.017473 0.316437 2.174 255 0 0 255 
0.023434 0.316582 2.175 255 0 0 255 
0.029374 0.316434 2.174 255 0 0 255 
0.035374 0.316869 2.177 255 0 0 255 
0.041408 0.317448 2.181 255 0 0 255 
0.047508 0.318319 2.187 255 0 0 255 
0.053616 0.319043 2.192 255 0 0 255 
0.059724 0.319621 2.196 255 0 0 255 
0.066064 0.321218 2.207 255 0 0 255 
0.072561 0.323251 2.221 255 0 0 255 
0.079276 0.325866 2.239 255 0 0 255 
0.086051 0.328334 2.256 255 0 0 255 
0.092592 0.329638 2.265 255 0 0 255 
0.098441 0.328468 2.257 255 0 0 255 
0.104152 0.327006 2.247 255 0 0 255 
0.109809 0.325543 2.237 255 0 0 255 
0.115462 0.324226 2.228 255 0 0 255 
0.121065 0.322908 2.219 255 0 0 255 
0.126619 0.321591 2.21 255 0 0 255 
0.132303 0.320709 2.204 255 0 0 255 
0.138017 0.319972 2.199 255 0 0 255 
0.143834 0.319527 2.196 255 0 0 255 
0.149838 0.319517 2.196 255 0 0 255 
0.155913 0.319653 2.197 255 0 0 255 
0.161993 0.319788 2.198 255 0 0 255 
0.168155 0.320068 2.2 255 0 0 255 
0.174722 0.321075 2.207 255 0 0 255 
0.182064 0.323391 2.223 255 0 0 255 
-0.086053 0.295126 2.40311 255 255 0 255 
-0.075479 0.294353 2.39752 255 255 0 255 
-0.071787 0.292508 2.38728 255 255 0 255 
-0.06638 0.290934 2.37822 255 255 0 255 
-0.055837 0.290177 2.37272 255 255 0 255 
-0.041031 0.290109 2.37023 255 255 0 255 
-0.039926 0.287867 2.35826 255 255 0 255 
-0.0354 0.28617 2.34868 255 255 0 255 
-0.020639 0.286126 2.34632 255 255 0 255 
-0.005903 0.286094 2.34402 255 255 0 255 
0.007108 0.285797 2.34058 255 255 0 255 
0.013296 0.284399 2.33232 255 255 0 255 
0.017779 0.282726 2.32285 255 255 0 255 
0.018018 0.280355 2.31031 255 255 0 255 
0.019959 0.278262 2.29899 255 255 0 255 
0.016823 0.275323 2.28394 255 255 0 255 
0.024697 0.274213 2.27693 255 255 0 255 
0.050305 0.276081 2.28307 255 255 0 255 
0.082618 0.279109 2.29435 255 255 0 255 
0.102222 0.280031 2.29636 255 255 0 255 
0.10916 0.278827 2.28898 255 255 0 255 
0.121979 0.27863 2.28607 255 255 0 255 
-0.262311 0.206655 2.25286 0 255 0 255 
-0.261104 0.209158 2.26411 0 255 0 255 
-0.257316 0.211063 2.27346 0 255 0 255 
-0.255251 0.213366 2.28407 0 255 0 255 
-0.183952 0.213931 2.30633 0 255 0 255 
-0.187923 0.217626 2.32128 0 255 0 255 
-0.189301 0.220731 2.33439 0 255 0 255 
-0.186341 0.222867 2.34448 0 255 0 255 
-0.176422 0.223462 2.3498 0 255 0 255 
-0.169103 0.224643 2.35694 0 255 0 255 
-0.161776 0.225829 2.3641 0 255 0 255 
-0.156187 0.227404 2.37246 0 255 0 255 
-0.150593 0.228982 2.38084 0 255 0 255 
-0.136259 0.228665 2.3834 0 255 0 255 
-0.124528 0.228931 2.38777 0 255 0 255 
-0.116283 0.229963 2.3945 0 255 0 255 
-0.311943 0.318724 2.235 255 0 0 255 
-0.305715 0.3186 2.234 255 0 0 255 
-0.299893 0.318903 2.236 255 0 0 255 
-0.29406 0.319205 2.238 255 0 0 255 
-0.287828 0.31908 2.237 255 0 0 255 
-0.281854 0.31924 2.238 255 0 0 255 
-0.275749 0.319256 2.238 255 0 0 255 
-0.270005 0.319701 2.241 255 0 0 255 
-0.264244 0.320145 2.244 255 0 0 255 
-0.258696 0.320874 2.249 255 0 0 255 
-0.253569 0.322174 2.258 255 0 0 255 
-0.248173 0.323188 2.265 255 0 0 255 
-0.243165 0.324773 2.276 255 0 0 255 
-0.239762 0.328641 2.303 255 0 0 255 
-0.231547 0.325944 2.284 255 0 0 255 
-0.223534 0.323389 2.266 255 0 0 255 
-0.21629 0.321833 2.255 255 0 0 255 
-0.209292 0.320562 2.246 255 0 0 255 
-0.202251 0.319147 2.236 255 0 0 255 
-0.194914 0.317162 2.222 255 0 0 255 
-0.187058 0.314176 2.201 255 0 0 255 
-0.179973 0.312332 2.188 255 0 0 255 
-0.173516 0.311487 2.182 255 0 0 255 
-0.167475 0.311355 2.181 255 0 0 255 
-0.161365 0.31108 2.179 255 0 0 255 
-0.155194 0.310662 2.176 255 0 0 255 
-0.148901 0.309958 2.171 255 0 0 255 
-0.142899 0.309825 2.17 255 0 0 255 
-0.136712 0.309263 2.166 255 0 0 255 
-0.130788 0.309271 2.166 255 0 0 255 
-0.124691 0.308851 2.163 255 0 0 255 
-0.118774 0.308859 2.163 255 0 0 255 
-0.112701 0.308438 2.16 255 0 0 255 
-0.106742 0.308303 2.159 255 0 0 255 
-0.100742 0.308024 2.157 255 0 0 255 
-0.09484 0.30803 2.157 255 0 0 255 
-0.088896 0.307894 2.156 255 0 0 255 
-0.082958 0.307757 2.155 255 0 0 255 
-0.077025 0.307619 2.154 255 0 0 255 
-0.071064 0.307338 2.152 255 0 0 255 
-0.065174 0.307343 2.152 255 0 0 255 
-0.059312 0.30749 2.153 255 0 0 255 
-0.053444 0.307636 2.154 255 0 0 255 
-0.047548 0.30764 2.154 255 0 0 255 
-0.041652 0.307643 2.154 255 0 0 255 
-0.035773 0.307788 2.155 255 0 0 255 
-0.029887 0.307933 2.156 255 0 0 255 
-0.023985 0.307935 2.156 255 0 0 255 
-0.018075 0.307793 2.155 255 0 0 255 
-0.012187 0.30808 2.157 255 0 0 255 
-0.006294 0.308652 2.161 255 0 0 255 
-0.000379 0.309081 2.164 255 0 0 255 
0.005558 0.309795 2.169 255 0 0 255 
0.011517 0.310365 2.173 255 0 0 255 
0.017498 0.310936 2.177 255 0 0 255 
0.023468 0.311077 2.178 255 0 0 255 
0.02943 0.311075 2.178 255 0 0 255 
0.035409 0.311216 2.179 255 0 0 255 
0.041468 0.311928 2.184 255 0 0 255 
0.047555 0.312639 2.189 255 0 0 255 
0.053718 0.313635 2.196 255 0 0 255 
0.059837 0.314203 2.2 255 0 0 255 
0.066248 0.316055 2.213 255 0 0 255 
0.072729 0.317907 2.226 255 0 0 255 
0.079388 0.320187 2.242 255 0 0 255 
0.086133 0.322467 2.258 255 0 0 255 
0.092885 0.32446 2.272 255 0 0 255 
0.098709 0.323169 2.263 255 0 0 255 
0.104391 0.321591 2.252 255 0 0 255 
0.109914 0.319728 2.239 255 0 0 255 
0.11547 0.318149 2.228 255 0 0 255 
0.121019 0.316714 2.218 255 0 0 255 
0.126685 0.315706 2.211 255 0 0 255 
0.132612 0.315412 2.209 255 0 0 255 
0.138528 0.315118 2.207 255 0 0 255 
0.144629 0.315251 2.208 255 0 0 255 
0.150803 0.315527 2.21 255 0 0 255 
0.156917 0.31566 2.211 255 0 0 255 
0.163109 0.315935 2.213 255 0 0 255 
0.169465 0.316496 2.217 255 0 0 255 
-0.0868 0.284037 2.40386 255 255 0 255 
-0.076227 0.283283 2.39826 255 255 0 255 
-0.071674 0.281575 2.3886 255 255 0 255 
-0.061981 0.280695 2.38248 255 255 0 255 
-0.052301 0.279823 2.37639 255 255 0 255 
-0.036647 0.279929 2.3745 255 255 0 255 
-0.034689 0.277819 2.36313 255 255 0 255 
-0.029313 0.276268 2.35415 255 255 0 255 
-0.019679 0.275419 2.34819 255 255 0 255 
-0.001541 0.275983 2.3483 255 255 0 255 
0.013164 0.275999 2.34607 255 255 0 255 
0.021895 0.275036 2.33965 255 255 0 255 
0.022125 0.27266 2.32714 255 255 0 255 
0.019819 0.269853 2.31277 255 255 0 255 
0.018372 0.267183 2.29899 255 255 0 255 
0.00678 0.262789 2.27774 255 255 0 255 
0.013819 0.261542 2.27008 255 255 0 255 
0.044495 0.264337 2.2799 255 255 0 255 
0.081019 0.268174 2.29428 255 255 0 255 
0.105674 0.270014 2.30004 255 255 0 255 
0.115133 0.269258 2.29456 255 255 0 255 
0.121216 0.267925 2.28658 255 255 0 255 
-0.263554 0.196374 2.25495 0 255 0 255 
-0.258043 0.197874 2.26306 0 255 0 255 
-0.249945 0.198775 2.26932 0 255 0 255 
-0.237529 0.19868 2.2725 0 255 0 255 
-0.192657 0.208001 2.32583 0 255 0 255 
-0.194903 0.211315 2.33953 0 255 0 255 
-0.191077 0.213252 2.34901 0 255 0 255 
-0.180295 0.21363 2.35373 0 255 0 255 
-0.173851 0.214991 2.36146 0 255 0 255 
-0.163917 0.215581 2.36685 0 255 0 255 
-0.158329 0.217147 2.37521 0 255 0 255 
-0.157099 0.219682 2.38652 0 255 0 255 
-0.146268 0.220099 2.39141 0 255 0 255 
-0.13455 0.220334 2.39576 0 255 0 255 
-0.121067 0.220197 2.399 0 255 0 255 
-0.319617 0.314154 2.246 255 0 0 255 
-0.310984 0.311654 2.228 255 0 0 255 
-0.305185 0.311952 2.23 255 0 0 255 
-0.299776 0.312669 2.235 255 0 0 255 
-0.293945 0.312966 2.237 255 0 0 255 
-0.288103 0.313263 2.239 255 0 0 255 
-0.282248 0.313559 2.241 255 0 0 255 
-0.276382 0.313856 2.243 255 0 0 255 
-0.270504 0.314152 2.245 255 0 0 255 
-0.264849 0.314727 2.249 255 0 0 255 
-0.258942 0.315023 2.251 255 0 0 255 
-0.253809 0.316298 2.26 255 0 0 255 
-0.248517 0.317433 2.268 255 0 0 255 
-0.243928 0.319547 2.283 255 0 0 255 
-0.240714 0.323621 2.312 255 0 0 255 
-0.230953 0.318876 2.278 255 0 0 255 
-0.223449 0.31707 2.265 255 0 0 255 
-0.216399 0.315824 2.256 255 0 0 255 
-0.209398 0.314577 2.247 255 0 0 255 
-0.202083 0.31277 2.234 255 0 0 255 
-0.194663 0.310682 2.219 255 0 0 255 
-0.186984 0.308034 2.2 255 0 0 255 
-0.180149 0.306645 2.19 255 0 0 255 
-0.173686 0.305816 2.184 255 0 0 255 
-0.167639 0.305687 2.183 255 0 0 255 
-0.161301 0.304997 2.178 255 0 0 255 
-0.155132 0.304587 2.175 255 0 0 255 
-0.149048 0.304317 2.173 255 0 0 255 
-0.142974 0.304046 2.171 255 0 0 255 
-0.136784 0.303495 2.167 255 0 0 255 
-0.130736 0.303223 2.165 255 0 0 255 
-0.124699 0.302951 2.163 255 0 0 255 
-0.118782 0.302959 2.163 255 0 0 255 
-0.112812 0.302826 2.162 255 0 0 255 
-0.106897 0.302834 2.162 255 0 0 255 
-0.100888 0.30256 2.16 255 0 0 255 
-0.094934 0.302426 2.159 255 0 0 255 
-0.088943 0.302152 2.157 255 0 0 255 
-0.082964 0.301878 2.155 255 0 0 255 
-0.077066 0.301883 2.155 255 0 0 255 
-0.071102 0.301608 2.153 255 0 0 255 
-0.065239 0.301752 2.154 255 0 0 255 
-0.059344 0.301756 2.154 255 0 0 255 
-0.053472 0.3019 2.155 255 0 0 255 
-0.047573 0.301903 2.155 255 0 0 255 
-0.041694 0.302046 2.156 255 0 0 255 
-0.035808 0.302189 2.157 255 0 0 255 
-0.029903 0.302191 2.157 255 0 0 255 
-0.023987 0.302053 2.156 255 0 0 255 
-0.018093 0.302194 2.157 255 0 0 255 
-0.012205 0.302615 2.16 255 0 0 255 
-0.0063 0.303036 2.163 255 0 0 255 
-0.000379 0.303597 2.167 255 0 0 255 
0.005561 0.304017 2.17 255 0 0 255 
0.011534 0.304857 2.176 255 0 0 255 
0.017515 0.305276 2.179 255 0 0 255 
0.023491 0.305415 2.18 255 0 0 255 
0.029459 0.305413 2.18 255 0 0 255 
0.035443 0.305551 2.181 255 0 0 255 
0.041509 0.306249 2.186 255 0 0 255 
0.047602 0.306947 2.191 255 0 0 255 
0.05377 0.307924 2.198 255 0 0 255 
0.059923 0.308621 2.203 255 0 0 255 
0.066342 0.310438 2.216 255 0 0 255 
0.072799 0.312115 2.228 255 0 0 255 
0.079322 0.313791 2.24 255 0 0 255 
0.086063 0.316027 2.256 255 0 0 255 
0.093136 0.319103 2.278 255 0 0 255 
0.098977 0.317836 2.269 255 0 0 255 
0.104676 0.316288 2.258 255 0 0 255 
0.110167 0.31432 2.244 255 0 0 255 
0.11584 0.313052 2.235 255 0 0 255 
0.121572 0.312064 2.228 255 0 0 255 
0.127438 0.311496 2.224 255 0 0 255 
0.133521 0.311488 2.224 255 0 0 255 
0.13973 0.311759 2.226 255 0 0 255 
0.14608 0.31231 2.23 255 0 0 255 
0.152383 0.312721 2.233 255 0 0 255 
0.158773 0.313271 2.237 255 0 0 255 
0.165257 0.313961 2.242 255 0 0 255 
-0.084966 0.273348 2.40636 255 255 0 255 
-0.073538 0.272755 2.40134 255 255 0 255 
-0.064699 0.271751 2.39461 255 255 0 255 
-0.057585 0.270471 2.38673 255 255 0 255 
-0.047055 0.26976 2.38124 255 255 0 255 
-0.029701 0.270187 2.38053 255 255 0 255 
-0.025186 0.268502 2.37097 255 255 0 255 
-0.015555 0.267671 2.36501 255 255 0 255 
-0.010197 0.266134 2.35607 255 255 0 255 
0.003669 0.26603 2.35318 255 255 0 255 
0.013262 0.26522 2.34732 255 255 0 255 
0.016895 0.263408 2.33724 255 255 0 255 
0.021378 0.261741 2.32777 255 255 0 255 
0.02501 0.25993 2.31769 255 255 0 255 
0.017635 0.256229 2.2996 255 255 0 255 
-0.011708 0.248722 2.26538 255 255 0 255 
-0.00465 0.247475 2.25765 255 255 0 255 
0.034474 0.251811 2.27363 255 255 0 255 
0.07858 0.257069 2.29358 255 255 0 255 
0.100702 0.25853 2.29743 255 255 0 255 
0.116895 0.258974 2.29697 255 255 0 255 
0.124657 0.257946 2.29026 255 255 0 255 
-0.269093 0.187111 2.26018 0 255 0 255 
-0.262728 0.188397 2.26766 0 255 0 255 
-0.251193 0.188466 2.27142 0 255 0 255 
-0.232753 0.186921 2.27027 0 255 0 255 
-0.188722 0.1964 2.32436 0 255 0 255 
-0.191827 0.19993 2.33867 0 255 0 255 
-0.189733 0.202265 2.34936 0 255 0 255 
-0.18938 0.204994 2.36123 0 255 0 255 
-0.182944 0.20634 2.36894 0 255 0 255 
-0.174761 0.207298 2.37549 0 255 0 255 
-0.166569 0.208263 2.38207 0 255 0 255 
-0.164472 0.210604 2.39278 0 255 0 255 
-0.154523 0.211189 2.39823 0 255 0 255 
-0.141069 0.211005 2.40141 0 255 0 255 
-0.123226 0.209865 2.40177 0 255 0 255 
-0.085423 0.215731 2.43812 0 255 0 255 
-0.317928 0.306387 2.234 255 0 0 255 
-0.31142 0.305993 2.231 255 0 0 255 
-0.305613 0.306285 2.233 255 0 0 255 
-0.300062 0.306851 2.237 255 0 0 255 
-0.294225 0.307142 2.239 255 0 0 255 
-0.288505 0.307571 2.242 255 0 0 255 
-0.282391 0.307587 2.242 255 0 0 255 
-0.276768 0.308152 2.246 255 0 0 255 
-0.270881 0.308443 2.248 255 0 0 255 
-0.265336 0.309144 2.253 255 0 0 255 
-0.259418 0.309434 2.255 255 0 0 255 
-0.254049 0.31041 2.262 255 0 0 255 
-0.24897 0.311797 2.272 255 0 0 255 
-0.244477 0.314008 2.288 255 0 0 255 
-0.239687 0.315944 2.302 255 0 0 255 
-0.230258 0.311703 2.271 255 0 0 255 
-0.223364 0.310756 2.264 255 0 0 255 
-0.216509 0.309809 2.257 255 0 0 255 
-0.209784 0.308998 2.251 255 0 0 255 
-0.202276 0.306952 2.236 255 0 0 255 
-0.194851 0.304905 2.221 255 0 0 255 
-0.187081 0.302171 2.201 255 0 0 255 
-0.180325 0.300946 2.192 255 0 0 255 
-0.173936 0.300271 2.187 255 0 0 255 
-0.16788 0.300144 2.186 255 0 0 255 
-0.161533 0.299468 2.181 255 0 0 255 
-0.155356 0.299066 2.178 255 0 0 255 
-0.149126 0.298526 2.174 255 0 0 255 
-0.142983 0.298123 2.171 255 0 0 255 
-0.136856 0.29772 2.168 255 0 0 255 
-0.130744 0.297317 2.165 255 0 0 255 
-0.124822 0.297325 2.165 255 0 0 255 
-0.118844 0.297195 2.164 255 0 0 255 
-0.11282 0.296928 2.162 255 0 0 255 
-0.106904 0.296935 2.162 255 0 0 255 
-0.100941 0.296804 2.161 255 0 0 255 
-0.095028 0.29681 2.161 255 0 0 255 
-0.089032 0.296542 2.159 255 0 0 255 
-0.083084 0.29641 2.158 255 0 0 255 
-0.077178 0.296415 2.158 255 0 0 255 
-0.071172 0.296008 2.155 255 0 0 255 
-0.065244 0.295875 2.154 255 0 0 255 
-0.059347 0.295879 2.154 255 0 0 255 
-0.053501 0.296157 2.156 255 0 0 255 
-0.047599 0.29616 2.156 255 0 0 255 
-0.041735 0.296438 2.158 255 0 0 255 
-0.03586 0.296715 2.16 255 0 0 255 
-0.029947 0.296717 2.16 255 0 0 255 
-0.024022 0.296582 2.159 255 0 0 255 
-0.018111 0.296583 2.159 255 0 0 255 
-0.012223 0.297133 2.163 255 0 0 255 
-0.006312 0.297684 2.167 255 0 0 255 
-0.00038 0.298233 2.171 255 0 0 255 
0.005572 0.298645 2.174 255 0 0 255 
0.01154 0.299057 2.177 255 0 0 255 
0.017516 0.299331 2.179 255 0 0 255 
0.023504 0.299604 2.181 255 0 0 255 
0.029502 0.299877 2.183 255 0 0 255 
0.035495 0.300012 2.184 255 0 0 255 
0.041569 0.300697 2.189 255 0 0 255 
0.047648 0.301243 2.193 255 0 0 255 
0.053872 0.302476 2.202 255 0 0 255 
0.060035 0.303159 2.207 255 0 0 255 
0.066406 0.304666 2.218 255 0 0 255 
0.072837 0.306173 2.229 255 0 0 255 
0.079292 0.307541 2.239 255 0 0 255 
0.08603 0.309734 2.255 255 0 0 255 
0.093551 0.314261 2.288 255 0 0 255 
0.099333 0.312744 2.277 255 0 0 255 
0.105146 0.311501 2.268 255 0 0 255 
0.110763 0.309846 2.256 255 0 0 255 
0.116521 0.30874 2.248 255 0 0 255 
0.122344 0.307908 2.242 255 0 0 255 
0.128478 0.3079 2.242 255 0 0 255 
0.134791 0.308304 2.245 255 0 0 255 
0.14112 0.308707 2.248 255 0 0 255 
0.147334 0.308836 2.249 255 0 0 255 
0.153484 0.308826 2.249 255 0 0 255 
0.159634 0.308816 2.249 255 0 0 255 
0.165784 0.308806 2.249 255 0 0 255 
-0.090003 0.261524 2.40422 255 255 0 255 
-0.073424 0.261805 2.40267 255 255 0 255 
-0.068015 0.260246 2.39359 255 255 0 255 
-0.057472 0.259547 2.38805 255 255 0 255 
-0.044378 0.259286 2.38432 255 255 0 255 
-0.026179 0.2599 2.38419 255 255 0 255 
-0.020812 0.258363 2.37523 255 255 0 255 
-0.01545 0.256828 2.36628 255 255 0 255 
-0.010091 0.255295 2.35734 255 255 0 255 
0.00292 0.255077 2.35383 255 255 0 255 
0.007413 0.253407 2.34433 255 255 0 255 
0.016148 0.252471 2.33787 255 255 0 255 
0.024873 0.251542 2.33145 255 255 0 255 
0.02935 0.24988 2.32199 255 255 0 255 
0.019439 0.245702 2.30207 255 255 0 255 
-0.007052 0.236113 2.25704 255 255 0 255 
0.075303 0.245788 2.29226 255 255 0 255 
0.096579 0.247154 2.29546 255 255 0 255 
0.112771 0.247634 2.29497 255 255 0 255 
0.128097 0.247978 2.29393 255 255 0 255 
-0.260032 0.174344 2.25474 0 255 0 255 
-0.260534 0.177281 2.26725 0 255 0 255 
-0.247281 0.176914 2.26979 0 255 0 255 
-0.230568 0.175739 2.26991 0 255 0 255 
-0.175652 0.179785 2.30431 0 255 0 255 
-0.183928 0.184559 2.32229 0 255 0 255 
-0.191357 0.189119 2.33961 0 255 0 255 
-0.190997 0.191859 2.3515 0 255 0 255 
-0.193246 0.195197 2.36515 0 255 0 255 
-0.188551 0.196931 2.37405 0 255 0 255 
-0.183855 0.198668 2.38295 0 255 0 255 
-0.175673 0.199613 2.38951 0 255 0 255 
-0.170095 0.201159 2.39785 0 255 0 255 
-0.160154 0.201721 2.40331 0 255 0 255 
-0.148455 0.201898 2.40764 0 255 0 255 
-0.130627 0.200711 2.40799 0 255 0 255 
-0.091107 0.206104 2.44316 0 255 0 255 
-0.316522 0.298953 2.224 255 0 0 255 
-0.311857 0.300315 2.234 255 0 0 255 
-0.306041 0.300601 2.236 255 0 0 255 
-0.300213 0.300887 2.238 255 0 0 255 
-0.294373 0.301172 2.24 255 0 0 255 
-0.288651 0.301592 2.243 255 0 0 255 
-0.282659 0.301743 2.244 255 0 0 255 
-0.276907 0.302162 2.247 255 0 0 255 
-0.271138 0.302582 2.25 255 0 0 255 
-0.265705 0.303404 2.256 255 0 0 255 
-0.260123 0.304092 2.261 255 0 0 255 
-0.25485 0.305183 2.269 255 0 0 255 
-0.249752 0.306543 2.279 255 0 0 255 
-0.245346 0.308844 2.296 255 0 0 255 
-0.239701 0.309665 2.302 255 0 0 255 
-0.23017 0.305375 2.27 255 0 0 255 
-0.223871 0.305254 2.269 255 0 0 255 
-0.217001 0.304325 2.262 255 0 0 255 
-0.210076 0.303262 2.254 255 0 0 255 
-0.202289 0.300852 2.236 255 0 0 255 
-0.194862 0.298846 2.221 255 0 0 255 
-0.187262 0.296435 2.203 255 0 0 255 
-0.180583 0.29537 2.195 255 0 0 255 
-0.173946 0.294304 2.187 255 0 0 255 
-0.167737 0.293911 2.184 255 0 0 255 
-0.161543 0.293518 2.181 255 0 0 255 
-0.155508 0.293393 2.18 255 0 0 255 
-0.149409 0.293133 2.178 255 0 0 255 
-0.143189 0.292604 2.174 255 0 0 255 
-0.137054 0.292209 2.171 255 0 0 255 
-0.130873 0.291678 2.167 255 0 0 255 
-0.124888 0.291552 2.166 255 0 0 255 
-0.118852 0.29129 2.164 255 0 0 255 
-0.112879 0.291163 2.163 255 0 0 255 
-0.106911 0.291035 2.162 255 0 0 255 
-0.100948 0.290907 2.161 255 0 0 255 
-0.095078 0.291048 2.162 255 0 0 255 
-0.089079 0.290784 2.16 255 0 0 255 
-0.083167 0.29079 2.16 255 0 0 255 
-0.07729 0.29093 2.161 255 0 0 255 
-0.071276 0.29053 2.158 255 0 0 255 
-0.065339 0.2904 2.157 255 0 0 255 
-0.059351 0.29 2.154 255 0 0 255 
-0.053504 0.290273 2.156 255 0 0 255 
-0.047624 0.290411 2.157 255 0 0 255 
-0.041776 0.290818 2.16 255 0 0 255 
-0.035879 0.290955 2.161 255 0 0 255 
-0.029963 0.290957 2.161 255 0 0 255 
-0.024035 0.290824 2.16 255 0 0 255 
-0.018121 0.290825 2.16 255 0 0 255 
-0.012229 0.291365 2.164 255 0 0 255 
-0.006315 0.291904 2.168 255 0 0 255 
-0.00038 0.292712 2.174 255 0 0 255 
0.005582 0.29325 2.178 255 0 0 255 
0.011567 0.293788 2.182 255 0 0 255 
0.017558 0.294057 2.184 255 0 0 255 
0.023559 0.294325 2.186 255 0 0 255 
0.029558 0.294458 2.187 255 0 0 255 
0.035546 0.294456 2.187 255 0 0 255 
0.041609 0.294992 2.191 255 0 0 255 
0.047716 0.295662 2.196 255 0 0 255 
0.0539 0.296601 2.203 255 0 0 255 
0.060094 0.297405 2.209 255 0 0 255 
0.06638 0.298478 2.217 255 0 0 255 
0.072874 0.300224 2.23 255 0 0 255 
0.079368 0.3017 2.241 255 0 0 255 
0.086455 0.305061 2.266 255 0 0 255 
0.094048 0.309632 2.3 255 0 0 255 
0.099644 0.307472 2.284 255 0 0 255 
0.10557 0.306524 2.277 255 0 0 255 
0.111408 0.30544 2.269 255 0 0 255 
0.117358 0.30476 2.264 255 0 0 255 
0.123389 0.304348 2.261 255 0 0 255 
0.129517 0.304206 2.26 255 0 0 255 
0.13564 0.304063 2.259 255 0 0 255 
0.141756 0.30392 2.258 255 0 0 255 
0.147801 0.303641 2.256 255 0 0 255 
0.153699 0.303094 2.252 255 0 0 255 
0.159857 0.303084 2.252 255 0 0 255 
0.16572 0.302536 2.248 255 0 0 255 
-0.103047 0.250794 2.40952 255 255 0 255 
-0.089882 0.250524 2.40557 255 255 0 255 
-0.075881 0.25041 2.40226 255 255 0 255 
-0.068755 0.249144 2.39434 255 255 0 255 
-0.059069 0.248319 2.38819 255 255 0 255 
-0.047686 0.247794 2.38326 255 255 0 255 
-0.030343 0.248303 2.38252 255 255 0 255 
-0.019 0.247798 2.37771 255 255 0 255 
-0.006822 0.247449 2.37353 255 255 0 255 
-0.002323 0.245778 2.36401 255 255 0 255 
0.004725 0.244553 2.3563 255 255 0 255 
0.010066 0.243034 2.3474 255 255 0 255 
0.020495 0.242414 2.34216 255 255 0 255 
0.031757 0.241951 2.33756 255 255 0 255 
0.034535 0.239995 2.32689 255 255 0 255 
0.028011 0.23638 2.30946 255 255 0 255 
0.007144 0.230186 2.28147 255 255 0 255 
0.009119 0.228059 2.27007 255 255 0 255 
0.027115 0.22882 2.27048 255 255 0 255 
0.072874 0.234628 2.29158 255 255 0 255 
0.113696 0.237178 2.29676 255 255 0 255 
0.123139 0.23648 2.29129 255 255 0 255 
-0.259566 0.163609 2.25558 0 255 0 255 
-0.25577 0.165511 2.26498 0 255 0 255 
-0.250254 0.166997 2.27314 0 255 0 255 
-0.176069 0.169095 2.30586 0 255 0 255 
-0.182606 0.173496 2.32264 0 255 0 255 
-0.18916 0.177884 2.33936 0 255 0 255 
-0.185326 0.179821 2.34888 0 255 0 255 
-0.188433 0.183382 2.36314 0 255 0 255 
-0.181997 0.18471 2.37087 0 255 0 255 
-0.184247 0.188061 2.38451 0 255 0 255 
-0.173458 0.188387 2.38932 0 255 0 255 
-0.170491 0.19053 2.39943 0 255 0 255 
-0.160552 0.191073 2.40489 0 255 0 255 
-0.153218 0.192223 2.41213 0 255 0 255 
-0.13802 0.191587 2.41421 0 255 0 255 
-0.098539 0.19689 2.44932 0 255 0 255 
-0.315543 0.291968 2.217 255 0 0 255 
-0.312712 0.295014 2.24 255 0 0 255 
-0.306605 0.295031 2.24 255 0 0 255 
-0.300498 0.295048 2.24 255 0 0 255 
-0.294521 0.295196 2.241 255 0 0 255 
-0.288924 0.295739 2.245 255 0 0 255 
-0.282927 0.295887 2.246 255 0 0 255 
-0.277169 0.296298 2.249 255 0 0 255 
-0.271274 0.296577 2.251 255 0 0 255 
-0.265838 0.297383 2.257 255 0 0 255 
-0.260253 0.298057 2.262 255 0 0 255 
-0.255202 0.299389 2.272 255 0 0 255 
-0.249986 0.30059 2.281 255 0 0 255 
-0.245681 0.302976 2.299 255 0 0 255 
-0.23857 0.301936 2.291 255 0 0 255 
-0.230691 0.299841 2.275 255 0 0 255 
-0.224378 0.299723 2.274 255 0 0 255 
-0.217686 0.299077 2.269 255 0 0 255 
-0.210368 0.297508 2.257 255 0 0 255 
-0.202572 0.295147 2.239 255 0 0 255 
-0.19505 0.29305 2.223 255 0 0 255 
-0.187699 0.291084 2.208 255 0 0 255 
-0.180758 0.289645 2.197 255 0 0 255 
-0.174036 0.288469 2.188 255 0 0 255 
-0.167747 0.287952 2.184 255 0 0 255 
-0.161775 0.287962 2.184 255 0 0 255 
-0.155732 0.287839 2.183 255 0 0 255 
-0.149556 0.287453 2.18 255 0 0 255 
-0.143264 0.286803 2.175 255 0 0 255 
-0.137125 0.286416 2.172 255 0 0 255 
-0.131002 0.286028 2.169 255 0 0 255 
-0.125011 0.285904 2.168 255 0 0 255 
-0.118914 0.285516 2.165 255 0 0 255 
-0.112938 0.285391 2.164 255 0 0 255 
-0.106967 0.285266 2.163 255 0 0 255 
-0.101001 0.285141 2.162 255 0 0 255 
-0.095084 0.285147 2.162 255 0 0 255 
-0.089125 0.285021 2.161 255 0 0 255 
-0.08321 0.285026 2.161 255 0 0 255 
-0.077259 0.284899 2.16 255 0 0 255 
-0.071281 0.28464 2.158 255 0 0 255 
-0.065312 0.28438 2.156 255 0 0 255 
-0.059382 0.284253 2.155 255 0 0 255 
-0.053557 0.284652 2.158 255 0 0 255 
-0.047693 0.284919 2.16 255 0 0 255 
-0.041798 0.285053 2.161 255 0 0 255 
-0.035881 0.285056 2.161 255 0 0 255 
-0.029978 0.28519 2.162 255 0 0 255 
-0.024058 0.285192 2.162 255 0 0 255 
-0.018147 0.285325 2.163 255 0 0 255 
-0.012247 0.285853 2.167 255 0 0 255 
-0.006325 0.286382 2.171 255 0 0 255 
-0.000381 0.287041 2.176 255 0 0 255 
0.005585 0.287437 2.179 255 0 0 255 
0.011573 0.287964 2.183 255 0 0 255 
0.017575 0.288359 2.186 255 0 0 255 
0.023593 0.288753 2.189 255 0 0 255 
0.029614 0.289015 2.191 255 0 0 255 
0.035613 0.289013 2.191 255 0 0 255 
0.041669 0.289407 2.194 255 0 0 255 
0.047806 0.290195 2.2 255 0 0 255 
0.054001 0.291116 2.207 255 0 0 255 
0.060234 0.292035 2.214 255 0 0 255 
0.066474 0.292823 2.22 255 0 0 255 
0.073009 0.294665 2.234 255 0 0 255 
0.079621 0.296507 2.248 255 0 0 255 
0.086804 0.300063 2.275 255 0 0 255 
0.094626 0.305201 2.314 255 0 0 255 
0.100043 0.302425 2.293 255 0 0 255 
0.105994 0.301496 2.286 255 0 0 255 
0.111857 0.300434 2.278 255 0 0 255 
0.11778 0.299636 2.272 255 0 0 255 
0.123615 0.298705 2.265 255 0 0 255 
0.12964 0.298302 2.262 255 0 0 255 
0.135708 0.29803 2.26 255 0 0 255 
0.141765 0.297757 2.258 255 0 0 255 
0.147745 0.297353 2.255 255 0 0 255 
0.153708 0.296948 2.252 255 0 0 255 
0.159796 0.296807 2.251 255 0 0 255 
0.165583 0.296138 2.246 255 0 0 255 
0.170272 0.293622 2.227 255 0 0 255 
-0.112663 0.24059 2.41719 255 255 0 255 
-0.099485 0.24034 2.41319 255 255 0 255 
-0.091476 0.239219 2.40576 255 255 0 255 
-0.07919 0.238839 2.40127 255 255 0 255 
-0.070349 0.237877 2.3945 255 255 0 255 
-0.052109 0.238553 2.3942 255 255 0 255 
-0.039882 0.238203 2.38987 255 255 0 255 
-0.023406 0.238609 2.38855 255 255 0 255 
-0.013778 0.237831 2.38256 255 255 0 255 
0.000947 0.237961 2.38017 255 255 0 255 
0.004588 0.236145 2.37007 255 255 0 255 
0.012479 0.235085 2.36297 255 255 0 255 
0.019511 0.233878 2.3553 255 255 0 255 
0.029928 0.233284 2.35008 255 255 0 255 
0.042024 0.233001 2.34611 255 255 0 255 
0.040562 0.230283 2.3324 255 255 0 255 
0.039956 0.227713 2.31929 255 255 0 255 
0.018525 0.21886 2.27812 255 255 0 255 
0.033135 0.21905 2.27606 255 255 0 255 
0.0755 0.224371 2.29465 255 255 0 255 
0.104327 0.227246 2.30344 255 255 0 255 
0.120501 0.227807 2.30295 255 255 0 255 
0.124902 0.226193 2.2937 255 255 0 255 
-0.261186 0.150533 2.24577 0 255 0 255 
-0.261675 0.153496 2.25831 0 255 0 255 
-0.256163 0.154971 2.26646 0 255 0 255 
-0.241198 0.154125 2.26779 0 255 0 255 
-0.180808 0.159434 2.31043 0 255 0 255 
-0.183882 0.163032 2.3248 0 255 0 255 
-0.190928 0.170413 2.35401 0 255 0 255 
-0.183628 0.171525 2.36115 0 255 0 255 
-0.177188 0.172847 2.3689 0 255 0 255 
-0.17943 0.176217 2.38254 0 255 0 255 
-0.179942 0.179174 2.39499 0 255 0 255 
-0.173499 0.180501 2.40276 0 255 0 255 
-0.169662 0.182441 2.41228 0 255 0 255 
-0.163208 0.183775 2.42008 0 255 0 255 
-0.15326 0.184308 2.42559 0 255 0 255 
-0.101584 0.186712 2.45266 0 255 0 255 
-0.090685 0.187102 2.45786 0 255 0 255 
-0.315845 0.28618 2.219 255 0 0 255 
-0.312729 0.288906 2.24 255 0 0 255 
-0.306759 0.289052 2.241 255 0 0 255 
-0.30038 0.28881 2.239 255 0 0 255 
-0.294406 0.288955 2.24 255 0 0 255 
-0.288812 0.289487 2.244 255 0 0 255 
-0.283195 0.290019 2.248 255 0 0 255 
-0.277431 0.290422 2.251 255 0 0 255 
-0.27141 0.290566 2.252 255 0 0 255 
-0.265853 0.291226 2.257 255 0 0 255 
-0.260383 0.292015 2.263 255 0 0 255 
-0.255329 0.29332 2.273 255 0 0 255 
-0.250219 0.294625 2.283 255 0 0 255 
-0.246016 0.297092 2.302 255 0 0 255 
-0.238271 0.295299 2.288 255 0 0 255 
-0.230907 0.293892 2.277 255 0 0 255 
-0.224588 0.293776 2.276 255 0 0 255 
-0.217986 0.293273 2.272 255 0 0 255 
-0.210753 0.291865 2.261 255 0 0 255 
-0.202946 0.289554 2.243 255 0 0 255 
-0.195324 0.287371 2.226 255 0 0 255 
-0.188135 0.285704 2.213 255 0 0 255 
-0.181016 0.284036 2.2 255 0 0 255 
-0.174365 0.283014 2.192 255 0 0 255 
-0.168064 0.282508 2.188 255 0 0 255 
-0.162081 0.282518 2.188 255 0 0 255 
-0.155884 0.28214 2.185 255 0 0 255 
-0.149633 0.281632 2.181 255 0 0 255 
-0.143338 0.280995 2.176 255 0 0 255 
-0.13726 0.280746 2.174 255 0 0 255 
-0.131131 0.280366 2.171 255 0 0 255 
-0.125076 0.280116 2.169 255 0 0 255 
-0.118976 0.279736 2.166 255 0 0 255 
-0.112945 0.279484 2.164 255 0 0 255 
-0.106973 0.279362 2.163 255 0 0 255 
-0.101054 0.279368 2.163 255 0 0 255 
-0.095134 0.279374 2.163 255 0 0 255 
-0.089172 0.279251 2.162 255 0 0 255 
-0.083216 0.279127 2.161 255 0 0 255 
-0.0773 0.279132 2.161 255 0 0 255 
-0.071318 0.278878 2.159 255 0 0 255 
-0.065377 0.278753 2.158 255 0 0 255 
-0.059441 0.278628 2.157 255 0 0 255 
-0.05356 0.27876 2.158 255 0 0 255 
-0.047696 0.279022 2.16 255 0 0 255 
-0.041801 0.279154 2.161 255 0 0 255 
-0.035884 0.279156 2.161 255 0 0 255 
-0.029966 0.279158 2.161 255 0 0 255 
-0.02406 0.279289 2.162 255 0 0 255 
-0.018165 0.279678 2.165 255 0 0 255 
-0.012259 0.280195 2.169 255 0 0 255 
-0.006334 0.280842 2.174 255 0 0 255 
-0.000381 0.281359 2.178 255 0 0 255 
0.005588 0.281617 2.18 255 0 0 255 
0.011579 0.282133 2.184 255 0 0 255 
0.017592 0.282649 2.188 255 0 0 255 
0.023627 0.283164 2.192 255 0 0 255 
0.029656 0.283421 2.194 255 0 0 255 
0.035696 0.283678 2.196 255 0 0 255 
0.041747 0.283934 2.198 255 0 0 255 
0.047896 0.284706 2.204 255 0 0 255 
0.054102 0.285607 2.211 255 0 0 255 
0.060401 0.286766 2.22 255 0 0 255 
0.066628 0.287408 2.225 255 0 0 255 
0.07321 0.289341 2.24 255 0 0 255 
0.079873 0.291274 2.255 255 0 0 255 
0.087 0.294498 2.28 255 0 0 255 
0.094632 0.298884 2.314 255 0 0 255 
0.100137 0.296424 2.295 255 0 0 255 
0.106001 0.295255 2.286 255 0 0 255 
0.111864 0.294216 2.278 255 0 0 255 
0.117891 0.293692 2.274 255 0 0 255 
0.123841 0.293039 2.269 255 0 0 255 
0.12982 0.292515 2.265 255 0 0 255 
0.135837 0.292119 2.262 255 0 0 255 
0.141899 0.291853 2.26 255 0 0 255 
0.147885 0.291456 2.257 255 0 0 255 
0.153854 0.29106 2.254 255 0 0 255 
0.159948 0.290921 2.253 255 0 0 255 
0.165814 0.290395 2.249 255 0 0 255 
-0.117126 0.231236 2.42835 255 255 0 255 
-0.109955 0.229968 2.42029 255 255 0 255 
-0.097642 0.229598 2.4157 255 255 0 255 
-0.08449 0.229388 2.41174 255 255 0 255 
-0.074785 0.228587 2.40552 255 255 0 255 
-0.057391 0.229148 2.40458 255 255 0 255 
-0.04259 0.229271 2.40197 255 255 0 255 
-0.027814 0.229406 2.39942 255 255 0 255 
-0.01818 0.228642 2.39339 255 255 0 255 
-0.006003 0.228342 2.38918 255 255 0 255 
0.010413 0.228814 2.388 255 255 0 255 
0.014896 0.227156 2.37852 255 255 0 255 
0.020226 0.225653 2.36964 255 255 0 255 
0.024704 0.223998 2.36017 255 255 0 255 
0.033419 0.223118 2.35374 255 255 0 255 
0.043815 0.222553 2.34856 255 255 0 255 
0.042356 0.219819 2.33486 255 255 0 255 
0.042597 0.217392 2.32236 255 255 0 255 
0.02934 0.21246 2.29998 255 255 0 255 
0.01359 0.207041 2.27566 255 255 0 255 
0.047573 0.210879 2.28784 255 255 0 255 
0.086538 0.215697 2.30395 255 255 0 255 
0.127301 0.218468 2.30914 255 255 0 255 
0.12918 0.216382 2.29801 255 255 0 255 
-0.265866 0.141056 2.25038 0 255 0 255 
-0.267213 0.144242 2.26353 0 255 0 255 
-0.255702 0.144206 2.26732 0 255 0 255 
-0.242459 0.143754 2.26991 0 255 0 255 
-0.180363 0.148526 2.31139 0 255 0 255 
-0.190346 0.153821 2.33055 0 255 0 255 
-0.198622 0.158681 2.34844 0 255 0 255 
-0.199124 0.161652 2.36091 0 255 0 255 
-0.188365 0.161914 2.36567 0 255 0 255 
-0.180195 0.162809 2.37224 0 255 0 255 
-0.178962 0.165367 2.38353 0 255 0 255 
-0.17947 0.168335 2.39598 0 255 0 255 
-0.179114 0.171094 2.40783 0 255 0 255 
-0.174411 0.172823 2.41676 0 255 0 255 
-0.165349 0.173531 2.42282 0 255 0 255 
-0.152789 0.173431 2.42662 0 255 0 255 
-0.106379 0.176941 2.45712 0 255 0 255 
-0.094611 0.177105 2.46176 0 255 0 255 
-0.314438 0.278866 2.209 255 0 0 255 
-0.312187 0.282292 2.236 255 0 0 255 
-0.306365 0.282561 2.238 255 0 0 255 
-0.299994 0.282324 2.236 255 0 0 255 
-0.294028 0.282467 2.237 255 0 0 255 
-0.288699 0.28324 2.243 255 0 0 255 
-0.28321 0.283887 2.248 255 0 0 255 
