ply
format ascii 1.0
comment VCGLIB generated
element vertex 1246
property float x
property float y
property float z
property uchar red
property uchar green
property uchar blue
property uchar alpha
element face 0
property list uchar int vertex_indices
end_header
0.121027 0.327788 2.20323 255 255 0 255 
0.115383 0.324576 2.18611 255 255 0 255 
-0.236464 0.280669 2.2996 0 255 0 255 
-0.249742 0.288836 2.33302 0 255 0 255 
-0.242485 0.290034 2.33988 0 255 0 255 
-0.150006 0.279273 2.31178 0 255 0 255 
-0.143169 0.2834 2.3315 0 255 0 255 
-0.148933 0.287314 2.34761 0 255 0 255 
-0.14771 0.289813 2.35893 0 255 0 255 
-0.138604 0.290736 2.36493 0 255 0 255 
-0.126858 0.291144 2.3692 0 255 0 255 
-0.118607 0.292259 2.37586 0 255 0 255 
-0.107712 0.292861 2.3808 0 255 0 255 
-0.093288 0.292782 2.38347 0 255 0 255 
-0.080603 0.293062 2.38735 0 255 0 255 
-0.068783 0.293526 2.39187 0 255 0 255 
-0.054304 0.293488 2.39472 0 255 0 255 
-0.036277 0.292783 2.39536 0 255 0 255 
-0.313783 0.357474 2.249 255 0 0 255 
-0.306971 0.356699 2.244 255 0 0 255 
-0.300453 0.356241 2.241 255 0 0 255 
-0.294083 0.355942 2.239 255 0 0 255 
-0.287722 0.355643 2.237 255 0 0 255 
-0.281245 0.355184 2.234 255 0 0 255 
-0.275277 0.355361 2.235 255 0 0 255 
-0.269181 0.355378 2.235 255 0 0 255 
-0.263321 0.355714 2.237 255 0 0 255 
-0.257333 0.35589 2.238 255 0 0 255 
-0.251676 0.356542 2.242 255 0 0 255 
-0.245887 0.357036 2.245 255 0 0 255 
-0.240402 0.358006 2.251 255 0 0 255 
-0.234986 0.359135 2.258 255 0 0 255 
-0.229735 0.360582 2.267 255 0 0 255 
-0.224335 0.36187 2.275 255 0 0 255 
-0.219178 0.363635 2.286 255 0 0 255 
-0.213215 0.364127 2.289 255 0 0 255 
-0.206512 0.363345 2.284 255 0 0 255 
-0.198871 0.360814 2.268 255 0 0 255 
-0.191316 0.358282 2.252 255 0 0 255 
-0.183931 0.355908 2.237 255 0 0 255 
-0.176786 0.353852 2.224 255 0 0 255 
-0.169864 0.352114 2.213 255 0 0 255 
-0.162855 0.350057 2.2 255 0 0 255 
-0.156129 0.348477 2.19 255 0 0 255 
-0.149527 0.347055 2.181 255 0 0 255 
-0.143368 0.346588 2.178 255 0 0 255 
-0.137161 0.345961 2.174 255 0 0 255 
-0.131157 0.345812 2.173 255 0 0 255 
-0.125159 0.345661 2.172 255 0 0 255 
-0.11922 0.34567 2.172 255 0 0 255 
-0.113228 0.345519 2.171 255 0 0 255 
-0.107094 0.34489 2.167 255 0 0 255 
-0.101074 0.344579 2.165 255 0 0 255 
-0.095152 0.344586 2.165 255 0 0 255 
-0.089148 0.344274 2.163 255 0 0 255 
-0.083193 0.344121 2.162 255 0 0 255 
-0.077244 0.343968 2.161 255 0 0 255 
-0.071332 0.343973 2.161 255 0 0 255 
-0.065329 0.343501 2.158 255 0 0 255 
-0.059315 0.342868 2.154 255 0 0 255 
-0.053372 0.342554 2.152 255 0 0 255 
-0.047484 0.342558 2.152 255 0 0 255 
-0.041596 0.342561 2.152 255 0 0 255 
-0.035725 0.342723 2.153 255 0 0 255 
-0.029847 0.342884 2.154 255 0 0 255 
-0.023964 0.343045 2.155 255 0 0 255 
-0.018093 0.343524 2.158 255 0 0 255 
-0.012205 0.344003 2.161 255 0 0 255 
-0.006294 0.344163 2.162 255 0 0 255 
-0.000378 0.344482 2.164 255 0 0 255 
0.005548 0.3448 2.166 255 0 0 255 
0.011475 0.344799 2.166 255 0 0 255 
0.017402 0.344798 2.166 255 0 0 255 
0.023318 0.344637 2.165 255 0 0 255 
0.029256 0.344795 2.166 255 0 0 255 
0.035199 0.344952 2.167 255 0 0 255 
0.041166 0.345267 2.169 255 0 0 255 
0.047144 0.345582 2.171 255 0 0 255 
0.053182 0.346216 2.175 255 0 0 255 
0.05916 0.346371 2.176 255 0 0 255 
0.065113 0.346366 2.176 255 0 0 255 
0.071066 0.346361 2.176 255 0 0 255 
0.077125 0.346834 2.179 255 0 0 255 
0.083162 0.347146 2.181 255 0 0 255 
0.08925 0.347618 2.184 255 0 0 255 
0.095573 0.348884 2.192 255 0 0 255 
0.101985 0.35031 2.201 255 0 0 255 
0.108201 0.350939 2.205 255 0 0 255 
0.113868 0.349817 2.198 255 0 0 255 
0.119388 0.348377 2.189 255 0 0 255 
0.124915 0.347095 2.181 255 0 0 255 
0.130638 0.346449 2.177 255 0 0 255 
0.136527 0.346281 2.176 255 0 0 255 
0.14241 0.346112 2.175 255 0 0 255 
0.148355 0.346102 2.175 255 0 0 255 
0.154229 0.345932 2.174 255 0 0 255 
0.160244 0.34608 2.175 255 0 0 255 
0.166188 0.346069 2.175 255 0 0 255 
0.17221 0.346217 2.176 255 0 0 255 
0.178237 0.346364 2.177 255 0 0 255 
0.184269 0.34651 2.178 255 0 0 255 
0.190219 0.346498 2.178 255 0 0 255 
0.196438 0.346962 2.181 255 0 0 255 
0.202765 0.347584 2.185 255 0 0 255 
0.209305 0.348525 2.191 255 0 0 255 
0.215385 0.34867 2.192 255 0 0 255 
0.221774 0.349291 2.196 255 0 0 255 
0.228183 0.349912 2.2 255 0 0 255 
0.234933 0.35101 2.207 255 0 0 255 
0.241502 0.35179 2.212 255 0 0 255 
-0.103841 0.347303 2.38478 255 255 0 255 
-0.082038 0.347996 2.38683 255 255 0 255 
-0.056831 0.349195 2.39134 255 255 0 255 
-0.040267 0.349195 2.39006 255 255 0 255 
-0.030601 0.348228 2.38409 255 255 0 255 
-0.027813 0.346282 2.37338 255 255 0 255 
-0.022451 0.344707 2.36446 255 255 0 255 
-0.014525 0.343506 2.35736 255 255 0 255 
-0.005753 0.342434 2.35089 255 255 0 255 
0.001299 0.341119 2.34324 255 255 0 255 
0.009197 0.339933 2.33622 255 255 0 255 
0.022201 0.339507 2.3329 255 255 0 255 
0.024965 0.337577 2.32225 255 255 0 255 
0.027731 0.335645 2.3116 255 255 0 255 
0.027099 0.333205 2.29846 255 255 0 255 
0.030721 0.331399 2.28841 255 255 0 255 
0.036887 0.329977 2.28024 255 255 0 255 
0.047283 0.329202 2.27522 255 255 0 255 
0.042432 0.326113 2.2589 255 255 0 255 
0.030837 0.321979 2.23746 255 255 0 255 
0.031096 0.319649 2.22483 255 255 0 255 
0.054981 0.320965 2.23003 255 255 0 255 
0.093147 0.324528 2.24623 255 255 0 255 
0.117772 0.326027 2.25235 255 255 0 255 
0.132261 0.32597 2.25086 255 255 0 255 
0.137489 0.324471 2.24231 255 255 0 255 
0.126772 0.320455 2.22141 255 255 0 255 
0.111895 0.315759 2.19717 255 255 0 255 
-0.234228 0.269686 2.29922 0 255 0 255 
-0.244321 0.274538 2.31842 0 255 0 255 
-0.250094 0.278462 2.33449 0 255 0 255 
-0.238489 0.278739 2.3383 0 255 0 255 
-0.212945 0.276126 2.33246 0 255 0 255 
-0.183007 0.272638 2.32372 0 255 0 255 
-0.153022 0.269184 2.31514 0 255 0 255 
-0.143568 0.27277 2.33306 0 255 0 255 
-0.149325 0.27671 2.34917 0 255 0 255 
-0.143726 0.278325 2.35753 0 255 0 255 
-0.131992 0.278701 2.36178 0 255 0 255 
-0.123749 0.279797 2.36843 0 255 0 255 
-0.117251 0.281252 2.37628 0 255 0 255 
-0.110748 0.282712 2.38415 0 255 0 255 
-0.100723 0.283476 2.38971 0 255 0 255 
-0.08805 0.283724 2.39359 0 255 0 255 
-0.0736 0.283637 2.39638 0 255 0 255 
-0.058249 0.28339 2.39866 0 255 0 255 
-0.041996 0.282985 2.40044 0 255 0 255 
-0.307948 0.351683 2.251 255 0 0 255 
-0.300875 0.350608 2.244 255 0 0 255 
-0.294364 0.350158 2.241 255 0 0 255 
-0.288126 0.35002 2.24 255 0 0 255 
-0.281767 0.349726 2.238 255 0 0 255 
-0.275787 0.3499 2.239 255 0 0 255 
-0.26944 0.349605 2.237 255 0 0 255 
-0.263456 0.349778 2.238 255 0 0 255 
-0.25758 0.350107 2.24 255 0 0 255 
-0.252142 0.351062 2.246 255 0 0 255 
-0.246451 0.351703 2.25 255 0 0 255 
-0.240952 0.352657 2.256 255 0 0 255 
-0.235418 0.353611 2.262 255 0 0 255 
-0.229953 0.35472 2.269 255 0 0 255 
-0.224646 0.356142 2.278 255 0 0 255 
-0.219384 0.357721 2.288 255 0 0 255 
-0.213416 0.358204 2.291 255 0 0 255 
-0.206435 0.356967 2.283 255 0 0 255 
-0.198884 0.354636 2.268 255 0 0 255 
-0.191754 0.352929 2.257 255 0 0 255 
-0.184437 0.350752 2.243 255 0 0 255 
-0.177354 0.348888 2.231 255 0 0 255 
-0.170106 0.346554 2.216 255 0 0 255 
-0.162866 0.344063 2.2 255 0 0 255 
-0.156069 0.342354 2.189 255 0 0 255 
-0.149537 0.341113 2.181 255 0 0 255 
-0.143509 0.340967 2.18 255 0 0 255 
-0.13736 0.340507 2.177 255 0 0 255 
-0.131287 0.340204 2.175 255 0 0 255 
-0.125225 0.3399 2.173 255 0 0 255 
-0.119228 0.339752 2.172 255 0 0 255 
-0.113288 0.33976 2.172 255 0 0 255 
-0.1072 0.339298 2.169 255 0 0 255 
-0.101221 0.339149 2.168 255 0 0 255 
-0.095159 0.338687 2.165 255 0 0 255 
-0.089155 0.33838 2.163 255 0 0 255 
-0.083199 0.33823 2.162 255 0 0 255 
-0.07732 0.338392 2.163 255 0 0 255 
-0.071403 0.338397 2.163 255 0 0 255 
-0.065425 0.338089 2.161 255 0 0 255 
-0.059347 0.337155 2.155 255 0 0 255 
-0.053426 0.337002 2.154 255 0 0 255 
-0.047532 0.337006 2.154 255 0 0 255 
-0.041696 0.337479 2.157 255 0 0 255 
-0.035777 0.337325 2.156 255 0 0 255 
-0.029863 0.337171 2.155 255 0 0 255 
-0.023977 0.337329 2.156 255 0 0 255 
-0.018094 0.337643 2.158 255 0 0 255 
-0.012205 0.338114 2.161 255 0 0 255 
-0.006298 0.338427 2.163 255 0 0 255 
-0.000379 0.339054 2.167 255 0 0 255 
0.005556 0.339366 2.169 255 0 0 255 
0.011492 0.339366 2.169 255 0 0 255 
0.01742 0.339208 2.168 255 0 0 255 
0.023374 0.33952 2.17 255 0 0 255 
0.029326 0.339674 2.171 255 0 0 255 
0.03525 0.339516 2.17 255 0 0 255 
0.041226 0.339826 2.172 255 0 0 255 
0.047191 0.339979 2.173 255 0 0 255 
0.05321 0.340445 2.176 255 0 0 255 
0.059164 0.340441 2.176 255 0 0 255 
0.065178 0.340749 2.178 255 0 0 255 
0.071169 0.340901 2.179 255 0 0 255 
0.077201 0.341209 2.181 255 0 0 255 
0.08332 0.341829 2.185 255 0 0 255 
0.089461 0.342449 2.189 255 0 0 255 
0.095885 0.344006 2.199 255 0 0 255 
0.102363 0.345564 2.209 255 0 0 255 
0.108454 0.345713 2.21 255 0 0 255 
0.114083 0.344454 2.202 255 0 0 255 
0.119614 0.343038 2.193 255 0 0 255 
0.125153 0.341778 2.185 255 0 0 255 
0.130887 0.341143 2.181 255 0 0 255 
0.136599 0.340508 2.177 255 0 0 255 
0.142486 0.340342 2.176 255 0 0 255 
0.148297 0.340019 2.174 255 0 0 255 
0.154453 0.340478 2.177 255 0 0 255 
0.160476 0.340624 2.178 255 0 0 255 
0.166505 0.340769 2.179 255 0 0 255 
0.17238 0.340601 2.178 255 0 0 255 
0.178413 0.340746 2.179 255 0 0 255 
0.184366 0.340733 2.179 255 0 0 255 
0.190144 0.340408 2.177 255 0 0 255 
0.196271 0.340708 2.179 255 0 0 255 
0.202593 0.34132 2.183 255 0 0 255 
0.209128 0.342244 2.189 255 0 0 255 
0.215007 0.342074 2.188 255 0 0 255 
0.221182 0.342372 2.19 255 0 0 255 
0.227991 0.343608 2.198 255 0 0 255 
0.235055 0.345156 2.208 255 0 0 255 
0.242173 0.346703 2.218 255 0 0 255 
-0.098556 0.337096 2.38962 255 255 0 255 
-0.077627 0.337722 2.39108 255 255 0 255 
-0.055015 0.338615 2.39382 255 255 0 255 
-0.041036 0.33828 2.39075 255 255 0 255 
-0.033087 0.337079 2.38358 255 255 0 255 
-0.030294 0.335129 2.37285 255 255 0 255 
-0.026643 0.333304 2.36273 255 255 0 255 
-0.016146 0.332493 2.35741 255 255 0 255 
-0.005664 0.33169 2.35214 255 255 0 255 
-0.001173 0.330002 2.34266 255 255 0 255 
0.00758 0.328955 2.33623 255 255 0 255 
0.018026 0.328171 2.33106 255 255 0 255 
0.024202 0.326751 2.32285 255 255 0 255 
0.02357 0.324298 2.30973 255 255 0 255 
0.029741 0.32288 2.30153 255 255 0 255 
0.038453 0.321857 2.29522 255 255 0 255 
0.047154 0.320839 2.28893 255 255 0 255 
0.04907 0.318777 2.27766 255 255 0 255 
0.049299 0.316452 2.26512 255 255 0 255 
0.036016 0.31201 2.24245 255 255 0 255 
0.032897 0.309141 2.22729 255 255 0 255 
0.047497 0.309058 2.22547 255 255 0 255 
0.079759 0.311788 2.23715 255 255 0 255 
0.110278 0.314282 2.2477 255 255 0 255 
0.127292 0.314657 2.24811 255 255 0 255 
0.134205 0.313429 2.24083 255 255 0 255 
0.128531 0.310178 2.22383 255 255 0 255 
0.117015 0.305967 2.2022 255 255 0 255 
-0.222462 0.25663 2.29206 0 255 0 255 
-0.243814 0.263941 2.31928 0 255 0 255 
-0.244369 0.266783 2.33168 0 255 0 255 
-0.235372 0.267592 2.33735 0 255 0 255 
-0.212446 0.265467 2.33335 0 255 0 255 
-0.185134 0.262451 2.32645 0 255 0 255 
-0.160394 0.260014 2.3215 0 255 0 255 
-0.142593 0.259063 2.32146 0 255 0 255 
-0.150951 0.263582 2.3394 0 255 0 255 
-0.151466 0.266458 2.35192 0 255 0 255 
-0.14412 0.267704 2.3591 0 255 0 255 
-0.295827 0.345744 2.252 255 0 0 255 
-0.289302 0.345302 2.249 255 0 0 255 
-0.283547 0.34578 2.252 255 0 0 255 
-0.277652 0.346105 2.254 255 0 0 255 
-0.271023 0.345508 2.25 255 0 0 255 
-0.264532 0.345064 2.247 255 0 0 255 
-0.258402 0.345081 2.247 255 0 0 255 
-0.252607 0.345558 2.25 255 0 0 255 
-0.246905 0.346189 2.254 255 0 0 255 
-0.241501 0.34728 2.261 255 0 0 255 
-0.236266 0.348677 2.27 255 0 0 255 
-0.230779 0.349768 2.277 255 0 0 255 
-0.225154 0.350705 2.283 255 0 0 255 
-0.219783 0.352102 2.292 255 0 0 255 
-0.21343 0.351962 2.291 255 0 0 255 
-0.206178 0.350286 2.28 255 0 0 255 
-0.198897 0.348456 2.268 255 0 0 255 
-0.191767 0.346779 2.257 255 0 0 255 
-0.184531 0.344794 2.244 255 0 0 255 
-0.177366 0.342809 2.231 255 0 0 255 
-0.170348 0.340977 2.219 255 0 0 255 
-0.162951 0.338222 2.201 255 0 0 255 
-0.156222 0.336696 2.191 255 0 0 255 
-0.149684 0.335477 2.183 255 0 0 255 
-0.143651 0.335333 2.182 255 0 0 255 
-0.13737 0.334575 2.177 255 0 0 255 
-0.131357 0.33443 2.176 255 0 0 255 
-0.125291 0.334131 2.174 255 0 0 255 
-0.119346 0.33414 2.174 255 0 0 255 
-0.113296 0.33384 2.172 255 0 0 255 
-0.107257 0.333541 2.17 255 0 0 255 
-0.101228 0.33324 2.168 255 0 0 255 
-0.09521 0.33294 2.166 255 0 0 255 
-0.089202 0.332639 2.164 255 0 0 255 
-0.083205 0.332337 2.162 255 0 0 255 
-0.077326 0.332497 2.163 255 0 0 255 
-0.071375 0.332348 2.162 255 0 0 255 
-0.065459 0.332353 2.162 255 0 0 255 
-0.059461 0.331896 2.159 255 0 0 255 
-0.053553 0.3319 2.159 255 0 0 255 
-0.047646 0.331904 2.159 255 0 0 255 
-0.041737 0.331907 2.159 255 0 0 255 
-0.035829 0.331909 2.159 255 0 0 255 
-0.029921 0.331912 2.159 255 0 0 255 
-0.024001 0.33176 2.158 255 0 0 255 
-0.018095 0.331761 2.158 255 0 0 255 
-0.012206 0.332224 2.161 255 0 0 255 
-0.006301 0.332685 2.164 255 0 0 255 
-0.000379 0.333301 2.168 255 0 0 255 
0.005559 0.333608 2.17 255 0 0 255 
0.011503 0.333761 2.171 255 0 0 255 
0.017453 0.333914 2.172 255 0 0 255 
0.023408 0.334066 2.173 255 0 0 255 
0.029368 0.334218 2.174 255 0 0 255 
0.035285 0.333908 2.172 255 0 0 255 
0.041286 0.334367 2.175 255 0 0 255 
0.047216 0.33421 2.174 255 0 0 255 
0.053239 0.334668 2.177 255 0 0 255 
0.059196 0.334664 2.177 255 0 0 255 
0.065272 0.335274 2.181 255 0 0 255 
0.071305 0.335577 2.183 255 0 0 255 
0.077348 0.335879 2.185 255 0 0 255 
0.083479 0.336488 2.189 255 0 0 255 
0.089631 0.337097 2.193 255 0 0 255 
0.096022 0.338474 2.202 255 0 0 255 
0.102416 0.339697 2.21 255 0 0 255 
0.10851 0.339844 2.211 255 0 0 255 
0.114247 0.338914 2.205 255 0 0 255 
0.119841 0.337676 2.197 255 0 0 255 
0.125448 0.336592 2.19 255 0 0 255 
0.131076 0.335661 2.184 255 0 0 255 
0.136672 0.334729 2.178 255 0 0 255 
0.14243 0.334259 2.175 255 0 0 255 
0.148308 0.334095 2.174 255 0 0 255 
0.154392 0.334392 2.176 255 0 0 255 
0.160414 0.334535 2.177 255 0 0 255 
0.16644 0.334678 2.178 255 0 0 255 
0.172154 0.334206 2.175 255 0 0 255 
0.178098 0.334194 2.175 255 0 0 255 
0.184209 0.334489 2.177 255 0 0 255 
0.190332 0.334784 2.179 255 0 0 255 
0.196554 0.335232 2.182 255 0 0 255 
0.202607 0.335372 2.183 255 0 0 255 
0.208855 0.33582 2.186 255 0 0 255 
0.214628 0.335498 2.184 255 0 0 255 
0.220793 0.335791 2.186 255 0 0 255 
0.227591 0.337006 2.194 255 0 0 255 
0.235177 0.339295 2.209 255 0 0 255 
-0.095859 0.32653 2.3927 255 255 0 255 
-0.07494 0.327209 2.39415 255 255 0 255 
-0.059217 0.327144 2.39217 255 255 0 255 
-0.050391 0.326073 2.38553 255 255 0 255 
-0.045865 0.324368 2.37595 255 255 0 255 
-0.0362 0.323435 2.36995 255 255 0 255 
-0.02569 0.322637 2.36459 255 255 0 255 
-0.015197 0.321847 2.35927 255 255 0 255 
-0.008989 0.320416 2.35097 255 255 0 255 
-0.004494 0.318728 2.34148 255 255 0 255 
0.005967 0.317956 2.33625 255 255 0 255 
0.016413 0.317191 2.33106 255 255 0 255 
0.02174 0.315645 2.32223 255 255 0 255 
0.021964 0.31331 2.30971 255 255 0 255 
0.031534 0.312428 2.30398 255 255 0 255 
0.037698 0.311021 2.2958 255 255 0 255 
0.043858 0.309618 2.28763 255 255 0 255 
0.047473 0.307817 2.2776 255 255 0 255 
0.048551 0.305613 2.26569 255 255 0 255 
0.043725 0.302465 2.24933 255 255 0 255 
0.036385 0.298903 2.23103 255 255 0 255 
0.040866 0.297228 2.22157 255 255 0 255 
0.064704 0.298683 2.2268 255 255 0 255 
0.091863 0.300706 2.23473 255 255 0 255 
0.113091 0.301796 2.23829 255 255 0 255 
0.120858 0.300708 2.2316 255 255 0 255 
0.124425 0.298935 2.2217 255 255 0 255 
0.121294 0.296058 2.20659 255 255 0 255 
0.118179 0.293173 2.19143 255 255 0 255 
-0.237568 0.249339 2.30402 0 255 0 255 
-0.242443 0.25314 2.31953 0 255 0 255 
-0.242993 0.255995 2.33193 0 255 0 255 
-0.23139 0.256227 2.33579 0 255 0 255 
-0.207604 0.25386 2.33122 0 255 0 255 
-0.158181 0.248835 2.32125 0 255 0 255 
-0.156945 0.251355 2.3326 0 255 0 255 
-0.154839 0.253689 2.34334 0 255 0 255 
-0.153608 0.256206 2.35467 0 255 0 255 
-0.143643 0.256889 2.36008 0 255 0 255 
-0.065749 0.265948 2.41853 0 255 0 255 
-0.293179 0.3437 2.279 255 0 0 255 
-0.286461 0.343115 2.275 255 0 0 255 
-0.280257 0.343132 2.275 255 0 0 255 
-0.273449 0.342395 2.27 255 0 0 255 
-0.26655 0.341507 2.264 255 0 0 255 
-0.260028 0.341071 2.261 255 0 0 255 
-0.254195 0.34154 2.264 255 0 0 255 
-0.248455 0.34216 2.268 255 0 0 255 
-0.242799 0.34293 2.273 255 0 0 255 
-0.237427 0.344152 2.281 255 0 0 255 
-0.231909 0.345223 2.288 255 0 0 255 
-0.226549 0.346596 2.297 255 0 0 255 
-0.221044 0.347818 2.305 255 0 0 255 
-0.214096 0.346776 2.298 255 0 0 255 
-0.20592 0.343621 2.277 255 0 0 255 
-0.198998 0.342427 2.269 255 0 0 255 
-0.19178 0.340628 2.257 255 0 0 255 
-0.184544 0.338679 2.244 255 0 0 255 
-0.177458 0.33688 2.232 255 0 0 255 
-0.17059 0.335382 2.222 255 0 0 255 
-0.16348 0.33328 2.208 255 0 0 255 
-0.156589 0.331479 2.196 255 0 0 255 
-0.149969 0.330131 2.187 255 0 0 255 
-0.143924 0.32999 2.186 255 0 0 255 
-0.137631 0.329245 2.181 255 0 0 255 
-0.131547 0.328952 2.179 255 0 0 255 
-0.1253 0.328206 2.174 255 0 0 255 
-0.119299 0.328063 2.173 255 0 0 255 
-0.1132 0.327618 2.17 255 0 0 255 
-0.107215 0.327475 2.169 255 0 0 255 
-0.101188 0.32718 2.167 255 0 0 255 
-0.09526 0.327186 2.167 255 0 0 255 
-0.089291 0.327042 2.166 255 0 0 255 
-0.083326 0.326897 2.165 255 0 0 255 
-0.077367 0.326751 2.164 255 0 0 255 
-0.071413 0.326605 2.163 255 0 0 255 
-0.065494 0.32661 2.163 255 0 0 255 
-0.059493 0.326161 2.16 255 0 0 255 
-0.053582 0.326165 2.16 255 0 0 255 
-0.047671 0.326169 2.16 255 0 0 255 
-0.041779 0.326323 2.161 255 0 0 255 
-0.035865 0.326326 2.161 255 0 0 255 
-0.029951 0.326328 2.161 255 0 0 255 
-0.024014 0.326028 2.159 255 0 0 255 
-0.018113 0.32618 2.16 255 0 0 255 
-0.012218 0.326634 2.163 255 0 0 255 
-0.006304 0.326937 2.165 255 0 0 255 
-0.000379 0.327088 2.166 255 0 0 255 
0.005555 0.32739 2.168 255 0 0 255 
0.011504 0.327842 2.171 255 0 0 255 
0.017462 0.328143 2.173 255 0 0 255 
0.02342 0.328293 2.174 255 0 0 255 
0.02937 0.328291 2.174 255 0 0 255 
0.03532 0.328289 2.174 255 0 0 255 
0.041346 0.32889 2.178 255 0 0 255 
0.047306 0.328887 2.178 255 0 0 255 
0.05334 0.329337 2.181 255 0 0 255 
0.059308 0.329333 2.181 255 0 0 255 
0.065396 0.329933 2.185 255 0 0 255 
0.071473 0.330381 2.188 255 0 0 255 
0.077495 0.330527 2.189 255 0 0 255 
0.083599 0.330974 2.192 255 0 0 255 
0.089882 0.332025 2.199 255 0 0 255 
0.096291 0.333378 2.208 255 0 0 255 
0.102609 0.334277 2.214 255 0 0 255 
0.108714 0.334421 2.215 255 0 0 255 
0.11441 0.333356 2.208 255 0 0 255 
0.120013 0.33214 2.2 255 0 0 255 
0.125571 0.330924 2.192 255 0 0 255 
0.131265 0.330161 2.187 255 0 0 255 
0.136744 0.328944 2.179 255 0 0 255 
0.142505 0.328482 2.176 255 0 0 255 
0.148454 0.328472 2.176 255 0 0 255 
0.154545 0.328764 2.178 255 0 0 255 
0.160351 0.328451 2.176 255 0 0 255 
0.166145 0.328138 2.174 255 0 0 255 
0.171929 0.327825 2.172 255 0 0 255 
0.17811 0.328266 2.175 255 0 0 255 
0.184222 0.328556 2.177 255 0 0 255 
0.190344 0.328846 2.179 255 0 0 255 
0.196477 0.329135 2.181 255 0 0 255 
0.20262 0.329424 2.183 255 0 0 255 
0.208869 0.329863 2.186 255 0 0 255 
0.214838 0.329849 2.186 255 0 0 255 
0.220807 0.329835 2.186 255 0 0 255 
-0.087996 0.316741 2.39928 255 255 0 255 
-0.071394 0.31683 2.39781 255 255 0 255 
-0.060835 0.316025 2.39229 255 255 0 255 
-0.057159 0.314188 2.3821 255 255 0 255 
-0.05091 0.312742 2.37368 255 255 0 255 
-0.03867 0.312217 2.36945 255 255 0 255 
-0.017036 0.313147 2.37184 255 255 0 255 
-0.009973 0.311854 2.36414 255 255 0 255 
-0.00377 0.310433 2.35585 255 255 0 255 
-0.001838 0.308352 2.34454 255 255 0 255 
0.007766 0.307468 2.33871 255 255 0 255 
0.013952 0.306056 2.33046 255 255 0 255 
0.020133 0.304647 2.32223 255 255 0 255 
0.019513 0.302165 2.30909 255 255 0 255 
0.027387 0.30103 2.3021 255 255 0 255 
0.026775 0.298544 2.28894 255 255 0 255 
0.0321 0.297007 2.28011 255 255 0 255 
0.033192 0.294789 2.26816 255 255 0 255 
0.041047 0.293664 2.26122 255 255 0 255 
0.040455 0.291172 2.248 255 255 0 255 
0.033969 0.287711 2.23033 255 255 0 255 
0.091958 0.290063 2.23588 255 255 0 255 
0.113178 0.291207 2.23942 255 255 0 255 
0.116751 0.289431 2.2295 255 255 0 255 
0.122 0.287937 2.22088 255 255 0 255 
0.127245 0.286445 2.21227 255 255 0 255 
0.124963 0.283684 2.19778 255 255 0 255 
-0.24833 0.24117 2.31289 0 255 0 255 
-0.252341 0.244798 2.32775 0 255 0 255 
-0.247693 0.246516 2.33646 0 255 0 255 
-0.232626 0.245963 2.33789 0 255 0 255 
-0.207114 0.243157 2.33213 0 255 0 255 
-0.180694 0.240191 2.3259 0 255 0 255 
-0.164676 0.23951 2.327 0 255 0 255 
-0.160829 0.24147 2.33654 0 255 0 255 
-0.159597 0.243992 2.34788 0 255 0 255 
-0.154878 0.245767 2.35683 0 255 0 255 
-0.151029 0.24773 2.36637 0 255 0 255 
-0.074087 0.25679 2.42529 0 255 0 255 
-0.060501 0.256811 2.4288 0 255 0 255 
-0.302564 0.341027 2.303 255 0 0 255 
-0.294998 0.339565 2.293 255 0 0 255 
-0.288997 0.339879 2.295 255 0 0 255 
-0.282615 0.339748 2.294 255 0 0 255 
-0.275996 0.339321 2.291 255 0 0 255 
-0.269039 0.338449 2.285 255 0 0 255 
-0.262575 0.338169 2.283 255 0 0 255 
-0.256233 0.338038 2.282 255 0 0 255 
-0.250333 0.338498 2.285 255 0 0 255 
-0.244523 0.339106 2.289 255 0 0 255 
-0.238795 0.339862 2.294 255 0 0 255 
-0.233545 0.341359 2.304 255 0 0 255 
-0.228142 0.342707 2.313 255 0 0 255 
-0.223168 0.344796 2.327 255 0 0 255 
-0.214203 0.340661 2.299 255 0 0 255 
-0.205572 0.336822 2.273 255 0 0 255 
-0.198748 0.335798 2.266 255 0 0 255 
-0.191707 0.334328 2.256 255 0 0 255 
-0.184556 0.332562 2.244 255 0 0 255 
-0.177469 0.330796 2.232 255 0 0 255 
-0.170601 0.329325 2.222 255 0 0 255 
-0.163861 0.328002 2.213 255 0 0 255 
-0.15717 0.326679 2.204 255 0 0 255 
-0.150459 0.325207 2.194 255 0 0 255 
-0.144065 0.324327 2.188 255 0 0 255 
-0.137577 0.323151 2.18 255 0 0 255 
-0.131495 0.322863 2.178 255 0 0 255 
-0.125366 0.322427 2.175 255 0 0 255 
-0.119417 0.322435 2.175 255 0 0 255 
-0.113259 0.32185 2.171 255 0 0 255 
-0.107271 0.321709 2.17 255 0 0 255 
-0.101195 0.321272 2.167 255 0 0 255 
-0.095355 0.321575 2.169 255 0 0 255 
-0.089379 0.321433 2.168 255 0 0 255 
-0.08337 0.321142 2.166 255 0 0 255 
-0.077337 0.320703 2.163 255 0 0 255 
-0.071385 0.320559 2.162 255 0 0 255 
-0.065499 0.320712 2.163 255 0 0 255 
-0.059524 0.32042 2.161 255 0 0 255 
-0.053635 0.320572 2.162 255 0 0 255 
-0.047696 0.320427 2.161 255 0 0 255 
-0.041782 0.32043 2.161 255 0 0 255 
-0.035884 0.320581 2.162 255 0 0 255 
-0.02998 0.320732 2.163 255 0 0 255 
-0.024071 0.320882 2.164 255 0 0 255 
-0.018157 0.321032 2.165 255 0 0 255 
-0.012248 0.321478 2.168 255 0 0 255 
-0.006316 0.321627 2.169 255 0 0 255 
-0.000379 0.321479 2.168 255 0 0 255 
0.005558 0.321627 2.169 255 0 0 255 
0.0115 0.321774 2.17 255 0 0 255 
0.017471 0.322366 2.174 255 0 0 255 
0.023422 0.322365 2.174 255 0 0 255 
0.029386 0.322512 2.175 255 0 0 255 
0.035371 0.322806 2.177 255 0 0 255 
0.041425 0.323545 2.182 255 0 0 255 
0.04744 0.323838 2.184 255 0 0 255 
0.053466 0.324131 2.186 255 0 0 255 
0.059448 0.324127 2.186 255 0 0 255 
0.06552 0.324568 2.189 255 0 0 255 
0.071609 0.325008 2.192 255 0 0 255 
0.077642 0.325151 2.193 255 0 0 255 
0.083719 0.325442 2.195 255 0 0 255 
0.089929 0.326178 2.2 255 0 0 255 
0.096341 0.327506 2.209 255 0 0 255 
0.102709 0.328537 2.216 255 0 0 255 
0.108869 0.328826 2.218 255 0 0 255 
0.114521 0.327633 2.21 255 0 0 255 
0.120075 0.326291 2.201 255 0 0 255 
0.125637 0.325097 2.193 255 0 0 255 
0.131334 0.324347 2.188 255 0 0 255 
0.136941 0.323448 2.182 255 0 0 255 
0.142645 0.322846 2.178 255 0 0 255 
0.148464 0.32254 2.176 255 0 0 255 
0.154342 0.322382 2.175 255 0 0 255 
0.16014 0.322075 2.173 255 0 0 255 
0.165851 0.32162 2.17 255 0 0 255 
0.171861 0.321757 2.171 255 0 0 255 
0.178039 0.32219 2.174 255 0 0 255 
0.184318 0.322771 2.178 255 0 0 255 
0.190706 0.3235 2.183 255 0 0 255 
0.19712 0.324228 2.188 255 0 0 255 
0.203376 0.324659 2.191 255 0 0 255 
0.209838 0.325387 2.196 255 0 0 255 
0.216916 0.327003 2.207 255 0 0 255 
-0.087025 0.305937 2.40119 255 255 0 255 
-0.069569 0.306196 2.40029 255 255 0 255 
-0.061591 0.305016 2.39301 255 255 0 255 
-0.05877 0.303045 2.38222 255 255 0 255 
-0.049091 0.302139 2.37616 255 255 0 255 
-0.031718 0.302442 2.37549 255 255 0 255 
-0.010954 0.303295 2.37729 255 255 0 255 
-0.00646 0.301612 2.3678 255 255 0 255 
-0.005382 0.299391 2.3559 255 255 0 255 
-0.002594 0.297438 2.34519 255 255 0 255 
0.007862 0.296707 2.33995 255 255 0 255 
0.014899 0.295439 2.3323 255 255 0 255 
0.024479 0.294585 2.32652 255 255 0 255 
0.027254 0.292641 2.31585 255 255 0 255 
0.031727 0.290971 2.30641 255 255 0 255 
0.030267 0.288336 2.29263 255 255 0 255 
0.032204 0.28625 2.28132 255 255 0 255 
0.034989 0.284303 2.27062 255 255 0 255 
0.036087 0.282075 2.25866 255 255 0 255 
0.03466 0.279427 2.24479 255 255 0 255 
0.102973 0.281251 2.24536 255 255 0 255 
0.11075 0.280181 2.23863 255 255 0 255 
0.113489 0.278261 2.22805 255 255 0 255 
0.123766 0.277627 2.2233 255 255 0 255 
0.125664 0.275567 2.21209 255 255 0 255 
0.12673 0.273361 2.20021 255 255 0 255 
-0.245456 0.235512 2.33611 0 255 0 255 
-0.23126 0.235117 2.33817 0 255 0 255 
-0.168556 0.229638 2.33095 0 255 0 255 
-0.16123 0.230834 2.3381 0 255 0 255 
-0.16348 0.23412 2.35181 0 255 0 255 
-0.158764 0.235889 2.36076 0 255 0 255 
-0.154917 0.237849 2.3703 0 255 0 255 
-0.073624 0.245832 2.42638 0 255 0 255 
-0.062683 0.246373 2.43159 0 255 0 255 
-0.299429 0.331264 2.279 255 0 0 255 
-0.294759 0.333026 2.291 255 0 0 255 
-0.289267 0.333916 2.297 255 0 0 255 
-0.283002 0.333933 2.297 255 0 0 255 
-0.276736 0.33395 2.297 255 0 0 255 
-0.270351 0.333822 2.296 255 0 0 255 
-0.264201 0.333983 2.297 255 0 0 255 
-0.258157 0.33429 2.299 255 0 0 255 
-0.252102 0.334597 2.301 255 0 0 255 
-0.246141 0.335049 2.304 255 0 0 255 
-0.240059 0.335355 2.306 255 0 0 255 
-0.234574 0.336533 2.314 255 0 0 255 
-0.229044 0.337711 2.322 255 0 0 255 
-0.223949 0.339616 2.335 255 0 0 255 
-0.214683 0.335121 2.304 255 0 0 255 
-0.205766 0.330917 2.275 255 0 0 255 
-0.198761 0.32962 2.266 255 0 0 255 
-0.191635 0.328033 2.255 255 0 0 255 
-0.184485 0.326299 2.243 255 0 0 255 
-0.17756 0.324856 2.233 255 0 0 255 
-0.170766 0.323558 2.224 255 0 0 255 
-0.164242 0.322696 2.218 255 0 0 255 
-0.157537 0.321397 2.209 255 0 0 255 
-0.15088 0.320098 2.2 255 0 0 255 
-0.144206 0.318652 2.19 255 0 0 255 
-0.137776 0.317643 2.183 255 0 0 255 
-0.131625 0.317216 2.18 255 0 0 255 
-0.12549 0.316787 2.177 255 0 0 255 
-0.11948 0.31665 2.176 255 0 0 255 
-0.113319 0.316076 2.172 255 0 0 255 
-0.107279 0.315792 2.17 255 0 0 255 
-0.101202 0.315362 2.167 255 0 0 255 
-0.095317 0.315514 2.168 255 0 0 255 
-0.089426 0.315666 2.169 255 0 0 255 
-0.083492 0.315672 2.169 255 0 0 255 
-0.077449 0.315241 2.166 255 0 0 255 
-0.071522 0.315246 2.166 255 0 0 255 
-0.065564 0.315105 2.165 255 0 0 255 
-0.059556 0.314672 2.162 255 0 0 255 
-0.053614 0.314531 2.161 255 0 0 255 
-0.047677 0.314388 2.16 255 0 0 255 
-0.041823 0.314828 2.163 255 0 0 255 
-0.035886 0.314685 2.162 255 0 0 255 
-0.029982 0.314833 2.163 255 0 0 255 
-0.024095 0.315271 2.166 255 0 0 255 
-0.018191 0.315709 2.169 255 0 0 255 
-0.012265 0.316002 2.171 255 0 0 255 
-0.006323 0.316002 2.171 255 0 0 255 
-0.00038 0.315857 2.17 255 0 0 255 
0.005563 0.316002 2.171 255 0 0 255 
0.011516 0.316293 2.173 255 0 0 255 
0.017481 0.316583 2.175 255 0 0 255 
0.023456 0.316873 2.177 255 0 0 255 
0.029428 0.317016 2.178 255 0 0 255 
0.035439 0.317451 2.181 255 0 0 255 
0.041484 0.318031 2.185 255 0 0 255 
0.04753 0.318464 2.188 255 0 0 255 
0.053567 0.318752 2.19 255 0 0 255 
0.059534 0.318603 2.189 255 0 0 255 
0.065615 0.319035 2.192 255 0 0 255 
0.071679 0.319321 2.194 255 0 0 255 
0.077754 0.319608 2.196 255 0 0 255 
0.083839 0.319893 2.198 255 0 0 255 
0.090058 0.320615 2.203 255 0 0 255 
0.096522 0.322064 2.213 255 0 0 255 
0.102994 0.323367 2.222 255 0 0 255 
0.10922 0.323797 2.225 255 0 0 255 
0.114685 0.322043 2.213 255 0 0 255 
0.120138 0.320435 2.202 255 0 0 255 
0.125645 0.319117 2.193 255 0 0 255 
0.131283 0.318235 2.187 255 0 0 255 
0.13695 0.317499 2.182 255 0 0 255 
0.142655 0.316908 2.178 255 0 0 255 
0.14861 0.316898 2.178 255 0 0 255 
0.154352 0.316452 2.175 255 0 0 255 
0.160077 0.316005 2.172 255 0 0 255 
0.165862 0.315703 2.17 255 0 0 255 
0.171951 0.315983 2.172 255 0 0 255 
0.178215 0.316554 2.176 255 0 0 255 
0.184415 0.316979 2.179 255 0 0 255 
0.190806 0.317694 2.184 255 0 0 255 
0.197584 0.318991 2.193 255 0 0 255 
0.204967 0.32116 2.208 255 0 0 255 
-0.080031 0.296064 2.40718 255 255 0 255 
-0.066885 0.295696 2.40337 255 255 0 255 
-0.056334 0.294935 2.39784 255 255 0 255 
-0.054374 0.292828 2.38647 255 255 0 255 
-0.037848 0.293028 2.38515 255 255 0 255 
-0.023916 0.292833 2.38212 255 255 0 255 
-0.004877 0.293469 2.38274 255 255 0 255 
-0.004658 0.291106 2.37026 255 255 0 255 
0.003246 0.289977 2.36317 255 255 0 255 
0.00688 0.288164 2.35309 255 255 0 255 
0.014769 0.287043 2.34605 255 255 0 255 
0.02265 0.285927 2.33903 255 255 0 255 
0.032219 0.285095 2.33325 255 255 0 255 
0.035837 0.283291 2.32322 255 255 0 255 
0.035216 0.280787 2.3101 255 255 0 255 
0.032064 0.277856 2.29509 255 255 0 255 
0.034847 0.275907 2.2844 255 255 0 255 
0.037631 0.273957 2.2737 255 255 0 255 
0.037886 0.271581 2.26112 255 255 0 255 
0.09719 0.269611 2.24203 255 255 0 255 
0.112519 0.269852 2.24106 255 255 0 255 
0.116096 0.268075 2.23113 255 255 0 255 
0.124694 0.267172 2.22508 255 255 0 255 
0.132445 0.266128 2.21841 255 255 0 255 
0.131838 0.263625 2.20525 255 255 0 255 
-0.253935 0.224138 2.33131 0 255 0 255 
-0.243223 0.224481 2.33577 0 255 0 255 
-0.233366 0.22503 2.34088 0 255 0 255 
-0.192774 0.221506 2.33679 0 255 0 255 
-0.175911 0.220549 2.3373 0 255 0 255 
-0.166853 0.221344 2.34324 0 255 0 255 
-0.167361 0.224259 2.35575 0 255 0 255 
-0.161776 0.225829 2.3641 0 255 0 255 
-0.160548 0.228359 2.37541 0 255 0 255 
-0.148848 0.228601 2.37967 0 255 0 255 
-0.144121 0.230374 2.38865 0 255 0 255 
-0.138518 0.23196 2.39706 0 255 0 255 
-0.13116 0.233173 2.40433 0 255 0 255 
-0.081075 0.236533 2.43256 0 255 0 255 
-0.064865 0.235934 2.43438 0 255 0 255 
-0.054795 0.236646 2.44021 0 255 0 255 
-0.299578 0.325196 2.28 255 0 0 255 
-0.295034 0.327068 2.293 255 0 0 255 
-0.28941 0.327798 2.298 255 0 0 255 
-0.283142 0.327816 2.298 255 0 0 255 
-0.277114 0.328118 2.3 255 0 0 255 
-0.270839 0.328134 2.3 255 0 0 255 
-0.264678 0.328293 2.301 255 0 0 255 
-0.25851 0.328452 2.302 255 0 0 255 
-0.252337 0.32861 2.303 255 0 0 255 
-0.246477 0.329196 2.307 255 0 0 255 
-0.240491 0.329639 2.31 255 0 0 255 
-0.234994 0.330796 2.318 255 0 0 255 
-0.229157 0.331524 2.323 255 0 0 255 
-0.224155 0.333536 2.337 255 0 0 255 
-0.215349 0.329839 2.311 255 0 0 255 
-0.206503 0.325856 2.283 255 0 0 255 
-0.199037 0.32387 2.269 255 0 0 255 
-0.191817 0.32217 2.257 255 0 0 255 
-0.184744 0.320612 2.246 255 0 0 255 
-0.17781 0.319196 2.236 255 0 0 255 
-0.170777 0.317494 2.224 255 0 0 255 
-0.164253 0.316648 2.218 255 0 0 255 
-0.157618 0.315516 2.21 255 0 0 255 
-0.151027 0.314384 2.202 255 0 0 255 
-0.144282 0.312823 2.191 255 0 0 255 
-0.137911 0.311975 2.185 255 0 0 255 
-0.131754 0.311556 2.182 255 0 0 255 
-0.125671 0.311279 2.18 255 0 0 255 
-0.119598 0.311001 2.178 255 0 0 255 
-0.113535 0.310723 2.176 255 0 0 255 
-0.107434 0.310302 2.173 255 0 0 255 
-0.101302 0.309738 2.169 255 0 0 255 
-0.095367 0.309744 2.169 255 0 0 255 
-0.089474 0.309893 2.17 255 0 0 255 
-0.083536 0.309899 2.17 255 0 0 255 
-0.077526 0.309618 2.168 255 0 0 255 
-0.071559 0.30948 2.167 255 0 0 255 
-0.065598 0.309342 2.166 255 0 0 255 
-0.059588 0.308918 2.163 255 0 0 255 
-0.053618 0.308636 2.161 255 0 0 255 
-0.047703 0.308639 2.161 255 0 0 255 
-0.041826 0.308928 2.163 255 0 0 255 
-0.035905 0.308931 2.163 255 0 0 255 
-0.029984 0.308933 2.163 255 0 0 255 
-0.024108 0.309506 2.167 255 0 0 255 
-0.018209 0.310079 2.171 255 0 0 255 
-0.012277 0.310365 2.173 255 0 0 255 
-0.006329 0.310366 2.173 255 0 0 255 
-0.00038 0.310366 2.173 255 0 0 255 
0.005571 0.310509 2.174 255 0 0 255 
0.011533 0.310794 2.176 255 0 0 255 
0.017514 0.311221 2.179 255 0 0 255 
0.023522 0.311791 2.183 255 0 0 255 
0.029511 0.311932 2.184 255 0 0 255 
0.035522 0.312216 2.186 255 0 0 255 
0.041563 0.312642 2.189 255 0 0 255 
0.04762 0.313067 2.192 255 0 0 255 
0.053644 0.313207 2.193 255 0 0 255 
0.059647 0.313203 2.193 255 0 0 255 
0.065739 0.313627 2.196 255 0 0 255 
0.071814 0.313908 2.198 255 0 0 255 
0.0779 0.314189 2.2 255 0 0 255 
0.083959 0.314327 2.201 255 0 0 255 
0.090105 0.314749 2.204 255 0 0 255 
0.096528 0.316028 2.213 255 0 0 255 
0.103047 0.31745 2.223 255 0 0 255 
0.109374 0.318157 2.228 255 0 0 255 
0.114744 0.31615 2.214 255 0 0 255 
0.120255 0.314715 2.204 255 0 0 255 
0.125711 0.313279 2.194 255 0 0 255 
0.131352 0.312414 2.188 255 0 0 255 
0.137022 0.311691 2.183 255 0 0 255 
0.142664 0.310968 2.178 255 0 0 255 
0.14862 0.310959 2.178 255 0 0 255 
0.154362 0.310521 2.175 255 0 0 255 
0.160309 0.31051 2.175 255 0 0 255 
0.166178 0.310357 2.174 255 0 0 255 
0.172437 0.310917 2.178 255 0 0 255 
0.178718 0.311477 2.182 255 0 0 255 
0.184765 0.311608 2.183 255 0 0 255 
0.191517 0.312881 2.192 255 0 0 255 
0.199398 0.315866 2.213 255 0 0 255 
-0.091363 0.285751 2.41355 255 255 0 255 
-0.082501 0.284719 2.40677 255 255 0 255 
-0.068496 0.284516 2.40352 255 255 0 255 
-0.053656 0.284461 2.40091 255 255 0 255 
-0.046553 0.283178 2.39308 255 255 0 255 
-0.032609 0.283005 2.38999 255 255 0 255 
-0.019541 0.282705 2.38637 255 255 0 255 
-0.008203 0.282136 2.38162 255 255 0 255 
-0.001148 0.280878 2.37391 255 255 0 255 
0.003341 0.279203 2.36443 255 255 0 255 
0.015493 0.278795 2.36038 255 255 0 255 
0.022522 0.27755 2.35274 255 255 0 255 
0.028694 0.276168 2.34452 255 255 0 255 
0.035708 0.274931 2.33692 255 255 0 255 
0.039324 0.273128 2.32689 255 255 0 255 
0.039551 0.270755 2.3144 255 255 0 255 
0.039784 0.268378 2.30188 255 255 0 255 
0.044252 0.266717 2.29245 255 255 0 255 
0.046184 0.264625 2.28115 255 255 0 255 
0.042215 0.261519 2.26546 255 255 0 255 
0.103393 0.257608 2.23514 255 255 0 255 
0.118702 0.257894 2.2342 255 255 0 255 
0.124787 0.256562 2.22621 255 255 0 255 
0.140056 0.256869 2.22537 255 255 0 255 
0.141948 0.254804 2.21418 255 255 0 255 
-0.249977 0.212706 2.32974 0 255 0 255 
-0.2384 0.212832 2.33361 0 255 0 255 
-0.226808 0.212969 2.33754 0 255 0 255 
-0.205664 0.210953 2.33488 0 255 0 255 
-0.187092 0.209549 2.33413 0 255 0 255 
-0.175442 0.20973 2.33825 0 255 0 255 
-0.169863 0.211288 2.34659 0 255 0 255 
-0.1695 0.214018 2.3585 0 255 0 255 
-0.163917 0.215581 2.36685 0 255 0 255 
-0.161816 0.217921 2.37756 0 255 0 255 
-0.15361 0.218911 2.38418 0 255 0 255 
-0.15238 0.221446 2.39548 0 255 0 255 
-0.151153 0.22398 2.40678 0 255 0 255 
-0.143807 0.225173 2.41402 0 255 0 255 
-0.082371 0.225943 2.43477 0 255 0 255 
-0.302355 0.32192 2.301 255 0 0 255 
-0.295823 0.321657 2.299 255 0 0 255 
-0.289679 0.321815 2.3 255 0 0 255 
-0.283529 0.321971 2.301 255 0 0 255 
-0.277372 0.322128 2.302 255 0 0 255 
-0.271208 0.322284 2.303 255 0 0 255 
-0.264924 0.3223 2.303 255 0 0 255 
-0.258863 0.322596 2.305 255 0 0 255 
-0.252681 0.322751 2.306 255 0 0 255 
-0.247026 0.323606 2.312 255 0 0 255 
-0.24113 0.324181 2.316 255 0 0 255 
-0.235414 0.325035 2.322 255 0 0 255 
-0.229566 0.32575 2.327 255 0 0 255 
-0.224265 0.327304 2.338 255 0 0 255 
-0.215921 0.324377 2.317 255 0 0 255 
-0.207239 0.32075 2.291 255 0 0 255 
-0.1994 0.318243 2.273 255 0 0 255 
-0.191829 0.316015 2.257 255 0 0 255 
-0.184838 0.314626 2.247 255 0 0 255 
-0.177981 0.313378 2.238 255 0 0 255 
-0.170941 0.311708 2.226 255 0 0 255 
-0.164115 0.310319 2.216 255 0 0 255 
-0.157486 0.309209 2.208 255 0 0 255 
-0.151037 0.308378 2.202 255 0 0 255 
-0.144554 0.307407 2.195 255 0 0 255 
-0.138172 0.306576 2.189 255 0 0 255 
-0.132004 0.306164 2.186 255 0 0 255 
-0.125852 0.305752 2.183 255 0 0 255 
-0.119715 0.30534 2.18 255 0 0 255 
-0.113595 0.304927 2.177 255 0 0 255 
-0.10749 0.304514 2.174 255 0 0 255 
-0.101402 0.304101 2.171 255 0 0 255 
-0.095418 0.303967 2.17 255 0 0 255 
-0.089521 0.304113 2.171 255 0 0 255 
-0.083618 0.304259 2.172 255 0 0 255 
-0.077638 0.304124 2.171 255 0 0 255 
-0.071663 0.303989 2.17 255 0 0 255 
-0.065633 0.303573 2.167 255 0 0 255 
-0.059564 0.302877 2.162 255 0 0 255 
-0.053621 0.30274 2.161 255 0 0 255 
-0.047728 0.302884 2.162 255 0 0 255 
-0.041868 0.303307 2.165 255 0 0 255 
-0.035924 0.30317 2.164 255 0 0 255 
-0.029986 0.303032 2.163 255 0 0 255 
-0.024087 0.303314 2.165 255 0 0 255 
-0.01821 0.304156 2.171 255 0 0 255 
-0.012284 0.304577 2.174 255 0 0 255 
-0.006335 0.304718 2.175 255 0 0 255 
-0.000381 0.304718 2.175 255 0 0 255 
0.005577 0.304858 2.176 255 0 0 255 
0.011544 0.305137 2.178 255 0 0 255 
0.017539 0.305697 2.182 255 0 0 255 
0.023545 0.306116 2.185 255 0 0 255 
0.02954 0.306254 2.186 255 0 0 255 
0.035557 0.306532 2.188 255 0 0 255 
0.041585 0.30681 2.19 255 0 0 255 
0.047667 0.307367 2.194 255 0 0 255 
0.053697 0.307504 2.195 255 0 0 255 
0.059732 0.30764 2.196 255 0 0 255 
0.065773 0.307776 2.197 255 0 0 255 
0.071884 0.308192 2.2 255 0 0 255 
0.078047 0.308748 2.204 255 0 0 255 
0.084155 0.309023 2.206 255 0 0 255 
0.090356 0.309577 2.21 255 0 0 255 
0.096709 0.310552 2.217 255 0 0 255 
0.103239 0.311946 2.227 255 0 0 255 
0.109627 0.31278 2.233 255 0 0 255 
0.115062 0.310951 2.22 255 0 0 255 
0.120426 0.309123 2.207 255 0 0 255 
0.125948 0.307854 2.198 255 0 0 255 
0.13148 0.306726 2.19 255 0 0 255 
0.137219 0.306157 2.186 255 0 0 255 
0.143001 0.305728 2.183 255 0 0 255 
0.149039 0.305858 2.184 255 0 0 255 
0.154798 0.305429 2.181 255 0 0 255 
0.160761 0.305419 2.181 255 0 0 255 
0.166647 0.305268 2.18 255 0 0 255 
0.172844 0.305678 2.183 255 0 0 255 
0.179057 0.306087 2.186 255 0 0 255 
0.1852 0.306355 2.188 255 0 0 255 
0.191529 0.306904 2.192 255 0 0 255 
-0.083506 0.27603 2.4201 255 255 0 255 
-0.077231 0.2746 2.41159 255 255 0 255 
-0.068387 0.273593 2.40484 255 255 0 255 
-0.053551 0.273572 2.40222 255 255 0 255 
-0.038738 0.273563 2.39967 255 255 0 255 
-0.031652 0.272297 2.39187 255 255 0 255 
-0.022008 0.27146 2.38587 255 255 0 255 
-0.007254 0.271481 2.38348 255 255 0 255 
-0.0002 0.270233 2.37577 255 255 0 255 
0.012811 0.269988 2.37229 255 255 0 255 
0.02495 0.269611 2.36826 255 255 0 255 
0.03537 0.268956 2.36307 255 255 0 255 
0.03898 0.267155 2.35305 255 255 0 255 
0.039196 0.264777 2.34059 255 255 0 255 
0.037724 0.262105 2.32689 255 255 0 255 
0.037109 0.259575 2.31377 255 255 0 255 
0.039041 0.257478 2.30248 255 255 0 255 
0.047735 0.25655 2.29614 255 255 0 255 
0.043758 0.253426 2.28049 255 255 0 255 
0.109356 0.247994 2.24078 255 255 0 255 
0.122981 0.248018 2.23855 255 255 0 255 
0.132405 0.247299 2.23316 255 255 0 255 
0.147661 0.247647 2.23233 255 255 0 255 
0.150382 0.245731 2.22181 255 255 0 255 
-0.249484 0.202041 2.33061 0 255 0 255 
-0.23618 0.201742 2.33329 0 255 0 255 
-0.219396 0.200656 2.3336 0 255 0 255 
-0.197388 0.198393 2.33038 0 255 0 255 
-0.180551 0.197346 2.33087 0 255 0 255 
-0.172372 0.1983 2.33741 0 255 0 255 
-0.172003 0.20104 2.34934 0 255 0 255 
-0.166422 0.202594 2.35769 0 255 0 255 
-0.163447 0.204742 2.36783 0 255 0 255 
-0.163956 0.207675 2.38031 0 255 0 255 
-0.161856 0.210017 2.39102 0 255 0 255 
-0.161503 0.212749 2.40289 0 255 0 255 
-0.160281 0.215283 2.41416 0 255 0 255 
-0.15207 0.216264 2.4208 0 255 0 255 
-0.302241 0.31551 2.3 255 0 0 255 
-0.296098 0.315665 2.301 255 0 0 255 
-0.289822 0.315682 2.301 255 0 0 255 
-0.283668 0.315835 2.302 255 0 0 255 
-0.277509 0.315989 2.303 255 0 0 255 
-0.271342 0.316142 2.304 255 0 0 255 
-0.265055 0.316158 2.304 255 0 0 255 
-0.258991 0.316448 2.306 255 0 0 255 
-0.252915 0.316738 2.308 255 0 0 255 
-0.247255 0.317576 2.314 255 0 0 255 
-0.241353 0.31814 2.318 255 0 0 255 
-0.235631 0.318978 2.324 255 0 0 255 
-0.229876 0.319815 2.33 255 0 0 255 
-0.224375 0.321065 2.339 255 0 0 255 
-0.215935 0.318058 2.317 255 0 0 255 
-0.207885 0.315463 2.298 255 0 0 255 
-0.199939 0.312867 2.279 255 0 0 255 
-0.192181 0.310408 2.261 255 0 0 255 
-0.184932 0.308635 2.248 255 0 0 255 
-0.177912 0.307136 2.237 255 0 0 255 
-0.170798 0.305362 2.224 255 0 0 255 
-0.164126 0.304274 2.216 255 0 0 255 
-0.157567 0.303323 2.209 255 0 0 255 
-0.151115 0.302508 2.203 255 0 0 255 
-0.144695 0.301694 2.197 255 0 0 255 
-0.138307 0.300879 2.191 255 0 0 255 
-0.132194 0.300613 2.189 255 0 0 255 
-0.125975 0.300071 2.185 255 0 0 255 
-0.119833 0.299667 2.182 255 0 0 255 
-0.113759 0.2994 2.18 255 0 0 255 
-0.107695 0.299132 2.178 255 0 0 255 
-0.101595 0.298727 2.175 255 0 0 255 
-0.095512 0.298321 2.172 255 0 0 255 
-0.089527 0.29819 2.171 255 0 0 255 
-0.083662 0.29847 2.173 255 0 0 255 
-0.077715 0.298475 2.173 255 0 0 255 
-0.071668 0.298068 2.17 255 0 0 255 
-0.065637 0.29766 2.167 255 0 0 255 
-0.059623 0.297252 2.164 255 0 0 255 
-0.053699 0.297256 2.164 255 0 0 255 
-0.047775 0.297259 2.164 255 0 0 255 
-0.04189 0.297537 2.166 255 0 0 255 
-0.035943 0.297402 2.165 255 0 0 255 
-0.030016 0.297404 2.165 255 0 0 255 
-0.024122 0.297818 2.168 255 0 0 255 
-0.01822 0.298369 2.172 255 0 0 255 
-0.012296 0.298919 2.176 255 0 0 255 
-0.006341 0.299057 2.177 255 0 0 255 
-0.000381 0.299057 2.177 255 0 0 255 
0.005587 0.299469 2.18 255 0 0 255 
0.011561 0.299606 2.181 255 0 0 255 
0.017565 0.300155 2.185 255 0 0 255 
0.023568 0.300428 2.187 255 0 0 255 
0.029583 0.300701 2.189 255 0 0 255 
0.035608 0.300974 2.191 255 0 0 255 
0.041683 0.301521 2.195 255 0 0 255 
0.047757 0.30193 2.198 255 0 0 255 
0.053823 0.302201 2.2 255 0 0 255 
0.059845 0.302198 2.2 255 0 0 255 
0.065927 0.302468 2.202 255 0 0 255 
0.071987 0.302601 2.203 255 0 0 255 
0.078123 0.303009 2.206 255 0 0 255 
0.084352 0.30369 2.211 255 0 0 255 
0.090525 0.304097 2.214 255 0 0 255 
0.096802 0.304777 2.219 255 0 0 255 
0.103106 0.305458 2.224 255 0 0 255 
0.109634 0.306687 2.233 255 0 0 255 
0.115225 0.305307 2.223 255 0 0 255 
0.120598 0.303514 2.21 255 0 0 255 
0.126243 0.302545 2.203 255 0 0 255 
0.131969 0.30185 2.198 255 0 0 255 
0.137793 0.301429 2.195 255 0 0 255 
0.1436 0.301008 2.192 255 0 0 255 
0.149594 0.300999 2.192 255 0 0 255 
0.155517 0.300852 2.191 255 0 0 255 
0.161435 0.300705 2.19 255 0 0 255 
0.167269 0.30042 2.188 255 0 0 255 
0.173172 0.300272 2.187 255 0 0 255 
0.179232 0.300399 2.188 255 0 0 255 
0.185212 0.300387 2.188 255 0 0 255 
0.191191 0.300376 2.188 255 0 0 255 
-0.099144 0.264948 2.42365 255 255 0 255 
-0.079096 0.265779 2.42433 255 255 0 255 
-0.075401 0.263934 2.41408 255 255 0 255 
-0.063986 0.26337 2.40908 255 255 0 255 
-0.056015 0.262243 2.40178 255 255 0 255 
-0.034354 0.263411 2.40391 255 255 0 255 
-0.029838 0.261727 2.39435 255 255 0 255 
-0.015926 0.261629 2.3913 255 255 0 255 
-0.009717 0.260241 2.38297 255 255 0 255 
0.00416 0.260161 2.38003 255 255 0 255 
0.011201 0.25893 2.37234 255 255 0 255 
0.026742 0.25916 2.37071 255 255 0 255 
0.038859 0.258819 2.36672 255 255 0 255 
0.041618 0.256873 2.3561 255 255 0 255 
0.037594 0.253749 2.3406 255 255 0 255 
0.031044 0.250175 2.32321 255 255 0 255 
0.034672 0.248367 2.31314 255 255 0 255 
0.043372 0.247451 2.30679 255 255 0 255 
0.045305 0.24535 2.29549 255 255 0 255 
0.096896 0.235049 2.23233 255 255 0 255 
0.122239 0.23724 2.23905 255 255 0 255 
0.128321 0.235924 2.23106 255 255 0 255 
0.141074 0.235843 2.22827 255 255 0 255 
0.144637 0.234075 2.21837 255 255 0 255 
0.152364 0.233081 2.21174 255 255 0 255 
-0.247267 0.190953 2.33027 0 255 0 255 
-0.23656 0.191234 2.33479 0 255 0 255 
-0.216321 0.189299 2.3327 0 255 0 255 
-0.191723 0.186376 2.32771 0 255 0 255 
-0.174022 0.185092 2.32763 0 255 0 255 
-0.173646 0.187843 2.33957 0 255 0 255 
-0.171539 0.19019 2.35031 0 255 0 255 
-0.166826 0.191938 2.35926 0 255 0 255 
-0.160371 0.193289 2.36705 0 255 0 255 
-0.166097 0.197428 2.38306 0 255 0 255 
-0.16661 0.200366 2.39552 0 255 0 255 
-0.164514 0.202709 2.40621 0 255 0 255 
-0.160674 0.204657 2.41574 0 255 0 255 
-0.149844 0.205034 2.42067 0 255 0 255 
-0.089353 0.205716 2.44203 0 255 0 255 
-0.302653 0.309643 2.303 255 0 0 255 
-0.296115 0.309391 2.301 255 0 0 255 
-0.290091 0.309677 2.303 255 0 0 255 
-0.283808 0.309693 2.303 255 0 0 255 
-0.277645 0.309844 2.304 255 0 0 255 
-0.271358 0.30986 2.304 255 0 0 255 
-0.2653 0.310144 2.306 255 0 0 255 
-0.259455 0.310697 2.31 255 0 0 255 
-0.253478 0.311116 2.313 255 0 0 255 
-0.247804 0.311938 2.319 255 0 0 255 
-0.24168 0.312221 2.321 255 0 0 255 
-0.235848 0.312908 2.326 255 0 0 255 
-0.230087 0.313729 2.332 255 0 0 255 
-0.224101 0.314281 2.336 255 0 0 255 
-0.215575 0.3112 2.313 255 0 0 255 
-0.20826 0.309732 2.302 255 0 0 255 
-0.200214 0.307054 2.282 255 0 0 255 
-0.192278 0.304375 2.262 255 0 0 255 
-0.184696 0.302098 2.245 255 0 0 255 
-0.177764 0.300764 2.235 255 0 0 255 
-0.170963 0.299563 2.226 255 0 0 255 
-0.164506 0.298901 2.221 255 0 0 255 
-0.158076 0.298238 2.216 255 0 0 255 
-0.151467 0.297171 2.208 255 0 0 255 
-0.144968 0.296238 2.201 255 0 0 255 
-0.138506 0.295304 2.194 255 0 0 255 
-0.132323 0.294909 2.191 255 0 0 255 
-0.126156 0.294513 2.188 255 0 0 255 
-0.11995 0.293982 2.184 255 0 0 255 
-0.113818 0.293586 2.181 255 0 0 255 
-0.107751 0.293324 2.179 255 0 0 255 
-0.101649 0.292926 2.176 255 0 0 255 
-0.095562 0.292529 2.173 255 0 0 255 
-0.089615 0.292535 2.173 255 0 0 255 
-0.083744 0.292809 2.175 255 0 0 255 
-0.077755 0.29268 2.174 255 0 0 255 
-0.071672 0.292146 2.17 255 0 0 255 
-0.065672 0.291881 2.168 255 0 0 255 
-0.059682 0.291616 2.166 255 0 0 255 
-0.053777 0.291754 2.167 255 0 0 255 
-0.047822 0.291623 2.166 255 0 0 255 
-0.041912 0.29176 2.167 255 0 0 255 
-0.035962 0.291628 2.166 255 0 0 255 
-0.03006 0.291899 2.168 255 0 0 255 
-0.024157 0.292305 2.171 255 0 0 255 
-0.018238 0.29271 2.174 255 0 0 255 
-0.012308 0.29325 2.178 255 0 0 255 
-0.006348 0.293385 2.179 255 0 0 255 
-0.000381 0.29352 2.18 255 0 0 255 
0.005593 0.293789 2.182 255 0 0 255 
0.011578 0.294058 2.184 255 0 0 255 
0.01759 0.294595 2.188 255 0 0 255 
0.023581 0.294594 2.188 255 0 0 255 
0.029612 0.294996 2.191 255 0 0 255 
0.035659 0.295398 2.194 255 0 0 255 
0.041742 0.295934 2.198 255 0 0 255 
0.047782 0.296066 2.199 255 0 0 255 
0.053875 0.296467 2.202 255 0 0 255 
0.059958 0.296732 2.204 255 0 0 255 
0.066021 0.296863 2.205 255 0 0 255 
0.072122 0.297128 2.207 255 0 0 255 
0.078234 0.297392 2.209 255 0 0 255 
0.08451 0.298195 2.215 255 0 0 255 
0.090695 0.298593 2.218 255 0 0 255 
0.096983 0.29926 2.223 255 0 0 255 
0.103298 0.299927 2.228 255 0 0 255 
0.109985 0.301536 2.24 255 0 0 255 
0.115803 0.300721 2.234 255 0 0 255 
0.120987 0.298425 2.217 255 0 0 255 
0.126709 0.29761 2.211 255 0 0 255 
0.132578 0.297198 2.208 255 0 0 255 
0.138555 0.297055 2.207 255 0 0 255 
0.144526 0.296912 2.206 255 0 0 255 
0.150491 0.296768 2.205 255 0 0 255 
0.156308 0.296355 2.202 255 0 0 255 
0.161813 0.295403 2.195 255 0 0 255 
0.167432 0.29472 2.19 255 0 0 255 
0.173182 0.294306 2.187 255 0 0 255 
0.179079 0.29416 2.186 255 0 0 255 
0.185138 0.294284 2.187 255 0 0 255 
0.191116 0.294273 2.187 255 0 0 255 
-0.096444 0.254374 2.42674 255 255 0 255 
-0.073828 0.255687 2.42913 255 255 0 255 
-0.066704 0.254422 2.42122 255 255 0 255 
-0.054441 0.25403 2.41681 255 255 0 255 
-0.052478 0.251904 2.40544 255 255 0 255 
-0.031685 0.252982 2.40697 255 255 0 255 
-0.023751 0.251887 2.39977 255 255 0 255 
-0.009848 0.251823 2.39673 255 255 0 255 
-0.005351 0.250152 2.38722 255 255 0 255 
0.00596 0.249662 2.38248 255 255 0 255 
0.013851 0.248589 2.3754 255 255 0 255 
0.026834 0.248412 2.37195 255 255 0 255 
0.038098 0.247948 2.36735 255 255 0 255 
0.046799 0.247043 2.36097 255 255 0 255 
0.047862 0.244797 2.34914 255 255 0 255 
0.041309 0.241197 2.33179 255 255 0 255 
0.046618 0.239695 2.32298 255 255 0 255 
0.04432 0.236836 2.30862 255 255 0 255 
0.040347 0.233668 2.29299 255 255 0 255 
