ply
format ascii 1.0
comment VCGLIB generated
element vertex 1245
property float x
property float y
property float z
property uchar red
property uchar green
property uchar blue
property uchar alpha
element face 0
property list uchar int vertex_indices
end_header
0.08096 0.263943 2.285 255 0 0 255 
0.08756 0.264978 2.294 255 0 0 255 
0.094128 0.265782 2.301 255 0 0 255 
0.101257 0.267971 2.32 255 0 0 255 
0.108675 0.270622 2.343 255 0 0 255 
0.113469 0.266804 2.31 255 0 0 255 
0.119377 0.265874 2.302 255 0 0 255 
0.125241 0.264943 2.294 255 0 0 255 
0.131176 0.264243 2.288 255 0 0 255 
0.137017 0.263427 2.281 255 0 0 255 
0.142945 0.262842 2.276 255 0 0 255 
0.148714 0.262025 2.269 255 0 0 255 
0.154581 0.26144 2.264 255 0 0 255 
0.160703 0.261316 2.263 255 0 0 255 
0.166968 0.261422 2.264 255 0 0 255 
0.173237 0.261528 2.265 255 0 0 255 
-0.120503 0.180081 2.45831 255 255 0 255 
-0.109894 0.179504 2.45246 255 255 0 255 
-0.091577 0.180387 2.45176 255 255 0 255 
-0.076719 0.180638 2.44886 255 255 0 255 
-0.064454 0.180415 2.44432 255 255 0 255 
-0.058196 0.179062 2.4358 255 255 0 255 
-0.039126 0.18016 2.43596 255 255 0 255 
-0.02265 0.180783 2.43447 255 255 0 255 
-0.007055 0.181256 2.43247 255 255 0 255 
0.005109 0.181084 2.42821 255 255 0 255 
0.014701 0.180427 2.42223 255 255 0 255 
0.016631 0.178288 2.41097 255 255 0 255 
0.019413 0.176314 2.40031 255 255 0 255 
0.023046 0.174505 2.39023 255 255 0 255 
0.035149 0.174364 2.38613 255 255 0 255 
0.04131 0.173062 2.37787 255 255 0 255 
0.047465 0.171763 2.36964 255 255 0 255 
0.04686 0.169123 2.35657 255 255 0 255 
0.052167 0.167659 2.34774 255 255 0 255 
0.102983 0.165321 2.32172 255 255 0 255 
0.099022 0.162 2.30617 255 255 0 255 
0.117683 0.163305 2.30745 255 255 0 255 
0.136312 0.164628 2.30883 255 255 0 255 
-0.274237 0.086991 2.25024 0 255 0 255 
-0.26532 0.087505 2.2559 0 255 0 255 
-0.258102 0.088483 2.26285 0 255 0 255 
-0.188117 0.099247 2.33537 0 255 0 255 
-0.205461 0.109523 2.37166 0 255 0 255 
-0.20682 0.112763 2.38469 0 255 0 255 
-0.201268 0.114235 2.39301 0 255 0 255 
-0.194847 0.115491 2.40076 0 255 0 255 
-0.190152 0.117191 2.4097 0 255 0 255 
-0.186322 0.119111 2.41922 0 255 0 255 
-0.176415 0.119506 2.42472 0 255 0 255 
-0.16476 0.119475 2.4291 0 255 0 255 
-0.15309 0.119454 2.43354 0 255 0 255 
-0.144015 0.120095 2.43974 0 255 0 255 
-0.133189 0.120312 2.44483 0 255 0 255 
-0.118863 0.119676 2.44772 0 255 0 255 
-0.113239 0.121205 2.45629 0 255 0 255 
-0.318077 0.251547 2.234 255 0 0 255 
-0.312127 0.251675 2.235 255 0 0 255 
-0.305758 0.251465 2.233 255 0 0 255 
-0.299937 0.251705 2.235 255 0 0 255 
-0.294498 0.252282 2.24 255 0 0 255 
-0.288903 0.252747 2.244 255 0 0 255 
-0.283536 0.253437 2.25 255 0 0 255 
-0.278259 0.25424 2.257 255 0 0 255 
-0.272943 0.255042 2.264 255 0 0 255 
-0.267706 0.255957 2.272 255 0 0 255 
-0.262769 0.25721 2.283 255 0 0 255 
-0.238141 0.257599 2.286 255 0 0 255 
-0.23078 0.256371 2.275 255 0 0 255 
-0.22407 0.25582 2.27 255 0 0 255 
-0.217579 0.255493 2.267 255 0 0 255 
-0.211103 0.255166 2.264 255 0 0 255 
-0.204281 0.254388 2.257 255 0 0 255 
-0.197057 0.253046 2.245 255 0 0 255 
-0.189644 0.251365 2.23 255 0 0 255 
-0.182723 0.250248 2.22 255 0 0 255 
-0.175936 0.249243 2.211 255 0 0 255 
-0.169504 0.248689 2.206 255 0 0 255 
-0.1631 0.248134 2.201 255 0 0 255 
-0.156936 0.247917 2.199 255 0 0 255 
-0.150645 0.247474 2.195 255 0 0 255 
-0.144244 0.246805 2.189 255 0 0 255 
-0.137938 0.246249 2.184 255 0 0 255 
-0.13172 0.245806 2.18 255 0 0 255 
-0.12558 0.245474 2.177 255 0 0 255 
-0.119402 0.24503 2.173 255 0 0 255 
-0.113349 0.244811 2.171 255 0 0 255 
-0.107208 0.244366 2.167 255 0 0 255 
-0.101323 0.244484 2.168 255 0 0 255 
-0.095299 0.244264 2.166 255 0 0 255 
-0.089409 0.244382 2.167 255 0 0 255 
-0.08336 0.244048 2.164 255 0 0 255 
-0.077398 0.24394 2.163 255 0 0 255 
-0.071442 0.243831 2.162 255 0 0 255 
-0.065612 0.244173 2.165 255 0 0 255 
-0.059738 0.244402 2.167 255 0 0 255 
-0.053803 0.244405 2.167 255 0 0 255 
-0.047889 0.244521 2.168 255 0 0 255 
-0.041951 0.244523 2.168 255 0 0 255 
-0.036029 0.244638 2.169 255 0 0 255 
-0.030088 0.24464 2.169 255 0 0 255 
-0.024157 0.244754 2.17 255 0 0 255 
-0.018238 0.245094 2.173 255 0 0 255 
-0.012325 0.245884 2.18 255 0 0 255 
-0.006371 0.246562 2.186 255 0 0 255 
-0.000383 0.247013 2.19 255 0 0 255 
0.005618 0.247126 2.191 255 0 0 255 
0.011642 0.247576 2.195 255 0 0 255 
0.017695 0.248139 2.2 255 0 0 255 
0.023775 0.248702 2.205 255 0 0 255 
0.029829 0.248814 2.206 255 0 0 255 
0.035969 0.249488 2.212 255 0 0 255 
0.042085 0.249825 2.215 255 0 0 255 
0.048348 0.250837 2.224 255 0 0 255 
0.054586 0.251511 2.23 255 0 0 255 
0.06102 0.252861 2.242 255 0 0 255 
0.06752 0.254211 2.254 255 0 0 255 
0.074216 0.256012 2.27 255 0 0 255 
0.081035 0.257925 2.287 255 0 0 255 
0.08768 0.259048 2.297 255 0 0 255 
0.094133 0.259494 2.301 255 0 0 255 
0.100913 0.260729 2.312 255 0 0 255 
0.10831 0.263317 2.335 255 0 0 255 
0.113475 0.260492 2.31 255 0 0 255 
0.119384 0.259584 2.302 255 0 0 255 
0.125248 0.258675 2.294 255 0 0 255 
0.131183 0.257991 2.288 255 0 0 255 
0.137025 0.257195 2.281 255 0 0 255 
0.142953 0.256623 2.276 255 0 0 255 
0.148722 0.255826 2.269 255 0 0 255 
0.154726 0.25548 2.266 255 0 0 255 
0.160925 0.255472 2.266 255 0 0 255 
0.167198 0.255576 2.267 255 0 0 255 
0.173552 0.255792 2.269 255 0 0 255 
-0.130993 0.169517 2.46562 255 255 0 255 
-0.119511 0.169116 2.46028 255 255 0 255 
-0.108904 0.16856 2.45442 255 255 0 255 
-0.095739 0.168504 2.45031 255 255 0 255 
-0.077455 0.169444 2.44966 255 255 0 255 
-0.066048 0.169081 2.44453 255 255 0 255 
-0.052093 0.169223 2.44117 255 255 0 255 
-0.036452 0.169707 2.43902 255 255 0 255 
-0.015718 0.171202 2.44042 255 255 0 255 
-0.009508 0.169882 2.43203 255 255 0 255 
0.003506 0.169901 2.42833 255 255 0 255 
0.010547 0.168758 2.42058 255 255 0 255 
0.022678 0.168628 2.41639 255 255 0 255 
0.028002 0.167159 2.40751 255 255 0 255 
0.030779 0.165185 2.39685 255 255 0 255 
0.040331 0.164566 2.39097 255 255 0 255 
0.04395 0.162765 2.38093 255 255 0 255 
0.049258 0.161305 2.37209 255 255 0 255 
0.045278 0.15797 2.35661 255 255 0 255 
0.046372 0.155654 2.34473 255 255 0 255 
0.113366 0.154223 2.31794 255 255 0 255 
0.127821 0.154712 2.31613 255 255 0 255 
0.138074 0.154339 2.31125 255 255 0 255 
-0.269143 0.077817 2.25989 0 255 0 255 
-0.215827 0.066338 2.2333 0 255 0 255 
-0.201074 0.094701 2.35778 0 255 0 255 
-0.206732 0.099081 2.37381 0 255 0 255 
-0.207224 0.102111 2.38626 0 255 0 255 
-0.201672 0.103576 2.39458 0 255 0 255 
-0.199577 0.105934 2.40526 0 255 0 255 
-0.194019 0.107404 2.4136 0 255 0 255 
-0.186725 0.108436 2.42081 0 255 0 255 
-0.176823 0.108811 2.42632 0 255 0 255 
-0.171247 0.110296 2.43472 0 255 0 255 
-0.157849 0.109807 2.43801 0 255 0 255 
-0.14878 0.110428 2.44421 0 255 0 255 
-0.138831 0.110838 2.44987 0 255 0 255 
-0.130612 0.111693 2.45669 0 255 0 255 
-0.111052 0.109727 2.45627 0 255 0 255 
-0.071476 0.114605 2.49227 0 255 0 255 
-0.323312 0.244775 2.228 255 0 0 255 
-0.31852 0.245779 2.237 255 0 0 255 
-0.312002 0.245464 2.234 255 0 0 255 
-0.305773 0.245369 2.233 255 0 0 255 
-0.299818 0.245494 2.234 255 0 0 255 
-0.29425 0.245947 2.238 255 0 0 255 
-0.288917 0.246621 2.244 255 0 0 255 
-0.28355 0.247294 2.25 255 0 0 255 
-0.278273 0.248077 2.257 255 0 0 255 
-0.272836 0.24875 2.263 255 0 0 255 
-0.267955 0.249973 2.274 255 0 0 255 
-0.263127 0.251305 2.286 255 0 0 255 
-0.239195 0.252455 2.296 255 0 0 255 
-0.231705 0.251147 2.284 255 0 0 255 
-0.224674 0.250279 2.276 255 0 0 255 
-0.217686 0.249411 2.268 255 0 0 255 
-0.211207 0.249092 2.265 255 0 0 255 
-0.204563 0.248552 2.26 255 0 0 255 
-0.197331 0.247243 2.248 255 0 0 255 
-0.190079 0.245823 2.235 255 0 0 255 
-0.183226 0.244843 2.226 255 0 0 255 
-0.176661 0.244192 2.22 255 0 0 255 
-0.170051 0.243431 2.213 255 0 0 255 
-0.163479 0.24267 2.206 255 0 0 255 
-0.157158 0.242238 2.202 255 0 0 255 
-0.150928 0.241916 2.199 255 0 0 255 
-0.144449 0.241154 2.192 255 0 0 255 
-0.138135 0.240612 2.187 255 0 0 255 
-0.131848 0.240069 2.182 255 0 0 255 
-0.12576 0.239855 2.18 255 0 0 255 
-0.119573 0.239422 2.176 255 0 0 255 
-0.113512 0.239208 2.174 255 0 0 255 
-0.107462 0.238994 2.172 255 0 0 255 
-0.101468 0.238889 2.171 255 0 0 255 
-0.09548 0.238784 2.17 255 0 0 255 
-0.089497 0.238679 2.169 255 0 0 255 
-0.083442 0.238354 2.166 255 0 0 255 
-0.077474 0.238248 2.165 255 0 0 255 
-0.071545 0.238252 2.165 255 0 0 255 
-0.065676 0.238476 2.167 255 0 0 255 
-0.059713 0.238369 2.166 255 0 0 255 
-0.053805 0.238482 2.167 255 0 0 255 
-0.04787 0.238485 2.167 255 0 0 255 
-0.041973 0.238708 2.169 255 0 0 255 
-0.036014 0.2386 2.168 255 0 0 255 
-0.030089 0.238712 2.169 255 0 0 255 
-0.024148 0.238713 2.169 255 0 0 255 
-0.018256 0.239375 2.175 255 0 0 255 
-0.012337 0.240146 2.182 255 0 0 255 
-0.006383 0.241027 2.19 255 0 0 255 
-0.000384 0.241357 2.193 255 0 0 255 
0.005629 0.241577 2.195 255 0 0 255 
0.011658 0.241907 2.198 255 0 0 255 
0.017728 0.242566 2.204 255 0 0 255 
0.023809 0.243005 2.208 255 0 0 255 
0.029884 0.243224 2.21 255 0 0 255 
0.036003 0.243662 2.214 255 0 0 255 
0.042144 0.244101 2.218 255 0 0 255 
0.048416 0.245089 2.227 255 0 0 255 
0.054711 0.245966 2.235 255 0 0 255 
0.061187 0.247394 2.248 255 0 0 255 
0.067674 0.248601 2.259 255 0 0 255 
0.074318 0.250138 2.273 255 0 0 255 
0.08104 0.251674 2.287 255 0 0 255 
0.087684 0.25277 2.297 255 0 0 255 
0.094179 0.253316 2.302 255 0 0 255 
0.100744 0.253971 2.308 255 0 0 255 
0.107899 0.255946 2.326 255 0 0 255 
0.113628 0.254509 2.313 255 0 0 255 
0.119494 0.253513 2.304 255 0 0 255 
0.125309 0.252516 2.295 255 0 0 255 
0.131133 0.251629 2.287 255 0 0 255 
0.137092 0.251072 2.282 255 0 0 255 
0.14296 0.250404 2.276 255 0 0 255 
0.148861 0.249846 2.271 255 0 0 255 
0.154939 0.249618 2.269 255 0 0 255 
0.161076 0.2495 2.268 255 0 0 255 
0.167354 0.249601 2.269 255 0 0 255 
0.173485 0.249483 2.268 255 0 0 255 
-0.129136 0.158686 2.46816 255 255 0 255 
-0.115081 0.158807 2.4645 255 255 0 255 
-0.101906 0.158773 2.46033 255 255 0 255 
-0.086181 0.159248 2.45793 255 255 0 255 
-0.076475 0.158567 2.45161 255 255 0 255 
-0.068493 0.157559 2.44418 255 255 0 255 
-0.053684 0.157898 2.44137 255 255 0 255 
-0.030364 0.159933 2.4444 255 255 0 255 
-0.003676 0.162664 2.44985 255 255 0 255 
-0.001737 0.160511 2.43858 255 255 0 255 
0.00531 0.159375 2.4308 255 255 0 255 
0.00895 0.157563 2.4207 255 255 0 255 
0.025325 0.15831 2.41944 255 255 0 255 
0.034039 0.157532 2.41292 255 255 0 255 
0.0402 0.156245 2.40466 255 255 0 255 
0.041278 0.153929 2.39283 255 255 0 255 
0.042361 0.151611 2.38099 255 255 0 255 
0.045983 0.149809 2.37094 255 255 0 255 
0.045386 0.147141 2.35787 255 255 0 255 
0.043955 0.144296 2.34416 255 255 0 255 
0.111789 0.143173 2.31788 255 255 0 255 
0.127078 0.143871 2.31668 255 255 0 255 
0.132316 0.142454 2.30803 255 255 0 255 
-0.276759 0.066258 2.25445 0 255 0 255 
-0.262734 0.065336 2.25639 0 255 0 255 
-0.264901 0.068856 2.27018 0 255 0 255 
-0.187654 0.074471 2.32536 0 255 0 255 
-0.194133 0.079128 2.34209 0 255 0 255 
-0.20752 0.08559 2.3635 0 255 0 255 
-0.209727 0.089087 2.37715 0 255 0 255 
-0.211082 0.092352 2.39017 0 255 0 255 
-0.20467 0.093582 2.39791 0 255 0 255 
-0.205168 0.096617 2.41033 0 255 0 255 
-0.19529 0.096955 2.41577 0 255 0 255 
-0.1854 0.097302 2.42125 0 255 0 255 
-0.179832 0.098775 2.42964 0 255 0 255 
-0.182933 0.102479 2.44377 0 255 0 255 
-0.166945 0.101286 2.44533 0 255 0 255 
-0.150067 0.099888 2.44641 0 255 0 255 
-0.141861 0.10072 2.4532 0 255 0 255 
-0.152794 0.106413 2.47239 0 255 0 255 
-0.125421 0.102404 2.46689 0 255 0 255 
-0.068417 0.102821 2.4918 0 255 0 255 
-0.046116 0.100248 2.49018 0 255 0 255 
-0.324342 0.239443 2.235 255 0 0 255 
-0.318535 0.239672 2.237 255 0 0 255 
-0.312017 0.239366 2.234 255 0 0 255 
-0.305514 0.239058 2.231 255 0 0 255 
-0.299832 0.239394 2.234 255 0 0 255 
-0.294395 0.239944 2.239 255 0 0 255 
-0.289188 0.240708 2.246 255 0 0 255 
-0.283816 0.241365 2.252 255 0 0 255 
-0.278533 0.242128 2.259 255 0 0 255 
-0.273332 0.242999 2.267 255 0 0 255 
-0.268321 0.244084 2.277 255 0 0 255 
-0.263486 0.245383 2.289 255 0 0 255 
-0.247083 0.247779 2.311 255 0 0 255 
-0.239415 0.246398 2.298 255 0 0 255 
-0.232223 0.245444 2.289 255 0 0 255 
-0.224882 0.244276 2.278 255 0 0 255 
-0.217601 0.243107 2.267 255 0 0 255 
-0.210845 0.242475 2.261 255 0 0 255 
-0.204392 0.242163 2.258 255 0 0 255 
-0.197341 0.241101 2.248 255 0 0 255 
-0.190344 0.240038 2.238 255 0 0 255 
-0.183565 0.23919 2.23 255 0 0 255 
-0.177148 0.23877 2.226 255 0 0 255 
-0.170367 0.237813 2.217 255 0 0 255 
-0.16371 0.236964 2.209 255 0 0 255 
-0.157381 0.236543 2.205 255 0 0 255 
-0.151073 0.236122 2.201 255 0 0 255 
-0.144523 0.235271 2.193 255 0 0 255 
-0.138142 0.234635 2.187 255 0 0 255 
-0.131915 0.234212 2.183 255 0 0 255 
-0.125824 0.234004 2.181 255 0 0 255 
-0.119689 0.233689 2.178 255 0 0 255 
-0.11357 0.233373 2.175 255 0 0 255 
-0.107566 0.233272 2.174 255 0 0 255 
-0.10152 0.233062 2.172 255 0 0 255 
-0.095529 0.23296 2.171 255 0 0 255 
-0.089543 0.232858 2.17 255 0 0 255 
-0.083562 0.232755 2.169 255 0 0 255 
-0.077586 0.232652 2.168 255 0 0 255 
-0.071648 0.232656 2.168 255 0 0 255 
-0.06568 0.232552 2.167 255 0 0 255 
-0.059772 0.232663 2.168 255 0 0 255 
-0.053858 0.232773 2.169 255 0 0 255 
-0.047939 0.232883 2.17 255 0 0 255 
-0.042033 0.2331 2.172 255 0 0 255 
-0.036083 0.233102 2.172 255 0 0 255 
-0.030147 0.233211 2.173 255 0 0 255 
-0.024205 0.23332 2.174 255 0 0 255 
-0.018282 0.233751 2.178 255 0 0 255 
-0.012361 0.23461 2.186 255 0 0 255 
-0.006389 0.235254 2.192 255 0 0 255 
-0.000384 0.235684 2.196 255 0 0 255 
0.005634 0.235791 2.197 255 0 0 255 
0.01168 0.236327 2.202 255 0 0 255 
0.017745 0.236756 2.206 255 0 0 255 
0.02381 0.236969 2.208 255 0 0 255 
0.0299 0.23729 2.211 255 0 0 255 
0.03607 0.238039 2.218 255 0 0 255 
0.042242 0.238574 2.223 255 0 0 255 
0.04857 0.239752 2.234 255 0 0 255 
0.054886 0.240608 2.242 255 0 0 255 
0.061354 0.241893 2.254 255 0 0 255 
0.067827 0.242962 2.264 255 0 0 255 
0.07442 0.244246 2.276 255 0 0 255 
0.08115 0.245745 2.29 255 0 0 255 
0.087804 0.246813 2.3 255 0 0 255 
0.094307 0.247345 2.305 255 0 0 255 
0.10075 0.247662 2.308 255 0 0 255 
0.107626 0.248944 2.32 255 0 0 255 
0.113733 0.248402 2.315 255 0 0 255 
0.119656 0.247537 2.307 255 0 0 255 
0.12548 0.246565 2.298 255 0 0 255 
0.131254 0.245593 2.289 255 0 0 255 
0.137159 0.244942 2.283 255 0 0 255 
0.143031 0.244291 2.277 255 0 0 255 
0.149 0.243855 2.273 255 0 0 255 
0.154947 0.243418 2.269 255 0 0 255 
0.161084 0.243302 2.268 255 0 0 255 
0.167363 0.243401 2.269 255 0 0 255 
0.173494 0.243285 2.268 255 0 0 255 
0.179618 0.243169 2.267 255 0 0 255 
-0.136189 0.148718 2.47777 255 255 0 255 
-0.123842 0.148527 2.47293 255 255 0 255 
-0.114089 0.14784 2.46647 255 255 0 255 
-0.098345 0.148341 2.46399 255 255 0 255 
-0.080915 0.149192 2.4627 255 255 0 255 
-0.07036 0.148702 2.45696 255 255 0 255 
-0.063239 0.147539 2.44897 255 255 0 255 
-0.04417 0.148768 2.44903 255 255 0 255 
-0.020869 0.150867 2.45206 255 255 0 255 
0.003242 0.153159 2.45579 255 255 0 255 
6.9e-05 0.149974 2.44105 255 255 0 255 
0.008815 0.149194 2.43444 255 255 0 255 
0.012453 0.147383 2.42434 255 255 0 255 
0.030516 0.148517 2.42425 255 255 0 255 
0.040071 0.14793 2.41833 255 255 0 255 
0.04538 0.14648 2.40949 255 255 0 255 
0.042226 0.143286 2.39469 255 255 0 255 
0.042466 0.140785 2.38225 255 255 0 255 
0.049465 0.139685 2.3746 255 255 0 255 
0.053084 0.137885 2.36455 255 255 0 255 
0.050808 0.134851 2.35026 255 255 0 255 
0.11965 0.131578 2.31225 255 255 0 255 
0.131577 0.131601 2.30858 255 255 0 255 
-0.272915 0.054464 2.25281 0 255 0 255 
-0.273375 0.057526 2.26536 0 255 0 255 
-0.179493 0.061392 2.32097 0 255 0 255 
-0.196279 0.068846 2.34485 0 255 0 255 
-0.206213 0.074437 2.36388 0 255 0 255 
-0.20583 0.077264 2.37577 0 255 0 255 
-0.208038 0.080774 2.38939 0 255 0 255 
-0.209393 0.084049 2.40241 0 255 0 255 
-0.213346 0.088002 2.41714 0 255 0 255 
-0.200019 0.087408 2.42025 0 255 0 255 
-0.180618 0.085241 2.41939 0 255 0 255 
-0.179376 0.087839 2.43067 0 255 0 255 
-0.189406 0.093366 2.44937 0 255 0 255 
-0.182106 0.094379 2.45662 0 255 0 255 
-0.162643 0.092259 2.45597 0 255 0 255 
-0.138806 0.089041 2.45259 0 255 0 255 
-0.141897 0.092769 2.46673 0 255 0 255 
-0.136293 0.094262 2.47525 0 255 0 255 
-0.069736 0.092107 2.49406 0 255 0 255 
-0.330301 0.233222 2.234 255 0 0 255 
-0.323777 0.232924 2.231 255 0 0 255 
-0.318407 0.23346 2.236 255 0 0 255 
-0.311891 0.233161 2.233 255 0 0 255 
-0.305665 0.233071 2.232 255 0 0 255 
-0.299846 0.233294 2.234 255 0 0 255 
-0.294278 0.233725 2.238 255 0 0 255 
-0.289202 0.234574 2.246 255 0 0 255 
-0.284081 0.235423 2.254 255 0 0 255 
-0.278793 0.236168 2.261 255 0 0 255 
-0.273465 0.236912 2.268 255 0 0 255 
-0.268452 0.237969 2.278 255 0 0 255 
-0.263728 0.23934 2.291 255 0 0 255 
-0.245919 0.240317 2.3 255 0 0 255 
-0.239323 0.240015 2.297 255 0 0 255 
-0.232336 0.239295 2.29 255 0 0 255 
-0.225091 0.238261 2.28 255 0 0 255 
-0.21742 0.236704 2.265 255 0 0 255 
-0.210576 0.235983 2.258 255 0 0 255 
-0.204131 0.23568 2.255 255 0 0 255 
-0.197351 0.234958 2.248 255 0 0 255 
-0.190608 0.234236 2.241 255 0 0 255 
-0.183821 0.233409 2.233 255 0 0 255 
-0.177475 0.233105 2.23 255 0 0 255 
-0.170606 0.232068 2.22 255 0 0 255 
-0.16394 0.23124 2.212 255 0 0 255 
-0.157389 0.230516 2.205 255 0 0 255 
-0.151218 0.230315 2.203 255 0 0 255 
-0.14486 0.2298 2.198 255 0 0 255 
-0.138465 0.229179 2.192 255 0 0 255 
-0.132103 0.228559 2.186 255 0 0 255 
-0.125831 0.228043 2.181 255 0 0 255 
-0.119751 0.22784 2.179 255 0 0 255 
-0.113733 0.227741 2.178 255 0 0 255 
-0.10777 0.227747 2.178 255 0 0 255 
-0.101713 0.227543 2.176 255 0 0 255 
-0.095622 0.227234 2.173 255 0 0 255 
-0.089589 0.22703 2.171 255 0 0 255 
-0.083643 0.227034 2.171 255 0 0 255 
-0.077697 0.227039 2.171 255 0 0 255 
-0.071751 0.227042 2.171 255 0 0 255 
-0.065744 0.226837 2.169 255 0 0 255 
-0.059858 0.227049 2.171 255 0 0 255 
-0.053911 0.227052 2.171 255 0 0 255 
-0.047985 0.227159 2.172 255 0 0 255 
-0.041996 0.226953 2.17 255 0 0 255 
-0.036068 0.227059 2.171 255 0 0 255 
-0.030162 0.227375 2.174 255 0 0 255 
-0.02425 0.227794 2.178 255 0 0 255 
-0.018317 0.228214 2.182 255 0 0 255 
-0.012378 0.228947 2.189 255 0 0 255 
-0.006392 0.229366 2.193 255 0 0 255 
-0.000385 0.229784 2.197 255 0 0 255 
0.005642 0.230098 2.2 255 0 0 255 
0.011691 0.230516 2.204 255 0 0 255 
0.017778 0.231142 2.21 255 0 0 255 
0.023865 0.231455 2.213 255 0 0 255 
0.029996 0.231977 2.218 255 0 0 255 
0.036154 0.232498 2.223 255 0 0 255 
0.042339 0.233019 2.228 255 0 0 255 
0.048638 0.233958 2.237 255 0 0 255 
0.055011 0.235001 2.247 255 0 0 255 
0.061547 0.236462 2.261 255 0 0 255 
0.06804 0.237505 2.271 255 0 0 255 
0.074588 0.238547 2.281 255 0 0 255 
0.08119 0.239589 2.291 255 0 0 255 
0.087808 0.240525 2.3 255 0 0 255 
0.094352 0.241148 2.306 255 0 0 255 
0.100798 0.241457 2.309 255 0 0 255 
0.107446 0.242184 2.316 255 0 0 255 
0.113788 0.242178 2.316 255 0 0 255 
0.119817 0.241545 2.31 255 0 0 255 
0.12565 0.240597 2.301 255 0 0 255 
0.131318 0.23944 2.29 255 0 0 255 
0.137166 0.238702 2.283 255 0 0 255 
0.142975 0.237963 2.276 255 0 0 255 
0.149008 0.237642 2.273 255 0 0 255 
0.155023 0.23732 2.27 255 0 0 255 
0.161092 0.237103 2.268 255 0 0 255 
0.167298 0.237095 2.268 255 0 0 255 
0.173349 0.236878 2.266 255 0 0 255 
0.179389 0.23666 2.264 255 0 0 255 
0.184926 0.235814 2.256 255 0 0 255 
-0.114257 0.139239 2.48049 255 255 0 255 
-0.109663 0.13755 2.47068 255 255 0 255 
-0.097357 0.137404 2.46595 255 255 0 255 
-0.080789 0.138126 2.46409 255 255 0 255 
-0.068526 0.138001 2.45947 255 255 0 255 
-0.054572 0.138231 2.45604 255 255 0 255 
-0.032104 0.140203 2.4584 255 255 0 255 
-0.011382 0.141848 2.45972 255 255 0 255 
0.002489 0.142119 2.45652 255 255 0 255 
0.001024 0.139261 2.44294 255 255 0 255 
0.009768 0.138497 2.43632 255 255 0 255 
0.014256 0.136862 2.42681 255 255 0 255 
0.02807 0.137162 2.42377 255 255 0 255 
0.035932 0.136239 2.41666 255 255 0 255 
0.042939 0.135145 2.40897 255 255 0 255 
0.041484 0.132283 2.39536 255 255 0 255 
0.043417 0.130126 2.38411 255 255 0 255 
0.049572 0.128858 2.37585 255 255 0 255 
0.056563 0.127772 2.36822 255 255 0 255 
0.057655 0.125437 2.35636 255 255 0 255 
0.07937 0.114649 2.29608 255 255 0 255 
0.116408 0.120137 2.31094 255 255 0 255 
0.124164 0.119271 2.30413 255 255 0 255 
-0.272481 0.043591 2.25367 0 255 0 255 
-0.280599 0.048813 2.27182 0 255 0 255 
-0.247834 0.04259 2.26019 0 255 0 255 
-0.173922 0.048951 2.31839 0 255 0 255 
-0.18811 0.05577 2.3405 0 255 0 255 
-0.206631 0.063729 2.36545 0 255 0 255 
-0.203661 0.065869 2.37558 0 255 0 255 
-0.198107 0.067316 2.38394 0 255 0 255 
-0.187372 0.067382 2.38882 0 255 0 255 
-0.205977 0.075282 2.41349 0 255 0 255 
-0.192649 0.074662 2.41664 0 255 0 255 
-0.192276 0.07749 2.42848 0 255 0 255 
-0.182385 0.077803 2.434 0 255 0 255 
-0.197251 0.08755 2.46789 0 255 0 255 
-0.162682 0.084347 2.46944 0 255 0 255 
-0.111023 0.073854 2.44821 0 255 0 255 
-0.105393 0.07536 2.45683 0 255 0 255 
-0.327359 0.22509 2.214 255 0 0 255 
-0.323646 0.226731 2.23 255 0 0 255 
-0.318563 0.227457 2.237 255 0 0 255 
-0.312185 0.227267 2.235 255 0 0 255 
-0.30609 0.227281 2.235 255 0 0 255 
-0.300128 0.227396 2.236 255 0 0 255 
-0.294423 0.227715 2.239 255 0 0 255 
-0.289344 0.228542 2.247 255 0 0 255 
-0.28422 0.229368 2.255 255 0 0 255 
-0.278929 0.230093 2.262 255 0 0 255 
-0.273478 0.230716 2.268 255 0 0 255 
-0.268582 0.231848 2.279 255 0 0 255 
-0.264201 0.233488 2.295 255 0 0 255 
-0.245182 0.23332 2.293 255 0 0 255 
-0.238709 0.233128 2.291 255 0 0 255 
-0.231942 0.23263 2.286 255 0 0 255 
-0.224806 0.231725 2.277 255 0 0 255 
-0.21743 0.230515 2.265 255 0 0 255 
-0.210586 0.229813 2.258 255 0 0 255 
-0.204231 0.229619 2.256 255 0 0 255 
-0.197536 0.229018 2.25 255 0 0 255 
-0.190958 0.228518 2.245 255 0 0 255 
-0.184077 0.227611 2.236 255 0 0 255 
-0.177484 0.227009 2.23 255 0 0 255 
-0.170692 0.226102 2.221 255 0 0 255 
-0.164023 0.225295 2.213 255 0 0 255 
-0.157611 0.224794 2.208 255 0 0 255 
-0.151225 0.224293 2.203 255 0 0 255 
-0.144867 0.223791 2.198 255 0 0 255 
-0.138472 0.223187 2.192 255 0 0 255 
-0.132231 0.222786 2.188 255 0 0 255 
-0.125953 0.222284 2.183 255 0 0 255 
-0.119812 0.221984 2.18 255 0 0 255 
-0.113739 0.221787 2.178 255 0 0 255 
-0.107775 0.221792 2.178 255 0 0 255 
-0.101764 0.221695 2.177 255 0 0 255 
-0.095671 0.221395 2.174 255 0 0 255 
-0.089635 0.221196 2.172 255 0 0 255 
-0.083647 0.221098 2.171 255 0 0 255 
-0.077737 0.221204 2.172 255 0 0 255 
-0.071755 0.221106 2.171 255 0 0 255 
-0.065808 0.22111 2.171 255 0 0 255 
-0.059971 0.22152 2.175 255 0 0 255 
-0.054062 0.221727 2.177 255 0 0 255 
-0.048098 0.221729 2.177 255 0 0 255 
-0.042076 0.221426 2.174 255 0 0 255 
-0.03612 0.221428 2.174 255 0 0 255 
-0.030164 0.22143 2.174 255 0 0 255 
-0.024263 0.22194 2.179 255 0 0 255 
-0.018318 0.222247 2.182 255 0 0 255 
-0.012384 0.223063 2.19 255 0 0 255 
-0.006393 0.223369 2.193 255 0 0 255 
-0.000385 0.223878 2.198 255 0 0 255 
0.005643 0.224082 2.2 255 0 0 255 
0.011697 0.224591 2.205 255 0 0 255 
0.017787 0.225201 2.211 255 0 0 255 
0.023899 0.225709 2.216 255 0 0 255 
0.030024 0.226115 2.22 255 0 0 255 
0.036172 0.226521 2.224 255 0 0 255 
0.04236 0.227028 2.229 255 0 0 255 
0.048641 0.227841 2.237 255 0 0 255 
0.055063 0.22906 2.249 255 0 0 255 
0.061632 0.230585 2.264 255 0 0 255 
0.068164 0.231702 2.275 255 0 0 255 
0.074722 0.232717 2.285 255 0 0 255 
0.081265 0.233528 2.293 255 0 0 255 
0.087774 0.234135 2.299 255 0 0 255 
0.094275 0.234639 2.304 255 0 0 255 
0.100716 0.23494 2.307 255 0 0 255 
0.107312 0.235546 2.313 255 0 0 255 
0.113695 0.235642 2.314 255 0 0 255 
0.119823 0.235229 2.31 255 0 0 255 
0.125602 0.234205 2.3 255 0 0 255 
0.131325 0.23318 2.29 255 0 0 255 
0.137053 0.232257 2.281 255 0 0 255 
0.142857 0.231537 2.274 255 0 0 255 
0.148818 0.231123 2.27 255 0 0 255 
0.154962 0.231013 2.269 255 0 0 255 
0.161171 0.231006 2.269 255 0 0 255 
0.167306 0.230896 2.268 255 0 0 255 
0.173434 0.230786 2.267 255 0 0 255 
0.179477 0.230573 2.265 255 0 0 255 
0.185099 0.229852 2.258 255 0 0 255 
-0.105538 0.129825 2.48748 255 255 0 255 
-0.102667 0.127796 2.47657 255 255 0 255 
-0.095512 0.126636 2.46847 255 255 0 255 
-0.085797 0.126003 2.46209 255 255 0 255 
-0.064982 0.127649 2.46311 255 255 0 255 
-0.040787 0.130015 2.46652 255 255 0 255 
-0.017489 0.132228 2.46947 255 255 0 255 
-0.003607 0.132523 2.46622 255 255 0 255 
0.005145 0.131769 2.45957 255 255 0 255 
0.001129 0.128365 2.44426 255 255 0 255 
0.006474 0.126907 2.4353 255 255 0 255 
0.008421 0.124738 2.42402 255 255 0 255 
0.020543 0.124709 2.41977 255 255 0 255 
0.0318 0.124511 2.41499 255 255 0 255 
0.035427 0.122707 2.40492 255 255 0 255 
0.039054 0.120904 2.39485 255 255 0 255 
0.041837 0.11892 2.38419 255 255 0 255 
0.05221 0.118563 2.37892 255 255 0 255 
0.055829 0.116763 2.36887 255 255 0 255 
0.059449 0.114965 2.35882 255 255 0 255 
0.032355 0.096051 2.27526 255 255 0 255 
0.09203 0.106576 2.3066 255 255 0 255 
0.114843 0.109034 2.31089 255 255 0 255 
0.129272 0.109662 2.30906 255 255 0 255 
-0.27205 0.032702 2.25454 0 255 0 255 
-0.280159 0.037959 2.27269 0 255 0 255 
-0.176085 0.038586 2.32118 0 255 0 255 
-0.176519 0.041691 2.33379 0 255 0 255 
-0.213546 0.057727 2.38362 0 255 0 255 
-0.18819 0.053785 2.37851 0 255 0 255 
-0.186933 0.056401 2.38983 0 255 0 255 
-0.183952 0.05855 2.39999 0 255 0 255 
-0.187881 0.062556 2.41477 0 255 0 255 
-0.183179 0.064238 2.42375 0 255 0 255 
-0.186259 0.068002 2.4379 0 255 0 255 
-0.181557 0.069684 2.44688 0 255 0 255 
-0.185518 0.073668 2.46155 0 255 0 255 
-0.103681 0.066874 2.46937 0 255 0 255 
-0.103271 0.069739 2.48133 0 255 0 255 
-0.102865 0.0726 2.49327 0 255 0 255 
-0.328556 0.219836 2.222 255 0 0 255 
-0.324095 0.220938 2.233 255 0 0 255 
-0.31872 0.221447 2.238 255 0 0 255 
-0.312478 0.221361 2.237 255 0 0 255 
-0.306377 0.221375 2.237 255 0 0 255 
-0.300141 0.221289 2.236 255 0 0 255 
-0.294304 0.2215 2.238 255 0 0 255 
-0.28897 0.222107 2.244 255 0 0 255 
-0.283855 0.222911 2.252 255 0 0 255 
-0.278818 0.223815 2.261 255 0 0 255 
-0.27337 0.224421 2.267 255 0 0 255 
-0.269066 0.226017 2.283 255 0 0 255 
-0.265825 0.228604 2.309 255 0 0 255 
-0.255296 0.230509 2.328 255 0 0 255 
-0.245407 0.227252 2.295 255 0 0 255 
-0.238512 0.226669 2.289 255 0 0 255 
-0.231851 0.226284 2.285 255 0 0 255 
-0.224717 0.225403 2.276 255 0 0 255 
-0.217536 0.224423 2.266 255 0 0 255 
-0.210502 0.223542 2.257 255 0 0 255 
-0.204151 0.223354 2.255 255 0 0 255 
-0.197633 0.222967 2.251 255 0 0 255 
-0.191137 0.22258 2.247 255 0 0 255 
-0.184415 0.221895 2.24 255 0 0 255 
-0.177731 0.22121 2.233 255 0 0 255 
-0.170931 0.220327 2.224 255 0 0 255 
-0.164401 0.219741 2.218 255 0 0 255 
-0.157975 0.219253 2.213 255 0 0 255 
-0.151507 0.218666 2.207 255 0 0 255 
-0.145006 0.21798 2.2 255 0 0 255 
-0.138605 0.217392 2.194 255 0 0 255 
-0.132358 0.217002 2.19 255 0 0 255 
-0.126017 0.216414 2.184 255 0 0 255 
-0.119927 0.216222 2.182 255 0 0 255 
-0.113796 0.21593 2.179 255 0 0 255 
-0.10783 0.215935 2.179 255 0 0 255 
-0.101863 0.215941 2.179 255 0 0 255 
-0.095808 0.215747 2.177 255 0 0 255 
-0.089763 0.215554 2.175 255 0 0 255 
-0.08369 0.21526 2.172 255 0 0 255 
-0.077777 0.215364 2.173 255 0 0 255 
-0.071758 0.215169 2.171 255 0 0 255 
-0.065872 0.215371 2.173 255 0 0 255 
-0.060001 0.215671 2.176 255 0 0 255 
-0.054115 0.215971 2.179 255 0 0 255 
-0.048123 0.215875 2.178 255 0 0 255 
-0.042078 0.21548 2.174 255 0 0 255 
-0.036122 0.215482 2.174 255 0 0 255 
-0.030193 0.215682 2.176 255 0 0 255 
-0.024286 0.216179 2.181 255 0 0 255 
-0.018335 0.216478 2.184 255 0 0 255 
-0.012391 0.217172 2.191 255 0 0 255 
-0.006396 0.21747 2.194 255 0 0 255 
-0.000385 0.218065 2.2 255 0 0 255 
0.005651 0.218362 2.203 255 0 0 255 
0.011714 0.218857 2.208 255 0 0 255 
0.017828 0.219649 2.216 255 0 0 255 
0.023954 0.220144 2.221 255 0 0 255 
0.030107 0.220638 2.226 255 0 0 255 
0.036239 0.220835 2.228 255 0 0 255 
0.042457 0.221428 2.234 255 0 0 255 
0.04873 0.222119 2.241 255 0 0 255 
0.055139 0.223207 2.252 255 0 0 255 
0.06169 0.224592 2.266 255 0 0 255 
0.068197 0.22558 2.276 255 0 0 255 
0.074693 0.226369 2.284 255 0 0 255 
0.081127 0.226861 2.289 255 0 0 255 
0.087741 0.227749 2.298 255 0 0 255 
0.09428 0.228339 2.304 255 0 0 255 
0.100765 0.22873 2.308 255 0 0 255 
0.107271 0.229122 2.312 255 0 0 255 
0.113701 0.229314 2.314 255 0 0 255 
0.119933 0.229111 2.312 255 0 0 255 
0.125772 0.228213 2.303 255 0 0 255 
0.131446 0.227116 2.292 255 0 0 255 
0.13712 0.226119 2.282 255 0 0 255 
0.142927 0.225419 2.275 255 0 0 255 
0.148826 0.224916 2.27 255 0 0 255 
0.15497 0.22481 2.269 255 0 0 255 
0.161108 0.224703 2.268 255 0 0 255 
0.16724 0.224596 2.267 255 0 0 255 
0.173366 0.224489 2.266 255 0 0 255 
0.179407 0.224283 2.264 255 0 0 255 
0.184698 0.223184 2.253 255 0 0 255 
-0.09082 0.121682 2.49835 255 255 0 255 
-0.090534 0.119129 2.48581 255 255 0 255 
-0.088529 0.116926 2.47437 255 255 0 255 
-0.074546 0.1172 2.47082 255 255 0 255 
-0.040079 0.121743 2.48092 255 255 0 255 
-0.024455 0.122406 2.47869 255 255 0 255 
-0.006298 0.123616 2.47824 255 255 0 255 
0.001605 0.122697 2.47099 255 255 0 255 
0.013754 0.122679 2.46665 255 255 0 255 
0.013986 0.120154 2.45426 255 255 0 255 
0.017619 0.118347 2.44417 255 255 0 255 
0.007684 0.11365 2.42474 255 255 0 255 
0.018956 0.113466 2.4199 255 255 0 255 
0.026827 0.112564 2.41274 255 255 0 255 
0.037224 0.112212 2.40738 255 255 0 255 
0.040007 0.110227 2.39672 255 255 0 255 
0.04954 0.109704 2.39083 255 255 0 255 
0.057374 0.108821 2.38377 255 255 0 255 
0.057623 0.10629 2.37133 255 255 0 255 
0.056197 0.103386 2.35766 255 255 0 255 
0.067627 0.092896 2.30241 255 255 0 255 
0.068752 0.090534 2.29048 255 255 0 255 
0.112446 0.097722 2.31023 255 255 0 255 
-0.27757 0.023508 2.25978 0 255 0 255 
-0.278022 0.026602 2.27232 0 255 0 255 
-0.190699 0.034666 2.34486 0 255 0 255 
-0.196303 0.039194 2.36094 0 255 0 255 
-0.201061 0.043474 2.37639 0 255 0 255 
-0.195504 0.044908 2.38478 0 255 0 255 
-0.181328 0.043989 2.38736 0 255 0 255 
-0.188688 0.048965 2.40449 0 255 0 255 
-0.181396 0.049938 2.41176 0 255 0 255 
-0.174096 0.050918 2.41905 0 255 0 255 
-0.175434 0.054239 2.43208 0 255 0 255 
-0.168126 0.055224 2.43939 0 255 0 255 
-0.169472 0.058541 2.4524 0 255 0 255 
-0.107602 0.056889 2.47328 0 255 0 255 
-0.091524 0.055632 2.47531 0 255 0 255 
-0.082393 0.056221 2.4818 0 255 0 255 
-0.063659 0.054308 2.48232 0 255 0 255 
-0.052754 0.054464 2.48782 0 255 0 255 
-0.329605 0.214441 2.229 255 0 0 255 
-0.324109 0.214839 2.233 255 0 0 255 
-0.319018 0.215526 2.24 255 0 0 255 
-0.312771 0.215444 2.239 255 0 0 255 
-0.306664 0.215457 2.239 255 0 0 255 
-0.300423 0.215374 2.238 255 0 0 255 
-0.29458 0.215579 2.24 255 0 0 255 
-0.289112 0.216073 2.245 255 0 0 255 
-0.283741 0.216663 2.251 255 0 0 255 
-0.278831 0.217637 2.261 255 0 0 255 
-0.273502 0.218323 2.268 255 0 0 255 
-0.269078 0.219779 2.283 255 0 0 255 
-0.266643 0.222968 2.316 255 0 0 255 
-0.254649 0.223569 2.322 255 0 0 255 
-0.245739 0.221269 2.298 255 0 0 255 
-0.238523 0.220413 2.289 255 0 0 255 
-0.231659 0.219846 2.283 255 0 0 255 
-0.224629 0.219086 2.275 255 0 0 255 
-0.217642 0.218326 2.267 255 0 0 255 
-0.210885 0.217758 2.261 255 0 0 255 
-0.204432 0.217478 2.258 255 0 0 255 
-0.197818 0.217006 2.253 255 0 0 255 
-0.191061 0.216341 2.246 255 0 0 255 
-0.184342 0.215675 2.239 255 0 0 255 
-0.17766 0.215009 2.232 255 0 0 255 
-0.171092 0.214439 2.226 255 0 0 255 
-0.164557 0.213869 2.22 255 0 0 255 
-0.158197 0.213491 2.216 255 0 0 255 
-0.151652 0.212824 2.209 255 0 0 255 
-0.145145 0.212157 2.202 255 0 0 255 
-0.138675 0.211489 2.195 255 0 0 255 
-0.132485 0.211206 2.192 255 0 0 255 
-0.126253 0.210827 2.188 255 0 0 255 
-0.120043 0.210447 2.184 255 0 0 255 
-0.113854 0.210067 2.18 255 0 0 255 
-0.107934 0.210169 2.181 255 0 0 255 
-0.101915 0.210078 2.18 255 0 0 255 
-0.0959 0.209986 2.179 255 0 0 255 
-0.08985 0.209798 2.177 255 0 0 255 
-0.08381 0.209609 2.175 255 0 0 255 
-0.077816 0.209517 2.174 255 0 0 255 
-0.071795 0.209327 2.172 255 0 0 255 
-0.065905 0.209523 2.174 255 0 0 255 
-0.06006 0.209912 2.178 255 0 0 255 
-0.054167 0.210204 2.181 255 0 0 255 
-0.048147 0.210014 2.179 255 0 0 255 
-0.042138 0.209823 2.177 255 0 0 255 
-0.036173 0.209825 2.177 255 0 0 255 
-0.03025 0.210116 2.18 255 0 0 255 
-0.02431 0.210406 2.183 255 0 0 255 
-0.018345 0.2106 2.185 255 0 0 255 
-0.012386 0.211083 2.19 255 0 0 255 
-0.006402 0.211661 2.196 255 0 0 255 
-0.000386 0.21224 2.202 255 0 0 255 
0.005656 0.212529 2.205 255 0 0 255 
0.01173 0.213107 2.211 255 0 0 255 
0.017853 0.213877 2.219 255 0 0 255 
0.023998 0.214454 2.225 255 0 0 255 
0.030136 0.214742 2.228 255 0 0 255 
0.036273 0.214933 2.23 255 0 0 255 
0.042516 0.215606 2.237 255 0 0 255 
0.048798 0.216279 2.244 255 0 0 255 
0.055215 0.217336 2.255 255 0 0 255 
0.061666 0.218297 2.265 255 0 0 255 
0.06817 0.219258 2.275 255 0 0 255 
0.07473 0.220218 2.285 255 0 0 255 
0.081131 0.2206 2.289 255 0 0 255 
0.087745 0.221463 2.298 255 0 0 255 
0.094244 0.221941 2.303 255 0 0 255 
0.10077 0.222418 2.308 255 0 0 255 
0.107276 0.222799 2.312 255 0 0 255 
0.113755 0.223082 2.315 255 0 0 255 
0.119939 0.222788 2.312 255 0 0 255 
0.125723 0.221818 2.302 255 0 0 255 
0.13151 0.220945 2.293 255 0 0 255 
0.137247 0.220071 2.284 255 0 0 255 
0.143185 0.219583 2.279 255 0 0 255 
0.149095 0.219094 2.274 255 0 0 255 
0.155182 0.218895 2.272 255 0 0 255 
0.161258 0.218695 2.27 255 0 0 255 
0.167469 0.218687 2.27 255 0 0 255 
0.173604 0.218583 2.269 255 0 0 255 
0.179732 0.218478 2.268 255 0 0 255 
0.185281 0.217699 2.26 255 0 0 255 
-0.089837 0.110763 2.50032 255 255 0 255 
-0.087835 0.108558 2.48889 255 255 0 255 
-0.078128 0.107963 2.4825 255 255 0 255 
-0.057321 0.109711 2.48347 255 255 0 255 
-0.033133 0.112196 2.48681 255 255 0 255 
-0.02264 0.111816 2.48117 255 255 0 255 
-0.010457 0.111805 2.47672 255 255 0 255 
0.004261 0.112347 2.47404 255 255 0 255 
0.014704 0.111993 2.46854 255 255 0 255 
0.022582 0.111098 2.46135 255 255 0 255 
0.028755 0.109844 2.45303 255 255 0 255 
0.034922 0.108592 2.44472 255 255 0 255 
0.033461 0.10569 2.43116 255 255 0 255 
0.045546 0.105729 2.42698 255 255 0 255 
0.037585 0.098805 2.39622 255 255 0 255 
0.043746 0.097557 2.38793 255 255 0 255 
0.058324 0.098171 2.38563 255 255 0 255 
0.057734 0.095443 2.37259 255 255 0 255 
0.050429 0.091216 2.35469 255 255 0 255 
0.027196 0.08342 2.32522 255 255 0 255 
0.0166 0.078411 2.30471 255 255 0 255 
0.016088 0.075646 2.29145 255 255 0 255 
0.022279 0.074384 2.28307 255 255 0 255 
0.029301 0.073315 2.27532 255 255 0 255 
0.047171 0.074714 2.27563 255 255 0 255 
0.097541 0.083535 2.30025 255 255 0 255 
-0.273746 0.011619 2.25816 0 255 0 255 
-0.268242 0.013001 2.26639 0 255 0 255 
-0.182126 0.018338 2.32794 0 255 0 255 
-0.202291 0.026992 2.35414 0 255 0 255 
-0.195016 0.02794 2.36136 0 255 0 255 
-0.193751 0.030568 2.3727 0 255 0 255 
-0.186467 0.031523 2.37995 0 255 0 255 
-0.19209 0.036059 2.39594 0 255 0 255 
-0.194282 0.039633 2.40957 0 255 0 255 
-0.178371 0.038219 2.41107 0 255 0 255 
-0.171932 0.039424 2.41895 0 255 0 255 
-0.1724 0.042524 2.43142 0 255 0 255 
-0.172873 0.04562 2.44387 0 255 0 255 
-0.159506 0.04495 2.44724 0 255 0 255 
-0.097614 0.043195 2.46834 0 255 0 255 
-0.083274 0.042369 2.47151 0 255 0 255 
-0.069785 0.04179 2.4753 0 255 0 255 
-0.055405 0.040993 2.4786 0 255 0 255 
-0.04188 0.040441 2.48251 0 255 0 255 
-0.328583 0.207699 2.222 255 0 0 255 
-0.324268 0.208834 2.234 255 0 0 255 
-0.319174 0.209501 2.241 255 0 0 255 
-0.312923 0.209421 2.24 255 0 0 255 
-0.306677 0.20934 2.239 255 0 0 255 
-0.30057 0.209353 2.239 255 0 0 255 
-0.294593 0.209459 2.24 255 0 0 255 
-0.289124 0.209939 2.245 255 0 0 255 
-0.28388 0.210605 2.252 255 0 0 255 
-0.279089 0.211646 2.263 255 0 0 255 
-0.274238 0.212687 2.274 255 0 0 255 
-0.269679 0.214008 2.288 255 0 0 255 
-0.253454 0.216193 2.311 255 0 0 255 
-0.246285 0.215456 2.303 255 0 0 255 
-0.239263 0.214811 2.296 255 0 0 255 
-0.232379 0.21426 2.29 255 0 0 255 
-0.224935 0.213148 2.278 255 0 0 255 
-0.217748 0.212222 2.268 255 0 0 255 
-0.210801 0.211483 2.26 255 0 0 255 
-0.204169 0.211024 2.255 255 0 0 255 
-0.197564 0.210565 2.25 255 0 0 255 
-0.190815 0.209919 2.243 255 0 0 255 
-0.184185 0.209366 2.237 255 0 0 255 
-0.177747 0.209 2.233 255 0 0 255 
-0.1711 0.208352 2.226 255 0 0 255 
-0.164639 0.207892 2.221 255 0 0 255 
-0.158133 0.207338 2.215 255 0 0 255 
-0.151865 0.207064 2.212 255 0 0 255 
-0.145349 0.206415 2.205 255 0 0 255 
-0.138997 0.205954 2.2 255 0 0 255 
-0.132673 0.205492 2.195 255 0 0 255 
-0.126432 0.205123 2.191 255 0 0 255 
-0.120269 0.204848 2.188 255 0 0 255 
-0.114121 0.204573 2.185 255 0 0 255 
-0.108038 0.204391 2.183 255 0 0 255 
-0.102013 0.204302 2.182 255 0 0 255 
-0.095993 0.204213 2.181 255 0 0 255 
-0.089936 0.20403 2.179 255 0 0 255 
-0.083891 0.203847 2.177 255 0 0 255 
-0.077891 0.203757 2.176 255 0 0 255 
-0.071897 0.203667 2.175 255 0 0 255 
-0.065939 0.20367 2.175 255 0 0 255 
-0.060035 0.20386 2.177 255 0 0 255 
-0.054095 0.203957 2.178 255 0 0 255 
-0.048127 0.203959 2.178 255 0 0 255 
-0.04216 0.203961 2.178 255 0 0 255 
-0.036225 0.20415 2.18 255 0 0 255 
-0.030307 0.204526 2.184 255 0 0 255 
-0.024355 0.204809 2.187 255 0 0 255 
-0.018379 0.204997 2.189 255 0 0 255 
-0.012398 0.205279 2.192 255 0 0 255 
-0.006408 0.205841 2.198 255 0 0 255 
-0.000386 0.206497 2.205 255 0 0 255 
0.005669 0.206965 2.21 255 0 0 255 
0.011757 0.207526 2.216 255 0 0 255 
0.017886 0.208181 2.223 255 0 0 255 
0.024032 0.208648 2.228 255 0 0 255 
0.030191 0.209022 2.232 255 0 0 255 
0.036372 0.209395 2.236 255 0 0 255 
0.042632 0.210048 2.243 255 0 0 255 
0.04893 0.210702 2.25 255 0 0 255 
0.05534 0.211636 2.26 255 0 0 255 
0.061777 0.212476 2.269 255 0 0 255 
0.068264 0.213315 2.278 255 0 0 255 
0.074799 0.214155 2.287 255 0 0 255 
0.081206 0.214526 2.291 255 0 0 255 
0.087825 0.215365 2.3 255 0 0 255 
0.094289 0.215735 2.304 255 0 0 255 
0.100818 0.216198 2.309 255 0 0 255 
0.107281 0.216475 2.312 255 0 0 255 
0.113859 0.216938 2.317 255 0 0 255 
0.120048 0.216651 2.314 255 0 0 255 
0.125838 0.215709 2.304 255 0 0 255 
0.131631 0.214861 2.295 255 0 0 255 
0.137433 0.214106 2.287 255 0 0 255 
0.143317 0.213537 2.281 255 0 0 255 
0.149102 0.212875 2.274 255 0 0 255 
0.155189 0.212681 2.272 255 0 0 255 
0.161336 0.21258 2.271 255 0 0 255 
0.167551 0.212573 2.271 255 0 0 255 
0.173688 0.212472 2.27 255 0 0 255 
0.17974 0.212276 2.268 255 0 0 255 
0.185453 0.211707 2.262 255 0 0 255 
-0.096568 0.098211 2.49729 255 255 0 255 
-0.082569 0.098535 2.49364 255 255 0 255 
-0.080568 0.096326 2.48222 255 255 0 255 
-0.056346 0.098853 2.48542 255 255 0 255 
-0.052655 0.097017 2.47517 255 255 0 255 
-0.040437 0.097013 2.4706 255 255 0 255 
-0.016313 0.099589 2.47407 255 255 0 255 
-0.005847 0.099242 2.46849 255 255 0 255 
0.016503 0.101485 2.47101 255 255 0 255 
0.00655 0.096721 2.45169 255 255 0 255 
0.027158 0.098617 2.45317 255 255 0 255 
0.034174 0.097558 2.44544 255 255 0 255 
0.0488 0.098179 2.44299 255 255 0 255 
0.047338 0.095264 2.42944 255 255 0 255 
0.042509 0.091596 2.4135 255 255 0 255 
0.040488 0.085927 2.38682 255 255 0 255 
0.053382 0.086195 2.38331 255 255 0 255 
0.064574 0.086096 2.37865 255 255 0 255 
0.053909 0.081081 2.35837 255 255 0 255 
0.039919 0.075292 2.33558 255 255 0 255 
0.036024 0.071768 2.31997 255 255 0 255 
0.03717 0.06938 2.30799 255 255 0 255 
0.023265 0.063549 2.28496 255 255 0 255 
0.016917 0.059424 2.26736 255 255 0 255 
0.038968 0.06182 2.27071 255 255 0 255 
0.123756 0.07613 2.30826 255 255 0 255 
-0.283505 0.003685 2.2665 0 255 0 255 
-0.265272 0.00132 2.26542 0 255 0 255 
-0.210898 0.021515 2.37353 0 255 0 255 
-0.201913 0.021962 2.37957 0 255 0 255 
-0.190796 0.024807 2.39639 0 255 0 255 
-0.183971 0.028866 2.41614 0 255 0 255 
-0.182715 0.031494 2.42745 0 255 0 255 
-0.201319 0.039613 2.45186 0 255 0 255 
-0.15947 0.031029 2.43641 0 255 0 255 
-0.170313 0.036992 2.45567 0 255 0 255 
-0.090248 0.030133 2.46507 0 255 0 255 
-0.07156 0.028107 2.46553 0 255 0 255 
-0.057195 0.027271 2.46882 0 255 0 255 
-0.046294 0.027382 2.47435 0 255 0 255 
-0.327413 0.200903 2.214 255 0 0 255 
-0.324571 0.202912 2.236 255 0 0 255 
-0.319329 0.20347 2.242 255 0 0 255 
-0.312936 0.203301 2.24 255 0 0 255 
-0.30669 0.203223 2.239 255 0 0 255 
-0.300851 0.203417 2.241 255 0 0 255 
-0.294999 0.20361 2.243 255 0 0 255 
-0.289394 0.203985 2.247 255 0 0 255 
-0.284144 0.204633 2.254 255 0 0 255 
-0.279348 0.205643 2.265 255 0 0 255 
-0.274491 0.206653 2.276 255 0 0 255 
-0.269808 0.207845 2.289 255 0 0 255 
-0.262476 0.212045 2.335 255 0 0 255 
-0.253356 0.209785 2.31 255 0 0 255 
-0.246403 0.209251 2.304 255 0 0 255 
-0.239794 0.208989 2.301 255 0 0 255 
-0.232897 0.208454 2.295 255 0 0 255 
-0.225636 0.207555 2.285 255 0 0 255 
-0.218526 0.206748 2.276 255 0 0 255 
-0.211464 0.205939 2.267 255 0 0 255 
-0.204631 0.205312 2.26 255 0 0 255 
-0.197836 0.204685 2.253 255 0 0 255 
-0.190993 0.203967 2.245 255 0 0 255 
-0.184276 0.203339 2.238 255 0 0 255 
-0.177755 0.202893 2.233 255 0 0 255 
-0.171262 0.202446 2.228 255 0 0 255 
-0.16472 0.201908 2.222 255 0 0 255 
-0.158283 0.201461 2.217 255 0 0 255 
-0.152146 0.201377 2.216 255 0 0 255 
-0.145685 0.200839 2.21 255 0 0 255 
-0.13932 0.200391 2.205 255 0 0 255 
-0.1328 0.19967 2.197 255 0 0 255 
-0.126669 0.199494 2.195 255 0 0 255 
-0.120439 0.199136 2.191 255 0 0 255 
-0.114282 0.198868 2.188 255 0 0 255 
-0.108142 0.198601 2.185 255 0 0 255 
-0.102064 0.198424 2.183 255 0 0 255 
-0.096041 0.198337 2.182 255 0 0 255 
-0.089941 0.198069 2.179 255 0 0 255 
-0.083933 0.197982 2.178 255 0 0 255 
-0.078002 0.198076 2.179 255 0 0 255 
-0.072033 0.19808 2.179 255 0 0 255 
-0.066063 0.198083 2.179 255 0 0 255 
-0.060038 0.197904 2.177 255 0 0 255 
-0.054048 0.197816 2.176 255 0 0 255 
-0.04813 0.198 2.178 255 0 0 255 
-0.0422 0.198184 2.18 255 0 0 255 
-0.036293 0.198549 2.184 255 0 0 255 
-0.030364 0.198914 2.188 255 0 0 255 
-0.024412 0.199279 2.192 255 0 0 255 
-0.018414 0.199371 2.193 255 0 0 255 
-0.012415 0.199554 2.195 255 0 0 255 
-0.006411 0.199918 2.199 255 0 0 255 
-0.000386 0.200554 2.206 255 0 0 255 
0.005675 0.2011 2.212 255 0 0 255 
0.011768 0.201645 2.218 255 0 0 255 
0.017903 0.20228 2.225 255 0 0 255 
0.024044 0.202643 2.229 255 0 0 255 
0.03022 0.203096 2.234 255 0 0 255 
0.036407 0.203459 2.238 255 0 0 255 
0.042691 0.204184 2.246 255 0 0 255 
0.04902 0.204909 2.254 255 0 0 255 
0.05549 0.205998 2.266 255 0 0 255 
0.061944 0.206813 2.275 255 0 0 255 
0.068387 0.207447 2.282 255 0 0 255 
0.0749 0.208171 2.29 255 0 0 255 
0.081316 0.208531 2.294 255 0 0 255 
0.087906 0.209254 2.302 255 0 0 255 
0.094334 0.209523 2.305 255 0 0 255 
0.10091 0.210064 2.311 255 0 0 255 
0.107426 0.210422 2.315 255 0 0 255 
0.114454 0.21169 2.329 255 0 0 255 
0.120365 0.210867 2.32 255 0 0 255 
0.126117 0.209861 2.309 255 0 0 255 
0.131866 0.208947 2.299 255 0 0 255 
0.13756 0.208032 2.289 255 0 0 255 
0.143386 0.207389 2.282 255 0 0 255 
0.14924 0.206837 2.276 255 0 0 255 
0.155333 0.206649 2.274 255 0 0 255 
0.161486 0.206551 2.273 255 0 0 255 
0.16778 0.206635 2.274 255 0 0 255 
0.173849 0.206445 2.272 255 0 0 255 
0.179828 0.206165 2.269 255 0 0 255 
0.185461 0.205521 2.262 255 0 0 255 
-0.124176 0.083801 2.49359 255 255 0 255 
-0.099558 0.08375 2.48391 255 255 0 255 
-0.084712 0.084292 2.48082 255 255 0 255 
-0.069035 0.085031 2.47837 255 255 0 255 
-0.063622 0.083559 2.46921 255 255 0 255 
-0.056509 0.082461 2.46119 255 255 0 255 
-0.027269 0.086208 2.46801 255 255 0 255 
0.002766 0.090169 2.47555 255 255 0 255 
0.005561 0.08817 2.46486 255 255 0 255 
0.0126 0.08711 2.45705 255 255 0 255 
0.019632 0.086053 2.44926 255 255 0 255 
0.028349 0.085377 2.44266 255 255 0 255 
0.037055 0.084706 2.43609 255 255 0 255 
0.04575 0.084041 2.42955 255 255 0 255 
0.050214 0.082434 2.42009 255 255 0 255 
0.040341 0.077593 2.40057 255 255 0 255 
0.03892 0.074645 2.38692 255 255 0 255 
0.054336 0.075515 2.38518 255 255 0 255 
0.053759 0.072758 2.37212 255 255 0 255 
0.05235 0.069805 2.35843 255 255 0 255 
0.055984 0.068001 2.34834 255 255 0 255 
0.056267 0.065426 2.33582 255 255 0 255 
0.044841 0.060141 2.31475 255 255 0 255 
0.040971 0.056584 2.29909 255 255 0 255 
0.02459 0.050106 2.27417 255 255 0 255 
0.06581 0.057042 2.29172 255 255 0 255 
0.099449 0.062262 2.30392 255 255 0 255 
0.123867 0.065362 2.30946 255 255 0 255 
-0.198874 0.004199 2.35436 0 255 0 255 
-0.225905 0.014928 2.3851 0 255 0 255 
-0.201484 0.010947 2.38058 0 255 0 255 
-0.179604 0.007724 2.37793 0 255 0 255 
-0.186067 0.012561 2.39452 0 255 0 255 
-0.189104 0.016414 2.40874 0 255 0 255 
-0.183538 0.017836 2.41718 0 255 0 255 
-0.181416 0.020229 2.42793 0 255 0 255 
-0.182747 0.023587 2.44094 0 255 0 255 
-0.194449 0.029829 2.46074 0 255 0 255 
-0.163822 0.02428 2.45279 0 255 0 255 
-0.085497 0.017727 2.46347 0 255 0 255 
-0.068551 0.016133 2.46507 0 255 0 255 
-0.041145 0.011718 2.46018 0 255 0 255 
-0.327278 0.194767 2.213 255 0 0 255 
-0.324294 0.196628 2.234 255 0 0 255 
-0.319057 0.197168 2.24 255 0 0 255 
-0.312669 0.197004 2.238 255 0 0 255 
-0.306702 0.197105 2.239 255 0 0 255 
-0.300863 0.197293 2.241 255 0 0 255 
-0.295011 0.197481 2.243 255 0 0 255 
-0.289406 0.197845 2.247 255 0 0 255 
-0.284281 0.19856 2.255 255 0 0 255 
-0.279483 0.19954 2.266 255 0 0 255 
-0.274743 0.200608 2.278 255 0 0 255 
-0.270527 0.202117 2.295 255 0 0 255 
-0.262824 0.205926 2.338 255 0 0 255 
-0.253585 0.203646 2.312 255 0 0 255 
-0.246948 0.203392 2.309 255 0 0 255 
-0.240325 0.203138 2.306 255 0 0 255 
-0.233516 0.202707 2.301 255 0 0 255 
-0.226436 0.202012 2.293 255 0 0 255 
-0.219495 0.201405 2.286 255 0 0 255 
-0.212406 0.200621 2.277 255 0 0 255 
-0.205364 0.199837 2.268 255 0 0 255 
-0.198547 0.199229 2.261 255 0 0 255 
-0.191767 0.19862 2.254 255 0 0 255 
-0.185107 0.198099 2.248 255 0 0 255 
-0.1784 0.19749 2.241 255 0 0 255 
-0.171807 0.196969 2.235 255 0 0 255 
-0.165246 0.196448 2.229 255 0 0 255 
-0.158647 0.195838 2.222 255 0 0 255 
-0.152359 0.19558 2.219 255 0 0 255 
-0.145889 0.195058 2.213 255 0 0 255 
-0.139515 0.194623 2.208 255 0 0 255 
-0.132926 0.193836 2.199 255 0 0 255 
-0.12679 0.193665 2.197 255 0 0 255 
-0.120554 0.193318 2.193 255 0 0 255 
-0.114392 0.193058 2.19 255 0 0 255 
-0.108246 0.192799 2.187 255 0 0 255 
-0.102162 0.192627 2.185 255 0 0 255 
-0.096089 0.192455 2.183 255 0 0 255 
-0.089986 0.192195 2.18 255 0 0 255 
-0.084014 0.192199 2.18 255 0 0 255 
-0.078077 0.19229 2.181 255 0 0 255 
-0.072135 0.192382 2.182 255 0 0 255 
-0.066127 0.192297 2.181 255 0 0 255 
-0.060123 0.192211 2.18 255 0 0 255 
-0.0541 0.192038 2.178 255 0 0 255 
-0.048176 0.192216 2.18 255 0 0 255 
-0.042241 0.192395 2.182 255 0 0 255 
-0.036344 0.192837 2.187 255 0 0 255 
-0.030393 0.193103 2.19 255 0 0 255 
-0.024436 0.193457 2.194 255 0 0 255 
-0.01844 0.193635 2.196 255 0 0 255 
-0.012438 0.1939 2.199 255 0 0 255 
-0.006423 0.194253 2.203 255 0 0 255 
-0.000387 0.19487 2.21 255 0 0 255 
0.005677 0.195135 2.213 255 0 0 255 
0.011774 0.195663 2.219 255 0 0 255 
0.017904 0.196192 2.225 255 0 0 255 
0.024066 0.19672 2.231 255 0 0 255 
0.030248 0.19716 2.236 255 0 0 255 
0.036473 0.197687 2.242 255 0 0 255 
0.04275 0.198303 2.249 255 0 0 255 
0.049131 0.199182 2.259 255 0 0 255 
0.05559 0.20015 2.27 255 0 0 255 
0.062083 0.201029 2.28 255 0 0 255 
0.06848 0.201467 2.285 255 0 0 255 
0.075002 0.202169 2.293 255 0 0 255 
0.08139 0.20243 2.296 255 0 0 255 
0.08791 0.202955 2.302 255 0 0 255 
0.094257 0.203039 2.303 255 0 0 255 
0.100871 0.203652 2.31 255 0 0 255 
0.107894 0.20497 2.325 255 0 0 255 
0.115638 0.207434 2.353 255 0 0 255 
0.120837 0.205313 2.329 255 0 0 255 
0.126451 0.204073 2.315 255 0 0 255 
0.132159 0.203098 2.304 255 0 0 255 
0.137746 0.202034 2.292 255 0 0 255 
