ply
format ascii 1.0
comment VCGLIB generated
element vertex 1240
property float x
property float y
property float z
property uchar red
property uchar green
property uchar blue
property uchar alpha
element face 0
property list uchar int vertex_indices
end_header
-0.264074 -0.019513 2.31708 0 255 0 255 
-0.213008 -0.016571 2.35445 0 255 0 255 
-0.210027 -0.014425 2.36462 0 255 0 255 
-0.202763 -0.013531 2.37185 0 255 0 255 
-0.186919 -0.015128 2.37328 0 255 0 255 
-0.187355 -0.011974 2.38581 0 255 0 255 
-0.202399 -0.004597 2.40816 0 255 0 255 
-0.187388 -0.005927 2.41025 0 255 0 255 
-0.166335 -0.008973 2.40839 0 255 0 255 
-0.159888 -0.007798 2.41634 0 255 0 255 
-0.157745 -0.005386 2.42716 0 255 0 255 
-0.148703 -0.004942 2.43344 0 255 0 255 
-0.14483 -0.003017 2.44314 0 255 0 255 
-0.05608 -0.012793 2.44766 0 255 0 255 
-0.33943 0.189442 2.295 255 0 0 255 
-0.333754 0.189784 2.299 255 0 0 255 
-0.327913 0.190044 2.302 255 0 0 255 
-0.321076 0.189726 2.298 255 0 0 255 
-0.314945 0.18982 2.299 255 0 0 255 
-0.308807 0.189915 2.3 255 0 0 255 
-0.303058 0.190256 2.304 255 0 0 255 
-0.297543 0.190763 2.31 255 0 0 255 
-0.291742 0.191105 2.314 255 0 0 255 
-0.286289 0.191694 2.321 255 0 0 255 
-0.280796 0.192283 2.328 255 0 0 255 
-0.265993 0.195453 2.366 255 0 0 255 
-0.255032 0.192076 2.325 255 0 0 255 
-0.24793 0.191508 2.318 255 0 0 255 
-0.241074 0.191104 2.313 255 0 0 255 
-0.234042 0.190535 2.306 255 0 0 255 
-0.227047 0.189966 2.299 255 0 0 255 
-0.219897 0.189231 2.29 255 0 0 255 
-0.212703 0.188413 2.28 255 0 0 255 
-0.205562 0.187595 2.27 255 0 0 255 
-0.198475 0.186777 2.26 255 0 0 255 
-0.191528 0.186041 2.251 255 0 0 255 
-0.184958 0.185635 2.246 255 0 0 255 
-0.178335 0.185147 2.24 255 0 0 255 
-0.171591 0.184493 2.232 255 0 0 255 
-0.164667 0.18359 2.221 255 0 0 255 
-0.15816 0.183101 2.215 255 0 0 255 
-0.151685 0.182611 2.209 255 0 0 255 
-0.14544 0.182369 2.206 255 0 0 255 
-0.139148 0.182044 2.202 255 0 0 255 
-0.132938 0.181802 2.199 255 0 0 255 
-0.126685 0.181476 2.195 255 0 0 255 
-0.120509 0.181234 2.192 255 0 0 255 
-0.11435 0.18099 2.189 255 0 0 255 
-0.108305 0.180912 2.188 255 0 0 255 
-0.102218 0.180751 2.186 255 0 0 255 
-0.096274 0.180838 2.187 255 0 0 255 
-0.090117 0.180511 2.183 255 0 0 255 
-0.084137 0.180515 2.183 255 0 0 255 
-0.078192 0.180601 2.184 255 0 0 255 
-0.072241 0.180687 2.185 255 0 0 255 
-0.066253 0.18069 2.185 255 0 0 255 
-0.060266 0.180692 2.185 255 0 0 255 
-0.054303 0.180777 2.186 255 0 0 255 
-0.048269 0.180614 2.184 255 0 0 255 
-0.042283 0.180616 2.184 255 0 0 255 
-0.036348 0.180866 2.187 255 0 0 255 
-0.030409 0.181198 2.191 255 0 0 255 
-0.024449 0.18153 2.195 255 0 0 255 
-0.018466 0.181862 2.199 255 0 0 255 
-0.012451 0.182028 2.201 255 0 0 255 
-0.00643 0.182359 2.205 255 0 0 255 
-0.000387 0.182524 2.207 255 0 0 255 
0.00567 0.182772 2.21 255 0 0 255 
0.011754 0.183186 2.215 255 0 0 255 
0.017881 0.183764 2.222 255 0 0 255 
0.024079 0.18459 2.232 255 0 0 255 
0.030278 0.185085 2.238 255 0 0 255 
0.036558 0.185828 2.247 255 0 0 255 
0.042868 0.186488 2.255 255 0 0 255 
0.049244 0.18723 2.264 255 0 0 255 
0.055595 0.187724 2.27 255 0 0 255 
0.061924 0.188053 2.274 255 0 0 255 
0.068216 0.188215 2.276 255 0 0 255 
0.074485 0.188295 2.277 255 0 0 255 
0.08083 0.18854 2.28 255 0 0 255 
0.087153 0.188702 2.282 255 0 0 255 
0.093733 0.189359 2.29 255 0 0 255 
0.146358 0.192544 2.329 255 0 0 255 
0.151948 0.191546 2.317 255 0 0 255 
0.156992 0.189969 2.298 255 0 0 255 
0.162785 0.189384 2.291 255 0 0 255 
0.168539 0.188799 2.284 255 0 0 255 
0.174407 0.188378 2.279 255 0 0 255 
0.180564 0.188289 2.278 255 0 0 255 
0.186961 0.188446 2.28 255 0 0 255 
0.193368 0.188604 2.282 255 0 0 255 
0.19961 0.188596 2.282 255 0 0 255 
0.20549 0.188258 2.278 255 0 0 255 
0.211627 0.188167 2.277 255 0 0 255 
-0.123568 0.042009 2.45941 255 255 0 255 
-0.08399 0.048232 2.47248 255 255 0 255 
-0.064078 0.05005 2.47283 255 255 0 255 
-0.054412 0.049563 2.46648 255 255 0 255 
-0.045608 0.048889 2.45961 255 255 0 255 
-0.035967 0.048415 2.45333 255 255 0 255 
-0.017009 0.050092 2.4534 255 255 0 255 
-0.00571 0.050026 2.44837 255 255 0 255 
0.005572 0.049969 2.4434 255 255 0 255 
0.026138 0.05208 2.44485 255 255 0 255 
0.033155 0.051061 2.43708 255 255 0 255 
0.042695 0.050638 2.43108 255 255 0 255 
0.05138 0.050024 2.42454 255 255 0 255 
0.050792 0.047237 2.41153 255 255 0 255 
0.051055 0.044644 2.39909 255 255 0 255 
0.059725 0.044037 2.39258 255 255 0 255 
0.076775 0.04543 2.39209 255 255 0 255 
0.081222 0.04384 2.38266 255 255 0 255 
0.094041 0.044255 2.37928 255 255 0 255 
0.072547 0.036448 2.35112 255 255 0 255 
0.084527 0.036664 2.34714 255 255 0 255 
0.07145 0.030838 2.32489 255 255 0 255 
0.100095 0.035101 2.33319 255 255 0 255 
0.11536 0.03615 2.33179 255 255 0 255 
-0.295483 -0.02384 2.3286 0 255 0 255 
-0.2713 -0.028162 2.32346 0 255 0 255 
-0.228795 -0.02886 2.34225 0 255 0 255 
-0.219844 -0.028501 2.34824 0 255 0 255 
-0.216864 -0.026357 2.35841 0 255 0 255 
-0.211319 -0.024974 2.3668 0 255 0 255 
-0.199777 -0.025356 2.37111 0 255 0 255 
-0.189078 -0.025475 2.37606 0 255 0 255 
-0.204949 -0.01778 2.39904 0 255 0 255 
-0.206262 -0.014379 2.41208 0 255 0 255 
-0.202428 -0.012487 2.42165 0 255 0 255 
-0.182257 -0.015346 2.42034 0 255 0 255 
-0.162917 -0.017934 2.41971 0 255 0 255 
-0.152161 -0.018011 2.42484 0 255 0 255 
-0.141392 -0.018078 2.43002 0 255 0 255 
-0.135786 -0.016647 2.43862 0 255 0 255 
-0.047903 -0.026364 2.44392 0 255 0 255 
-0.339295 0.18309 2.294 255 0 0 255 
-0.333766 0.183501 2.299 255 0 0 255 
-0.327783 0.183673 2.301 255 0 0 255 
-0.321367 0.183605 2.3 255 0 0 255 
-0.315231 0.183696 2.301 255 0 0 255 
-0.309087 0.183787 2.302 255 0 0 255 
-0.303464 0.184197 2.307 255 0 0 255 
-0.297683 0.184528 2.311 255 0 0 255 
-0.291879 0.184858 2.315 255 0 0 255 
-0.286546 0.185507 2.323 255 0 0 255 
-0.263867 0.187465 2.347 255 0 0 255 
-0.254603 0.185398 2.321 255 0 0 255 
-0.247191 0.184609 2.311 255 0 0 255 
-0.240354 0.184219 2.306 255 0 0 255 
-0.233544 0.183828 2.301 255 0 0 255 
-0.226661 0.183358 2.295 255 0 0 255 
-0.219426 0.182567 2.285 255 0 0 255 
-0.212525 0.182016 2.278 255 0 0 255 
-0.205751 0.181545 2.272 255 0 0 255 
-0.19901 0.181074 2.266 255 0 0 255 
-0.192216 0.180522 2.259 255 0 0 255 
-0.185542 0.18005 2.253 255 0 0 255 
-0.17874 0.179417 2.245 255 0 0 255 
-0.171982 0.178785 2.237 255 0 0 255 
-0.165193 0.178072 2.228 255 0 0 255 
-0.158595 0.177519 2.221 255 0 0 255 
-0.152103 0.177046 2.215 255 0 0 255 
-0.145842 0.176812 2.212 255 0 0 255 
-0.13947 0.176418 2.207 255 0 0 255 
-0.133306 0.176263 2.205 255 0 0 255 
-0.126979 0.175869 2.2 255 0 0 255 
-0.120844 0.175714 2.198 255 0 0 255 
-0.114615 0.175399 2.194 255 0 0 255 
-0.108408 0.175084 2.19 255 0 0 255 
-0.102316 0.174928 2.188 255 0 0 255 
-0.096278 0.174852 2.187 255 0 0 255 
-0.090286 0.174856 2.187 255 0 0 255 
-0.084333 0.174939 2.188 255 0 0 255 
-0.078374 0.175023 2.189 255 0 0 255 
-0.072376 0.175026 2.189 255 0 0 255 
-0.066317 0.174868 2.187 255 0 0 255 
-0.060296 0.174791 2.186 255 0 0 255 
-0.05433 0.174873 2.187 255 0 0 255 
-0.048359 0.174955 2.188 255 0 0 255 
-0.042382 0.175037 2.189 255 0 0 255 
-0.036432 0.175279 2.192 255 0 0 255 
-0.030466 0.17552 2.195 255 0 0 255 
-0.024472 0.175681 2.197 255 0 0 255 
-0.018484 0.176002 2.201 255 0 0 255 
-0.012474 0.176322 2.205 255 0 0 255 
-0.006439 0.176563 2.208 255 0 0 255 
-0.000387 0.176643 2.209 255 0 0 255 
0.005673 0.176802 2.211 255 0 0 255 
0.011765 0.177282 2.217 255 0 0 255 
0.017906 0.177921 2.225 255 0 0 255 
0.024102 0.17864 2.234 255 0 0 255 
0.030292 0.179039 2.239 255 0 0 255 
0.036576 0.179757 2.248 255 0 0 255 
0.042889 0.180395 2.256 255 0 0 255 
0.049246 0.181033 2.264 255 0 0 255 
0.055573 0.18143 2.269 255 0 0 255 
0.061873 0.181668 2.272 255 0 0 255 
0.068159 0.181825 2.274 255 0 0 255 
0.074455 0.181982 2.276 255 0 0 255 
0.080798 0.182219 2.279 255 0 0 255 
0.087042 0.182216 2.279 255 0 0 255 
0.093573 0.182772 2.286 255 0 0 255 
0.147621 0.18777 2.349 255 0 0 255 
0.151626 0.184806 2.312 255 0 0 255 
0.156862 0.183521 2.296 255 0 0 255 
0.162579 0.182875 2.288 255 0 0 255 
0.168472 0.182469 2.283 255 0 0 255 
0.174491 0.182223 2.28 255 0 0 255 
0.18065 0.182136 2.279 255 0 0 255 
0.186968 0.182208 2.28 255 0 0 255 
0.193291 0.182281 2.281 255 0 0 255 
0.199618 0.182353 2.282 255 0 0 255 
0.205769 0.182265 2.281 255 0 0 255 
-0.089283 0.038514 2.48314 255 255 0 255 
-0.08896 0.03588 2.47054 255 255 0 255 
-0.066496 0.038333 2.47254 255 255 0 255 
-0.054277 0.038451 2.46787 255 255 0 255 
-0.044626 0.037989 2.46156 255 255 0 255 
-0.03923 0.036548 2.45243 255 255 0 255 
-0.028752 0.036295 2.44674 255 255 0 255 
-0.003047 0.039613 2.45144 255 255 0 255 
0.018381 0.041962 2.45339 255 255 0 255 
0.033857 0.042938 2.45139 255 255 0 255 
0.034113 0.040339 2.43897 255 255 0 255 
0.046179 0.040533 2.43472 255 255 0 255 
0.064967 0.042339 2.43523 255 255 0 255 
0.04081 0.033927 2.40574 255 255 0 255 
0.043609 0.031921 2.39505 255 255 0 255 
0.044729 0.029512 2.38316 255 255 0 255 
0.067661 0.032353 2.38678 255 255 0 255 
0.073228 0.028357 2.36547 255 255 0 255 
0.04592 0.019037 2.33303 255 255 0 255 
-0.300987 -0.032911 2.33375 0 255 0 255 
-0.280219 -0.03626 2.33103 0 255 0 255 
-0.222858 -0.050731 2.30253 0 255 0 255 
-0.224118 -0.041191 2.34026 0 255 0 255 
-0.219431 -0.039561 2.34924 0 255 0 255 
-0.217304 -0.03716 2.35999 0 255 0 255 
-0.207485 -0.037063 2.36546 0 255 0 255 
-0.196799 -0.037212 2.37038 0 255 0 255 
-0.198943 -0.033529 2.38408 0 255 0 255 
-0.207953 -0.027817 2.40238 0 255 0 255 
-0.213553 -0.023135 2.41831 0 255 0 255 
-0.209725 -0.02125 2.42786 0 255 0 255 
-0.186132 -0.025175 2.42426 0 255 0 255 
-0.159925 -0.029831 2.41908 0 255 0 255 
-0.138841 -0.032948 2.41744 0 255 0 255 
-0.122446 -0.031597 2.43131 0 255 0 255 
-0.112509 -0.031411 2.43718 0 255 0 255 
-0.107742 -0.029719 2.44643 0 255 0 255 
-0.090871 -0.03151 2.44793 0 255 0 255 
-0.070514 -0.034278 2.4473 0 255 0 255 
-0.034541 -0.041485 2.4369 0 255 0 255 
-0.035778 -0.038016 2.45018 0 255 0 255 
-0.339307 0.176821 2.294 255 0 0 255 
-0.333633 0.177141 2.298 255 0 0 255 
-0.327367 0.177152 2.298 255 0 0 255 
-0.321099 0.177163 2.298 255 0 0 255 
-0.314968 0.177251 2.299 255 0 0 255 
-0.309233 0.177571 2.303 255 0 0 255 
-0.303606 0.177967 2.308 255 0 0 255 
-0.297822 0.178286 2.312 255 0 0 255 
-0.292394 0.178837 2.319 255 0 0 255 
-0.286927 0.179387 2.326 255 0 0 255 
-0.262977 0.180429 2.339 255 0 0 255 
-0.254064 0.178664 2.316 255 0 0 255 
-0.246558 0.177825 2.305 255 0 0 255 
-0.239738 0.177448 2.3 255 0 0 255 
-0.232842 0.176994 2.294 255 0 0 255 
-0.225879 0.176462 2.287 255 0 0 255 
-0.218858 0.175853 2.279 255 0 0 255 
-0.211973 0.175321 2.272 255 0 0 255 
-0.205216 0.174866 2.266 255 0 0 255 
-0.198579 0.174488 2.261 255 0 0 255 
-0.191798 0.173955 2.254 255 0 0 255 
-0.185302 0.173653 2.25 255 0 0 255 
-0.178747 0.173274 2.245 255 0 0 255 
-0.172219 0.172895 2.24 255 0 0 255 
-0.165496 0.172284 2.232 255 0 0 255 
-0.159029 0.171904 2.227 255 0 0 255 
-0.15259 0.171524 2.222 255 0 0 255 
-0.146177 0.171144 2.217 255 0 0 255 
-0.139728 0.170686 2.211 255 0 0 255 
-0.133432 0.170383 2.207 255 0 0 255 
-0.127042 0.169925 2.201 255 0 0 255 
-0.120849 0.169698 2.198 255 0 0 255 
-0.114568 0.169316 2.193 255 0 0 255 
-0.108363 0.169012 2.189 255 0 0 255 
-0.10232 0.168939 2.188 255 0 0 255 
-0.096326 0.168943 2.188 255 0 0 255 
-0.090414 0.169101 2.19 255 0 0 255 
-0.084375 0.169027 2.189 255 0 0 255 
-0.078413 0.169107 2.19 255 0 0 255 
-0.072412 0.16911 2.19 255 0 0 255 
-0.06641 0.169113 2.19 255 0 0 255 
-0.060409 0.169115 2.19 255 0 0 255 
-0.054432 0.169195 2.191 255 0 0 255 
-0.048449 0.169274 2.192 255 0 0 255 
-0.042461 0.169353 2.193 255 0 0 255 
-0.0365 0.169586 2.196 255 0 0 255 
-0.030523 0.169819 2.199 255 0 0 255 
-0.024529 0.170052 2.202 255 0 0 255 
-0.018518 0.170285 2.205 255 0 0 255 
-0.012486 0.17044 2.207 255 0 0 255 
-0.006439 0.170517 2.208 255 0 0 255 
-0.000387 0.170672 2.21 255 0 0 255 
0.005683 0.171058 2.215 255 0 0 255 
0.011803 0.171753 2.224 255 0 0 255 
0.017963 0.17237 2.232 255 0 0 255 
0.024146 0.172832 2.238 255 0 0 255 
0.030348 0.173217 2.243 255 0 0 255 
0.036626 0.173834 2.251 255 0 0 255 
0.042909 0.174296 2.257 255 0 0 255 
0.049248 0.174834 2.264 255 0 0 255 
0.055526 0.175064 2.267 255 0 0 255 
0.061821 0.175293 2.27 255 0 0 255 
0.068071 0.175368 2.271 255 0 0 255 
0.074327 0.175443 2.272 255 0 0 255 
0.080624 0.175594 2.274 255 0 0 255 
0.087008 0.1759 2.278 255 0 0 255 
0.093658 0.176668 2.288 255 0 0 255 
0.140594 0.180574 2.339 255 0 0 255 
0.146559 0.180028 2.332 255 0 0 255 
0.151435 0.178247 2.309 255 0 0 255 
0.1568 0.17716 2.295 255 0 0 255 
0.162514 0.176536 2.287 255 0 0 255 
0.168405 0.176144 2.282 255 0 0 255 
0.174344 0.175829 2.278 255 0 0 255 
0.180499 0.175745 2.277 255 0 0 255 
0.186729 0.175738 2.277 255 0 0 255 
0.193213 0.175962 2.28 255 0 0 255 
0.19945 0.175955 2.28 255 0 0 255 
0.205687 0.175947 2.28 255 0 0 255 
-0.123247 0.019419 2.46231 255 255 0 255 
-0.098183 0.022497 2.46582 255 255 0 255 
-0.085076 0.02282 2.46159 255 255 0 255 
-0.069441 0.02375 2.45912 255 255 0 255 
-0.046189 0.026486 2.46181 255 255 0 255 
-0.034006 0.026647 2.45722 255 255 0 255 
-0.023535 0.026417 2.45154 255 255 0 255 
-0.002077 0.028802 2.45337 255 255 0 255 
0.018497 0.031006 2.45472 255 255 0 255 
0.033968 0.032018 2.4527 255 255 0 255 
0.032539 0.029004 2.43912 255 255 0 255 
0.041235 0.028415 2.43252 255 255 0 255 
0.044868 0.026613 2.42243 255 255 0 255 
0.019068 0.017697 2.39173 255 255 0 255 
0.022732 0.015881 2.38155 255 255 0 255 
0.033108 0.015698 2.37613 255 255 0 255 
0.063587 0.020435 2.38507 255 255 0 255 
0.085635 0.023149 2.38818 255 255 0 255 
0.058295 0.013757 2.35591 255 255 0 255 
-0.314878 -0.045372 2.32078 0 255 0 255 
-0.311107 -0.043536 2.33014 0 255 0 255 
-0.296308 -0.045115 2.33162 0 255 0 255 
-0.274696 -0.048777 2.32834 0 255 0 255 
-0.225413 -0.051742 2.34243 0 255 0 255 
-0.23096 -0.047003 2.35852 0 255 0 255 
-0.217744 -0.047973 2.36159 0 255 0 255 
-0.207074 -0.048154 2.36648 0 255 0 255 
-0.193827 -0.049099 2.36966 0 255 0 255 
-0.201098 -0.043853 2.38686 0 255 0 255 
-0.208388 -0.03862 2.404 0 255 0 255 
-0.215695 -0.033399 2.42107 0 255 0 255 
-0.20672 -0.033051 2.42718 0 255 0 255 
-0.177984 -0.038568 2.42019 0 255 0 255 
-0.156079 -0.042014 2.4179 0 255 0 255 
-0.146184 -0.041877 2.42364 0 255 0 255 
-0.132833 -0.042746 2.42718 0 255 0 255 
-0.116018 -0.044614 2.42852 0 255 0 255 
-0.089221 -0.046282 2.43591 0 255 0 255 
-0.07666 -0.046845 2.44025 0 255 0 255 
-0.062353 -0.047897 2.44354 0 255 0 255 
-0.044564 -0.049937 2.44471 0 255 0 255 
-0.338874 0.170327 2.291 255 0 0 255 
-0.333499 0.170785 2.297 255 0 0 255 
-0.327235 0.170796 2.297 255 0 0 255 
-0.32125 0.170955 2.299 255 0 0 255 
-0.315116 0.17104 2.3 255 0 0 255 
-0.309512 0.171423 2.305 255 0 0 255 
-0.304011 0.17188 2.311 255 0 0 255 
-0.298348 0.172262 2.316 255 0 0 255 
-0.292783 0.172718 2.322 255 0 0 255 
-0.262312 0.173585 2.333 255 0 0 255 
-0.253415 0.171883 2.31 255 0 0 255 
-0.246353 0.171371 2.303 255 0 0 255 
-0.239434 0.170933 2.297 255 0 0 255 
-0.232444 0.17042 2.29 255 0 0 255 
-0.225295 0.169759 2.281 255 0 0 255 
-0.218194 0.169097 2.272 255 0 0 255 
-0.211328 0.168584 2.265 255 0 0 255 
-0.20459 0.168145 2.259 255 0 0 255 
-0.198235 0.168003 2.257 255 0 0 255 
-0.191635 0.167638 2.252 255 0 0 255 
-0.185062 0.167273 2.247 255 0 0 255 
-0.178356 0.166758 2.24 255 0 0 255 
-0.171841 0.166392 2.235 255 0 0 255 
-0.165354 0.166026 2.23 255 0 0 255 
-0.159035 0.165809 2.227 255 0 0 255 
-0.152733 0.165591 2.224 255 0 0 255 
-0.146314 0.165225 2.219 255 0 0 255 
-0.139923 0.164858 2.214 255 0 0 255 
-0.133558 0.16449 2.209 255 0 0 255 
-0.127162 0.164048 2.203 255 0 0 255 
-0.121019 0.163904 2.201 255 0 0 255 
-0.114781 0.163611 2.197 255 0 0 255 
-0.108614 0.163392 2.194 255 0 0 255 
-0.102464 0.163172 2.191 255 0 0 255 
-0.096417 0.163101 2.19 255 0 0 255 
-0.090458 0.163179 2.191 255 0 0 255 
-0.084455 0.163183 2.191 255 0 0 255 
-0.078487 0.16326 2.192 255 0 0 255 
-0.072481 0.163263 2.192 255 0 0 255 
-0.066474 0.163266 2.192 255 0 0 255 
-0.060494 0.163343 2.193 255 0 0 255 
-0.054533 0.163494 2.195 255 0 0 255 
-0.04854 0.16357 2.196 255 0 0 255 
-0.042559 0.163721 2.198 255 0 0 255 
-0.036585 0.163946 2.201 255 0 0 255 
-0.030607 0.164245 2.205 255 0 0 255 
-0.024597 0.16447 2.208 255 0 0 255 
-0.018544 0.164471 2.208 255 0 0 255 
-0.012492 0.164471 2.208 255 0 0 255 
-0.006448 0.164695 2.211 255 0 0 255 
-0.000388 0.164993 2.215 255 0 0 255 
0.005699 0.16544 2.221 255 0 0 255 
0.01183 0.166035 2.229 255 0 0 255 
0.017996 0.166556 2.236 255 0 0 255 
0.024179 0.166928 2.241 255 0 0 255 
0.030376 0.167225 2.245 255 0 0 255 
0.03666 0.167819 2.253 255 0 0 255 
0.04293 0.16819 2.258 255 0 0 255 
0.049206 0.168487 2.262 255 0 0 255 
0.055381 0.16841 2.261 255 0 0 255 
0.061632 0.168557 2.263 255 0 0 255 
0.067924 0.168778 2.266 255 0 0 255 
0.07433 0.169222 2.272 255 0 0 255 
0.080698 0.169517 2.276 255 0 0 255 
0.087164 0.169961 2.282 255 0 0 255 
0.093949 0.170925 2.295 255 0 0 255 
0.1412 0.174916 2.349 255 0 0 255 
0.145873 0.172826 2.321 255 0 0 255 
0.151047 0.17148 2.303 255 0 0 255 
0.156669 0.17073 2.293 255 0 0 255 
0.162449 0.170202 2.286 255 0 0 255 
0.168411 0.169899 2.282 255 0 0 255 
0.174351 0.169594 2.278 255 0 0 255 
0.180585 0.169588 2.278 255 0 0 255 
0.186736 0.169507 2.277 255 0 0 255 
0.193051 0.169574 2.278 255 0 0 255 
0.199108 0.169418 2.276 255 0 0 255 
0.205604 0.169634 2.279 255 0 0 255 
-0.137093 0.007582 2.4676 255 255 0 255 
-0.135015 0.005306 2.45598 255 255 0 255 
-0.134636 0.002627 2.44324 255 255 0 255 
-0.069813 0.009712 2.44735 255 255 0 255 
-0.045739 0.012719 2.45064 255 255 0 255 
-0.022557 0.015545 2.45348 255 255 0 255 
-0.001953 0.017783 2.45472 255 255 0 255 
0.011009 0.018205 2.45087 255 255 0 255 
0.035768 0.021496 2.45518 255 255 0 255 
0.05205 0.022763 2.4538 255 255 0 255 
0.030681 0.012189 2.41378 255 255 0 255 
0.026767 0.008527 2.39834 255 255 0 255 
0.019509 0.004032 2.38051 255 255 0 255 
0.04079 0.006557 2.38278 255 255 0 255 
0.065385 0.00993 2.38755 255 255 0 255 
0.06399 0.006888 2.37388 255 255 0 255 
0.055083 0.001966 2.35478 255 255 0 255 
-0.304287 -0.059451 2.31433 0 255 0 255 
-0.307282 -0.055483 2.3286 0 255 0 255 
-0.289094 -0.058156 2.32768 0 255 0 255 
-0.280213 -0.057896 2.33349 0 255 0 255 
-0.26368 -0.060008 2.33393 0 255 0 255 
-0.257322 -0.058937 2.34162 0 255 0 255 
-0.24075 -0.061021 2.34219 0 255 0 255 
-0.230966 -0.060986 2.34758 0 255 0 255 
-0.226284 -0.059369 2.35655 0 255 0 255 
-0.215629 -0.059581 2.36142 0 255 0 255 
-0.181462 -0.063884 2.36254 0 255 0 255 
-0.18957 -0.058338 2.38035 0 255 0 255 
-0.204545 -0.05073 2.40272 0 255 0 255 
-0.208414 -0.046511 2.4175 0 255 0 255 
-0.19772 -0.046693 2.4225 0 255 0 255 
-0.171564 -0.051507 2.41727 0 255 0 255 
-0.153959 -0.053718 2.41786 0 255 0 255 
-0.143204 -0.053857 2.42306 0 255 0 255 
-0.128996 -0.05501 2.42605 0 255 0 255 
-0.107017 -0.058451 2.42407 0 255 0 255 
-0.080215 -0.060168 2.43154 0 255 0 255 
-0.065438 -0.058282 2.44695 0 255 0 255 
-0.04593 -0.060873 2.44703 0 255 0 255 
-0.038512 -0.059908 2.45484 0 255 0 255 
-0.340069 0.164638 2.299 255 0 0 255 
-0.3338 0.164648 2.299 255 0 0 255 
-0.327104 0.164444 2.296 255 0 0 255 
-0.320981 0.164526 2.297 255 0 0 255 
-0.314989 0.16468 2.299 255 0 0 255 
-0.309791 0.165263 2.307 255 0 0 255 
-0.304285 0.165703 2.313 255 0 0 255 
-0.298616 0.166071 2.318 255 0 0 255 
-0.293045 0.166511 2.324 255 0 0 255 
-0.262321 0.167203 2.333 255 0 0 255 
-0.253423 0.165563 2.31 255 0 0 255 
-0.246362 0.16507 2.303 255 0 0 255 
-0.239234 0.164505 2.295 255 0 0 255 
-0.232046 0.163868 2.286 255 0 0 255 
-0.225105 0.163374 2.279 255 0 0 255 
-0.218105 0.162808 2.271 255 0 0 255 
-0.211242 0.162314 2.264 255 0 0 255 
-0.204416 0.161819 2.257 255 0 0 255 
-0.197891 0.161539 2.253 255 0 0 255 
-0.191131 0.161044 2.246 255 0 0 255 
-0.184574 0.160693 2.241 255 0 0 255 
-0.178044 0.16034 2.236 255 0 0 255 
-0.171617 0.16006 2.232 255 0 0 255 
-0.165285 0.159851 2.229 255 0 0 255 
-0.159041 0.159713 2.227 255 0 0 255 
-0.15267 0.159432 2.223 255 0 0 255 
-0.146188 0.159007 2.217 255 0 0 255 
-0.139865 0.158725 2.213 255 0 0 255 
-0.133563 0.158443 2.209 255 0 0 255 
-0.127224 0.158089 2.204 255 0 0 255 
-0.120968 0.157807 2.2 255 0 0 255 
-0.114733 0.157524 2.196 255 0 0 255 
-0.108668 0.157456 2.195 255 0 0 255 
-0.102561 0.157317 2.193 255 0 0 255 
-0.096553 0.15732 2.193 255 0 0 255 
-0.090544 0.157324 2.193 255 0 0 255 
-0.084574 0.157399 2.194 255 0 0 255 
-0.078562 0.157402 2.194 255 0 0 255 
-0.072583 0.157476 2.195 255 0 0 255 
-0.066628 0.157622 2.197 255 0 0 255 
-0.060607 0.157624 2.197 255 0 0 255 
-0.05466 0.157842 2.2 255 0 0 255 
-0.048652 0.157916 2.201 255 0 0 255 
-0.042658 0.158061 2.203 255 0 0 255 
-0.036636 0.158134 2.204 255 0 0 255 
-0.030664 0.158494 2.209 255 0 0 255 
-0.024642 0.15871 2.212 255 0 0 255 
-0.018553 0.158496 2.209 255 0 0 255 
-0.012498 0.158496 2.209 255 0 0 255 
-0.006451 0.158712 2.212 255 0 0 255 
-0.000389 0.159358 2.221 255 0 0 255 
0.005715 0.159788 2.227 255 0 0 255 
0.011857 0.16029 2.234 255 0 0 255 
0.018005 0.160505 2.237 255 0 0 255 
0.024191 0.160863 2.242 255 0 0 255 
0.030391 0.161149 2.246 255 0 0 255 
0.036645 0.161578 2.252 255 0 0 255 
0.042856 0.16172 2.254 255 0 0 255 
0.049012 0.161647 2.253 255 0 0 255 
0.055212 0.161716 2.254 255 0 0 255 
0.061526 0.162073 2.259 255 0 0 255 
0.067927 0.162573 2.266 255 0 0 255 
0.074333 0.163001 2.272 255 0 0 255 
0.080736 0.163357 2.277 255 0 0 255 
0.087282 0.163927 2.285 255 0 0 255 
0.094116 0.164928 2.299 255 0 0 255 
0.134141 0.167701 2.338 255 0 0 255 
0.139342 0.166262 2.318 255 0 0 255 
0.144935 0.165396 2.306 255 0 0 255 
0.150725 0.164817 2.298 255 0 0 255 
0.156538 0.164309 2.291 255 0 0 255 
0.162313 0.163802 2.284 255 0 0 255 
0.16827 0.163509 2.28 255 0 0 255 
0.174357 0.163359 2.278 255 0 0 255 
0.18075 0.163496 2.28 255 0 0 255 
0.187071 0.163562 2.281 255 0 0 255 
0.193227 0.163483 2.28 255 0 0 255 
0.199202 0.163261 2.277 255 0 0 255 
0.205431 0.163254 2.277 255 0 0 255 
-0.150176 -0.009702 2.44745 255 255 0 255 
-0.137865 -0.009555 2.44247 255 255 0 255 
-0.092072 -0.004133 2.44674 255 255 0 255 
-0.07051 -0.001698 2.4482 255 255 0 255 
-0.021577 0.004668 2.45542 255 255 0 255 
0.00071 0.00737 2.45779 255 255 0 255 
0.008598 0.006585 2.45048 255 255 0 255 
0.025758 0.008078 2.44956 255 255 0 255 
0.032775 0.0071 2.44176 255 255 0 255 
0.032208 0.004258 2.42873 255 255 0 255 
0.028285 0.000578 2.41334 255 255 0 255 
0.031099 -0.00144 2.4026 255 255 0 255 
0.033075 -0.003669 2.39127 255 255 0 255 
0.042599 -0.004014 2.38527 255 255 0 255 
0.066344 -0.000784 2.38943 255 255 0 255 
0.069136 -0.002791 2.37875 255 255 0 255 
-0.300478 -0.071456 2.31278 0 255 0 255 
-0.301771 -0.068003 2.32585 0 255 0 255 
-0.276399 -0.069937 2.33201 0 255 0 255 
-0.265809 -0.070219 2.33668 0 255 0 255 
-0.256056 -0.070224 2.34199 0 255 0 255 
-0.232689 -0.074473 2.33781 0 255 0 255 
-0.228006 -0.072861 2.34679 0 255 0 255 
-0.235244 -0.06754 2.36404 0 255 0 255 
-0.232271 -0.065403 2.37419 0 255 0 255 
-0.211383 -0.068802 2.37204 0 255 0 255 
-0.192171 -0.071652 2.37116 0 255 0 255 
-0.195151 -0.067654 2.38546 0 255 0 255 
-0.209262 -0.060257 2.40723 0 255 0 255 
-0.205425 -0.058373 2.41682 0 255 0 255 
-0.18959 -0.060141 2.4184 0 255 0 255 
-0.163441 -0.065019 2.41322 0 255 0 255 
-0.142402 -0.068308 2.41159 0 255 0 255 
-0.129923 -0.06898 2.4157 0 255 0 255 
-0.113988 -0.070675 2.41763 0 255 0 255 
-0.038151 -0.071373 2.45608 0 255 0 255 
-0.017739 -0.074233 2.45579 0 255 0 255 
-0.340967 0.158766 2.305 255 0 0 255 
-0.334537 0.158707 2.304 255 0 0 255 
-0.327541 0.158373 2.299 255 0 0 255 
-0.321271 0.158383 2.299 255 0 0 255 
-0.315273 0.158531 2.301 255 0 0 255 
-0.310069 0.159092 2.309 255 0 0 255 
-0.304558 0.159515 2.315 255 0 0 255 
-0.299012 0.159938 2.321 255 0 0 255 
-0.293433 0.160361 2.327 255 0 0 255 
-0.261206 0.160131 2.323 255 0 0 255 
-0.252883 0.158898 2.305 255 0 0 255 
-0.245728 0.158355 2.297 255 0 0 255 
-0.238825 0.157949 2.291 255 0 0 255 
-0.231851 0.157475 2.284 255 0 0 255 
-0.225113 0.157137 2.279 255 0 0 255 
-0.218209 0.156662 2.272 255 0 0 255 
-0.211342 0.156187 2.265 255 0 0 255 
-0.204513 0.155711 2.258 255 0 0 255 
-0.198073 0.155511 2.255 255 0 0 255 
-0.191563 0.155242 2.251 255 0 0 255 
-0.184828 0.154765 2.244 255 0 0 255 
-0.17805 0.15422 2.236 255 0 0 255 
-0.171623 0.15395 2.232 255 0 0 255 
-0.165291 0.153749 2.229 255 0 0 255 
-0.15919 0.153754 2.229 255 0 0 255 
-0.152744 0.153415 2.224 255 0 0 255 
-0.146391 0.153144 2.22 255 0 0 255 
-0.140249 0.15308 2.219 255 0 0 255 
-0.133991 0.152878 2.216 255 0 0 255 
-0.12746 0.15233 2.208 255 0 0 255 
-0.121137 0.15199 2.203 255 0 0 255 
-0.114894 0.151718 2.199 255 0 0 255 
-0.108969 0.15186 2.201 255 0 0 255 
-0.102799 0.151657 2.198 255 0 0 255 
-0.096821 0.151729 2.199 255 0 0 255 
-0.090754 0.151663 2.198 255 0 0 255 
-0.084808 0.151805 2.2 255 0 0 255 
-0.078815 0.151876 2.201 255 0 0 255 
-0.072883 0.152086 2.204 255 0 0 255 
-0.066873 0.152158 2.205 255 0 0 255 
-0.060857 0.152229 2.206 255 0 0 255 
-0.05486 0.152369 2.208 255 0 0 255 
-0.048808 0.152371 2.208 255 0 0 255 
-0.042756 0.152372 2.208 255 0 0 255 
-0.036687 0.152305 2.207 255 0 0 255 
-0.030693 0.152582 2.211 255 0 0 255 
-0.024654 0.152721 2.213 255 0 0 255 
-0.018571 0.152584 2.211 255 0 0 255 
-0.01251 0.152584 2.211 255 0 0 255 
-0.006457 0.152792 2.214 255 0 0 255 
-0.000389 0.153413 2.223 255 0 0 255 
0.005715 0.153689 2.227 255 0 0 255 
0.011847 0.154034 2.232 255 0 0 255 
0.017989 0.15424 2.235 255 0 0 255 
0.024159 0.154515 2.239 255 0 0 255 
0.030338 0.154721 2.242 255 0 0 255 
0.036565 0.155065 2.247 255 0 0 255 
0.042743 0.155133 2.248 255 0 0 255 
0.048927 0.1552 2.249 255 0 0 255 
0.05514 0.155337 2.251 255 0 0 255 
0.061501 0.155817 2.258 255 0 0 255 
0.067899 0.156298 2.265 255 0 0 255 
0.074401 0.156917 2.274 255 0 0 255 
0.080952 0.157535 2.283 255 0 0 255 
0.087399 0.157877 2.288 255 0 0 255 
0.094119 0.158633 2.299 255 0 0 255 
0.132941 0.159851 2.317 255 0 0 255 
0.138565 0.159018 2.305 255 0 0 255 
0.144689 0.158807 2.302 255 0 0 255 
0.150665 0.158456 2.297 255 0 0 255 
0.156612 0.158106 2.292 255 0 0 255 
0.162461 0.157687 2.286 255 0 0 255 
0.168349 0.157336 2.281 255 0 0 255 
0.17444 0.157192 2.279 255 0 0 255 
0.180835 0.157324 2.281 255 0 0 255 
0.187159 0.157387 2.282 255 0 0 255 
0.193234 0.157243 2.28 255 0 0 255 
0.199297 0.157098 2.278 255 0 0 255 
-0.134285 -0.020124 2.44617 255 255 0 255 
-0.105009 -0.015815 2.45244 255 255 0 255 
-0.08682 -0.014167 2.45155 255 255 0 255 
-0.065271 -0.011674 2.453 255 255 0 255 
-0.049688 -0.010615 2.45059 255 255 0 255 
-0.023133 -0.006839 2.45566 255 255 0 255 
-0.010149 -0.006374 2.4517 255 255 0 255 
0.007036 -0.004854 2.45068 255 255 0 255 
0.020819 -0.004157 2.44743 255 255 0 255 
0.031211 -0.004288 2.44193 255 255 0 255 
0.032331 -0.006724 2.43006 255 255 0 255 
0.027574 -0.010638 2.41408 255 255 0 255 
0.042985 -0.009492 2.41214 255 255 0 255 
0.048306 -0.010874 2.4032 255 255 0 255 
0.056974 -0.011404 2.39665 255 255 0 255 
0.06061 -0.013204 2.38655 255 255 0 255 
0.063409 -0.015217 2.37585 255 255 0 255 
-0.301345 -0.078943 2.32676 0 255 0 255 
-0.267939 -0.080429 2.33943 0 255 0 255 
-0.211896 -0.092013 2.32453 0 255 0 255 
-0.225052 -0.084768 2.34601 0 255 0 255 
-0.242493 -0.076206 2.37035 0 255 0 255 
-0.249748 -0.070871 2.38751 0 255 0 255 
-0.239967 -0.070873 2.39293 0 255 0 255 
-0.189625 -0.080397 2.38303 0 255 0 255 
-0.192606 -0.076384 2.39731 0 255 0 255 
-0.200731 -0.070794 2.415 0 255 0 255 
-0.185755 -0.072334 2.41719 0 255 0 255 
-0.15533 -0.078592 2.4092 0 255 0 255 
-0.144587 -0.07878 2.41441 0 255 0 255 
-0.121812 -0.082624 2.41176 0 255 0 255 
-0.106735 -0.084091 2.41428 0 255 0 255 
-0.039886 -0.079079 2.47113 0 255 0 255 
-0.341125 0.15253 2.306 255 0 0 255 
-0.334837 0.15254 2.306 255 0 0 255 
-0.328121 0.152351 2.303 255 0 0 255 
-0.3217 0.152295 2.302 255 0 0 255 
-0.315694 0.152437 2.304 255 0 0 255 
-0.310347 0.15291 2.311 255 0 0 255 
-0.304699 0.15325 2.316 255 0 0 255 
-0.29915 0.153656 2.322 255 0 0 255 
-0.260314 0.153245 2.315 255 0 0 255 
-0.252892 0.152591 2.305 255 0 0 255 
-0.245522 0.151937 2.295 255 0 0 255 
-0.23852 0.151481 2.288 255 0 0 255 
-0.231554 0.151025 2.281 255 0 0 255 
-0.224824 0.150702 2.276 255 0 0 255 
-0.218312 0.15051 2.273 255 0 0 255 
-0.211629 0.150186 2.268 255 0 0 255 
-0.204973 0.149862 2.263 255 0 0 255 
-0.198255 0.149471 2.257 255 0 0 255 
-0.191485 0.149014 2.25 255 0 0 255 
-0.184834 0.148623 2.244 255 0 0 255 
-0.178136 0.148165 2.237 255 0 0 255 
-0.171783 0.147972 2.234 255 0 0 255 
-0.165519 0.147845 2.232 255 0 0 255 
-0.159338 0.147784 2.231 255 0 0 255 
-0.152818 0.147392 2.225 255 0 0 255 
-0.146462 0.147132 2.221 255 0 0 255 
-0.140254 0.147004 2.219 255 0 0 255 
-0.133995 0.14681 2.216 255 0 0 255 
-0.127637 0.146483 2.211 255 0 0 255 
-0.121251 0.14609 2.205 255 0 0 255 
-0.115107 0.145961 2.203 255 0 0 255 
-0.10922 0.146164 2.206 255 0 0 255 
-0.103176 0.146167 2.206 255 0 0 255 
-0.097176 0.146237 2.207 255 0 0 255 
-0.091046 0.146108 2.205 255 0 0 255 
-0.085043 0.146177 2.206 255 0 0 255 
-0.078997 0.14618 2.206 255 0 0 255 
-0.072985 0.146249 2.207 255 0 0 255 
-0.066996 0.146383 2.209 255 0 0 255 
-0.06097 0.146452 2.21 255 0 0 255 
-0.054912 0.146454 2.21 255 0 0 255 
-0.048832 0.146389 2.209 255 0 0 255 
-0.042777 0.146391 2.209 255 0 0 255 
-0.036705 0.146326 2.208 255 0 0 255 
-0.030694 0.146526 2.211 255 0 0 255 
-0.024655 0.14666 2.213 255 0 0 255 
-0.018588 0.14666 2.213 255 0 0 255 
-0.012521 0.146661 2.213 255 0 0 255 
-0.00646 0.146794 2.215 255 0 0 255 
-0.000389 0.147258 2.222 255 0 0 255 
0.005713 0.147523 2.226 255 0 0 255 
0.011836 0.147787 2.23 255 0 0 255 
0.017966 0.14792 2.232 255 0 0 255 
0.024128 0.148184 2.236 255 0 0 255 
0.030339 0.148581 2.242 255 0 0 255 
0.03655 0.148845 2.246 255 0 0 255 
0.042688 0.148777 2.245 255 0 0 255 
0.048863 0.148842 2.246 255 0 0 255 
0.055167 0.149237 2.252 255 0 0 255 
0.061585 0.149832 2.261 255 0 0 255 
0.068021 0.15036 2.269 255 0 0 255 
0.074469 0.150821 2.276 255 0 0 255 
0.08099 0.151349 2.284 255 0 0 255 
0.087441 0.151677 2.289 255 0 0 255 
0.094082 0.15227 2.298 255 0 0 255 
0.126599 0.153511 2.317 255 0 0 255 
0.132372 0.152844 2.307 255 0 0 255 
0.138209 0.152309 2.299 255 0 0 255 
0.144317 0.152106 2.296 255 0 0 255 
0.150342 0.151836 2.292 255 0 0 255 
0.156412 0.151632 2.289 255 0 0 255 
0.162324 0.151296 2.284 255 0 0 255 
0.168207 0.150959 2.279 255 0 0 255 
0.174522 0.15102 2.28 255 0 0 255 
0.181 0.151212 2.283 255 0 0 255 
0.18733 0.151273 2.284 255 0 0 255 
0.193495 0.1512 2.283 255 0 0 255 
0.199741 0.151194 2.283 255 0 0 255 
-0.132408 -0.031099 2.44876 255 255 0 255 
-0.111636 -0.0288 2.44941 255 255 0 255 
-0.090901 -0.026482 2.45017 255 255 0 255 
-0.070202 -0.024146 2.45103 255 255 0 255 
-0.054618 -0.023053 2.44859 255 255 0 255 
-0.024373 -0.02104 2.44335 255 255 0 255 
0.01083 -0.017706 2.44185 255 255 0 255 
0.030491 -0.015485 2.44268 255 255 0 255 
0.037503 -0.016439 2.43487 255 255 0 255 
0.055428 -0.014617 2.43468 255 255 0 255 
0.067448 -0.014276 2.43047 255 255 0 255 
0.071066 -0.016067 2.42042 255 255 0 255 
0.057101 -0.022366 2.39794 255 255 0 255 
0.046518 -0.027823 2.37774 255 255 0 255 
-0.232303 -0.09346 2.35234 0 255 0 255 
-0.24208 -0.087269 2.37134 0 255 0 255 
-0.256137 -0.079747 2.3932 0 255 0 255 
-0.242105 -0.081117 2.39569 0 255 0 255 
-0.199911 -0.091326 2.37907 0 255 0 255 
-0.181953 -0.090754 2.39146 0 255 0 255 
-0.196901 -0.08299 2.41376 0 255 0 255 
-0.200754 -0.078708 2.42854 0 255 0 255 
-0.168645 -0.085588 2.4194 0 255 0 255 
-0.128299 -0.091834 2.41741 0 255 0 255 
-0.1098 -0.094396 2.41769 0 255 0 255 
-0.056445 -0.088624 2.47052 0 255 0 255 
-0.032608 -0.092636 2.46806 0 255 0 255 
-0.027775 -0.09092 2.47756 0 255 0 255 
-0.019475 -0.090236 2.48493 0 255 0 255 
-0.334992 0.146297 2.307 255 0 0 255 
-0.328416 0.14618 2.305 255 0 0 255 
-0.322268 0.146253 2.306 255 0 0 255 
-0.316114 0.146326 2.307 255 0 0 255 
-0.310491 0.146652 2.312 255 0 0 255 
-0.304971 0.147042 2.318 255 0 0 255 
-0.299546 0.147495 2.325 255 0 0 255 
-0.270564 0.14906 2.349 255 0 0 255 
-0.260547 0.147037 2.317 255 0 0 255 
-0.253119 0.14641 2.307 255 0 0 255 
-0.245744 0.145783 2.297 255 0 0 255 
-0.238214 0.145029 2.285 255 0 0 255 
-0.231257 0.144592 2.278 255 0 0 255 
-0.224535 0.144282 2.273 255 0 0 255 
-0.218223 0.144225 2.272 255 0 0 255 
-0.211636 0.143978 2.268 255 0 0 255 
-0.20507 0.143731 2.264 255 0 0 255 
-0.198437 0.143419 2.259 255 0 0 255 
-0.191661 0.142981 2.252 255 0 0 255 
-0.184922 0.142543 2.245 255 0 0 255 
-0.178221 0.142104 2.238 255 0 0 255 
-0.171942 0.141982 2.236 255 0 0 255 
-0.165599 0.141797 2.233 255 0 0 255 
-0.159343 0.141675 2.231 255 0 0 255 
-0.152823 0.141299 2.225 255 0 0 255 
-0.146533 0.141114 2.222 255 0 0 255 
-0.140132 0.140801 2.217 255 0 0 255 
-0.133879 0.140615 2.214 255 0 0 255 
-0.127584 0.140365 2.21 255 0 0 255 
-0.12131 0.140115 2.206 255 0 0 255 
-0.115267 0.140118 2.206 255 0 0 255 
-0.109372 0.140313 2.209 255 0 0 255 
-0.103414 0.140443 2.211 255 0 0 255 
-0.0974 0.14051 2.212 255 0 0 255 
-0.091256 0.140386 2.21 255 0 0 255 
-0.0852 0.140389 2.21 255 0 0 255 
-0.079179 0.140455 2.211 255 0 0 255 
-0.073152 0.140521 2.212 255 0 0 255 
-0.06712 0.140587 2.213 255 0 0 255 
-0.061054 0.140589 2.213 255 0 0 255 
-0.054988 0.140591 2.213 255 0 0 255 
-0.048922 0.140593 2.213 255 0 0 255 
-0.042856 0.140594 2.213 255 0 0 255 
-0.036773 0.140532 2.212 255 0 0 255 
-0.030709 0.140533 2.212 255 0 0 255 
-0.024645 0.140534 2.212 255 0 0 255 
-0.018589 0.140598 2.213 255 0 0 255 
-0.012533 0.140726 2.215 255 0 0 255 
-0.006469 0.140917 2.218 255 0 0 255 
-0.000389 0.141171 2.222 255 0 0 255 
0.005713 0.141425 2.226 255 0 0 255 
0.011831 0.141615 2.229 255 0 0 255 
0.017966 0.141805 2.232 255 0 0 255 
0.024129 0.142059 2.236 255 0 0 255 
0.03034 0.142439 2.242 255 0 0 255 
0.036584 0.142819 2.248 255 0 0 255 
0.042727 0.142754 2.247 255 0 0 255 
0.048952 0.142943 2.25 255 0 0 255 
0.055242 0.143259 2.255 255 0 0 255 
0.061668 0.143829 2.264 255 0 0 255 
0.068054 0.144208 2.27 255 0 0 255 
0.074537 0.144714 2.278 255 0 0 255 
0.081029 0.145156 2.285 255 0 0 255 
0.08752 0.145535 2.291 255 0 0 255 
0.094126 0.14604 2.299 255 0 0 255 
0.120827 0.147868 2.328 255 0 0 255 
0.126275 0.146784 2.311 255 0 0 255 
0.132261 0.146399 2.305 255 0 0 255 
0.138274 0.146077 2.3 255 0 0 255 
0.144133 0.145628 2.293 255 0 0 255 
0.15015 0.145369 2.289 255 0 0 255 
0.156144 0.14511 2.285 255 0 0 255 
0.162329 0.145042 2.284 255 0 0 255 
0.168287 0.144782 2.28 255 0 0 255 
0.174528 0.144777 2.28 255 0 0 255 
0.180927 0.144898 2.282 255 0 0 255 
0.187336 0.14502 2.284 255 0 0 255 
0.193586 0.145014 2.284 255 0 0 255 
-0.097518 -0.03947 2.44712 255 255 0 255 
-0.075973 -0.036873 2.44851 255 255 0 255 
-0.069693 -0.038088 2.43981 255 255 0 255 
-0.050743 -0.036101 2.43966 255 255 0 255 
-0.040268 -0.036234 2.43389 255 255 0 255 
-0.013786 -0.032291 2.43905 255 255 0 255 
0.035664 -0.025193 2.44748 255 255 0 255 
0.050235 -0.024195 2.44491 255 255 0 255 
0.065621 -0.022969 2.44299 255 255 0 255 
0.074273 -0.023462 2.43646 255 255 0 255 
0.073697 -0.026334 2.42348 255 255 0 255 
0.058066 -0.033121 2.39984 255 255 0 255 
0.043312 -0.039711 2.37667 255 255 0 255 
0.014401 -0.050029 2.34327 255 255 0 255 
-0.219164 -0.108674 2.34449 0 255 0 255 
-0.246771 -0.096714 2.37587 0 255 0 255 
-0.227638 -0.099747 2.37487 0 255 0 255 
-0.218696 -0.099503 2.38096 0 255 0 255 
-0.170924 -0.108454 2.37302 0 255 0 255 
-0.167901 -0.10628 2.38333 0 255 0 255 
-0.177697 -0.100068 2.40223 0 255 0 255 
-0.184093 -0.094946 2.41877 0 255 0 255 
-0.161402 -0.098954 2.41596 0 255 0 255 
-0.147244 -0.10026 2.41891 0 255 0 255 
-0.133924 -0.101285 2.42249 0 255 0 255 
-0.025341 -0.10625 2.46501 0 255 0 255 
-0.018772 -0.105058 2.47346 0 255 0 255 
-0.340553 0.139676 2.302 255 0 0 255 
-0.334857 0.139928 2.306 255 0 0 255 
-0.328425 0.139876 2.305 255 0 0 255 
-0.322138 0.139885 2.305 255 0 0 255 
-0.316124 0.140015 2.307 255 0 0 255 
-0.310366 0.140267 2.311 255 0 0 255 
-0.304848 0.14064 2.317 255 0 0 255 
-0.299812 0.141255 2.327 255 0 0 255 
-0.27253 0.143664 2.366 255 0 0 255 
-0.260893 0.140879 2.32 255 0 0 255 
-0.253565 0.14034 2.311 255 0 0 255 
-0.246286 0.1398 2.302 255 0 0 255 
-0.238222 0.138775 2.285 255 0 0 255 
-0.230655 0.137993 2.272 255 0 0 255 
-0.223652 0.137513 2.264 255 0 0 255 
-0.217365 0.137459 2.263 255 0 0 255 
-0.211083 0.137405 2.262 255 0 0 255 
-0.204986 0.137472 2.263 255 0 0 255 
-0.198443 0.137235 2.259 255 0 0 255 
-0.191667 0.136815 2.252 255 0 0 255 
-0.18501 0.136457 2.246 255 0 0 255 
-0.178545 0.136219 2.242 255 0 0 255 
-0.172255 0.136103 2.24 255 0 0 255 
-0.165752 0.135804 2.235 255 0 0 255 
-0.159419 0.135627 2.232 255 0 0 255 
-0.152759 0.135146 2.224 255 0 0 255 
-0.146273 0.134785 2.218 255 0 0 255 
-0.139694 0.134304 2.21 255 0 0 255 
-0.13346 0.134126 2.207 255 0 0 255 
-0.127415 0.13413 2.207 255 0 0 255 
-0.121369 0.134133 2.207 255 0 0 255 
-0.115323 0.134137 2.207 255 0 0 255 
-0.109277 0.134141 2.207 255 0 0 255 
-0.103277 0.134205 2.208 255 0 0 255 
-0.097227 0.134208 2.208 255 0 0 255 
-0.091176 0.134211 2.208 255 0 0 255 
-0.085164 0.134274 2.209 255 0 0 255 
-0.07911 0.134277 2.209 255 0 0 255 
-0.073122 0.134401 2.211 255 0 0 255 
-0.067062 0.134403 2.211 255 0 0 255 
-0.060974 0.134344 2.21 255 0 0 255 
-0.054965 0.134468 2.212 255 0 0 255 
-0.048924 0.13453 2.213 255 0 0 255 
-0.042857 0.134532 2.213 255 0 0 255 
-0.036774 0.134472 2.212 255 0 0 255 
-0.030682 0.134351 2.21 255 0 0 255 
-0.024623 0.134352 2.21 255 0 0 255 
-0.018581 0.134475 2.212 255 0 0 255 
-0.012545 0.134779 2.217 255 0 0 255 
-0.006478 0.135023 2.221 255 0 0 255 
-0.000389 0.135144 2.223 255 0 0 255 
0.005713 0.135327 2.226 255 0 0 255 
0.011837 0.135569 2.23 255 0 0 255 
0.017983 0.135812 2.234 255 0 0 255 
0.024173 0.136176 2.24 255 0 0 255 
0.030395 0.13654 2.246 255 0 0 255 
0.03665 0.136904 2.252 255 0 0 255 
0.042824 0.136903 2.252 255 0 0 255 
0.049019 0.136962 2.253 255 0 0 255 
0.055317 0.137264 2.258 255 0 0 255 
0.061698 0.137688 2.265 255 0 0 255 
0.068176 0.138233 2.274 255 0 0 255 
0.074638 0.138656 2.281 255 0 0 255 
0.081138 0.139079 2.288 255 0 0 255 
0.087599 0.139381 2.293 255 0 0 255 
0.094333 0.140046 2.304 255 0 0 255 
0.11401 0.140948 2.319 255 0 0 255 
0.119948 0.140459 2.311 255 0 0 255 
0.126061 0.140212 2.307 255 0 0 255 
0.132093 0.139904 2.302 255 0 0 255 
0.138098 0.139596 2.297 255 0 0 255 
0.143886 0.139105 2.289 255 0 0 255 
0.149827 0.138797 2.284 255 0 0 255 
0.155739 0.138488 2.279 255 0 0 255 
0.16205 0.138544 2.28 255 0 0 255 
0.168144 0.138418 2.278 255 0 0 255 
0.174686 0.138655 2.282 255 0 0 255 
0.181091 0.138772 2.284 255 0 0 255 
0.187506 0.138887 2.286 255 0 0 255 
0.193931 0.139003 2.288 255 0 0 255 
-0.09735 -0.050795 2.44857 255 255 0 255 
-0.079197 -0.049003 2.44768 255 255 0 255 
-0.066996 -0.048704 2.44293 255 255 0 255 
-0.043831 -0.045589 2.44561 255 255 0 255 
-0.029147 -0.044616 2.4427 255 255 0 255 
-0.007744 -0.041898 2.44444 255 255 0 255 
0.007727 -0.040681 2.44226 255 255 0 255 
0.050084 -0.032486 2.45864 255 255 0 255 
0.060435 -0.032537 2.4532 255 255 0 255 
0.069932 -0.0328 2.44722 255 255 0 255 
0.059298 -0.038311 2.42722 255 255 0 255 
0.047857 -0.044057 2.40655 255 255 0 255 
0.059032 -0.043882 2.40173 255 255 0 255 
0.059329 -0.046563 2.38925 255 255 0 255 
0.071317 -0.046156 2.38509 255 255 0 255 
-0.197939 -0.123469 2.34339 0 255 0 255 
-0.219584 -0.113344 2.37063 0 255 0 255 
-0.185107 -0.121331 2.35929 0 255 0 255 
-0.19231 -0.115881 2.37654 0 255 0 255 
-0.182481 -0.115902 2.38218 0 255 0 255 
-0.181174 -0.11319 2.39361 0 255 0 255 
-0.162789 -0.115916 2.39359 0 255 0 255 
-0.167456 -0.111298 2.40904 0 255 0 255 
-0.161015 -0.11021 2.41707 0 255 0 255 
-0.146862 -0.111549 2.42004 0 255 0 255 
-0.033284 -0.11845 2.45893 0 255 0 255 
-0.018086 -0.119922 2.46197 0 255 0 255 
-0.022748 -0.115298 2.47743 0 255 0 255 
-0.340266 0.133264 2.3 255 0 0 255 
-0.334866 0.133621 2.306 255 0 0 255 
-0.328292 0.133514 2.304 255 0 0 255 
-0.322007 0.133522 2.304 255 0 0 255 
-0.315995 0.133647 2.306 255 0 0 255 
-0.310374 0.133945 2.311 255 0 0 255 
-0.30512 0.134417 2.319 255 0 0 255 
-0.2609 0.134529 2.32 255 0 0 255 
-0.253463 0.133957 2.31 255 0 0 255 
-0.246186 0.133442 2.301 255 0 0 255 
-0.238437 0.132636 2.287 255 0 0 255 
-0.230966 0.131947 2.275 255 0 0 255 
-0.223659 0.131316 2.264 255 0 0 255 
-0.216891 0.130974 2.258 255 0 0 255 
-0.210435 0.130806 2.255 255 0 0 255 
-0.204358 0.13087 2.256 255 0 0 255 
-0.198098 0.130818 2.255 255 0 0 255 
-0.191587 0.130591 2.251 255 0 0 255 
-0.185098 0.130365 2.247 255 0 0 255 
-0.178869 0.130312 2.246 255 0 0 255 
-0.172491 0.130143 2.243 255 0 0 255 
-0.166054 0.129916 2.239 255 0 0 255 
-0.159638 0.129688 2.235 255 0 0 255 
-0.152901 0.129171 2.226 255 0 0 255 
-0.146344 0.128769 2.219 255 0 0 255 
-0.139761 0.128309 2.211 255 0 0 255 
-0.133464 0.128081 2.207 255 0 0 255 
-0.127361 0.128026 2.206 255 0 0 255 
-0.121318 0.12803 2.206 255 0 0 255 
-0.115327 0.128092 2.207 255 0 0 255 
-0.109132 0.127921 2.204 255 0 0 255 
-0.103046 0.127866 2.203 255 0 0 255 
-0.097053 0.127927 2.204 255 0 0 255 
-0.091014 0.12793 2.204 255 0 0 255 
-0.085051 0.128049 2.206 255 0 0 255 
-0.079005 0.128051 2.206 255 0 0 255 
-0.073025 0.128169 2.208 255 0 0 255 
-0.067003 0.12823 2.209 255 0 0 255 
-0.061003 0.128348 2.211 255 0 0 255 
-0.054967 0.128407 2.212 255 0 0 255 
-0.048947 0.128525 2.214 255 0 0 255 
-0.042878 0.128526 2.214 255 0 0 255 
-0.036808 0.128528 2.214 255 0 0 255 
-0.030697 0.128355 2.211 255 0 0 255 
-0.024657 0.128471 2.213 255 0 0 255 
-0.018607 0.128588 2.215 255 0 0 255 
-0.012568 0.128937 2.221 255 0 0 255 
-0.00649 0.129169 2.225 255 0 0 255 
-0.00039 0.129286 2.227 255 0 0 255 
0.005721 0.129402 2.229 255 0 0 255 
0.011848 0.129576 2.232 255 0 0 255 
0.018008 0.129865 2.237 255 0 0 255 
0.024173 0.130039 2.24 255 0 0 255 
0.030369 0.13027 2.244 255 0 0 255 
0.036602 0.13056 2.249 255 0 0 255 
0.042844 0.130791 2.253 255 0 0 255 
0.049107 0.131021 2.257 255 0 0 255 
0.055442 0.131368 2.263 255 0 0 255 
0.061808 0.131715 2.269 255 0 0 255 
0.068268 0.132177 2.277 255 0 0 255 
0.074738 0.132581 2.284 255 0 0 255 
0.081246 0.132985 2.291 255 0 0 255 
0.087755 0.133331 2.297 255 0 0 255 
0.094295 0.133677 2.303 255 0 0 255 
0.101742 0.135183 2.329 255 0 0 255 
0.107892 0.13489 2.324 255 0 0 255 
0.113473 0.133958 2.308 255 0 0 255 
0.119589 0.133722 2.304 255 0 0 255 
0.125791 0.133602 2.302 255 0 0 255 
0.131868 0.133366 2.298 255 0 0 255 
0.137802 0.133014 2.292 255 0 0 255 
0.143702 0.132662 2.286 255 0 0 255 
0.149634 0.132367 2.281 255 0 0 255 
0.155675 0.132189 2.278 255 0 0 255 
0.161913 0.132184 2.278 255 0 0 255 
0.168371 0.132353 2.281 255 0 0 255 
0.174845 0.132522 2.284 255 0 0 255 
0.181334 0.132691 2.287 255 0 0 255 
0.187675 0.132744 2.288 255 0 0 255 
0.193682 0.132564 2.285 255 0 0 255 
-0.085324 -0.059091 2.45785 255 255 0 255 
-0.07142 -0.058336 2.45418 255 255 0 255 
-0.055003 -0.056917 2.45226 255 255 0 255 
-0.03186 -0.053736 2.45495 255 255 0 255 
-0.026468 -0.055131 2.4458 255 255 0 255 
-0.013499 -0.05455 2.4418 255 255 0 255 
0.003657 -0.05286 2.44074 255 255 0 255 
0.043478 -0.045207 2.45535 255 255 0 255 
0.068947 -0.041269 2.46031 255 255 0 255 
0.066692 -0.044605 2.44619 255 255 0 255 
0.042665 -0.053708 2.41683 255 255 0 255 
0.046316 -0.055514 2.40669 255 255 0 255 
0.059999 -0.054649 2.40363 255 255 0 255 
0.076165 -0.053104 2.4024 255 255 0 255 
0.032241 -0.067629 2.35843 255 255 0 255 
-0.206053 -0.131934 2.35031 0 255 0 255 
-0.196248 -0.131991 2.35589 0 255 0 255 
-0.221301 -0.120701 2.38536 0 255 0 255 
-0.218313 -0.118554 2.39555 0 255 0 255 
-0.193175 -0.123568 2.39075 0 255 0 255 
-0.185905 -0.122781 2.39814 0 255 0 255 
-0.1718 -0.124184 2.40098 0 255 0 255 
-0.167926 -0.122287 2.41071 0 255 0 255 
-0.16918 -0.118748 2.42385 0 255 0 255 
-0.155039 -0.120125 2.42681 0 255 0 255 
-0.075811 -0.126202 2.44979 0 255 0 255 
-0.068427 -0.125331 2.45756 0 255 0 255 
-0.064483 -0.123381 2.46753 0 255 0 255 
-0.339831 0.126808 2.297 255 0 0 255 
-0.334584 0.127203 2.304 255 0 0 255 
-0.3283 0.127211 2.304 255 0 0 255 
-0.322015 0.12722 2.304 255 0 0 255 
-0.31614 0.127393 2.307 255 0 0 255 
-0.310517 0.127678 2.312 255 0 0 255 
-0.305654 0.128293 2.323 255 0 0 255 
-0.262144 0.128787 2.331 255 0 0 255 
-0.253141 0.127468 2.307 255 0 0 255 
-0.245872 0.126977 2.298 255 0 0 255 
-0.238444 0.126376 2.287 255 0 0 255 
-0.230973 0.125719 2.275 255 0 0 255 
-0.223566 0.125062 2.263 255 0 0 255 
-0.216801 0.124736 2.257 255 0 0 255 
-0.210255 0.124521 2.253 255 0 0 255 
-0.204273 0.124637 2.255 255 0 0 255 
-0.197664 0.124367 2.25 255 0 0 255 
-0.191252 0.124206 2.247 255 0 0 255 
-0.184774 0.12399 2.243 255 0 0 255 
-0.178555 0.12394 2.242 255 0 0 255 
-0.172188 0.123779 2.239 255 0 0 255 
-0.165762 0.123562 2.235 255 0 0 255 
-0.159429 0.123401 2.232 255 0 0 255 
-0.152974 0.123129 2.227 255 0 0 255 
-0.146414 0.122746 2.22 255 0 0 255 
-0.139892 0.122363 2.213 255 0 0 255 
-0.133528 0.122091 2.208 255 0 0 255 
-0.12748 0.122094 2.208 255 0 0 255 
-0.121376 0.122042 2.207 255 0 0 255 
-0.115278 0.12199 2.206 255 0 0 255 
-0.109085 0.121828 2.203 255 0 0 255 
-0.102862 0.12161 2.199 255 0 0 255 
-0.096924 0.121723 2.201 255 0 0 255 
-0.090892 0.121726 2.201 255 0 0 255 
-0.084976 0.121894 2.204 255 0 0 255 
-0.0789 0.121841 2.203 255 0 0 255 
-0.072894 0.121899 2.204 255 0 0 255 
-0.066884 0.121956 2.205 255 0 0 255 
-0.06095 0.122179 2.209 255 0 0 255 
-0.054894 0.122181 2.209 255 0 0 255 
-0.048927 0.122403 2.213 255 0 0 255 
-0.042841 0.122349 2.212 255 0 0 255 
-0.036809 0.122461 2.214 255 0 0 255 
-0.030726 0.122407 2.213 255 0 0 255 
-0.024703 0.122629 2.217 255 0 0 255 
-0.018658 0.122851 2.221 255 0 0 255 
-0.012591 0.123072 2.225 255 0 0 255 
-0.006499 0.123239 2.228 255 0 0 255 
-0.000391 0.123294 2.229 255 0 0 255 
0.005724 0.123349 2.23 255 0 0 255 
0.011843 0.123404 2.231 255 0 0 255 
0.018 0.123681 2.236 255 0 0 255 
0.024174 0.123901 2.24 255 0 0 255 
0.030397 0.124232 2.246 255 0 0 255 
0.036636 0.124508 2.251 255 0 0 255 
0.042921 0.124839 2.257 255 0 0 255 
0.049174 0.125003 2.26 255 0 0 255 
0.055468 0.125223 2.264 255 0 0 255 
0.061783 0.125442 2.268 255 0 0 255 
0.06821 0.125828 2.275 255 0 0 255 
0.074642 0.126158 2.281 255 0 0 255 
0.081284 0.126764 2.292 255 0 0 255 
0.087757 0.127038 2.297 255 0 0 255 
0.09438 0.127478 2.305 255 0 0 255 
0.101133 0.128028 2.315 255 0 0 255 
0.107384 0.127914 2.313 255 0 0 255 
0.113329 0.127469 2.305 255 0 0 255 
0.119385 0.127189 2.3 255 0 0 255 
0.125522 0.12702 2.297 255 0 0 255 
0.131642 0.12685 2.294 255 0 0 255 
0.137445 0.126404 2.286 255 0 0 255 
0.143455 0.126179 2.282 255 0 0 255 
0.149442 0.125954 2.278 255 0 0 255 
0.15568 0.125949 2.278 255 0 0 255 
0.161846 0.12589 2.277 255 0 0 255 
0.168302 0.126051 2.28 255 0 0 255 
0.175079 0.126433 2.287 255 0 0 255 
0.181498 0.126539 2.289 255 0 0 255 
0.187845 0.126589 2.29 255 0 0 255 
0.192755 0.125699 2.274 255 0 0 255 
-0.083465 -0.069962 2.46042 255 255 0 255 
-0.064493 -0.067853 2.4601 255 255 0 255 
-0.043022 -0.065067 2.46157 255 255 0 255 
-0.018214 -0.061377 2.46542 255 255 0 255 
-0.011149 -0.062317 2.45743 255 255 0 255 
-0.003251 -0.063032 2.45004 255 255 0 255 
0.002957 -0.064186 2.44153 255 255 0 255 
0.039401 -0.057313 2.4538 255 255 0 255 
0.053955 -0.056212 2.4512 255 255 0 255 
0.063456 -0.056442 2.44518 255 255 0 255 
0.043637 -0.064512 2.41875 255 255 0 255 
0.048125 -0.066093 2.40919 255 255 0 255 
