ply
format ascii 1.0
comment VCGLIB generated
element vertex 727
property float x
property float y
property float z
property float nx
property float ny
property float nz
property uchar red
property uchar green
property uchar blue
property uchar alpha
element face 0
property list uchar int vertex_indices
end_header
-0.1258 0.280372 2.083 0.117096 0.0357085 0.992478 255 0 0 255
-0.120044 0.280245 2.082 0.202636 -0.0234283 0.978974 255 0 0 255
-0.114238 0.279983 2.08 0.255035 -0.044034 0.965929 255 0 0 255
-0.108443 0.279721 2.078 0.176106 -0.0238583 0.984082 255 0 0 255
-0.102757 0.279728 2.078 0.258959 0.0371457 0.965174 255 0 0 255
-0.096977 0.279465 2.076 0.331796 0.0993222 0.938108 255 0 0 255
-0.091208 0.279201 2.074 0.281757 0.126325 0.951133 255 0 0 255
-0.085491 0.279072 2.073 0.0922122 0.0571095 0.9941 255 0 0 255
-0.079817 0.279078 2.073 0.0605106 -0.0539076 0.996711 255 0 0 255
-0.074143 0.279082 2.073 0.119288 -0.0315348 0.992359 255 0 0 255
-0.068436 0.278952 2.072 -0.152636 0.102621 0.98294 255 0 0 255
-0.062824 0.279226 2.074 -0.261537 0.202616 0.943687 255 0 0 255
-0.057174 0.279364 2.075 -0.258204 0.258132 0.930967 255 0 0 255
-0.051544 0.279637 2.077 -0.11945 0.258479 0.958603 255 0 0 255
-0.045835 0.279505 2.076 0.0883121 0.267585 0.959479 255 0 0 255
-0.040132 0.279373 2.075 0.0302809 0.244663 0.969135 255 0 0 255
-0.034451 0.279376 2.075 -0.0890383 0.283648 0.954786 255 0 0 255
-0.028784 0.279512 2.076 -0.412582 0.284249 0.865435 255 0 0 255
-0.023144 0.280053 2.08 -0.57875 0.252501 0.77543 255 0 0 255
-0.017483 0.280592 2.084 -0.58189 0.210834 0.785464 255 0 0 255
-0.011805 0.281267 2.089 -0.492385 0.205874 0.845679 255 0 0 255
-0.006091 0.281536 2.091 -0.426286 0.216087 0.8784 255 0 0 255
-0.000366 0.281941 2.094 -0.287689 0.274969 0.917402 255 0 0 255
0.005365 0.281806 2.093 -0.255797 0.35658 0.898565 255 0 0 255
0.011111 0.282209 2.096 -0.582099 0.277908 0.764152 255 0 0 255
0.016898 0.283016 2.102 -0.77329 0.162355 0.612915 255 0 0 255
0.022783 0.284631 2.114 -0.785024 0.236824 0.57241 255 0 0 255
0.028639 0.285302 2.119 -0.670111 0.20741 0.712694 255 0 0 255
0.034505 0.285839 2.123 -0.509527 0.35609 0.783315 255 0 0 255
0.040356 0.286106 2.125 -0.43622 0.429412 0.79077 255 0 0 255
0.046261 0.286641 2.129 -0.414603 0.454662 0.788281 255 0 0 255
0.052114 0.286773 2.13 -0.44367 0.493584 0.748019 255 0 0 255
0.058081 0.287443 2.135 -0.59847 0.384847 0.702657 255 0 0 255
0.064075 0.288112 2.14 -0.61461 0.396543 0.681915 255 0 0 255
0.070096 0.288781 2.145 -0.552505 0.324312 0.767828 255 0 0 255
0.076074 0.28918 2.148 -0.533312 0.192765 0.823662 255 0 0 255
0.082106 0.289714 2.152 -0.714183 0.0819208 0.695149 255 0 0 255
0.088323 0.290785 2.16 -0.853489 0.0499158 0.518715 255 0 0 255
0.095282 0.29401 2.184 -0.890288 -0.426212 0.160409 255 0 0 255
0.102 0.296158 2.2 0.739413 0.670103 0.0650451 255 0 0 255
0.1064 0.291709 2.167 0.659305 0.581093 0.477124 255 0 0 255
0.111811 0.290356 2.157 0.562504 0.735154 0.378334 255 0 0 255
0.117386 0.289541 2.151 0.520555 0.823653 0.224986 255 0 0 255
0.123156 0.289265 2.149 0.239076 0.916727 0.320084 255 0 0 255
0.129035 0.289257 2.149 0.061929 0.935765 0.347143 255 0 0 255
0.134913 0.289249 2.149 0.0159866 0.910029 0.414236 255 0 0 255
0.140857 0.289375 2.15 0.0537861 0.690368 0.721456 255 0 0 255
0.146737 0.289366 2.15 0.137766 0.656173 0.741928 255 0 0 255
0.152475 0.289087 2.148 0.307929 0.625482 0.716904 255 0 0 255
0.158054 0.288539 2.144 0.446957 0.319682 0.835484 255 0 0 255
0.163763 0.28826 2.142 0.303952 0.108067 0.946538 255 0 0 255
0.16946 0.287981 2.14 -0.0335581 -0.108557 0.993524 255 0 0 255
0.175474 0.28824 2.142 0.106783 -0.256184 0.960712 255 0 0 255
0.181075 0.287825 2.139 0.36855 -0.189242 0.910142 255 0 0 255
0.186571 0.287276 2.135 0.296001 -0.0993585 0.950006 255 0 0 255
-0.103783 0.235693 2.33161 -0.0201643 -0.946145 -0.323113 255 255 0 255
-0.091509 0.235296 2.32717 -0.120107 -0.480335 -0.868823 255 255 0 255
-0.080958 0.234614 2.32159 -0.302063 -0.453575 -0.838467 255 255 0 255
-0.069571 0.234087 2.31665 -0.457389 -0.495013 -0.738754 255 255 0 255
-0.059901 0.233272 2.31055 -0.410992 -0.418666 -0.809818 255 255 0 255
-0.049394 0.232612 2.30509 -0.250753 -0.393259 -0.884574 255 255 0 255
-0.031265 0.233304 2.30513 -0.0862772 -0.480865 -0.87254 255 255 0 255
-0.016558 0.233413 2.30282 -0.315703 -0.647748 -0.693365 255 255 0 255
-0.001874 0.233535 2.30057 -0.492189 -0.703545 -0.512615 255 255 0 255
0.002636 0.23186 2.29102 -0.565972 -0.728881 -0.385237 255 255 0 255
0.007144 0.230186 2.28147 -0.806951 -0.548666 -0.218623 255 255 0 255
0.008275 0.227908 2.26945 -0.801231 -0.463339 -0.378611 255 255 0 255
0.016998 0.226995 2.26301 -0.617036 -0.533802 -0.578206 255 255 0 255
0.021499 0.225326 2.25348 -0.639173 -0.563357 -0.523534 255 255 0 255
0.031888 0.224729 2.24834 -0.911091 -0.337936 -0.236034 255 255 0 255
0.029656 0.221839 2.2338 0.979086 0.192164 -0.0668137 255 255 0 255
0.026598 0.218789 2.2186 0.985263 -0.0576304 -0.161044 255 255 0 255
0.046917 0.207552 2.15626 0.629274 -0.270551 -0.728571 255 255 0 255
0.083911 0.212011 2.17207 -0.493891 -0.454611 -0.741216 255 255 0 255
0.11667 0.21572 2.18481 -0.723586 -0.324096 -0.609414 255 255 0 255
0.136066 0.216935 2.18726 -0.556564 -0.414132 -0.72023 255 255 0 255
0.1438 0.21595 2.1806 -0.29609 -0.924864 -0.238656 255 255 0 255
0.149038 0.214494 2.17198 0.796212 0.394858 -0.458403 255 255 0 255
-0.281219 0.16045 2.23501 0.732344 -0.204899 -0.649375 0 255 0 255
-0.286856 0.164661 2.25132 0.899088 -0.158155 -0.408201 0 255 0 255
-0.267648 0.162761 2.24933 0.411029 0.160304 -0.897417 0 255 0 255
-0.236399 0.157943 2.23867 0.826254 -0.109489 -0.552554 0 255 0 255
-0.186282 0.160083 2.26393 -0.952385 0.277848 -0.125549 0 255 0 255
-0.187609 0.163266 2.27717 -0.941907 0.308418 -0.132999 0 255 0 255
-0.189806 0.16665 2.29099 -0.945957 0.242891 -0.21487 0 255 0 255
-0.198925 0.171673 2.30963 0.818338 -0.440253 -0.369459 0 255 0 255
-0.183852 0.170941 2.31129 0.510619 -0.718128 -0.472822 0 255 0 255
-0.173085 0.171246 2.31603 0.282098 -0.670139 -0.686538 0 255 0 255
-0.159707 0.17095 2.31902 0.407542 -0.602744 -0.68601 0 255 0 255
-0.15238 0.172092 2.32624 0.277595 -0.406603 -0.870411 0 255 0 255
-0.136368 0.17121 2.32755 0.504861 -0.183572 -0.843455 0 255 0 255
-0.130756 0.172773 2.33602 0.665851 -0.414653 -0.620247 0 255 0 255
-0.126008 0.174542 2.3451 0.680542 -0.527182 -0.508864 0 255 0 255
-0.117778 0.175508 2.35184 0.4442 -0.659473 -0.60645 0 255 0 255
-0.102574 0.174876 2.35395 0.488786 -0.248541 -0.836251 0 255 0 255
-0.090834 0.175059 2.35844 0.0957348 -0.183743 -0.978301 0 255 0 255
-0.07908 0.175255 2.36299 0.270407 -0.331653 -0.903818 0 255 0 255
-0.069056 0.175859 2.36875 0.045667 -0.368968 -0.92832 0 255 0 255
-0.321271 0.286271 2.174 -0.986269 0.0518172 0.15681 255 0 0 255
-0.317958 0.288658 2.192 -0.525514 0.349265 0.77579 255 0 0 255
-0.31227 0.288939 2.194 -0.568814 0.289117 0.769975 255 0 0 255
-0.306988 0.289614 2.199 -0.409676 0.270486 0.871208 255 0 0 255
-0.30113 0.289763 2.2 -0.140755 0.303064 0.942518 255 0 0 255
-0.2954 0.290043 2.202 -0.216634 0.451812 0.865411 255 0 0 255
-0.289527 0.290191 2.203 -0.281462 0.491533 0.82412 255 0 0 255
-0.283905 0.290602 2.206 -0.281507 0.531401 0.798978 255 0 0 255
-0.278014 0.290749 2.207 -0.340893 0.560764 0.754543 255 0 0 255
-0.272486 0.291292 2.211 -0.467455 0.480365 0.742115 255 0 0 255
-0.266935 0.291834 2.215 -0.517524 0.533819 0.668735 255 0 0 255
-0.261598 0.29264 2.221 -0.711121 0.434323 0.552875 255 0 0 255
-0.256111 0.293313 2.226 -0.827512 0.324245 0.458354 255 0 0 255
-0.250821 0.29425 2.233 -0.856327 0.276305 0.436302 255 0 0 255
-0.246588 0.296505 2.25 -0.92162 0.230215 0.312439 255 0 0 255
-0.238308 0.293883 2.23 0.26478 0.21005 0.941154 255 0 0 255
-0.229719 0.290734 2.206 0.93085 0.059182 0.360578 255 0 0 255
-0.221564 0.287979 2.185 0.879719 0.281098 0.383507 255 0 0 255
-0.21382 0.28562 2.167 0.88417 0.161368 0.438412 255 0 0 255
-0.206365 0.283523 2.151 0.798535 0.0981488 0.593893 255 0 0 255
-0.199836 0.282613 2.144 0.808123 0.0878736 0.582422 255 0 0 255
-0.192982 0.281174 2.133 0.818212 0.1797 0.54611 255 0 0 255
-0.186539 0.280263 2.126 0.776522 0.191773 0.600198 255 0 0 255
-0.179963 0.279087 2.117 0.726476 0.127056 0.675344 255 0 0 255
-0.173683 0.278307 2.111 0.688661 0.130351 0.713271 255 0 0 255
-0.167355 0.277394 2.104 0.662329 0.149214 0.734204 255 0 0 255
-0.161295 0.276877 2.1 0.566518 0.20281 0.798703 255 0 0 255
-0.155331 0.276491 2.097 0.620603 0.102201 0.777436 255 0 0 255
-0.14924 0.275841 2.092 0.608821 0.0817126 0.789088 255 0 0 255
-0.143313 0.275454 2.089 0.478219 0.0957155 0.873009 255 0 0 255
-0.137336 0.274935 2.085 0.335362 0.145885 0.930725 255 0 0 255
-0.131569 0.274811 2.084 0.20431 0.120992 0.9714 255 0 0 255
-0.125748 0.274556 2.082 0.204867 0.0847996 0.97511 255 0 0 255
-0.120052 0.274563 2.082 0.257888 0.0478313 0.96499 255 0 0 255
-0.114191 0.274175 2.079 0.232891 0.0550734 0.970942 255 0 0 255
-0.108502 0.274181 2.079 0.119393 0.0201866 0.992642 255 0 0 255
-0.102763 0.274056 2.078 0.202198 0.136247 0.969821 255 0 0 255
-0.09703 0.27393 2.077 0.306153 0.100402 0.946673 255 0 0 255
-0.091258 0.273672 2.075 0.30751 0.0899707 0.947282 255 0 0 255
-0.085496 0.273414 2.073 0.176217 0.0644229 0.982241 255 0 0 255
-0.079783 0.273287 2.072 0.060939 0.0429059 0.997219 255 0 0 255
-0.074076 0.27316 2.071 0.00101226 0.0541357 0.998533 255 0 0 255
-0.06844 0.273297 2.072 -0.269377 0.170885 0.947752 255 0 0 255
-0.062859 0.273696 2.075 -0.314031 0.230923 0.920901 255 0 0 255
-0.057206 0.273832 2.076 -0.20562 0.179018 0.962119 255 0 0 255
-0.051572 0.274099 2.078 -0.118859 0.2032 0.971896 255 0 0 255
-0.045882 0.274102 2.078 0.0597147 0.232317 0.970805 255 0 0 255
-0.040174 0.273973 2.077 -0.0596814 0.345892 0.936374 255 0 0 255
-0.034503 0.274107 2.078 -0.127232 0.499304 0.857034 255 0 0 255
-0.028827 0.274241 2.079 -0.384277 0.485969 0.784962 255 0 0 255
-0.023179 0.274771 2.083 -0.541938 0.405204 0.736283 255 0 0 255
-0.017509 0.275299 2.087 -0.532552 0.364239 0.764015 255 0 0 255
-0.011812 0.275696 2.09 -0.464847 0.332583 0.820552 255 0 0 255
-0.006094 0.275961 2.092 -0.442372 0.323321 0.836523 255 0 0 255
-0.000367 0.276488 2.096 -0.28392 0.377664 0.88134 255 0 0 255
0.005375 0.27662 2.097 -0.224745 0.40863 0.884597 255 0 0 255
0.011133 0.277015 2.1 -0.50169 0.325065 0.801648 255 0 0 255
0.016908 0.27741 2.103 -0.758274 0.16245 0.631372 255 0 0 255
0.022774 0.278728 2.113 -0.815091 0.0451475 0.577571 255 0 0 255
0.028654 0.27965 2.12 -0.715771 0.120421 0.687874 255 0 0 255
0.034556 0.280439 2.126 -0.601625 0.285356 0.746069 255 0 0 255
0.040434 0.280833 2.129 -0.484325 0.381042 0.787551 255 0 0 255
0.046329 0.281226 2.132 -0.436419 0.434208 0.788037 255 0 0 255
0.052239 0.281618 2.135 -0.453651 0.444199 0.772586 255 0 0 255
0.058193 0.282142 2.139 -0.592587 0.412108 0.692104 255 0 0 255
0.064199 0.282798 2.144 -0.602405 0.357346 0.713731 255 0 0 255
0.070199 0.283322 2.148 -0.480681 0.349196 0.804368 255 0 0 255
0.07615 0.283581 2.15 -0.483483 0.306464 0.819954 255 0 0 255
0.082149 0.283972 2.153 -0.667634 0.245482 0.702854 255 0 0 255
0.088492 0.285417 2.164 -0.955266 0.266134 0.128999 255 0 0 255
0.096247 0.290951 2.206 -0.771006 -0.636658 0.0147112 255 0 0 255
0.106898 0.287114 2.177 0.570828 0.705365 0.420257 255 0 0 255
0.112389 0.28592 2.168 0.362882 0.887005 0.28555 255 0 0 255
0.118212 0.285649 2.166 0.361393 0.885881 0.290877 255 0 0 255
0.124023 0.285378 2.164 0.49191 0.675823 0.548896 255 0 0 255
0.129643 0.284711 2.159 0.362373 0.784981 0.502484 255 0 0 255
0.135361 0.284307 2.156 0.312597 0.6798 0.663441 255 0 0 255
0.141128 0.284035 2.154 0.110421 0.480043 0.870268 255 0 0 255
0.147019 0.284026 2.154 0.251154 0.376082 0.891899 255 0 0 255
0.152697 0.283621 2.151 0.549053 0.279046 0.787829 255 0 0 255
0.158211 0.282953 2.146 0.567589 0.147902 0.809918 255 0 0 255
0.163773 0.282415 2.142 0.457635 0.173763 0.871996 255 0 0 255
0.169392 0.28201 2.139 0.149286 0.0344749 0.988193 255 0 0 255
0.175403 0.282263 2.141 0.0868373 0.0773252 0.993217 255 0 0 255
0.181001 0.281857 2.138 0.239643 0.14525 0.959934 255 0 0 255
0.18667 0.281582 2.136 0.315937 0.218606 0.923252 255 0 0 255
-0.111652 0.225705 2.34041 -0.884654 -0.114297 -0.452022 255 255 0 255
-0.100222 0.225177 2.33533 -0.377272 -0.116531 -0.918742 255 255 0 255
-0.087954 0.224808 2.33089 -0.168806 -0.513472 -0.841339 255 255 0 255
-0.074002 0.224748 2.32769 -0.213749 -0.69787 -0.683585 255 255 0 255
-0.066027 0.223646 2.32036 -0.448978 -0.594629 -0.66696 255 255 0 255
-0.054662 0.223153 2.31546 -0.357979 -0.696503 -0.62188 255 255 0 255
-0.045012 0.222365 2.30941 -0.198227 -0.612512 -0.765203 255 255 0 255
-0.025198 0.223407 2.31066 -0.0996967 -0.484776 -0.868938 255 255 0 255
-0.0105 0.223553 2.30835 -0.144931 -0.386755 -0.910722 255 255 0 255
0.005865 0.224016 2.30733 -0.606356 -0.460408 -0.648349 255 255 0 255
0.011213 0.222501 2.29841 -0.910697 -0.356358 -0.208902 255 255 0 255
0.012336 0.220219 2.28642 -0.853671 -0.464229 -0.236087 255 255 0 255
0.011777 0.217626 2.27317 -0.619367 -0.525217 -0.583551 255 255 0 255
0.026394 0.217813 2.27109 -0.563684 -0.688285 -0.456644 255 255 0 255
0.03257 0.216461 2.26283 -0.833147 -0.473051 -0.286514 255 255 0 255
0.035378 0.214491 2.25207 -0.953563 -0.298166 -0.0425882 255 255 0 255
0.029787 0.21096 2.23503 0.989422 -0.0529575 -0.135056 255 255 0 255
0.057066 0.198552 2.16522 0.558803 -0.179413 -0.80966 255 255 0 255
0.085706 0.201525 2.17454 -0.626162 -0.129253 -0.768905 255 255 0 255
0.139498 0.20691 2.191 -0.188918 -0.19469 -0.9625 255 255 0 255
0.151379 0.206745 2.18762 -0.688397 -0.293328 -0.663376 255 255 0 255
0.154121 0.204814 2.17705 0.854637 0.119325 -0.505329 255 255 0 255
-0.283319 0.150375 2.23773 0.868513 -0.27476 -0.412544 0 255 0 255
-0.281248 0.152691 2.24835 0.859245 -0.35019 -0.372913 0 255 0 255
-0.2629 0.150959 2.24703 -0.500018 -0.0933523 -0.860969 0 255 0 255
-0.235093 0.146911 2.23891 0.843753 -0.285436 -0.45454 0 255 0 255
-0.196181 0.151681 2.27222 0.826743 -0.510011 -0.237453 0 255 0 255
-0.191477 0.153408 2.28116 0.918536 -0.382655 -0.0993338 0 255 0 255
-0.190222 0.155972 2.29253 -0.988615 0.0845322 -0.124476 0 255 0 255
-0.197605 0.160615 2.30995 0.954774 -0.275584 -0.111622 0 255 0 255
-0.189451 0.16151 2.31646 0.508084 -0.535836 -0.674337 0 255 0 255
-0.183882 0.163032 2.3248 0.355571 -0.587098 -0.727245 0 255 0 255
-0.170518 0.1627 2.32776 0.25007 -0.636525 -0.72959 0 255 0 255
-0.158869 0.162793 2.33198 0.301543 -0.401973 -0.864575 0 255 0 255
-0.142869 0.16187 2.33329 0.425597 -0.534332 -0.730313 0 255 0 255
-0.135526 0.163012 2.34057 0.75597 -0.481106 -0.443899 0 255 0 255
-0.131652 0.164978 2.35023 0.708929 -0.463786 -0.531341 0 255 0 255
-0.122559 0.165722 2.35638 0.609124 -0.3138 -0.728352 0 255 0 255
-0.105623 0.164645 2.35733 0.369697 -0.474793 -0.798684 0 255 0 255
-0.096503 0.165411 2.36357 0.311908 -0.488779 -0.814745 0 255 0 255
-0.08127 0.164769 2.3658 0.156998 -0.548098 -0.821547 0 255 0 255
-0.070379 0.165151 2.37099 0.0601397 -0.500268 -0.86378 0 255 0 255
-0.318556 0.283197 2.196 -0.528708 0.378253 0.759864 255 0 0 255
-0.312998 0.283601 2.199 -0.432312 0.422007 0.796879 255 0 0 255
-0.307563 0.284134 2.203 -0.33882 0.344041 0.875692 255 0 0 255
-0.301557 0.28415 2.203 -0.2589 0.229107 0.938339 255 0 0 255
-0.295819 0.284424 2.205 -0.215973 0.258417 0.941582 255 0 0 255
-0.289938 0.284569 2.206 -0.312909 0.304258 0.899731 255 0 0 255
-0.284307 0.284972 2.209 -0.413067 0.267635 0.870487 255 0 0 255
-0.278533 0.285246 2.211 -0.404308 0.303977 0.862632 255 0 0 255
-0.272871 0.285648 2.214 -0.450339 0.27938 0.848023 255 0 0 255
-0.267071 0.285921 2.216 -0.464755 0.15484 0.871796 255 0 0 255
-0.261613 0.286581 2.221 -0.737739 0.0189491 0.67482 255 0 0 255
-0.256241 0.28737 2.227 -0.817825 0.207 0.536947 255 0 0 255
-0.251285 0.288675 2.237 -0.889628 0.145484 0.432893 255 0 0 255
-0.246712 0.290496 2.251 -0.926457 0.247399 0.283676 255 0 0 255
-0.237787 0.287154 2.225 -0.439751 -0.50962 0.739531 255 0 0 255
-0.229524 0.284457 2.204 0.88639 0.0470029 0.460546 255 0 0 255
-0.22178 0.282276 2.187 0.879855 0.155708 0.449011 255 0 0 255
-0.213931 0.279836 2.168 0.906497 0.184475 0.379778 255 0 0 255
-0.206473 0.277783 2.152 0.832145 0.125114 0.54026 255 0 0 255
-0.199941 0.276891 2.145 0.79304 0.0989352 0.601082 255 0 0 255
-0.193174 0.275612 2.135 0.775472 0.193709 0.600932 255 0 0 255
-0.186725 0.274719 2.128 0.788342 0.202517 0.580951 255 0 0 255
-0.180059 0.273439 2.118 0.757507 0.237648 0.608035 255 0 0 255
-0.173775 0.272675 2.112 0.686994 0.164311 0.707843 255 0 0 255
-0.167604 0.27204 2.107 0.6453 0.200531 0.73714 255 0 0 255
-0.161459 0.271404 2.102 0.584568 0.208342 0.784139 255 0 0 255
-0.155414 0.270897 2.098 0.633254 0.116449 0.765133 255 0 0 255
-0.149178 0.270002 2.091 0.569097 0.16364 0.805823 255 0 0 255
-0.143321 0.269752 2.089 0.423894 0.241774 0.872845 255 0 0 255
-0.13741 0.269373 2.086 0.352723 0.289799 0.889721 255 0 0 255
-0.131704 0.269381 2.086 0.332553 0.237725 0.912631 255 0 0 255
-0.125816 0.269002 2.083 0.283098 0.14594 0.947923 255 0 0 255
-0.120059 0.26888 2.082 0.207996 0.124698 0.970148 255 0 0 255
-0.114252 0.268629 2.08 0.151731 0.204067 0.967127 255 0 0 255
-0.108561 0.268636 2.08 0.148183 0.250288 0.956764 255 0 0 255
-0.102819 0.268513 2.079 0.312435 0.13124 0.94083 255 0 0 255
-0.097036 0.268261 2.077 0.331014 0.064613 0.941411 255 0 0 255
-0.091263 0.268008 2.075 0.306039 0.0515487 0.950622 255 0 0 255
-0.085501 0.267755 2.073 0.175676 0.0938407 0.979965 255 0 0 255
-0.079827 0.26776 2.073 0.0313344 0.133444 0.990561 255 0 0 255
-0.074152 0.267765 2.073 -0.0907142 0.197693 0.976058 255 0 0 255
-0.06851 0.267898 2.074 -0.311953 0.275562 0.909258 255 0 0 255
-0.062923 0.26829 2.077 -0.287839 0.256938 0.922568 255 0 0 255
-0.057264 0.268423 2.078 -0.119387 0.170159 0.978158 255 0 0 255
-0.051575 0.268426 2.078 -0.147937 0.110223 0.982835 255 0 0 255
-0.045907 0.268558 2.079 -0.120591 0.222291 0.967494 255 0 0 255
-0.040215 0.268561 2.079 -0.206236 0.401525 0.892325 255 0 0 255
-0.034572 0.268951 2.082 -0.294995 0.471704 0.830947 255 0 0 255
-0.028885 0.269082 2.083 -0.397639 0.450125 0.799545 255 0 0 255
-0.023225 0.2696 2.087 -0.481086 0.398686 0.780773 255 0 0 255
-0.017536 0.269989 2.09 -0.443471 0.345398 0.827063 255 0 0 255
-0.011829 0.270378 2.093 -0.461891 0.328394 0.823902 255 0 0 255
-0.006107 0.270766 2.096 -0.492418 0.367865 0.788796 255 0 0 255
-0.000367 0.271153 2.099 -0.310472 0.495784 0.811052 255 0 0 255
0.005381 0.271153 2.099 -0.276356 0.476676 0.83451 255 0 0 255
0.011139 0.271411 2.101 -0.327542 0.426104 0.843298 255 0 0 255
0.016917 0.271798 2.104 -0.664295 0.270709 0.696727 255 0 0 255
0.022775 0.272959 2.113 -0.817038 0.0806847 0.570911 255 0 0 255
0.028656 0.273862 2.12 -0.765487 0.150252 0.625663 255 0 0 255
0.034558 0.274635 2.126 -0.683869 0.265151 0.679719 255 0 0 255
0.040475 0.275279 2.131 -0.515252 0.410309 0.752437 255 0 0 255
0.046375 0.275663 2.134 -0.448556 0.453399 0.770212 255 0 0 255
0.052316 0.276177 2.138 -0.466327 0.445885 0.764019 255 0 0 255
0.058224 0.276432 2.14 -0.56411 0.426916 0.706769 255 0 0 255
0.064293 0.277332 2.147 -0.582717 0.420878 0.695199 255 0 0 255
0.070236 0.277587 2.149 -0.391955 0.449641 0.802617 255 0 0 255
0.076261 0.278099 2.153 -0.484453 0.441967 0.754964 255 0 0 255
0.082307 0.278611 2.157 -0.657353 0.397327 0.640326 255 0 0 255
0.088784 0.280414 2.171 -0.737109 0.207748 0.643048 255 0 0 255
0.11364 0.283101 2.192 0.676617 0.725376 0.126567 255 0 0 255
0.118874 0.281286 2.178 0.445997 0.730174 0.517621 255 0 0 255
0.124432 0.280375 2.171 0.646366 0.489336 0.585459 255 0 0 255
0.129891 0.279334 2.163 0.604564 0.587475 0.537936 255 0 0 255
0.135495 0.27868 2.158 0.540803 0.437523 0.718405 255 0 0 255
0.141267 0.278414 2.156 0.291472 0.179935 0.939504 255 0 0 255
0.147096 0.278276 2.155 0.321927 0.222232 0.920313 255 0 0 255
0.152777 0.27788 2.152 0.625536 0.142877 0.767001 255 0 0 255
0.158294 0.277225 2.147 0.616476 0.151059 0.772747 255 0 0 255
0.164012 0.276957 2.145 0.481025 0.108895 0.869918 255 0 0 255
0.16956 0.276431 2.141 0.208533 0.147787 0.966785 255 0 0 255
0.175413 0.27642 2.141 0.0353956 0.203508 0.978433 255 0 0 255
0.181181 0.276281 2.14 0.262597 0.171941 0.949463 255 0 0 255
0.187031 0.27627 2.14 0.264045 0.211089 0.941128 255 0 0 255
-0.109794 0.214871 2.34295 -0.420863 -0.216016 -0.881029 255 255 0 255
-0.096661 0.214671 2.33904 -0.138988 -0.398458 -0.906595 255 255 0 255
-0.082696 0.214634 2.33579 -0.0760279 -0.692363 -0.717533 255 255 0 255
-0.06705 0.214914 2.33379 -0.319719 -0.586725 -0.743999 255 255 0 255
-0.056533 0.214287 2.32826 -0.440404 -0.659843 -0.608811 255 255 0 255
-0.044331 0.213975 2.32398 -0.255672 -0.727428 -0.636773 255 255 0 255
-0.033844 0.213365 2.31855 -0.203295 -0.668446 -0.715437 255 255 0 255
-0.02083 0.213226 2.31497 -0.350429 -0.492701 -0.796521 255 255 0 255
-0.006988 0.213252 2.31206 -0.242781 -0.309896 -0.919251 255 255 0 255
0.004294 0.212823 2.30737 -0.452328 -0.205331 -0.867893 255 255 0 255
0.012179 0.211779 2.30028 -0.935963 -0.229936 -0.266651 255 255 0 255
0.009928 0.208864 2.28582 -0.94462 -0.310618 -0.105875 255 255 0 255
0.016963 0.207668 2.27813 -0.63442 -0.394399 -0.664801 255 255 0 255
0.030729 0.207734 2.27542 -0.573016 -0.256847 -0.778256 255 255 0 255
0.035218 0.206077 2.26592 -0.870035 -0.111051 -0.480321 255 255 0 255
0.034663 0.203471 2.25267 0.994856 -0.061256 -0.080684 255 255 0 255
0.023203 0.1988 2.23123 0.924575 -0.233257 -0.301251 255 255 0 255
0.088333 0.1912 2.17765 -0.680484 -0.584807 -0.441522 255 255 0 255
0.116903 0.194279 2.1871 -0.825932 0.188215 -0.531423 255 255 0 255
0.136285 0.195592 2.18951 -0.0496528 0.642971 -0.764279 255 255 0 255
0.145677 0.194959 2.18415 -0.265896 0.851529 -0.451884 255 255 0 255
0.151742 0.193678 2.17618 0.866777 -0.356482 -0.348738 255 255 0 255
-0.283348 0.142618 2.25107 0.912391 -0.242358 -0.329855 0 255 0 255
-0.266722 0.141271 2.25101 -0.474485 -0.0705665 -0.877431 0 255 0 255
-0.243218 0.138222 2.24603 -0.0246242 0.000813927 -0.999696 0 255 0 255
-0.202626 0.142477 2.27804 0.7968 -0.443193 -0.410718 0 255 0 255
-0.194483 0.143348 2.28453 0.763387 -0.495211 -0.414736 0 255 0 255
-0.188054 0.144649 2.29226 0.948945 -0.312247 -0.0447727 0 255 0 255
-0.197153 0.149747 2.31089 -0.976806 0.182017 -0.112783 0 255 0 255
-0.192454 0.151468 2.31982 0.824949 -0.369141 -0.428011 0 255 0 255
-0.189481 0.153611 2.32995 0.496414 -0.654269 -0.570531 0 255 0 255
-0.171801 0.1522 2.32993 0.323575 -0.454926 -0.829664 0 255 0 255
-0.161023 0.152476 2.33475 0.149008 -0.457858 -0.876449 0 255 0 255
-0.145032 0.151514 2.33607 0.469781 -0.428251 -0.77195 0 255 0 255
-0.137692 0.152644 2.34336 0.638975 -0.598282 -0.483497 0 255 0 255
-0.133818 0.154606 2.35301 0.690959 -0.578681 -0.433247 0 255 0 255
-0.124729 0.155333 2.35917 0.410937 -0.64196 -0.647316 0 255 0 255
-0.111281 0.155038 2.36245 0.391867 -0.586681 -0.708693 0 255 0 255
-0.101297 0.155577 2.36811 0.212187 -0.654442 -0.725729 0 255 0 255
-0.088688 0.155511 2.37208 0.224895 -0.545459 -0.807401 0 255 0 255
-0.076934 0.155663 2.37667 0.155306 -0.682478 -0.714215 0 255 0 255
-0.319532 0.2729 2.162 -0.977378 0.208263 0.0368546 255 0 0 255
-0.318863 0.277461 2.198 -0.379265 0.34432 0.858838 255 0 0 255
-0.3133 0.277857 2.201 -0.291488 0.260095 0.920536 255 0 0 255
-0.30744 0.277999 2.202 -0.111993 0.145544 0.982993 255 0 0 255
-0.301437 0.278015 2.202 -0.178062 -0.0301528 0.983557 255 0 0 255
-0.295835 0.27841 2.205 -0.270062 -0.0286236 0.962417 255 0 0 255
-0.290085 0.278679 2.207 -0.394247 0.0985285 0.913707 255 0 0 255
-0.284451 0.279073 2.21 -0.481904 0.132273 0.866183 255 0 0 255
-0.278801 0.279467 2.213 -0.452898 0.0901099 0.886997 255 0 0 255
-0.273009 0.279735 2.215 -0.453829 0.205447 0.867082 255 0 0 255
-0.267206 0.280002 2.217 -0.559527 0.253511 0.78909 255 0 0 255
-0.261745 0.280648 2.222 -0.752475 0.392053 0.529221 255 0 0 255
-0.256716 0.281799 2.231 -0.823415 0.287718 0.489087 255 0 0 255
-0.251748 0.283077 2.241 -0.918333 0.155416 0.364021 255 0 0 255
-0.246945 0.284606 2.253 -0.952265 0.0614898 0.299015 255 0 0 255
-0.237159 0.280325 2.219 0.992991 -0.0166575 0.117009 255 0 0 255
-0.229328 0.27819 2.202 0.82096 -0.0888264 0.564034 255 0 0 255
-0.222097 0.276687 2.19 0.824624 0.133543 0.549692 255 0 0 255
-0.214338 0.274425 2.172 0.905763 0.216076 0.364561 255 0 0 255
-0.206773 0.272289 2.155 0.863642 0.191483 0.466322 255 0 0 255
-0.199952 0.271037 2.145 0.796739 0.143541 0.587029 255 0 0 255
-0.193367 0.270038 2.137 0.775414 0.164292 0.609706 255 0 0 255
-0.186824 0.269038 2.129 0.748522 0.279803 0.601187 255 0 0 255
-0.180239 0.267911 2.12 0.725885 0.372785 0.578033 255 0 0 255
-0.17395 0.267163 2.114 0.614849 0.415065 0.670584 255 0 0 255
-0.167773 0.266541 2.109 0.592867 0.41984 0.687199 255 0 0 255
-0.161622 0.265919 2.104 0.595531 0.379744 0.70791 255 0 0 255
-0.155498 0.265296 2.099 0.632391 0.324227 0.703533 255 0 0 255
-0.1494 0.264673 2.094 0.488089 0.383151 0.784197 255 0 0 255
-0.143536 0.264429 2.092 0.36202 0.456443 0.812774 255 0 0 255
-0.137682 0.264184 2.09 0.357731 0.441722 0.822746 255 0 0 255
-0.131775 0.263813 2.087 0.472777 0.270283 0.838707 255 0 0 255
-0.125884 0.263442 2.084 0.427319 0.175244 0.886954 255 0 0 255
-0.120124 0.263323 2.083 0.178815 0.114689 0.977175 255 0 0 255
-0.114424 0.263329 2.083 0.094102 0.109167 0.989559 255 0 0 255
-0.108724 0.263336 2.083 0.1953 0.144026 0.970111 255 0 0 255
-0.102875 0.262963 2.08 0.360419 0.0732699 0.929909 255 0 0 255
-0.097042 0.26259 2.077 0.353896 0.0434254 0.934276 255 0 0 255
-0.091269 0.262343 2.075 0.255807 0.0666713 0.964426 255 0 0 255
-0.085548 0.262222 2.074 0.0614687 0.185288 0.98076 255 0 0 255
-0.07987 0.262226 2.074 -0.088587 0.268882 0.959091 255 0 0 255
-0.074228 0.262358 2.075 -0.132415 0.373202 0.918252 255 0 0 255
-0.06858 0.262488 2.076 -0.239252 0.31519 0.918376 255 0 0 255
-0.062957 0.262745 2.078 -0.233193 0.270924 0.933928 255 0 0 255
-0.057268 0.262749 2.078 -0.0892457 0.236453 0.967536 255 0 0 255
-0.051578 0.262752 2.078 -0.15011 0.236092 0.960066 255 0 0 255
-0.045932 0.263008 2.08 -0.232049 0.294375 0.927091 255 0 0 255
-0.040275 0.263263 2.082 -0.309595 0.313667 0.897643 255 0 0 255
-0.034624 0.263645 2.085 -0.334845 0.320582 0.886062 255 0 0 255
-0.028942 0.2639 2.087 -0.388725 0.269278 0.881126 255 0 0 255
-0.02326 0.264281 2.09 -0.457698 0.204894 0.865177 255 0 0 255
-0.017545 0.264408 2.091 -0.426824 0.222656 0.876496 255 0 0 255
-0.011836 0.264789 2.094 -0.500806 0.284649 0.817416 255 0 0 255
-0.006113 0.265295 2.098 -0.565179 0.330601 0.755828 255 0 0 255
-0.000368 0.265801 2.102 -0.370467 0.508786 0.777104 255 0 0 255
0.005394 0.266054 2.104 -0.206832 0.579292 0.788442 255 0 0 255
0.011161 0.26618 2.105 -0.245278 0.556542 0.793788 255 0 0 255
0.016942 0.266432 2.107 -0.636891 0.351544 0.686139 255 0 0 255
0.022787 0.267316 2.114 -0.798877 0.186482 0.571857 255 0 0 255
0.028698 0.268452 2.123 -0.784637 0.191344 0.589688 255 0 0 255
0.034626 0.269335 2.13 -0.717498 0.286769 0.634791 255 0 0 255
0.040572 0.270092 2.136 -0.572293 0.473018 0.669877 255 0 0 255
0.046465 0.270342 2.138 -0.441497 0.555695 0.704474 255 0 0 255
0.052417 0.270845 2.142 -0.390724 0.559434 0.731005 255 0 0 255
0.058364 0.271221 2.145 -0.546125 0.471476 0.692429 255 0 0 255
0.064446 0.272102 2.152 -0.5069 0.437945 0.742467 255 0 0 255
0.070403 0.272351 2.154 -0.391178 0.448722 0.80351 255 0 0 255
0.076371 0.2726 2.156 -0.452035 0.4786 0.752733 255 0 0 255
0.082503 0.273353 2.162 -0.89473 0.208242 0.395087 255 0 0 255
0.114424 0.279013 2.207 0.729243 0.642761 0.234657 255 0 0 255
0.119099 0.275846 2.182 0.62841 0.30497 0.715608 255 0 0 255
0.124669 0.274954 2.175 0.554181 0.569201 0.607366 255 0 0 255
0.130019 0.273682 2.165 0.767342 0.302476 0.565415 255 0 0 255
0.135691 0.273168 2.161 0.654903 0.284357 0.700174 255 0 0 255
0.141407 0.272781 2.158 0.450325 0.108955 0.886192 255 0 0 255
0.147173 0.27252 2.156 0.386078 -0.0401069 0.921594 255 0 0 255
0.152857 0.272132 2.153 0.605556 -0.0614533 0.793427 255 0 0 255
0.158229 0.271238 2.146 0.612186 -0.0413333 0.789633 255 0 0 255
0.163945 0.270976 2.144 0.478107 -0.0579613 0.876387 255 0 0 255
0.16957 0.270587 2.141 0.271666 -0.0536918 0.960893 255 0 0 255
0.175506 0.270703 2.142 0.0246147 -0.133405 0.990756 255 0 0 255
0.181361 0.270693 2.142 0.178962 -0.262934 0.948071 255 0 0 255
0.186954 0.270303 2.139 0.326875 -0.0687763 0.942562 255 0 0 255
0.190186 0.266627 2.11 0.97963 0.0437226 0.195994 255 0 0 255
-0.115958 0.205139 2.35296 -0.913292 -0.300445 -0.27501 255 255 0 255
-0.109643 0.203728 2.34431 0.0672852 0.780081 -0.622051 255 255 0 255
-0.094808 0.203866 2.34157 0.0713779 -0.633558 -0.770396 255 255 0 255
-0.079997 0.204015 2.33891 -0.0934523 -0.594458 -0.798678 255 255 0 255
-0.060956 0.204954 2.33928 -0.321655 -0.678274 -0.660668 255 255 0 255
-0.054696 0.203572 2.33077 -0.264276 -0.705221 -0.657892 255 255 0 255
-0.034858 0.204693 2.33189 -0.244714 -0.663808 -0.706735 255 255 0 255
-0.026927 0.203638 2.32466 -0.397528 -0.656715 -0.640857 255 255 0 255
-0.011381 0.204003 2.32291 -0.409023 -0.369093 -0.834548 255 255 0 255
-0.006863 0.202331 2.31333 -0.427713 -0.309355 -0.84933 255 255 0 255
0.006953 0.202399 2.31046 -0.596599 -0.207087 -0.775361 255 255 0 255
0.013146 0.201052 2.30214 -0.846612 -0.358181 -0.393642 255 255 0 255
0.016803 0.199232 2.29199 -0.85794 -0.42073 -0.294832 255 255 0 255
0.021303 0.197571 2.28246 -0.771627 -0.350991 -0.530469 255 255 0 255
0.028327 0.196391 2.2748 -0.806 -0.051727 -0.589651 255 255 0 255
0.03366 0.194895 2.2659 -0.966646 0.127771 -0.221967 255 255 0 255
0.028071 0.191311 2.2489 0.912144 -0.27322 -0.305524 255 255 0 255
0.018306 0.186911 2.22869 0.897489 -0.274735 -0.345014 255 255 0 255
0.103728 0.180899 2.17785 0.261875 0.167417 -0.95047 255 255 0 255
0.123116 0.182253 2.1802 -0.23813 0.263621 -0.934772 255 255 0 255
0.136668 0.182462 2.17807 -0.763477 -0.431878 -0.480193 255 255 0 255
0.145228 0.181682 2.17204 -0.734234 -0.465181 -0.494477 255 255 0 255
0.14964 0.180073 2.16274 -0.976411 -0.130641 -0.171914 255 255 0 255
-0.273 0.1265 2.23242 -0.171407 0.978237 -0.116929 0 255 0 255
-0.276044 0.130141 2.24686 0.0297098 -0.248967 -0.968056 0 255 0 255
-0.267976 0.13094 2.25311 -0.343776 0.138606 -0.928766 0 255 0 255
-0.242771 0.127394 2.2469 -0.538629 0.842236 -0.0227464 0 255 0 255
-0.206486 0.132653 2.28202 0.903687 -0.327777 -0.275521 0 255 0 255
-0.20093 0.134151 2.29033 0.748742 -0.507993 -0.425827 0 255 0 255
-0.193647 0.135225 2.29745 0.908159 -0.417136 -0.0352837 0 255 0 255
-0.196704 0.138864 2.31183 -0.9766 0.154863 -0.14923 0 255 0 255
-0.19891 0.142283 2.32558 0.813627 -0.502325 -0.292713 0 255 0 255
-0.195077 0.14421 2.3351 0.751892 -0.395955 -0.527141 0 255 0 255
-0.180868 0.1436 2.33747 0.203267 -0.430215 -0.879544 0 255 0 255
-0.169235 0.143637 2.34168 0.201351 -0.352785 -0.913784 0 255 0 255
-0.154123 0.142843 2.34358 0.423568 -0.51841 -0.74286 0 255 0 255
-0.146792 0.143955 2.35085 0.74264 -0.519983 -0.422022 0 255 0 255
-0.139454 0.145073 2.35814 0.641744 -0.618762 -0.453099 0 255 0 255
-0.132977 0.146405 2.36604 0.573187 -0.485174 -0.660351 0 255 0 255
-0.120411 0.146284 2.36989 0.312613 -0.76175 -0.56746 0 255 0 255
-0.107828 0.146174 2.3738 0.285129 -0.55237 -0.783319 0 255 0 255
-0.092616 0.145455 2.37603 0.243128 -0.611742 -0.752769 0 255 0 255
-0.082613 0.145993 2.38178 0.23244 -0.697452 -0.677889 0 255 0 255
-0.321469 0.268609 2.175 -0.988013 0.147057 0.0469452 255 0 0 255
-0.31917 0.271713 2.2 -0.391051 0.239108 0.888767 255 0 0 255
-0.313743 0.272224 2.204 -0.287597 0.31524 0.904385 255 0 0 255
-0.307596 0.272116 2.203 0.0491158 0.253126 0.966186 255 0 0 255
-0.30159 0.272132 2.203 -0.0522628 0.0577624 0.996961 255 0 0 255
-0.295717 0.272272 2.204 -0.206234 -0.117475 0.971425 255 0 0 255
-0.289969 0.272534 2.206 -0.433161 -0.0657226 0.898917 255 0 0 255
-0.284338 0.27292 2.209 -0.532022 -0.0533176 0.845051 255 0 0 255
-0.278816 0.273429 2.213 -0.550959 0.0259627 0.834129 255 0 0 255
-0.273148 0.273815 2.216 -0.564998 0.166454 0.808128 255 0 0 255
-0.267703 0.274447 2.221 -0.624072 0.351208 0.697988 255 0 0 255
-0.262113 0.274956 2.225 -0.794076 0.349439 0.497329 255 0 0 255
-0.25696 0.275959 2.233 -0.801838 0.126716 0.583951 255 0 0 255
-0.251987 0.277208 2.243 -0.777099 0.146181 0.612166 255 0 0 255
-0.247397 0.278952 2.257 -0.947605 0.0657145 0.312612 255 0 0 255
-0.236745 0.273775 2.215 0.982496 -0.0983194 0.158226 255 0 0 255
-0.229133 0.271934 2.2 0.771248 -0.12916 0.623294 255 0 0 255
-0.222414 0.271081 2.193 0.783529 0.0348283 0.620379 255 0 0 255
-0.215041 0.269363 2.179 0.890947 0.247198 0.380928 255 0 0 255
-0.20736 0.267149 2.161 0.887454 0.259649 0.380798 255 0 0 255
-0.20015 0.26543 2.147 0.81117 0.167978 0.560167 255 0 0 255
-0.193559 0.264452 2.139 0.751124 0.189044 0.632515 255 0 0 255
-0.187098 0.263597 2.132 0.671104 0.274823 0.688543 255 0 0 255
-0.18076 0.262866 2.126 0.65334 0.432886 0.621094 255 0 0 255
-0.174454 0.262134 2.12 0.629064 0.449307 0.634352 255 0 0 255
-0.16826 0.261526 2.115 0.624934 0.460029 0.630738 255 0 0 255
-0.162092 0.260917 2.11 0.593562 0.449716 0.667413 255 0 0 255
-0.155877 0.260184 2.104 0.572916 0.470243 0.671296 255 0 0 255
-0.149766 0.259575 2.099 0.477208 0.516172 0.711224 255 0 0 255
-0.143819 0.259212 2.096 0.393088 0.545196 0.740434 255 0 0 255
-0.137953 0.258973 2.094 0.541196 0.375552 0.752375 255 0 0 255
-0.131972 0.258486 2.09 0.598357 0.204645 0.774654 255 0 0 255
-0.125951 0.257875 2.085 0.487875 0.0922726 0.868023 255 0 0 255
-0.120073 0.257511 2.082 0.150882 0.0413338 0.987687 255 0 0 255
-0.114431 0.257642 2.083 0.0334465 0.0454219 0.998408 255 0 0 255
-0.108626 0.257401 2.081 0.206819 0.0774924 0.975305 255 0 0 255
-0.102881 0.257283 2.08 0.321609 0.127341 0.938271 255 0 0 255
-0.097048 0.256918 2.077 0.31615 0.242902 0.917087 255 0 0 255
-0.091318 0.2568 2.076 0.233722 0.29469 0.92657 255 0 0 255
-0.085594 0.256682 2.075 0.00116363 0.387989 0.921663 255 0 0 255
-0.079991 0.256934 2.077 -0.10943 0.42543 0.898351 255 0 0 255
-0.074304 0.256938 2.077 -0.188148 0.466622 0.864213 255 0 0 255
-0.068684 0.25719 2.079 -0.174859 0.421235 0.889936 255 0 0 255
-0.062991 0.257194 2.079 -0.172925 0.378487 0.90931 255 0 0 255
-0.057354 0.257445 2.081 -0.0881244 0.352946 0.931485 255 0 0 255
-0.051655 0.257448 2.081 -0.115864 0.377247 0.918836 255 0 0 255
-0.046001 0.257698 2.083 -0.199585 0.343543 0.917684 255 0 0 255
-0.040316 0.257825 2.084 -0.308877 0.282803 0.908084 255 0 0 255
-0.034642 0.258074 2.086 -0.335237 0.239901 0.911079 255 0 0 255
-0.028944 0.2582 2.087 -0.344581 0.223819 0.911685 255 0 0 255
-0.023261 0.258573 2.09 -0.409943 0.179073 0.89436 255 0 0 255
-0.017563 0.258945 2.093 -0.473287 0.198353 0.858286 255 0 0 255
-0.011848 0.259317 2.096 -0.553995 0.270667 0.787292 255 0 0 255
-0.006119 0.259813 2.1 -0.619034 0.320453 0.717012 255 0 0 255
-0.000369 0.260555 2.106 -0.433435 0.431685 0.791064 255 0 0 255
0.005404 0.260802 2.108 -0.244286 0.439819 0.864224 255 0 0 255
0.011178 0.260802 2.108 -0.238524 0.537161 0.809052 255 0 0 255
0.016967 0.261049 2.11 -0.461209 0.485717 0.74254 255 0 0 255
0.02281 0.26179 2.116 -0.769467 0.265697 0.580797 255 0 0 255
0.028727 0.262902 2.125 -0.79903 0.183002 0.572766 255 0 0 255
0.034676 0.263889 2.133 -0.785458 0.185996 0.590307 255 0 0 255
0.040651 0.264753 2.14 -0.67442 0.385325 0.629827 255 0 0 255
0.046598 0.265245 2.144 -0.411428 0.622421 0.665822 255 0 0 255
0.052542 0.265614 2.147 -0.360114 0.656464 0.662853 255 0 0 255
0.058449 0.265734 2.148 -0.42403 0.55402 0.716422 255 0 0 255
0.06448 0.266349 2.153 -0.536674 0.416916 0.733595 255 0 0 255
0.070506 0.26684 2.157 -0.537132 0.576719 0.615536 255 0 0 255
0.076482 0.267083 2.159 -0.456009 0.633778 0.624805 255 0 0 255
0.08266 0.267944 2.166 -0.373963 0.589559 0.715941 255 0 0 255
0.113912 0.27175 2.197 0.947648 0.191754 0.25533 255 0 0 255
0.119052 0.269764 2.181 0.500306 0.186798 0.845459 255 0 0 255
0.124676 0.269015 2.175 0.807859 0.0724001 0.584912 255 0 0 255
0.130147 0.268018 2.167 0.76057 0.0320454 0.648465 255 0 0 255
0.135699 0.267268 2.161 0.751352 0.117386 0.649377 255 0 0 255
0.141284 0.266642 2.156 0.590209 -0.0718761 0.804044 255 0 0 255
0.146977 0.266262 2.153 0.404422 -0.224529 0.886583 255 0 0 255
0.152724 0.266006 2.151 0.574274 -0.16757 0.80133 255 0 0 255
0.158239 0.265379 2.146 0.635182 -0.146903 0.758264 255 0 0 255
0.163802 0.264875 2.142 0.420795 -0.264561 0.86772 255 0 0 255
0.169421 0.264495 2.139 0.183619 -0.36774 0.91162 255 0 0 255
0.17527 0.264485 2.139 0.0491602 -0.373247 0.926429 255 0 0 255
0.181033 0.264351 2.138 0.197434 -0.398601 0.895621 255 0 0 255
0.186615 0.26397 2.135 0.320383 -0.390595 0.863012 255 0 0 255
0.190017 0.260621 2.108 0.973931 0.0992646 0.203972 255 0 0 255
-0.113577 0.196941 2.36883 -0.793917 -0.294377 -0.532013 255 255 0 255
-0.106412 0.195695 2.36076 -0.552707 -0.747236 -0.368991 255 255 0 255
-0.097548 0.194767 2.35389 0.0314245 -0.734035 -0.678384 255 255 0 255
-0.081025 0.195259 2.35236 0.0157265 -0.69603 -0.717841 255 255 0 255
-0.065382 0.195607 2.35031 -0.0924466 -0.782017 -0.616363 255 255 0 255
-0.050614 0.19581 2.34773 -0.330422 -0.796669 -0.506103 255 255 0 255
-0.043514 0.194599 2.33985 -0.282502 -0.785843 -0.55013 255 255 0 255
-0.027089 0.19514 2.33859 -0.341148 -0.766228 -0.54453 255 255 0 255
-0.021711 0.193623 2.32957 -0.450284 -0.708064 -0.543957 255 255 0 255
-0.012949 0.192749 2.32298 -0.439194 -0.738363 -0.51179 255 255 0 255
-0.005044 0.191719 2.31582 -0.443718 -0.586178 -0.677871 255 255 0 255
0.005386 0.191177 2.31051 -0.470706 -0.683287 -0.55817 255 255 0 255
0.015802 0.190642 2.30523 -0.723291 -0.641138 -0.2565 255 255 0 255
0.021145 0.189145 2.29632 -0.717865 -0.620259 -0.316147 255 255 0 255
0.023114 0.187003 2.28494 -0.858098 -0.474818 -0.195487 255 255 0 255
0.027611 0.185346 2.27541 -0.940396 -0.221128 -0.258374 255 255 0 255
0.032106 0.183691 2.26589 0.989715 0.133402 -0.0516478 255 255 0 255
0.023167 0.179424 2.24638 0.925839 -0.259263 -0.274963 255 255 0 255
0.088076 0.16692 2.16666 -0.352059 -0.276659 -0.894156 255 255 0 255
0.116601 0.170166 2.17613 0.107047 -0.0494308 -0.993025 255 255 0 255
0.131813 0.17074 2.17527 -0.505161 0.0631804 -0.860709 255 255 0 255
0.138722 0.169634 2.16791 -0.890463 -0.155743 -0.427574 255 255 0 255
0.143143 0.168023 2.15858 -0.895082 0.143746 -0.422096 255 255 0 255
-0.280232 0.117712 2.23894 -0.313106 -0.495339 -0.810311 0 255 0 255
-0.279005 0.120262 2.25021 0.0876343 0.364237 -0.927174 0 255 0 255
-0.26581 0.11972 2.25271 -0.983568 -0.176761 -0.0367319 0 255 0 255
-0.206906 0.12197 2.28356 0.913406 -0.275025 -0.300084 0 255 0 255
-0.203071 0.123895 2.29309 0.935669 -0.302014 -0.182512 0 255 0 255
-0.200095 0.126037 2.30324 0.908467 -0.411089 -0.0754598 0 255 0 255
-0.203153 0.129691 2.3176 0.985551 -0.155233 -0.067764 0 255 0 255
-0.201909 0.132262 2.32893 0.96836 -0.0459108 -0.245298 0 255 0 255
-0.197215 0.133971 2.33785 0.555856 0.0538044 -0.829536 0 255 0 255
-0.179556 0.13247 2.33784 0.179931 -0.119386 -0.976408 0 255 0 255
-0.167061 0.132269 2.34148 0.285311 -0.128427 -0.949792 0 255 0 255
-0.151954 0.131442 2.3434 0.52736 -0.250007 -0.812027 0 255 0 255
-0.147221 0.133181 2.35245 0.758058 -0.221637 -0.613372 0 255 0 255
-0.142486 0.134923 2.36151 0.771144 -0.0787698 -0.631769 0 255 0 255
-0.138615 0.136879 2.37115 0.663988 -0.0623217 -0.745142 0 255 0 255
-0.128664 0.137359 2.37674 0.688043 -0.380192 -0.618103 0 255 0 255
-0.113484 0.136586 2.37891 0.49327 -0.00407641 -0.869867 0 255 0 255
-0.100024 0.136248 2.38229 0.450865 -0.375442 -0.809793 0 255 0 255
-0.090899 0.136971 2.3886 0.647486 -0.405608 -0.645169 0 255 0 255
-0.052988 0.136693 2.40095 -0.431235 -0.183227 -0.883439 0 255 0 255
-0.323407 0.264247 2.188 -0.973941 0.170453 0.149617 255 0 0 255
-0.319331 0.265833 2.201 -0.694069 0.0718241 0.716317 255 0 0 255
-0.314186 0.266574 2.207 -0.29896 0.205565 0.931862 255 0 0 255
-0.307751 0.266227 2.204 0.166369 0.174705 0.970464 255 0 0 255
-0.301605 0.266122 2.203 -0.0191649 0.140583 0.989883 255 0 0 255
-0.295464 0.266017 2.202 -0.230001 0.134245 0.963887 255 0 0 255
-0.289853 0.266394 2.205 -0.421806 0.165585 0.891438 255 0 0 255
-0.284224 0.266772 2.208 -0.568609 0.107494 0.815554 255 0 0 255
-0.278831 0.267391 2.213 -0.561732 0.189429 0.805341 255 0 0 255
-0.273285 0.267889 2.217 -0.654701 0.188803 0.731929 255 0 0 255
-0.267959 0.268628 2.223 -0.69917 0.296536 0.650559 255 0 0 255
-0.262598 0.269367 2.229 -0.817804 0.270081 0.508186 255 0 0 255
-0.257549 0.270469 2.238 -0.753121 0.161057 0.637863 255 0 0 255
-0.252113 0.271208 2.244 -0.519216 0.0180416 0.854453 255 0 0 255
-0.246205 0.271463 2.246 -0.888514 -0.155965 0.43153 255 0 0 255
-0.236116 0.267004 2.209 0.906259 -0.0925953 0.412456 255 0 0 255
-0.228937 0.265687 2.198 0.712998 -0.141373 0.686766 255 0 0 255
-0.222629 0.265336 2.195 0.716157 0.00335187 0.697932 255 0 0 255
-0.215546 0.264019 2.184 0.875792 0.134589 0.463545 255 0 0 255
-0.207948 0.261975 2.167 0.893947 0.256524 0.367498 255 0 0 255
-0.200441 0.259931 2.15 0.827972 0.246747 0.503566 255 0 0 255
-0.19366 0.258733 2.14 0.748409 0.230515 0.62189 255 0 0 255
-0.187372 0.258139 2.135 0.621621 0.292622 0.726609 255 0 0 255
-0.181195 0.257666 2.131 0.615066 0.315563 0.722574 255 0 0 255
-0.174875 0.25695 2.125 0.692114 0.282759 0.664097 255 0 0 255
-0.168587 0.256235 2.119 0.700452 0.249086 0.668822 255 0 0 255
-0.162255 0.255397 2.112 0.649721 0.225115 0.726075 255 0 0 255
-0.156331 0.255165 2.11 0.487775 0.271603 0.829643 255 0 0 255
-0.150131 0.254448 2.104 0.564982 0.397394 0.7231 255 0 0 255
-0.14417 0.254093 2.101 0.513931 0.391421 0.763325 255 0 0 255
-0.138093 0.253496 2.096 0.647732 0.240731 0.722836 255 0 0 255
-0.131916 0.252658 2.089 0.630525 0.182897 0.754312 255 0 0 255
-0.125959 0.252181 2.085 0.536106 0.184969 0.823637 255 0 0 255
-0.12008 0.251825 2.082 0.202479 0.232473 0.951293 255 0 0 255
-0.114437 0.251953 2.083 0.0636526 0.147384 0.987029 255 0 0 255
-0.108684 0.251838 2.082 0.0705775 0.265031 0.961653 255 0 0 255
-0.102986 0.251845 2.082 0.15111 0.307806 0.939373 255 0 0 255
-0.09724 0.251729 2.081 0.176339 0.463189 0.868539 255 0 0 255
-0.0915 0.251614 2.08 0.115012 0.517763 0.847758 255 0 0 255
-0.085723 0.251377 2.078 -0.0350724 0.455496 0.889547 255 0 0 255
-0.080111 0.251624 2.08 -0.0565755 0.430157 0.90098 255 0 0 255
-0.074416 0.251628 2.08 -0.174105 0.370888 0.912211 255 0 0 255
-0.068787 0.251874 2.082 -0.170564 0.378722 0.909658 255 0 0 255
-0.063086 0.251878 2.082 -0.148733 0.398585 0.904991 255 0 0 255
-0.05744 0.252124 2.084 -0.147189 0.340677 0.928587 255 0 0 255
-0.051708 0.252006 2.083 -0.0900896 0.295178 0.951186 255 0 0 255
-0.046026 0.25213 2.084 -0.210042 0.251907 0.944683 255 0 0 255
-0.040338 0.252253 2.085 -0.252991 0.336331 0.907126 255 0 0 255
-0.034661 0.252497 2.087 -0.333382 0.323042 0.88572 255 0 0 255
-0.028973 0.252741 2.089 -0.285834 0.305799 0.908177 255 0 0 255
-0.023263 0.252864 2.09 -0.414874 0.272748 0.868037 255 0 0 255
-0.017572 0.253349 2.094 -0.538372 0.283405 0.793623 255 0 0 255
-0.01186 0.253834 2.098 -0.576063 0.33668 0.744848 255 0 0 255
-0.006128 0.254439 2.103 -0.633708 0.300317 0.712899 255 0 0 255
-0.000369 0.255044 2.108 -0.50611 0.289156 0.812552 255 0 0 255
0.00541 0.255286 2.11 -0.250723 0.314961 0.915389 255 0 0 255
0.011199 0.255528 2.112 -0.349873 0.379833 0.856339 255 0 0 255
0.017008 0.25589 2.115 -0.555408 0.369164 0.745144 255 0 0 255
0.022844 0.256373 2.119 -0.715444 0.257233 0.649593 255 0 0 255
0.028742 0.257218 2.126 -0.772141 0.100327 0.627482 255 0 0 255
0.034695 0.258184 2.134 -0.804509 0.0804424 0.588468 255 0 0 255
0.04071 0.259271 2.143 -0.799352 0.138295 0.584731 255 0 0 255
0.046709 0.259994 2.149 -0.665665 0.37867 0.643039 255 0 0 255
0.052692 0.260475 2.153 -0.30531 0.69541 0.650531 255 0 0 255
0.058615 0.260593 2.154 -0.269376 0.682438 0.679496 255 0 0 255
0.064574 0.260831 2.156 -0.44808 0.499357 0.74153 255 0 0 255
0.070608 0.261311 2.16 -0.64635 0.43309 0.628223 255 0 0 255
0.076664 0.261791 2.164 -0.504056 0.486303 0.713749 255 0 0 255
0.082741 0.26227 2.168 -0.355862 0.545353 0.758915 255 0 0 255
0.088922 0.262991 2.174 -0.501702 0.468191 0.727387 255 0 0 255
0.11506 0.268411 2.219 0.91009 0.373331 0.179888 255 0 0 255
0.119277 0.264291 2.185 0.87223 0.152863 0.464594 255 0 0 255
0.124855 0.263438 2.178 0.664931 -0.243677 0.706037 255 0 0 255
0.130335 0.262463 2.17 0.776422 0.0722803 0.626054 255 0 0 255
0.135833 0.261609 2.163 0.799006 0.0519278 0.599077 255 0 0 255
0.141292 0.260754 2.156 0.705059 0.0763208 0.70503 255 0 0 255
0.146917 0.260262 2.152 0.498293 -0.0144065 0.866889 255 0 0 255
0.152662 0.260012 2.15 0.522147 -0.0277159 0.852405 255 0 0 255
0.158174 0.259398 2.145 0.636875 -0.10436 0.763871 255 0 0 255
0.163658 0.258785 2.14 0.595716 -0.115717 0.794815 255 0 0 255
0.169193 0.258291 2.136 0.323609 -0.234336 0.916714 255 0 0 255
0.175116 0.258403 2.137 0.110321 -0.328857 0.937914 255 0 0 255
0.181043 0.258514 2.138 0.210261 -0.381288 0.900228 255 0 0 255
0.186451 0.257899 2.133 0.36774 -0.286137 0.884812 255 0 0 255
0.190659 0.255712 2.115 0.939278 0.152735 0.307292 255 0 0 255
-0.112574 0.185945 2.37079 -0.971835 -0.0562649 -0.228848 255 255 0 255
-0.101141 0.185504 2.36564 -0.541517 -0.350332 -0.764216 255 255 0 255
-0.088873 0.185231 2.36112 0.0194844 -0.475478 -0.879512 255 255 0 255
-0.068958 0.186405 2.36195 0.108905 -0.528665 -0.841816 255 255 0 255
-0.053331 0.186795 2.35992 -0.223238 -0.730946 -0.64489 255 255 0 255
-0.041131 0.186556 2.35559 -0.341276 -0.73769 -0.582533 255 255 0 255
-0.034042 0.185361 2.34773 -0.301427 -0.756177 -0.580808 255 255 0 255
-0.016783 0.186107 2.34707 -0.300999 -0.687735 -0.660622 255 255 0 255
-0.010567 0.184763 2.33868 -0.403599 -0.790762 -0.460221 255 255 0 255
0.002413 0.184721 2.33514 -0.374739 -0.840894 -0.390472 255 255 0 255
0.005229 0.182735 2.32437 -0.366938 -0.838366 -0.403111 255 255 0 255
0.019024 0.182872 2.32152 -0.497103 -0.788488 -0.362182 255 255 0 255
0.024363 0.181382 2.31261 -0.660861 -0.716558 -0.223177 255 255 0 255
0.028854 0.179731 2.3031 -0.79762 -0.586636 -0.140216 255 255 0 255
0.030817 0.177586 2.29174 -0.835958 -0.534696 -0.123593 255 255 0 255
0.032785 0.175441 2.28037 -0.948873 -0.315614 -0.00530068 255 255 0 255
0.029716 0.172301 2.26527 0.929212 0.0961799 -0.356812 255 255 0 255
0.020788 0.167992 2.24575 0.966552 0.0551616 -0.25047 255 255 0 255
0.124189 0.160933 2.18314 0.648964 -0.0802649 -0.756573 255 255 0 255
0.134419 0.160518 2.17837 -0.271725 -0.375863 -0.885942 255 255 0 255
0.141325 0.159424 2.17101 -0.906614 -0.404619 -0.119729 255 255 0 255
0.141613 0.156955 2.15839 -0.823893 -0.0938375 -0.558923 255 255 0 255
-0.282338 0.107608 2.24167 0.357773 -0.351194 -0.865252 0 255 0 255
-0.271719 0.107702 2.24603 0.0299181 0.181477 -0.98294 0 255 0 255
-0.256813 0.106689 2.2473 -0.868435 -0.0183806 -0.495463 0 255 0 255
-0.22649 0.101683 2.23744 0.468335 0.642766 -0.60623 0 255 0 255
-0.20475 0.110616 2.28327 0.926412 -0.220338 -0.305307 0 255 0 255
-0.20779 0.114297 2.29767 0.967802 -0.188463 -0.166856 0 255 0 255
-0.205678 0.116656 2.30841 0.961092 0.0569267 -0.2703 0 255 0 255
-0.200984 0.11836 2.31734 0.830823 0.348686 -0.433763 0 255 0 255
-0.197149 0.120284 2.32688 0.685466 0.488894 -0.539555 0 255 0 255
-0.18641 0.120471 2.33164 0.500969 0.42103 -0.756151 0 255 0 255
-0.177385 0.121102 2.33763 0.538107 0.0974993 -0.837219 0 255 0 255
-0.16835 0.121741 2.34366 0.483238 -0.183405 -0.856063 0 255 0 255
-0.16017 0.122603 2.35031 0.47949 -0.294833 -0.826537 0 255 0 255
-0.150249 0.123042 2.35581 0.478997 -0.239315 -0.844565 0 255 0 255
-0.137717 0.122846 2.35961 0.611574 0.183038 -0.769723 0 255 0 255
-0.132107 0.124375 2.36811 0.604526 0.282905 -0.744656 0 255 0 255
