ply
format ascii 1.0
comment VCGLIB generated
element vertex 730
property float x
property float y
property float z
property float nx
property float ny
property float nz
property uchar red
property uchar green
property uchar blue
property uchar alpha
element face 0
property list uchar int vertex_indices
end_header
-0.26649 0.406255 2.214 0.473232 0.303298 0.82708 255 0 0 255
-0.257748 0.402053 2.191 0.882398 0.249656 0.398806 255 0 0 255
-0.249821 0.398951 2.174 0.840971 0.333997 0.425692 255 0 0 255
-0.242883 0.397317 2.165 0.730226 0.450381 0.513738 255 0 0 255
-0.236212 0.39605 2.158 0.652628 0.543148 0.528268 255 0 0 255
-0.229685 0.394965 2.152 0.654143 0.554621 0.514288 255 0 0 255
-0.222983 0.393513 2.144 0.549732 0.620623 0.559127 255 0 0 255
-0.216627 0.392611 2.139 0.352686 0.724206 0.59257 255 0 0 255
-0.210594 0.39226 2.137 0.0708381 0.800238 0.595484 255 0 0 255
-0.204762 0.392275 2.137 -0.00497052 0.682372 0.730988 255 0 0 255
-0.19893 0.39229 2.137 0.0689727 0.372188 0.925591 255 0 0 255
-0.193188 0.392488 2.138 -0.0879191 0.239093 0.967008 255 0 0 255
-0.187439 0.392685 2.139 -0.147816 0.242048 0.958939 255 0 0 255
-0.1816 0.392699 2.139 0.0315086 0.283754 0.958379 255 0 0 255
-0.175677 0.392529 2.138 0.0868608 0.339356 0.936639 255 0 0 255
-0.16976 0.392358 2.137 -0.028352 0.306248 0.95153 255 0 0 255
-0.164001 0.392554 2.138 -0.0879973 0.21609 0.9724 255 0 0 255
-0.158162 0.392566 2.138 -0.146165 0.160408 0.976169 255 0 0 255
-0.152465 0.392945 2.14 -0.117176 0.164162 0.979449 255 0 0 255
-0.14662 0.392957 2.14 -0.0288883 0.218892 0.975321 255 0 0 255
-0.140774 0.392967 2.14 0.283423 0.304606 0.909333 255 0 0 255
-0.134675 0.392243 2.136 0.576083 0.152804 0.802982 255 0 0 255
-0.128538 0.391335 2.131 0.612124 0.116729 0.782099 255 0 0 255
-0.122427 0.390427 2.126 0.559214 0.177701 0.809754 255 0 0 255
-0.116453 0.389885 2.123 0.349814 0.248023 0.90339 255 0 0 255
-0.110599 0.38971 2.122 0.176427 0.319514 0.931013 255 0 0 255
-0.104701 0.389351 2.12 0.0355697 0.268356 0.962663 255 0 0 255
-0.099 0.389726 2.122 -0.119498 0.149584 0.981501 255 0 0 255
-0.093244 0.389917 2.123 -0.148001 0.197631 0.96904 255 0 0 255
-0.087524 0.390291 2.125 -0.206093 0.136935 0.968904 255 0 0 255
-0.081715 0.390298 2.125 -0.118213 0.0932588 0.988599 255 0 0 255
-0.075941 0.390488 2.126 0.000478062 0.0532403 0.998582 255 0 0 255
-0.070129 0.390493 2.126 0.121512 0.177336 0.97662 255 0 0 255
-0.064287 0.390315 2.125 0.119348 0.181202 0.976177 255 0 0 255
-0.05845 0.390136 2.124 0.0594591 0.134486 0.98913 255 0 0 255
-0.052618 0.389957 2.123 0.0879278 0.145504 0.985443 255 0 0 255
-0.046791 0.389777 2.122 0.000641982 0.283527 0.958964 255 0 0 255
-0.041008 0.389964 2.123 -0.443575 0.359019 0.821186 255 0 0 255
-0.035286 0.390885 2.128 -0.548454 0.477552 0.686398 255 0 0 255
-0.029509 0.391439 2.131 -0.373662 0.561982 0.737938 255 0 0 255
-0.023693 0.391625 2.132 -0.274314 0.604737 0.747693 255 0 0 255
-0.017888 0.392177 2.135 -0.341529 0.602959 0.720971 255 0 0 255
-0.012067 0.39273 2.138 -0.478924 0.532913 0.697593 255 0 0 255
-0.006232 0.393465 2.142 -0.549794 0.49524 0.672654 255 0 0 255
-0.000375 0.3942 2.146 -0.650191 0.473229 0.594395 255 0 0 255
0.005514 0.395669 2.154 -0.702158 0.448112 0.553327 255 0 0 255
0.011436 0.396771 2.16 -0.675102 0.444585 0.588712 255 0 0 255
0.017391 0.397872 2.166 -0.632358 0.411332 0.656453 255 0 0 255
0.023356 0.398605 2.17 -0.633312 0.414459 0.65356 255 0 0 255
0.029371 0.399705 2.176 -0.681354 0.436527 0.587538 255 0 0 255
0.035435 0.400988 2.183 -0.753235 0.495749 0.432284 255 0 0 255
0.041632 0.40319 2.195 -0.856231 0.420426 0.300185 255 0 0 255
0.048154 0.407595 2.219 -0.885017 0.438964 0.155099 255 0 0 255
0.054906 0.412734 2.247 -0.810269 0.554581 0.189487 255 0 0 255
0.061593 0.416403 2.267 -0.816456 0.521338 0.248204 255 0 0 255
0.093275 0.419495 2.284 -0.430429 -0.683148 0.589949 255 0 0 255
0.099082 0.417651 2.274 0.492642 0.809614 0.319108 255 0 0 255
0.104325 0.413786 2.253 0.685828 0.636324 0.353175 255 0 0 255
0.109747 0.411023 2.238 0.834983 0.469415 0.287148 255 0 0 255
0.115294 0.408994 2.227 0.807943 0.459455 0.368958 255 0 0 255
0.120835 0.407149 2.217 0.602898 0.469373 0.645138 255 0 0 255
0.126721 0.406588 2.214 0.294472 0.513529 0.805962 255 0 0 255
0.132711 0.406395 2.213 -0.243568 0.489569 0.837256 255 0 0 255
0.139008 0.407119 2.217 -0.141182 0.64459 0.75138 255 0 0 255
0.145065 0.407108 2.217 0.000177009 0.640285 0.768138 255 0 0 255
0.151121 0.407097 2.217 -0.247987 0.653283 0.715349 255 0 0 255
0.157461 0.40782 2.221 -0.6981 0.357599 0.620306 255 0 0 255
0.164189 0.40946 2.23 -0.72413 0.191168 0.662639 255 0 0 255
0.170738 0.410549 2.236 -0.560046 0.177309 0.809265 255 0 0 255
0.177002 0.410904 2.238 -0.456498 0.0901631 0.885144 255 0 0 255
0.183441 0.411625 2.242 -0.560763 0.0311425 0.82739 255 0 0 255
0.190069 0.412712 2.248 -0.686865 -0.0577444 0.724487 255 0 0 255
0.196905 0.414167 2.256 -0.627292 -0.0692614 0.775698 255 0 0 255
0.203423 0.414886 2.26 -0.707567 0.0622607 0.703898 255 0 0 255
-0.107511 0.438201 2.33262 0.842255 0.119488 -0.52567 255 255 0 255
-0.089134 0.438032 2.33254 -0.414757 -0.634263 -0.652447 255 255 0 255
-0.081131 0.436684 2.32532 0.23354 -0.23115 -0.944473 255 255 0 255
-0.084332 0.434039 2.31025 -0.885394 -0.0239393 -0.464224 255 255 0 255
-0.075476 0.432795 2.30365 -0.519579 0.154831 -0.840277 255 255 0 255
-0.058039 0.432567 2.30318 -0.0631045 -0.121851 -0.99054 255 255 0 255
-0.043205 0.432051 2.30096 -0.479345 -0.213034 -0.851378 255 255 0 255
-0.038686 0.430323 2.29141 -0.997931 0.0220662 -0.0603836 255 255 0 255
-0.042733 0.427573 2.2757 -0.995169 -0.0108405 -0.0975772 255 255 0 255
-0.039064 0.425741 2.26552 0.999961 -0.00218611 -0.00860362 255 255 0 255
-0.038814 0.423496 2.25285 -0.901429 0.366604 -0.230274 255 255 0 255
-0.035141 0.421664 2.24266 -0.756982 0.605053 -0.246758 255 255 0 255
-0.030616 0.419936 2.23309 -0.528558 0.639277 -0.558526 255 255 0 255
-0.006494 0.420616 2.23804 0.126811 -0.125157 -0.983999 255 255 0 255
0.113889 0.431014 2.30232 0.428606 -0.259336 -0.865472 255 255 0 255
0.150543 0.433389 2.31741 0.548054 0.829289 -0.109163 255 255 0 255
0.163371 0.43282 2.31476 0.735497 0.642758 -0.214257 255 255 0 255
0.157532 0.42991 2.29801 0.813548 0.569875 -0.115685 255 255 0 255
-0.318446 0.358703 2.25402 0.844555 -0.0439753 -0.53366 0 255 0 255
-0.312114 0.360099 2.26123 0.776468 0.204444 -0.59607 0 255 0 255
-0.306643 0.361663 2.2691 0.674867 0.448994 -0.585627 0 255 0 255
-0.302906 0.363558 2.27826 0.653064 0.348009 -0.672605 0 255 0 255
-0.292214 0.364154 2.28234 -0.218883 0.19601 -0.955861 0 255 0 255
-0.2702 0.362655 2.27827 0.624141 0.243025 -0.742554 0 255 0 255
-0.235964 0.358921 2.2655 0.0698161 0.0498829 -0.996312 0 255 0 255
-0.202546 0.355387 2.25354 -0.961886 -0.147323 -0.230373 0 255 0 255
-0.185648 0.354938 2.25361 -0.961886 -0.147323 -0.230373 0 255 0 255
-0.19404 0.359141 2.27176 -0.990597 -0.0868758 -0.105689 0 255 0 255
-0.198084 0.362534 2.28675 0.88497 -0.465431 -0.0142039 0 255 0 255
-0.19602 0.364809 2.29739 0.621719 -0.592699 -0.512028 0 255 0 255
-0.183455 0.365185 2.30066 0.586539 -0.43227 -0.684919 0 255 0 255
-0.177881 0.366834 2.30887 0.401058 -0.231094 -0.886424 0 255 0 255
-0.163537 0.366917 2.31101 0.148035 -0.0408864 -0.988137 0 255 0 255
-0.150928 0.367327 2.31443 0.371632 0.185468 -0.909665 0 255 0 255
-0.141816 0.368374 2.32031 0.540188 0.0196174 -0.841316 0 255 0 255
-0.135329 0.369896 2.32803 0.551827 -0.227059 -0.802453 0 255 0 255
-0.120921 0.370028 2.33039 0.180885 -0.361651 -0.914598 0 255 0 255
-0.103852 0.369712 2.33102 0.0531542 -0.217401 -0.974634 0 255 0 255
-0.085878 0.36926 2.33114 0.57441 -0.150285 -0.804654 0 255 0 255
-0.078461 0.370667 2.33843 0.565416 0.0979464 -0.81897 0 255 0 255
-0.067507 0.371469 2.3434 0.527598 -0.125667 -0.840148 0 255 0 255
-0.37993 0.405091 2.243 0.913073 -0.175175 0.368255 255 0 0 255
-0.368331 0.399154 2.21 0.770743 0.04244 0.635732 255 0 0 255
-0.361172 0.397913 2.203 0.545908 0.143414 0.82548 255 0 0 255
-0.354696 0.397394 2.2 0.154106 0.105022 0.982457 255 0 0 255
-0.348552 0.397236 2.199 -0.0591288 0.112201 0.991925 255 0 0 255
-0.34288 0.397619 2.201 -0.146185 0.084047 0.985681 255 0 0 255
-0.337043 0.397822 2.202 -0.256254 0.135865 0.957013 255 0 0 255
-0.33135 0.398205 2.204 -0.025189 0.119452 0.99252 255 0 0 255
-0.325055 0.397865 2.202 0.481259 0.160957 0.861674 255 0 0 255
-0.318335 0.396983 2.197 0.624491 0.271221 0.732428 255 0 0 255
-0.311641 0.396101 2.192 0.327079 0.47896 0.814627 255 0 0 255
-0.305811 0.396302 2.193 -0.60204 0.279694 0.747877 255 0 0 255
-0.300795 0.397588 2.2 -0.842912 0.217071 0.49232 255 0 0 255
-0.295605 0.398692 2.206 -0.760105 0.28579 0.583578 255 0 0 255
-0.290383 0.399797 2.212 -0.777333 0.312332 0.546078 255 0 0 255
-0.285641 0.401624 2.222 -0.891388 0.328039 0.312759 255 0 0 255
-0.281095 0.403812 2.234 -0.744267 0.478849 0.465586 255 0 0 255
-0.274883 0.403651 2.233 -0.135679 0.238221 0.961687 255 0 0 255
-0.266629 0.400416 2.215 0.694838 0.382499 0.609011 255 0 0 255
-0.258001 0.396457 2.193 0.889112 0.293475 0.351215 255 0 0 255
-0.250413 0.393944 2.179 0.819831 0.380917 0.427527 255 0 0 255
-0.243573 0.392515 2.171 0.715346 0.479276 0.508503 255 0 0 255
-0.236776 0.391086 2.163 0.622034 0.583228 0.522417 255 0 0 255
-0.230236 0.390017 2.157 0.608649 0.617135 0.498689 255 0 0 255
-0.223519 0.388587 2.149 0.507842 0.701426 0.500098 255 0 0 255
-0.217352 0.388061 2.146 0.298106 0.780689 0.549233 255 0 0 255
-0.211299 0.387714 2.144 0.276128 0.770032 0.575156 255 0 0 255
-0.205256 0.387368 2.142 0.268641 0.726184 0.632842 255 0 0 255
-0.199131 0.38684 2.139 0.172426 0.403142 0.898747 255 0 0 255
-0.193111 0.386493 2.137 0.0729356 0.301799 0.950578 255 0 0 255
-0.187453 0.386868 2.139 -0.205458 0.196595 0.958717 255 0 0 255
-0.181698 0.387063 2.14 -0.0581343 0.248354 0.966923 255 0 0 255
-0.175855 0.387076 2.14 0.0575908 0.311922 0.948361 255 0 0 255
-0.170011 0.387089 2.14 0.0863158 0.338244 0.937092 255 0 0 255
-0.16409 0.38692 2.139 0.0595412 0.235275 0.970103 255 0 0 255
-0.158248 0.386932 2.139 -0.0874778 0.127332 0.987995 255 0 0 255
-0.152477 0.387125 2.14 -0.173803 0.104931 0.979174 255 0 0 255
-0.146699 0.387317 2.141 -0.146346 0.185667 0.971653 255 0 0 255
-0.140916 0.387509 2.142 0.234007 0.289797 0.92804 255 0 0 255
-0.134811 0.386795 2.138 0.543793 0.295776 0.785369 255 0 0 255
-0.128668 0.385901 2.133 0.584306 0.33705 0.73823 255 0 0 255
-0.122667 0.385367 2.13 0.532944 0.38959 0.751126 255 0 0 255
-0.116681 0.384834 2.127 0.375356 0.381426 0.844761 255 0 0 255
-0.110816 0.384661 2.126 0.278935 0.375704 0.883766 255 0 0 255
-0.104857 0.384127 2.123 0.0322574 0.413706 0.909839 255 0 0 255
-0.099101 0.384316 2.124 -0.201007 0.425656 0.882277 255 0 0 255
-0.093295 0.384323 2.124 -0.11637 0.410579 0.904369 255 0 0 255
-0.08753 0.384511 2.125 0.00209714 0.302678 0.95309 255 0 0 255
-0.081721 0.384517 2.125 0.000930402 0.164422 0.98639 255 0 0 255
-0.075912 0.384523 2.125 -0.0885336 0.101021 0.990937 255 0 0 255
-0.070102 0.384529 2.125 0.0307885 0.156753 0.987158 255 0 0 255
-0.064292 0.384534 2.125 0.176866 0.201035 0.963485 255 0 0 255
-0.058454 0.384358 2.124 0.0898395 0.18943 0.977776 255 0 0 255
-0.052646 0.384362 2.124 -0.029614 0.25481 0.966537 255 0 0 255
-0.046839 0.384366 2.124 -0.175475 0.428213 0.886477 255 0 0 255
-0.041069 0.384731 2.126 -0.485295 0.479267 0.731295 255 0 0 255
-0.035355 0.38582 2.132 -0.573477 0.427413 0.698886 255 0 0 255
-0.02958 0.386547 2.136 -0.408124 0.490704 0.769834 255 0 0 255
-0.023761 0.386911 2.138 -0.309205 0.543031 0.780711 255 0 0 255
-0.017923 0.387093 2.139 -0.332229 0.589878 0.735981 255 0 0 255
-0.01209 0.387637 2.142 -0.431312 0.579596 0.691404 255 0 0 255
-0.006244 0.388362 2.146 -0.546699 0.52788 0.649971 255 0 0 255
-0.000376 0.389086 2.15 -0.650765 0.48143 0.587137 255 0 0 255
0.005522 0.390353 2.157 -0.681341 0.43173 0.591087 255 0 0 255
0.011453 0.391438 2.163 -0.70029 0.300962 0.647315 255 0 0 255
0.017416 0.392522 2.169 -0.647895 0.400041 0.648228 255 0 0 255
0.023391 0.393245 2.173 -0.630517 0.410688 0.658623 255 0 0 255
0.029414 0.394328 2.179 -0.723931 0.458923 0.515086 255 0 0 255
0.035535 0.396136 2.189 -0.776349 0.499831 0.383994 255 0 0 255
0.041844 0.399209 2.206 -0.867782 0.459005 0.190442 255 0 0 255
0.048462 0.404092 2.233 -0.879326 0.455585 0.138664 255 0 0 255
0.055154 0.408431 2.257 -0.893271 0.420231 0.159602 255 0 0 255
0.061679 0.410779 2.27 -0.779128 0.399722 0.482888 255 0 0 255
0.105398 0.411819 2.276 0.809452 0.509344 0.292158 255 0 0 255
0.110099 0.406202 2.245 0.815567 0.519993 0.253885 255 0 0 255
0.115613 0.404022 2.233 0.788055 0.529307 0.314331 255 0 0 255
0.121171 0.402204 2.223 0.610606 0.62484 0.486554 255 0 0 255
0.12696 0.40129 2.218 0.121678 0.676897 0.725951 255 0 0 255
0.133081 0.401461 2.219 -0.138209 0.586174 0.79831 255 0 0 255
0.139332 0.401993 2.222 -0.244504 0.476457 0.844516 255 0 0 255
0.145403 0.401983 2.222 -0.0832414 0.495952 0.864351 255 0 0 255
0.151542 0.402152 2.223 -0.311302 0.469472 0.826249 255 0 0 255
0.157827 0.402684 2.226 -0.618562 0.310338 0.721852 255 0 0 255
0.164349 0.403757 2.232 -0.638129 0.102645 0.763056 255 0 0 255
0.170827 0.404649 2.237 -0.527455 0.0705561 0.846648 255 0 0 255
0.177174 0.405179 2.24 -0.401414 0.0741711 0.912888 255 0 0 255
0.183536 0.405708 2.243 -0.460555 -0.0927006 0.882777 255 0 0 255
0.189914 0.406237 2.246 -0.623759 -0.158787 0.765318 255 0 0 255
0.19657 0.407308 2.252 -0.66973 -0.160606 0.725029 255 0 0 255
0.203258 0.408378 2.258 -0.702038 -0.0705208 0.70864 255 0 0 255
0.210256 0.409991 2.267 -0.836921 0.0464483 0.545349 255 0 0 255
-0.097043 0.428527 2.34109 -0.25615 -0.833933 -0.488818 255 255 0 255
-0.081269 0.428102 2.33923 -0.455311 -0.525891 -0.718422 255 255 0 255
-0.079306 0.426054 2.3278 0.780471 -0.0218226 -0.624811 255 255 0 255
-0.083365 0.423286 2.31213 -0.941587 0.143753 -0.304548 255 255 0 255
-0.074511 0.422057 2.30553 -0.177363 -0.00276615 -0.984142 255 255 0 255
-0.054503 0.422182 2.30688 -0.259926 -0.109249 -0.959429 255 255 0 255
-0.039678 0.4217 2.30465 -0.719266 -0.181422 -0.670628 255 255 0 255
-0.037731 0.419662 2.29327 -0.969317 -0.189414 -0.156673 255 255 0 255
-0.035782 0.417623 2.28188 0.965794 0.252351 -0.0596802 255 255 0 255
-0.035538 0.415373 2.26923 0.979384 0.0724295 -0.188578 255 255 0 255
-0.042124 0.412271 2.25159 0.90554 -0.421464 -0.0486322 255 255 0 255
-0.04698 0.409373 2.23514 -0.769846 0.616166 -0.166361 255 255 0 255
-0.040735 0.407854 2.22679 -0.775809 0.623336 -0.0978392 255 255 0 255
0.006381 0.411486 2.2487 0.295036 -0.05769 -0.953743 255 255 0 255
0.053405 0.415165 2.27086 0.779128 -0.399722 -0.482888 255 255 0 255
0.119883 0.421377 2.30788 0.374158 -0.122975 -0.919175 255 255 0 255
0.17018 0.423428 2.32095 0.73577 0.376905 -0.562659 255 255 0 255
0.165189 0.420601 2.30487 0.885961 0.393531 -0.245371 255 255 0 255
-0.29799 0.344513 2.23995 0.700563 -0.514126 -0.49486 0 255 0 255
-0.290774 0.345746 2.24659 0.800997 -0.00320698 -0.59866 0 255 0 255
-0.296558 0.349477 2.26283 -0.945457 -0.0108387 -0.325567 0 255 0 255
-0.296283 0.352039 2.27456 0.607548 0.5847 -0.537599 0 255 0 255
-0.285589 0.352618 2.27868 -0.40495 -0.22932 -0.885114 0 255 0 255
-0.26358 0.351068 2.27465 -0.954243 0.27871 -0.108355 0 255 0 255
-0.226745 0.346755 2.26004 0.137084 0.185481 -0.973039 0 255 0 255
-0.195949 0.343629 2.25002 -0.962438 -0.0979184 -0.253228 0 255 0 255
-0.18341 0.343959 2.25323 -0.962438 -0.0979184 -0.253228 0 255 0 255
-0.197027 0.349172 2.27511 -0.977522 -0.125045 -0.169748 0 255 0 255
-0.203687 0.353071 2.29194 0.926238 -0.364152 -0.0973525 0 255 0 255
-0.199877 0.355023 2.30134 0.709154 -0.44198 -0.549322 0 255 0 255
-0.18907 0.355691 2.30583 0.473459 -0.405529 -0.78191 0 255 0 255
-0.176498 0.356049 2.30915 0.252263 -0.281726 -0.92574 0 255 0 255
-0.162157 0.356101 2.31131 0.0903742 -0.0947849 -0.991387 0 255 0 255
-0.145167 0.355689 2.31172 0.517981 -0.0585004 -0.853389 0 255 0 255
-0.13693 0.356882 2.31823 0.719399 -0.0486598 -0.69289 0 255 0 255
-0.133075 0.358872 2.32778 0.748846 -0.35754 -0.558028 0 255 0 255
-0.125703 0.360234 2.33493 0.397997 -0.387517 -0.831522 0 255 0 255
-0.108645 0.359875 2.33557 -0.0292806 -0.683316 -0.729536 0 255 0 255
-0.088921 0.359065 2.33451 0.919819 -0.214714 -0.328376 0 255 0 255
-0.07622 0.359523 2.33826 0.334129 -0.0293104 -0.942072 0 255 0 255
-0.376397 0.395258 2.222 0.753887 -0.0111974 0.656909 255 0 0 255
-0.368354 0.393147 2.21 0.642227 0.154344 0.750814 255 0 0 255
-0.361359 0.392102 2.204 0.543637 0.205047 0.813888 255 0 0 255
-0.355041 0.391769 2.202 0.265023 0.288158 0.920178 255 0 0 255
-0.348891 0.391614 2.201 -0.0669682 0.366581 0.927973 255 0 0 255
-0.343057 0.391814 2.202 -0.171572 0.292975 0.9406 255 0 0 255
-0.337217 0.392014 2.203 -0.200971 0.215056 0.9557 255 0 0 255
-0.331522 0.392391 2.205 -0.0544757 0.196102 0.979069 255 0 0 255
-0.325371 0.392235 2.204 0.372872 0.232043 0.8984 255 0 0 255
-0.31879 0.391544 2.2 0.560417 0.328342 0.760345 255 0 0 255
-0.312089 0.390675 2.195 0.379987 0.464353 0.799991 255 0 0 255
-0.30625 0.390873 2.196 -0.4806 0.279684 0.831144 255 0 0 255
-0.300952 0.391784 2.201 -0.783617 0.15272 0.60218 255 0 0 255
-0.296028 0.393228 2.209 -0.81003 0.00296719 0.58638 255 0 0 255
-0.290796 0.394316 2.215 -0.795973 0.0573698 0.602608 255 0 0 255
-0.286303 0.396472 2.227 -0.916789 0.279393 0.285372 255 0 0 255
-0.281743 0.398628 2.239 -0.758691 0.459354 0.461932 255 0 0 255
-0.275394 0.398291 2.237 0.566681 0.541749 0.620791 255 0 0 255
-0.267008 0.394926 2.218 0.7827 0.417057 0.462 255 0 0 255
-0.258608 0.391384 2.198 0.843496 0.387181 0.372298 255 0 0 255
-0.25112 0.389086 2.185 0.807689 0.43278 0.400425 255 0 0 255
-0.244151 0.387501 2.176 0.690152 0.526564 0.496407 255 0 0 255
-0.23745 0.386272 2.169 0.599832 0.592003 0.538269 255 0 0 255
-0.231213 0.385754 2.166 0.543738 0.65485 0.524901 255 0 0 255
-0.224471 0.384345 2.158 0.518631 0.665633 0.536614 255 0 0 255
-0.218076 0.38347 2.153 0.352052 0.715038 0.60397 255 0 0 255
-0.212103 0.383308 2.152 0.377042 0.628109 0.680675 255 0 0 255
-0.205846 0.38261 2.148 0.438544 0.590384 0.677588 255 0 0 255
-0.199611 0.381912 2.144 0.500291 0.510228 0.699555 255 0 0 255
-0.193306 0.381036 2.139 0.0668144 0.341917 0.937352 255 0 0 255
-0.187554 0.381228 2.14 -0.176934 0.270343 0.946366 255 0 0 255
-0.181881 0.381598 2.142 -0.116762 0.237043 0.964457 255 0 0 255
-0.176032 0.381611 2.142 -0.0292297 0.30358 0.952358 255 0 0 255
-0.170182 0.381624 2.142 0.0932501 0.286756 0.953454 255 0 0 255
-0.164179 0.38128 2.14 0.170332 0.246842 0.953968 255 0 0 255
-0.158334 0.381292 2.14 0.00021007 0.181809 0.983334 255 0 0 255
-0.152488 0.381303 2.14 -0.145104 0.116066 0.982585 255 0 0 255
-0.146779 0.381671 2.142 -0.229441 0.125886 0.965147 255 0 0 255
-0.140992 0.381859 2.143 0.0946883 0.20202 0.974793 255 0 0 255
-0.135011 0.381513 2.141 0.475673 0.305988 0.824686 255 0 0 255
-0.128979 0.380989 2.138 0.570177 0.298702 0.765294 255 0 0 255
-0.122849 0.380107 2.133 0.559792 0.275942 0.781338 255 0 0 255
-0.1168 0.379403 2.129 0.37742 0.254259 0.890453 255 0 0 255
-0.110877 0.379056 2.127 0.112044 0.403569 0.908063 255 0 0 255
-0.105014 0.378885 2.126 -0.0274827 0.459214 0.887901 255 0 0 255
-0.099295 0.37925 2.128 -0.114377 0.603486 0.789128 255 0 0 255
-0.093522 0.379435 2.129 0.0296915 0.493591 0.869187 255 0 0 255
-0.087661 0.379264 2.128 0.179078 0.363793 0.914104 255 0 0 255
-0.081766 0.378914 2.126 0.0309276 0.307064 0.951186 255 0 0 255
-0.075989 0.379098 2.127 -0.119137 0.27472 0.954115 255 0 0 255
-0.070206 0.379282 2.128 0.0308567 0.299942 0.953458 255 0 0 255
-0.064357 0.379109 2.127 0.202523 0.266938 0.942194 255 0 0 255
-0.058486 0.378757 2.125 0.0306964 0.296625 0.9545 255 0 0 255
-0.052725 0.379118 2.127 -0.204475 0.347498 0.915115 255 0 0 255
-0.04693 0.3793 2.128 -0.277091 0.444158 0.852024 255 0 0 255
-0.041169 0.379838 2.131 -0.47461 0.430514 0.767726 255 0 0 255
-0.035391 0.380376 2.134 -0.576534 0.303547 0.758595 255 0 0 255
-0.02961 0.381091 2.138 -0.481917 0.307375 0.820534 255 0 0 255
-0.023785 0.38145 2.14 -0.398136 0.383304 0.833406 255 0 0 255
-0.017958 0.381986 2.143 -0.433549 0.440185 0.786303 255 0 0 255
-0.012114 0.382522 2.146 -0.52368 0.492134 0.695387 255 0 0 255
-0.006259 0.383414 2.151 -0.557595 0.50633 0.657813 255 0 0 255
-0.000377 0.384127 2.155 -0.624389 0.472135 0.622276 255 0 0 255
0.005533 0.385196 2.161 -0.617145 0.390258 0.68325 255 0 0 255
0.011469 0.386087 2.166 -0.689444 0.316453 0.651556 255 0 0 255
0.017441 0.387155 2.172 -0.712044 0.349567 0.60893 255 0 0 255
0.023446 0.388223 2.178 -0.686591 0.461602 0.561708 255 0 0 255
0.029511 0.389647 2.186 -0.752255 0.534714 0.384959 255 0 0 255
0.035668 0.391605 2.197 -0.797772 0.543877 0.260303 255 0 0 255
0.042074 0.395346 2.218 -0.864493 0.476409 0.160271 255 0 0 255
0.048791 0.400689 2.248 -0.906136 0.375441 0.194839 255 0 0 255
0.055378 0.403894 2.266 -0.884133 0.29023 0.366163 255 0 0 255
0.061819 0.405493 2.275 -0.766157 0.304322 0.566031 255 0 0 255
0.110549 0.401698 2.254 0.826835 0.534428 0.175304 255 0 0 255
0.116036 0.399373 2.241 0.802457 0.522732 0.287773 255 0 0 255
0.121616 0.397582 2.231 0.723073 0.570961 0.388804 255 0 0 255
0.12737 0.396503 2.225 0.413299 0.552719 0.723661 255 0 0 255
0.133271 0.395959 2.222 0.116419 0.478392 0.870395 255 0 0 255
0.139405 0.396127 2.223 -0.171449 0.236089 0.956487 255 0 0 255
0.145545 0.396294 2.224 -0.164732 0.23163 0.958755 255 0 0 255
0.151689 0.396461 2.225 -0.317529 0.233032 0.919169 255 0 0 255
0.157981 0.396984 2.228 -0.483851 0.148779 0.862411 255 0 0 255
0.164361 0.397685 2.232 -0.55393 0.042022 0.831502 255 0 0 255
0.17084 0.398563 2.237 -0.477181 -0.115867 0.871133 255 0 0 255
0.177108 0.398907 2.239 -0.411312 -0.102641 0.905697 255 0 0 255
0.183386 0.39925 2.241 -0.321599 -0.180359 0.92954 255 0 0 255
0.18959 0.399415 2.242 -0.515894 -0.228215 0.825695 255 0 0 255
0.196497 0.401004 2.251 -0.731012 -0.0864913 0.676861 255 0 0 255
0.203363 0.402414 2.259 -0.781538 0.0156087 0.623663 255 0 0 255
0.210735 0.404715 2.272 -0.83114 0.0230455 0.555585 255 0 0 255
-0.092623 0.418177 2.34537 -0.798644 -0.135669 -0.586312 255 255 0 255
-0.079445 0.417477 2.34171 -0.9686 -0.0436067 -0.244771 255 255 0 255
-0.080926 0.415004 2.32788 0.710979 0.0160608 -0.70303 255 255 0 255
-0.088418 0.411789 2.30979 -0.820413 0.375806 -0.43092 255 255 0 255
-0.07956 0.410573 2.30316 -0.597632 0.167093 -0.784165 255 255 0 255
-0.062128 0.410425 2.30265 -0.0150301 0.109983 -0.99382 255 255 0 255
-0.043869 0.410399 2.30284 -0.418992 0.0983318 -0.90265 255 255 0 255
-0.03335 0.409424 2.29758 -0.762173 -0.170988 -0.624385 255 255 0 255
-0.030547 0.407489 2.28682 -0.891935 -0.426995 -0.148752 255 255 0 255
-0.034579 0.40469 2.27109 0.937774 0.185285 -0.293683 255 255 0 255
-0.048843 0.400581 2.24786 0.898566 -0.436876 -0.0414628 255 255 0 255
-0.058804 0.396998 2.22764 0.747233 -0.615053 -0.251701 255 255 0 255
-0.046582 0.396246 2.22364 0.747233 -0.615053 -0.251701 255 255 0 255
0.003073 0.400336 2.24738 -0.107868 -0.168491 -0.979783 255 255 0 255
0.118228 0.41077 2.30772 0.557339 -0.0732151 -0.82705 255 255 0 255
0.162577 0.412168 2.31627 0.395272 0.0969103 -0.913438 255 255 0 255
0.168605 0.410768 2.30852 0.914841 -0.126006 -0.38365 255 255 0 255
-0.286781 0.33464 2.24479 0.870748 -0.16787 -0.462187 0 255 0 255
-0.289955 0.337894 2.25913 0.472901 -0.214814 -0.854529 0 255 0 255
-0.294875 0.341478 2.27469 0.907863 -0.199201 -0.368921 0 255 0 255
-0.286787 0.342539 2.28072 -0.0282804 0.162191 -0.986354 0 255 0 255
-0.189889 0.334608 2.25908 -0.927533 -0.20312 -0.313729 0 255 0 255
-0.20405 0.342641 2.29343 0.972646 0.228171 -0.0435663 0 255 0 255
-0.201113 0.344756 2.30344 0.906174 0.113549 -0.407376 0 255 0 255
-0.193806 0.346055 2.31039 0.498937 -0.0528439 -0.865026 0 255 0 255
-0.179492 0.346058 2.31249 0.234226 -0.245702 -0.940621 0 255 0 255
-0.167787 0.346562 2.31648 0.171258 -0.23249 -0.957402 0 255 0 255
-0.14818 0.345622 2.31507 0.347155 -0.460587 -0.816911 0 255 0 255
-0.142577 0.347282 2.32339 0.707805 -0.555786 -0.43602 0 255 0 255
-0.136093 0.348786 2.33113 0.737376 -0.525303 -0.424658 0 255 0 255
-0.133118 0.350935 2.34126 0.50376 -0.534906 -0.678308 0 255 0 255
-0.114314 0.350212 2.34071 -0.0361809 -0.660099 -0.750307 0 255 0 255
-0.088443 0.348238 2.33551 -0.167294 -0.426598 -0.888834 0 255 0 255
-0.075746 0.348669 2.33928 0.0683804 0.0731707 -0.994972 0 255 0 255
-0.375742 0.388517 2.218 0.719933 -0.0172106 0.69383 255 0 0 255
-0.368543 0.387314 2.211 0.621179 0.10487 0.77662 255 0 0 255
-0.361873 0.386636 2.207 0.496122 0.173273 0.850787 255 0 0 255
-0.355386 0.386133 2.204 0.230756 0.211851 0.949669 255 0 0 255
-0.349389 0.386155 2.204 -0.0555819 0.280607 0.958212 255 0 0 255
-0.343547 0.386352 2.205 -0.0600839 0.338432 0.939071 255 0 0 255
-0.337545 0.386374 2.205 -0.114007 0.236037 0.965033 255 0 0 255
-0.331694 0.386571 2.206 -0.113974 0.189482 0.975247 255 0 0 255
-0.325688 0.386592 2.206 0.205323 0.245501 0.947403 255 0 0 255
-0.319391 0.386263 2.204 0.518724 0.291471 0.803722 255 0 0 255
-0.312536 0.385232 2.198 0.262685 0.467955 0.84381 255 0 0 255
-0.30641 0.385077 2.197 -0.261247 0.410534 0.87362 255 0 0 255
-0.300972 0.385798 2.201 -0.730606 0.152293 0.665599 255 0 0 255
-0.295913 0.387045 2.208 -0.828349 0.0870821 0.553403 255 0 0 255
-0.290947 0.388467 2.216 -0.893837 0.114903 0.43342 255 0 0 255
-0.28658 0.390766 2.229 -0.933766 0.207342 0.291702 255 0 0 255
-0.282014 0.392889 2.241 -0.659575 0.495001 0.565628 255 0 0 255
-0.276398 0.393609 2.245 -0.120466 0.645441 0.75425 255 0 0 255
-0.268471 0.390998 2.23 0.727211 0.598712 0.335721 255 0 0 255
-0.259802 0.387158 2.208 0.823327 0.501805 0.265186 255 0 0 255
-0.251942 0.384371 2.192 0.757012 0.551072 0.351074 255 0 0 255
-0.244842 0.382634 2.182 0.635875 0.617499 0.462988 255 0 0 255
-0.238123 0.381424 2.175 0.518935 0.65728 0.546525 255 0 0 255
-0.231763 0.380739 2.171 0.532853 0.687693 0.493099 255 0 0 255
-0.225111 0.379527 2.164 0.574196 0.671638 0.46819 255 0 0 255
-0.218497 0.378315 2.157 0.468503 0.613357 0.635845 255 0 0 255
-0.212512 0.378155 2.156 0.476212 0.508995 0.71704 255 0 0 255
-0.206244 0.377468 2.152 0.544508 0.418132 0.727102 255 0 0 255
-0.200091 0.376957 2.149 0.528561 0.431906 0.730808 255 0 0 255
-0.193682 0.375918 2.143 0.270877 0.602823 0.750486 255 0 0 255
-0.187743 0.375757 2.142 -0.0539585 0.524661 0.8496 255 0 0 255
-0.181979 0.375945 2.143 -0.0260078 0.423549 0.9055 255 0 0 255
-0.176127 0.375959 2.143 -0.0283407 0.378759 0.925062 255 0 0 255
-0.170354 0.376147 2.144 0.115944 0.356907 0.926917 255 0 0 255
-0.164344 0.375808 2.142 0.219958 0.355662 0.908363 255 0 0 255
-0.158419 0.375644 2.141 0.115968 0.281718 0.952463 255 0 0 255
-0.15257 0.375656 2.141 -0.0279183 0.159781 0.986758 255 0 0 255
-0.14679 0.375842 2.142 -0.229862 0.111138 0.966857 255 0 0 255
-0.141069 0.376204 2.144 -0.0576922 0.0963888 0.99367 255 0 0 255
-0.135147 0.376039 2.143 0.261277 0.164707 0.951108 255 0 0 255
-0.129049 0.375347 2.139 0.573483 0.257276 0.77777 255 0 0 255
-0.122915 0.374478 2.134 0.587946 0.148858 0.795085 255 0 0 255
-0.116863 0.373785 2.13 0.355525 0.335234 0.872479 255 0 0 255
-0.111041 0.373794 2.13 0.115379 0.369636 0.921985 255 0 0 255
-0.105219 0.373802 2.13 -0.0867266 0.416243 0.905108 255 0 0 255
-0.09949 0.374161 2.132 -0.175476 0.35307 0.918994 255 0 0 255
-0.093661 0.374168 2.132 0.0330909 0.349109 0.936498 255 0 0 255
-0.08775 0.373824 2.13 0.2254 0.310838 0.92335 255 0 0 255
-0.081849 0.373479 2.128 0.000724291 0.412074 0.91115 255 0 0 255
-0.076102 0.373836 2.13 -0.0913895 0.452991 0.886818 255 0 0 255
-0.070278 0.373842 2.13 0.118761 0.327677 0.937296 255 0 0 255
-0.064423 0.373671 2.129 0.307385 0.23396 0.922376 255 0 0 255
-0.058546 0.373325 2.127 0.0312205 0.275139 0.960897 255 0 0 255
-0.052778 0.37368 2.129 -0.309269 0.237978 0.920717 255 0 0 255
-0.047 0.374035 2.131 -0.4053 0.284943 0.868642 255 0 0 255
-0.041211 0.374389 2.133 -0.420091 0.340625 0.841129 255 0 0 255
-0.035427 0.374919 2.136 -0.484849 0.295831 0.823046 255 0 0 255
-0.02964 0.375624 2.14 -0.503458 0.264077 0.822674 255 0 0 255
-0.02382 0.376152 2.143 -0.468074 0.24802 0.84817 255 0 0 255
-0.017992 0.376856 2.147 -0.521835 0.304281 0.796932 255 0 0 255
-0.012137 0.377384 2.15 -0.596004 0.335388 0.729585 255 0 0 255
-0.006271 0.378262 2.155 -0.630124 0.361344 0.687295 255 0 0 255
-0.000377 0.378964 2.159 -0.627212 0.362939 0.689116 255 0 0 255
0.005541 0.379842 2.164 -0.602255 0.330229 0.7268 255 0 0 255
0.01147 0.380192 2.166 -0.688523 0.288104 0.665531 255 0 0 255
0.017467 0.381771 2.175 -0.741054 0.37543 0.556679 255 0 0 255
0.023502 0.383173 2.183 -0.742752 0.539919 0.395988 255 0 0 255
0.029635 0.385278 2.195 -0.7417 0.608566 0.282007 255 0 0 255
0.035865 0.387733 2.209 -0.800302 0.561156 0.211237 255 0 0 255
0.042343 0.391767 2.232 -0.895896 0.406621 0.178969 255 0 0 255
0.04899 0.396151 2.257 -0.917695 0.256837 0.303102 255 0 0 255
0.055505 0.398605 2.271 -0.827583 0.365811 0.425781 255 0 0 255
0.061933 0.400004 2.279 -0.801558 0.247954 0.54408 255 0 0 255
0.11144 0.398723 2.272 0.836209 0.4487 0.315315 255 0 0 255
0.116511 0.394854 2.25 0.875225 0.420107 0.239774 255 0 0 255
0.122062 0.392915 2.239 0.801554 0.462315 0.379178 255 0 0 255
0.127666 0.391326 2.23 0.628763 0.463145 0.624624 255 0 0 255
0.133461 0.390439 2.225 0.338914 0.471625 0.814068 255 0 0 255
0.139478 0.390253 2.224 -0.059829 0.219941 0.973677 255 0 0 255
0.145686 0.390594 2.226 -0.217379 0.170976 0.960996 255 0 0 255
0.151837 0.390758 2.227 -0.317925 0.213443 0.923778 255 0 0 255
0.158134 0.391273 2.23 -0.351856 0.0918172 0.93154 255 0 0 255
0.1643 0.391437 2.231 -0.379474 -0.13874 0.914741 255 0 0 255
0.170623 0.391951 2.234 -0.407665 -0.233107 0.882876 255 0 0 255
0.176962 0.392464 2.237 -0.382808 -0.259667 0.886584 255 0 0 255
0.183399 0.393153 2.241 -0.349254 -0.151401 0.924716 255 0 0 255
0.189519 0.393139 2.241 -0.594451 0.00936194 0.804078 255 0 0 255
0.196424 0.394704 2.25 -0.771636 -0.084705 0.630399 255 0 0 255
0.203467 0.396444 2.26 -0.843293 0.158633 0.51351 255 0 0 255
0.211029 0.39906 2.275 -0.802134 0.121749 0.584602 255 0 0 255
-0.095106 0.406989 2.34488 0.63687 0.452178 -0.624445 255 255 0 255
-0.081929 0.406315 2.3412 -0.820166 -0.0334273 -0.571149 255 255 0 255
-0.087706 0.403288 2.32435 0.195764 -0.29718 -0.934538 255 255 0 255
-0.082884 0.399263 2.30201 -0.547334 -0.00679659 -0.836886 255 255 0 255
-0.06717 0.398937 2.30027 -0.0420253 -0.190458 -0.980795 255 255 0 255
-0.048054 0.399061 2.30103 -0.0918447 -0.0250304 -0.995459 255 255 0 255
-0.034964 0.398433 2.2976 -0.483385 -0.123475 -0.866656 255 255 0 255
-0.025315 0.397376 2.29175 0.98934 0.100912 -0.104992 255 255 0 255
-0.037037 0.393559 2.27047 0.898464 0.103018 -0.426791 255 255 0 255
-0.058114 0.388504 2.24227 0.787037 -0.369726 -0.493837 255 255 0 255
-0.074876 0.383981 2.21704 0.787037 -0.369726 -0.493837 255 255 0 255
0.092807 0.396967 2.28983 -0.153584 -0.0519807 -0.986768 255 255 0 255
0.133677 0.400202 2.30796 0.159903 0.0508742 -0.985821 255 255 0 255
0.157524 0.401193 2.31352 -0.963608 0.256917 -0.0738436 255 255 0 255
0.168635 0.400486 2.30959 0.797514 -0.16979 -0.578916 255 255 0 255
-0.289425 0.327458 2.25989 0.634048 -0.671058 -0.384271 0 255 0 255
-0.287404 0.329701 2.27039 0.548173 -0.76058 -0.347885 0 255 0 255
-0.276708 0.330242 2.27455 0.795694 -0.283825 -0.535084 0 255 0 255
-0.251239 0.327909 2.26806 -0.127708 -0.688576 -0.71383 0 255 0 255
-0.189398 0.323938 2.25995 -0.963537 -0.129026 -0.234413 0 255 0 255
-0.192541 0.327238 2.27437 -0.979612 -0.108043 -0.169376 0 255 0 255
-0.19395 0.330198 2.28751 -0.970929 -0.218088 -0.0986626 0 255 0 255
-0.193621 0.332819 2.2994 0.751671 0.45566 -0.476828 0 255 0 255
-0.192424 0.335273 2.31067 0.594467 0.0819009 -0.799938 0 255 0 255
-0.178115 0.335244 2.31278 0.397689 0.146156 -0.905805 0 255 0 255
-0.169912 0.336384 2.31921 0.63342 -0.198094 -0.748023 0 255 0 255
-0.15557 0.336381 2.32144 0.408524 -0.398093 -0.821359 0 255 0 255
-0.149098 0.337867 2.32914 0.593442 -0.689648 -0.414984 0 255 0 255
-0.138233 0.338541 2.33387 0.592536 -0.559052 -0.579967 0 255 0 255
-0.134379 0.340527 2.34342 0.493761 -0.295058 -0.81801 0 255 0 255
-0.120858 0.340732 2.34643 0.256518 -0.296755 -0.919856 0 255 0 255
-0.096764 0.339011 2.34242 -0.522784 -0.522935 -0.673228 0 255 0 255
-0.076155 0.337961 2.34088 -0.416772 -0.700632 -0.57915 0 255 0 255
-0.375596 0.382314 2.217 0.680686 0.0161852 0.732397 255 0 0 255
-0.368733 0.381475 2.212 0.576342 0.0910213 0.812124 255 0 0 255
-0.36206 0.380807 2.208 0.49573 0.173066 0.851058 255 0 0 255
-0.355569 0.380312 2.205 0.229955 0.20158 0.952096 255 0 0 255
-0.349728 0.380507 2.206 -0.0555076 0.0807799 0.995185 255 0 0 255
-0.343724 0.380528 2.206 -0.0310586 0.0836734 0.996009 255 0 0 255
-0.33772 0.38055 2.206 -0.0549756 0.101963 0.993268 255 0 0 255
-0.331715 0.380571 2.206 -0.113151 0.0741217 0.990809 255 0 0 255
-0.326004 0.380938 2.208 0.0944354 0.126145 0.987507 255 0 0 255
-0.319702 0.380613 2.206 0.444282 0.172058 0.879209 255 0 0 255
-0.313125 0.379944 2.202 0.281956 0.297599 0.912105 255 0 0 255
-0.306848 0.379619 2.2 -0.140018 0.409873 0.901332 255 0 0 255
-0.301129 0.379984 2.202 -0.656172 0.222628 0.721023 255 0 0 255
-0.296067 0.381212 2.209 -0.832838 0.113103 0.541839 255 0 0 255
-0.291229 0.382785 2.218 -0.888798 0.19457 0.414947 255 0 0 255
-0.286856 0.385048 2.231 -0.935451 0.231528 0.267069 255 0 0 255
-0.282537 0.387483 2.245 -0.789527 0.445766 0.42183 255 0 0 255
-0.277402 0.388883 2.253 -0.991153 0.0863965 0.100756 255 0 0 255
-0.270296 0.387521 2.245 0.397828 0.730281 0.555359 255 0 0 255
-0.261585 0.383741 2.223 0.846682 0.466146 0.25659 255 0 0 255
-0.253454 0.380651 2.205 0.823821 0.485635 0.292366 255 0 0 255
-0.245981 0.378424 2.192 0.684442 0.616739 0.388809 255 0 0 255
-0.239016 0.376887 2.183 0.556103 0.669604 0.49232 255 0 0 255
-0.23274 0.376386 2.18 0.516694 0.686425 0.511712 255 0 0 255
-0.226167 0.375366 2.174 0.568737 0.645801 0.509391 255 0 0 255
-0.219526 0.374173 2.167 0.623566 0.559943 0.545553 255 0 0 255
-0.21302 0.373152 2.161 0.606957 0.455154 0.651489 255 0 0 255
-0.206451 0.371958 2.154 0.571693 0.300513 0.763452 255 0 0 255
-0.200291 0.371455 2.151 0.482881 0.335349 0.808929 255 0 0 255
-0.194147 0.370951 2.148 0.223259 0.608106 0.761815 255 0 0 255
-0.188283 0.370964 2.148 0.110969 0.581011 0.806295 255 0 0 255
-0.182332 0.370805 2.147 0.176361 0.469201 0.865302 255 0 0 255
-0.176386 0.370645 2.146 0.0372854 0.303501 0.952101 255 0 0 255
-0.170605 0.37083 2.147 0.0593319 0.345946 0.936377 255 0 0 255
-0.164587 0.370497 2.145 0.244215 0.348206 0.905048 255 0 0 255
-0.158653 0.370336 2.144 0.194899 0.318521 0.927663 255 0 0 255
-0.152653 0.370002 2.142 0.0589057 0.25226 0.965865 255 0 0 255
-0.1468 0.370013 2.142 -0.174547 0.170046 0.969854 255 0 0 255
-0.141079 0.370369 2.144 0.00456839 0.0187582 0.999814 255 0 0 255
-0.13522 0.370379 2.144 0.442397 -0.028097 0.896379 255 0 0 255
-0.129119 0.369698 2.14 0.533664 -0.0109847 0.845625 255 0 0 255
-0.12304 0.369016 2.136 0.482534 0.163505 0.860481 255 0 0 255
-0.116982 0.368334 2.132 0.177334 0.414435 0.892634 255 0 0 255
-0.111206 0.368515 2.133 0.0386773 0.478943 0.876994 255 0 0 255
-0.105276 0.368178 2.131 0.0413177 0.381048 0.923632 255 0 0 255
-0.099544 0.368531 2.133 0.00258444 0.186303 0.982489 255 0 0 255
-0.093668 0.368365 2.132 0.120297 0.172681 0.977604 255 0 0 255
-0.087839 0.368372 2.132 0.0929354 0.214353 0.972325 255 0 0 255
-0.081971 0.368205 2.131 -0.0886034 0.313629 0.945403 255 0 0 255
-0.076215 0.368557 2.133 -0.0890976 0.328657 0.940237 255 0 0 255
-0.070382 0.368562 2.133 0.15727 0.233164 0.959636 255 0 0 255
-0.064458 0.368049 2.13 0.282028 0.16974 0.944272 255 0 0 255
-0.058578 0.367708 2.128 0.000977536 0.249474 0.968381 255 0 0 255
-0.052782 0.367885 2.129 -0.333611 0.235792 0.912746 255 0 0 255
-0.047026 0.368407 2.132 -0.468003 0.294113 0.833349 255 0 0 255
-0.041272 0.369102 2.136 -0.421261 0.321897 0.847893 255 0 0 255
-0.035446 0.369278 2.137 -0.442401 0.317784 0.838627 255 0 0 255
-0.029656 0.369971 2.141 -0.485575 0.229721 0.843472 255 0 0 255
-0.023833 0.370492 2.144 -0.486422 0.235398 0.841416 255 0 0 255
-0.017994 0.371012 2.147 -0.573415 0.249213 0.780441 255 0 0 255
-0.012149 0.371877 2.152 -0.6145 0.227626 0.755365 255 0 0 255
-0.006277 0.372742 2.157 -0.638588 0.255591 0.725864 255 0 0 255
-0.000378 0.373779 2.163 -0.617262 0.245316 0.747534 255 0 0 255
0.005549 0.37447 2.167 -0.617358 0.332951 0.71275 255 0 0 255
0.011498 0.37516 2.171 -0.728521 0.323719 0.603708 255 0 0 255
0.0175 0.376542 2.179 -0.791493 0.476916 0.382218 255 0 0 255
0.023601 0.378787 2.192 -0.769869 0.580735 0.264667 255 0 0 255
0.029785 0.381204 2.206 -0.751799 0.624019 0.213072 255 0 0 255
0.036079 0.383966 2.222 -0.811947 0.525439 0.254277 255 0 0 255
0.042517 0.387246 2.241 -0.91567 0.302094 0.26512 255 0 0 255
0.049124 0.391044 2.263 -0.931408 0.178229 0.317354 255 0 0 255
0.055631 0.393287 2.276 -0.822531 0.311719 0.475683 255 0 0 255
0.062101 0.394838 2.285 -0.70313 0.269407 0.658049 255 0 0 255
0.117038 0.390458 2.26 0.9164 0.369995 0.152688 255 0 0 255
0.122289 0.387512 2.243 0.811592 0.356157 0.46311 255 0 0 255
0.127962 0.38612 2.235 0.77086 0.353149 0.530152 255 0 0 255
0.133591 0.384729 2.227 0.47816 0.460163 0.748073 255 0 0 255
0.139489 0.3842 2.224 0.0844582 0.344707 0.934903 255 0 0 255
0.145697 0.384535 2.226 -0.118466 0.196669 0.973287 255 0 0 255
0.151848 0.384697 2.227 -0.273275 0.116719 0.954829 255 0 0 255
0.158146 0.385204 2.23 -0.244426 0.00961118 0.96962 255 0 0 255
0.164164 0.38502 2.229 -0.212907 -0.137462 0.967354 255 0 0 255
0.170483 0.385526 2.232 -0.348331 -0.123141 0.929248 255 0 0 255
0.176738 0.385859 2.234 -0.46407 -0.132776 0.875791 255 0 0 255
0.183167 0.386536 2.238 -0.59894 0.128483 0.790419 255 0 0 255
0.189533 0.387041 2.241 -0.621578 0.123762 0.773514 255 0 0 255
0.196525 0.388754 2.251 -0.82147 0.270678 0.501916 255 0 0 255
0.203932 0.391158 2.265 -0.610191 0.46003 0.645011 255 0 0 255
0.211136 0.393043 2.276 -0.771616 0.152499 0.617538 255 0 0 255
0.216681 0.391819 2.269 -0.771616 0.152499 0.617538 255 0 0 255
-0.083547 0.395237 2.3413 -0.918416 -0.223898 -0.326163 255 255 0 255
-0.085015 0.392729 2.32745 0.452655 -0.199936 -0.868981 255 255 0 255
-0.083627 0.388254 2.30269 -0.786696 -0.123233 -0.604916 255 255 0 255
-0.067059 0.388075 2.30154 -0.060634 -0.262815 -0.962939 255 255 0 255
-0.04795 0.388245 2.30229 -0.165233 -0.120659 -0.978846 255 255 0 255
-0.034863 0.387645 2.29884 -0.41764 0.083572 -0.904761 255 255 0 255
-0.025215 0.386605 2.29299 -0.939743 0.101887 -0.326346 255 255 0 255
-0.030096 0.383647 2.27666 0.997407 -0.0162053 -0.0701178 255 255 0 255
-0.052019 0.378405 2.24787 0.88343 -0.172744 -0.435558 255 255 0 255
0.031553 0.380394 2.25796 0.913624 -0.142647 -0.380713 255 255 0 255
0.072506 0.383692 2.27577 -0.251892 -0.0942713 -0.963153 255 255 0 255
0.126092 0.388777 2.30334 0.530227 0.375806 -0.760019 255 255 0 255
0.164439 0.389606 2.30747 -0.128506 0.109406 -0.985655 255 255 0 255
-0.300151 0.319267 2.26893 -0.483684 -0.65246 -0.583392 0 255 0 255
-0.292939 0.320467 2.2756 -0.707124 -0.0290976 -0.706491 0 255 0 255
-0.274449 0.319428 2.27408 -0.773521 -0.602327 -0.197147 0 255 0 255
-0.247253 0.316687 2.26637 0.927276 0.0563528 -0.370113 0 255 0 255
-0.211331 0.312259 2.25253 0.769774 -0.485118 -0.41486 0 255 0 255
-0.191001 0.310954 2.25011 0.381316 0.325001 -0.865432 0 255 0 255
-0.188041 0.313083 2.26021 0.970553 0.144119 -0.193022 0 255 0 255
-0.192918 0.316743 2.27586 -0.982095 -0.0801178 -0.170498 0 255 0 255
-0.191709 0.319208 2.28716 -0.998184 0.007241 -0.0598078 0 255 0 255
-0.19312 0.322178 2.30029 0.992054 -0.0456234 -0.117253 0 255 0 255
-0.188427 0.323964 2.30911 0.420155 -0.0456757 -0.906302 0 255 0 255
-0.173246 0.323738 2.31065 0.407374 0.0780116 -0.909923 0 255 0 255
-0.165915 0.325034 2.3177 0.536529 0.0124513 -0.84379 0 255 0 255
-0.157703 0.32617 2.32418 0.79328 -0.123023 -0.596298 0 255 0 255
-0.159992 0.329308 2.33789 0.766659 -0.264217 -0.585169 0 255 0 255
-0.14651 0.329457 2.34081 0.509587 -0.282677 -0.812659 0 255 0 255
-0.138275 0.33061 2.34735 0.491611 -0.191855 -0.849418 0 255 0 255
-0.122127 0.330289 2.34859 0.187207 -0.0367033 -0.981635 0 255 0 255
-0.10244 0.329328 2.34755 -0.0815693 0.145657 -0.985967 0 255 0 255
-0.083605 0.328551 2.34719 -0.640987 -0.372896 -0.670883 0 255 0 255
-0.062983 0.327468 2.34575 -0.207399 -0.4011 -0.892247 0 255 0 255
-0.383025 0.37762 2.225 0.590097 -0.027959 0.806848 255 0 0 255
-0.375619 0.376285 2.217 0.611119 0.0344402 0.790789 255 0 0 255
-0.368922 0.375629 2.213 0.535022 0.210105 0.818295 255 0 0 255
-0.362246 0.374972 2.209 0.507887 0.216893 0.833672 255 0 0 255
-0.355591 0.374315 2.205 0.303277 0.203975 0.930816 255 0 0 255
-0.34975 0.374507 2.206 0.0622312 0.0883772 0.994141 255 0 0 255
-0.34359 0.374359 2.205 -0.0262368 0.00225806 0.999653 255 0 0 255
-0.337741 0.37455 2.206 -0.083892 0.0807009 0.993202 255 0 0 255
-0.331736 0.374571 2.206 -0.149187 0.0843427 0.985205 255 0 0 255
-0.325877 0.374762 2.207 0.0360685 0.0737481 0.996624 255 0 0 255
-0.319577 0.374443 2.205 0.321253 0.167279 0.932102 255 0 0 255
-0.313288 0.374124 2.203 0.144905 0.3663 0.919145 255 0 0 255
-0.307147 0.373974 2.202 -0.106211 0.533236 0.839273 255 0 0 255
-0.301559 0.374503 2.205 -0.446099 0.445528 0.776209 255 0 0 255
-0.296087 0.375202 2.209 -0.765329 0.321777 0.557432 255 0 0 255
-0.291249 0.37675 2.218 -0.889788 0.27893 0.361215 255 0 0 255
-0.287132 0.379318 2.233 -0.935182 0.267103 0.232575 255 0 0 255
-0.282933 0.381885 2.248 -0.823631 0.507619 0.252894 255 0 0 255
-0.278406 0.384112 2.261 -0.94343 -0.289533 0.16159 255 0 0 255
-0.271879 0.383621 2.258 0.498495 0.822266 0.274557 255 0 0 255
-0.263721 0.380751 2.241 0.834421 0.487654 0.256781 255 0 0 255
-0.255195 0.3772 2.22 0.852344 0.408332 0.326764 255 0 0 255
-0.24712 0.374159 2.202 0.782699 0.459443 0.419875 255 0 0 255
-0.239908 0.372307 2.191 0.702076 0.427973 0.569146 255 0 0 255
-0.233503 0.371643 2.187 0.586779 0.493726 0.641814 255 0 0 255
-0.226807 0.37047 2.18 0.692021 0.418855 0.587935 255 0 0 255
-0.220149 0.369295 2.173 0.694111 0.473944 0.541836 255 0 0 255
-0.213331 0.367781 2.164 0.761226 0.246436 0.599837 255 0 0 255
-0.206753 0.366606 2.157 0.656655 0.185915 0.730917 255 0 0 255
-0.200492 0.365941 2.153 0.359047 0.257642 0.897054 255 0 0 255
-0.194613 0.365954 2.153 0.148831 0.320377 0.935526 255 0 0 255
-0.188647 0.365798 2.152 0.231829 0.303122 0.924323 255 0 0 255
-0.1826 0.365471 2.15 0.328257 0.198571 0.923481 255 0 0 255
-0.176481 0.364974 2.147 0.0934754 0.141798 0.985472 255 0 0 255
-0.170696 0.365157 2.148 -0.0279261 0.184984 0.982345 255 0 0 255
-0.164752 0.364999 2.147 0.222382 0.224533 0.948752 255 0 0 255
-0.158738 0.36467 2.145 0.249787 0.236583 0.938954 255 0 0 255
-0.152807 0.364511 2.144 0.140976 0.282061 0.948982 255 0 0 255
-0.146948 0.364522 2.144 -0.0579968 0.214602 0.974978 255 0 0 255
-0.141155 0.364703 2.145 0.190286 -0.0338042 0.981147 255 0 0 255
-0.135041 0.364033 2.141 0.44759 -0.139131 0.883349 255 0 0 255
-0.128948 0.363362 2.137 0.393477 -0.0159331 0.919197 255 0 0 255
-0.123049 0.363201 2.136 0.277117 0.254967 0.92639 255 0 0 255
-0.11721 0.36321 2.136 0.0605566 0.403113 0.913145 255 0 0 255
-0.111423 0.363389 2.137 0.1829 0.376524 0.908173 255 0 0 255
-0.105432 0.362887 2.134 0.207778 0.304014 0.929733 255 0 0 255
-0.099598 0.362894 2.134 0.151517 0.182433 0.971473 255 0 0 255
-0.093631 0.362391 2.131 0.056092 0.14405 0.987979 255 0 0 255
-0.087886 0.362738 2.133 -0.0585411 0.193397 0.979373 255 0 0 255
-0.082054 0.362744 2.133 -0.117679 0.148591 0.981872 255 0 0 255
-0.076292 0.36309 2.135 0.0329712 0.132875 0.990584 255 0 0 255
-0.070354 0.362585 2.132 0.308519 0.12582 0.94286 255 0 0 255
-0.064463 0.36225 2.13 0.15607 0.198358 0.967624 255 0 0 255
-0.058637 0.362255 2.13 -0.147761 0.423501 0.893764 255 0 0 255
-0.052836 0.362429 2.131 -0.376305 0.471446 0.79758 255 0 0 255
-0.047073 0.362943 2.134 -0.474342 0.46042 0.750342 255 0 0 255
-0.041313 0.363627 2.138 -0.385922 0.480763 0.787357 255 0 0 255
-0.035498 0.36397 2.14 -0.365471 0.432803 0.824083 255 0 0 255
-0.029686 0.364482 2.143 -0.420681 0.351416 0.836382 255 0 0 255
-0.023846 0.364825 2.145 -0.440269 0.297347 0.8472 255 0 0 255
-0.018012 0.365506 2.149 -0.586383 0.242811 0.772786 255 0 0 255
-0.012161 0.366358 2.154 -0.63828 0.242797 0.730512 255 0 0 255
-0.006281 0.367039 2.158 -0.650614 0.243838 0.719198 255 0 0 255
-0.000378 0.36789 2.163 -0.633845 0.214078 0.743243 255 0 0 255
0.005547 0.3684 2.166 -0.626935 0.33363 0.70402 255 0 0 255
0.01152 0.36993 2.175 -0.776512 0.438602 0.452391 255 0 0 255
0.017582 0.37231 2.189 -0.804161 0.537964 0.252823 255 0 0 255
0.023742 0.37503 2.205 -0.752283 0.622329 0.216277 255 0 0 255
0.029936 0.377069 2.217 -0.75786 0.585789 0.287229 255 0 0 255
0.036228 0.379447 2.231 -0.866717 0.381096 0.321818 255 0 0 255
0.042615 0.381995 2.246 -0.91949 0.354854 0.169166 255 0 0 255
0.049128 0.384883 2.263 -0.921809 0.122579 0.367755 255 0 0 255
0.055684 0.387431 2.278 -0.865907 0.237958 0.439979 255 0 0 255
0.06216 0.388957 2.287 -0.830532 0.286124 0.47786 255 0 0 255
0.117513 0.385836 2.269 0.9112 0.391771 0.127401 255 0 0 255
0.122407 0.381746 2.245 0.78404 0.364258 0.502591 255 0 0 255
0.128086 0.380377 2.237 0.731192 0.43729 0.523579 255 0 0 255
0.13384 0.379347 2.231 0.502722 0.568679 0.651056 255 0 0 255
0.139813 0.378997 2.229 0.257069 0.606974 0.751996 255 0 0 255
0.145839 0.378816 2.228 0.180671 0.27129 0.945389 255 0 0 255
0.151859 0.378635 2.227 -0.0974065 0.0178738 0.995084 255 0 0 255
0.158157 0.379134 2.23 -0.186969 -0.137638 0.972676 255 0 0 255
0.16425 0.379123 2.23 -0.241406 -0.0995384 0.965306 255 0 0 255
0.170495 0.379451 2.232 -0.382789 0.0626831 0.921707 255 0 0 255
0.176672 0.379608 2.233 -0.42224 0.0742794 0.903436 255 0 0 255
0.183262 0.380615 2.239 -0.643013 0.0547556 0.763896 255 0 0 255
0.189969 0.381792 2.246 -0.743316 0.338399 0.577034 255 0 0 255
0.197238 0.383988 2.259 -0.784121 0.490054 0.380791 255 0 0 255
0.204307 0.385673 2.269 -0.662689 0.410607 0.626295 255 0 0 255
0.21078 0.386169 2.272 -0.440508 0.116207 0.890196 255 0 0 255
0.214882 0.382414 2.25 -0.40921 -0.911117 0.0491343 255 0 0 255
-0.081719 0.384585 2.34379 0.992884 -0.0747402 -0.0927133 255 255 0 255
-0.081464 0.382288 2.33114 0.94452 -0.271648 -0.184632 255 255 0 255
-0.081203 0.379987 2.31848 -0.905377 0.124543 -0.405933 255 255 0 255
-0.074929 0.378478 2.31003 -0.705044 -0.151596 -0.692771 255 255 0 255
-0.058376 0.378342 2.30889 -0.275975 -0.0791113 -0.957903 255 255 0 255
-0.0487 0.377303 2.30294 -0.287556 -0.0501565 -0.95645 255 255 0 255
-0.039891 0.376156 2.29642 -0.623129 0.213845 -0.752316 255 255 0 255
-0.03024 0.375131 2.29054 -0.81519 0.24857 -0.523142 255 255 0 255
-0.029989 0.372838 2.2779 -0.993097 0.105545 -0.0511638 255 255 0 255
-0.044224 0.368565 2.2547 0.798044 -0.107904 -0.59286 255 255 0 255
0.074276 0.373364 2.27819 -0.0138666 -0.0785242 -0.996816 255 255 0 255
0.130377 0.37896 2.30763 0.43739 0.16517 -0.883973 255 255 0 255
0.156749 0.380431 2.31507 0.0817548 -0.0542943 -0.995173 255 255 0 255
0.158558 0.378449 2.30407 0.0817548 -0.0542943 -0.995173 255 255 0 255
-0.301639 0.306588 2.25922 0.772359 -0.0119645 -0.635073 0 255 0 255
-0.300486 0.30901 2.27034 0.341187 0.424914 -0.838475 0 255 0 255
-0.294141 0.310375 2.27764 -0.143923 0.217235 -0.965451 0 255 0 255
-0.278259 0.309816 2.27802 -0.0231378 -0.104457 -0.99426 0 255 0 255
-0.24501 0.305778 2.26593 0.955888 -0.136701 -0.259984 0 255 0 255
-0.209973 0.30143 2.25276 0.497016 -0.464026 -0.733249 0 255 0 255
-0.180601 0.300994 2.25613 -0.926045 -0.25631 -0.277032 0 255 0 255
-0.192428 0.306065 2.27674 -0.970498 -0.14594 -0.191926 0 255 0 255
