ply
format ascii 1.0
comment VCGLIB generated
element vertex 726
property float x
property float y
property float z
property float nx
property float ny
property float nz
property uchar red
property uchar green
property uchar blue
property uchar alpha
element face 0
property list uchar int vertex_indices
end_header
0.186419 0.275366 2.133 0.469667 0.1389 0.871849 255 0 0 255
0.191617 0.274452 2.126 0.670581 -0.00233718 0.741832 255 0 0 255
0.196963 0.273795 2.121 0.606653 -0.248432 0.755151 255 0 0 255
-0.105851 0.2181 2.35862 0.508946 -0.858324 -0.0652216 255 255 0 255
-0.091008 0.218202 2.35589 -0.00832354 -0.19827 -0.980112 255 255 0 255
-0.073629 0.218771 2.35499 -0.407295 -0.440778 -0.799891 255 255 0 255
-0.063949 0.217985 2.34884 -0.618491 -0.444967 -0.647668 255 255 0 255
-0.055984 0.216899 2.34153 -0.405979 -0.443557 -0.799023 255 255 0 255
-0.042077 0.216891 2.33843 -0.345845 -0.358847 -0.86696 255 255 0 255
-0.03074 0.216434 2.3336 -0.272588 -0.467256 -0.841052 255 255 0 255
-0.015177 0.216755 2.33182 -0.343227 -0.720749 -0.602259 255 255 0 255
-0.013201 0.214617 2.32042 -0.394028 -0.752079 -0.528317 255 255 0 255
0.000632 0.214647 2.31753 -0.400661 -0.759077 -0.513101 255 255 0 255
0.009368 0.213756 2.31104 -0.455708 -0.672625 -0.583014 255 255 0 255
0.019784 0.213183 2.3058 -0.532952 -0.385981 -0.752981 255 255 0 255
0.028496 0.212304 2.29937 -0.687956 -0.0706098 -0.722309 255 255 0 255
0.032139 0.210491 2.28926 -0.724806 -0.107121 -0.680574 255 255 0 255
0.036624 0.208835 2.27977 -0.962091 -0.203121 -0.181998 255 255 0 255
0.038583 0.206707 2.26842 -0.9376 -0.200821 -0.283861 255 255 0 255
0.048109 0.206002 2.26268 -0.759212 -0.126132 -0.638505 255 255 0 255
0.057623 0.205303 2.25699 -0.879962 0.108774 -0.462424 255 255 0 255
0.057061 0.202703 2.24376 -0.983046 -0.0390278 -0.179155 255 255 0 255
0.12798 0.193961 2.18298 -0.928491 -0.266154 -0.25897 255 255 0 255
0.134893 0.192833 2.17562 -0.872139 -0.160307 -0.462251 255 255 0 255
0.141798 0.19171 2.16828 -0.655435 -0.218075 -0.723083 255 255 0 255
0.150353 0.190919 2.16229 -0.874638 -0.407338 -0.262839 255 255 0 255
0.165512 0.191454 2.16162 0.362076 -0.121179 -0.924239 255 255 0 255
-0.264154 0.140625 2.24913 0.686103 -0.430133 -0.586727 0 255 0 255
-0.250074 0.139942 2.25103 -0.748794 -0.124545 -0.650997 0 255 0 255
-0.173363 0.135259 2.25723 -0.862838 0.0889246 -0.497598 0 255 0 255
-0.184145 0.140807 2.27721 -0.926156 0.154873 -0.343874 0 255 0 255
-0.192365 0.145705 2.29529 0.909896 -0.392178 -0.135228 0 255 0 255
-0.183346 0.146376 2.30122 0.739044 -0.528602 -0.417605 0 255 0 255
-0.177771 0.147896 2.30958 0.671131 -0.417314 -0.612725 0 255 0 255
-0.1696 0.14879 2.31616 0.902852 -0.289978 -0.317444 0 255 0 255
-0.172666 0.152409 2.33053 0.964139 -0.231174 -0.130365 0 255 0 255
-0.166219 0.153727 2.33832 0.862906 -0.37945 -0.333783 0 255 0 255
-0.165832 0.156506 2.35028 0.773455 -0.39492 -0.495788 0 255 0 255
-0.153306 0.156378 2.35397 0.563548 -0.467772 -0.680884 0 255 0 255
-0.145104 0.157297 2.36064 0.347709 -0.426431 -0.835018 0 255 0 255
-0.129942 0.156571 2.36267 0.320921 -0.649237 -0.689566 0 255 0 255
-0.121717 0.157508 2.36943 0.561382 -0.702761 -0.43701 0 255 0 255
-0.115224 0.158862 2.37737 0.714095 -0.624188 -0.316951 0 255 0 255
-0.109595 0.160426 2.38592 -0.216202 0.517944 -0.827641 0 255 0 255
-0.095244 0.159951 2.38873 -0.232774 -0.448596 -0.86289 0 255 0 255
-0.303079 0.27953 2.214 -0.30413 0.202199 0.930925 255 0 0 255
-0.297177 0.279673 2.215 -0.501365 0.0387724 0.864366 255 0 0 255
-0.291794 0.28032 2.22 -0.457005 0.0391217 0.888603 255 0 0 255
-0.285867 0.280462 2.221 -0.337616 0.130795 0.932152 255 0 0 255
-0.280313 0.280982 2.225 -0.249106 0.110988 0.962095 255 0 0 255
-0.274242 0.280998 2.225 -0.0833851 0.18146 0.979857 255 0 0 255
-0.268171 0.281013 2.225 -0.0556721 0.201468 0.977912 255 0 0 255
-0.262098 0.281027 2.225 -0.331192 0.195047 0.923184 255 0 0 255
-0.256485 0.281547 2.229 -0.572357 0.173142 0.801517 255 0 0 255
-0.250962 0.282192 2.234 -0.660104 0.144666 0.737112 255 0 0 255
-0.24552 0.282964 2.24 -0.653357 0.124965 0.746665 255 0 0 255
-0.239831 0.283483 2.244 -0.667303 0.343896 0.660637 255 0 0 255
-0.234223 0.284128 2.249 -0.628605 0.29858 0.718127 255 0 0 255
-0.228385 0.28452 2.252 -0.667746 0.318672 0.672728 255 0 0 255
-0.220654 0.282511 2.236 0.957697 -0.162747 0.237338 255 0 0 255
-0.213393 0.281008 2.224 0.796 -0.152584 0.58575 255 0 0 255
-0.206757 0.280262 2.218 0.796862 0.0205131 0.603813 255 0 0 255
-0.199248 0.278251 2.202 0.901299 0.251792 0.352506 255 0 0 255
-0.191387 0.275609 2.181 0.88541 0.199692 0.419728 255 0 0 255
-0.184405 0.274103 2.169 0.781721 0.138411 0.608074 255 0 0 255
-0.178147 0.273608 2.165 0.690781 0.100584 0.716034 255 0 0 255
-0.17175 0.27286 2.159 0.71632 0.13499 0.68459 255 0 0 255
-0.165232 0.271859 2.151 0.7912 0.213004 0.573264 255 0 0 255
-0.158609 0.270605 2.141 0.747571 0.299762 0.592689 255 0 0 255
-0.152326 0.269855 2.135 0.622915 0.345453 0.701882 255 0 0 255
-0.146212 0.269359 2.131 0.573609 0.308234 0.758923 255 0 0 255
-0.140119 0.268861 2.127 0.61064 0.298843 0.733357 255 0 0 255
-0.133921 0.268111 2.121 0.675994 0.21528 0.70476 255 0 0 255
-0.127756 0.26736 2.115 0.616666 0.157284 0.771353 255 0 0 255
-0.121796 0.266989 2.112 0.475357 0.120495 0.871503 255 0 0 255
-0.115852 0.266616 2.109 0.326873 0.175465 0.928637 255 0 0 255
-0.110029 0.266497 2.108 0.277171 0.186011 0.942643 255 0 0 255
-0.104161 0.26625 2.106 0.349118 0.207266 0.91387 255 0 0 255
-0.098303 0.266003 2.104 0.258647 0.185291 0.948035 255 0 0 255
-0.092456 0.265756 2.102 0.259568 0.150341 0.953951 255 0 0 255
-0.08662 0.265509 2.1 0.422801 0.126638 0.897331 255 0 0 255
-0.080756 0.265134 2.097 0.284725 0.142467 0.947964 255 0 0 255
-0.075015 0.265139 2.097 -0.0890032 0.165416 0.982199 255 0 0 255
-0.069307 0.26527 2.098 -0.14774 0.123995 0.981223 255 0 0 255
-0.063563 0.265274 2.098 0.0899705 0.108898 0.989973 255 0 0 255
-0.057791 0.265151 2.097 0.117833 0.0939403 0.98858 255 0 0 255
-0.05205 0.265155 2.097 -0.0293317 0.102652 0.994285 255 0 0 255
-0.04633 0.265284 2.098 -0.146537 0.0870477 0.985368 255 0 0 255
-0.040623 0.265539 2.1 -0.174748 0.0793357 0.981412 255 0 0 255
-0.034873 0.265542 2.1 -0.231018 0.0891694 0.968855 255 0 0 255
-0.02915 0.265797 2.102 -0.382221 0.0436742 0.923038 255 0 0 255
-0.023416 0.266051 2.104 -0.40703 0.069972 0.910731 255 0 0 255
-0.017671 0.266305 2.106 -0.410559 0.133949 0.901942 255 0 0 255
-0.011926 0.266812 2.11 -0.406766 0.204004 0.890463 255 0 0 255
-0.006154 0.267065 2.112 -0.327697 0.324762 0.887212 255 0 0 255
-0.00037 0.267318 2.114 -0.250596 0.341607 0.905818 255 0 0 255
0.005425 0.267571 2.116 -0.282667 0.331423 0.900144 255 0 0 255
0.01123 0.267824 2.118 -0.386192 0.274633 0.880587 255 0 0 255
0.017054 0.268202 2.121 -0.468536 0.226713 0.853859 255 0 0 255
0.022884 0.268454 2.123 -0.498836 0.256586 0.827844 255 0 0 255
0.028739 0.268832 2.126 -0.576769 0.25053 0.777543 255 0 0 255
0.034642 0.269462 2.131 -0.577879 0.277441 0.767517 255 0 0 255
0.040572 0.270092 2.136 -0.416942 0.29828 0.858597 255 0 0 255
0.046443 0.270216 2.137 -0.273151 0.353483 0.894672 255 0 0 255
0.052319 0.270339 2.138 -0.140657 0.348195 0.92681 255 0 0 255
0.058146 0.270209 2.137 -0.253505 0.390698 0.884924 255 0 0 255
0.064087 0.270585 2.14 -0.339216 0.428671 0.837361 255 0 0 255
0.069979 0.270707 2.141 -0.422406 0.431916 0.796883 255 0 0 255
0.076017 0.271335 2.146 -0.550185 0.394403 0.736031 255 0 0 255
0.082045 0.271836 2.15 -0.570494 0.413712 0.709492 255 0 0 255
0.088176 0.27259 2.156 -0.50854 0.457694 0.729317 255 0 0 255
0.094165 0.272837 2.158 -0.368464 0.480397 0.795897 255 0 0 255
0.100211 0.27321 2.161 -0.485334 0.294976 0.823067 255 0 0 255
0.106322 0.27371 2.165 -0.778071 0.136124 0.613251 255 0 0 255
0.112869 0.275221 2.177 -0.703735 -0.233991 0.670825 255 0 0 255
0.120682 0.279512 2.211 0.947526 0.317841 0.0342227 255 0 0 255
0.124841 0.275333 2.178 0.637284 0.528796 0.560574 255 0 0 255
0.130079 0.273808 2.166 0.713808 0.331859 0.616723 255 0 0 255
0.135754 0.273295 2.162 0.772152 0.273083 0.573766 255 0 0 255
0.141145 0.272275 2.154 0.547647 0.419346 0.724038 255 0 0 255
0.146968 0.27214 2.153 0.457258 0.384187 0.802069 255 0 0 255
0.152502 0.2715 2.148 0.655771 0.274644 0.703232 255 0 0 255
0.158082 0.270985 2.144 0.706397 0.170339 0.687014 255 0 0 255
0.16341 0.270091 2.137 0.721398 0.171005 0.671076 255 0 0 255
0.168936 0.269576 2.133 0.352242 0.290367 0.889726 255 0 0 255
0.174932 0.269818 2.135 0.0259438 0.104067 0.994232 255 0 0 255
0.180599 0.269555 2.133 0.0565195 0.00834634 0.998367 255 0 0 255
0.18643 0.269545 2.133 0.516371 -0.10031 0.85047 255 0 0 255
0.191538 0.268523 2.125 0.826767 -0.0334798 0.561547 255 0 0 255
0.19651 0.267375 2.116 0.865644 -0.0523933 0.497912 255 0 0 255
-0.121423 0.206705 2.36222 0.722421 -0.569138 -0.392671 255 255 0 255
-0.108268 0.206521 2.35823 -0.409518 0.331836 -0.849812 255 255 0 255
-0.093427 0.206655 2.35547 0.204886 -0.0286454 -0.978367 255 255 0 255
-0.075198 0.207419 2.35515 -0.484826 -0.169097 -0.858108 255 255 0 255
-0.067222 0.206339 2.34779 -0.518046 -0.0595967 -0.853274 255 255 0 255
-0.056702 0.205731 2.34225 -0.359423 -0.193225 -0.912951 255 255 0 255
-0.044497 0.205442 2.33795 -0.231474 -0.366261 -0.901262 255 255 0 255
-0.028066 0.205943 2.33669 -0.23772 -0.489789 -0.838806 255 255 0 255
-0.01251 0.206302 2.33491 -0.277438 -0.667798 -0.690706 255 255 0 255
-0.00291 0.205574 2.32896 -0.354705 -0.790361 -0.499513 255 255 0 255
0.010909 0.205641 2.32609 -0.365404 -0.869571 -0.332155 255 255 0 255
0.015407 0.20398 2.31657 -0.553611 -0.730884 -0.399153 255 255 0 255
0.018213 0.202003 2.30582 -0.718979 -0.422235 -0.552076 255 255 0 255
0.02777 0.201298 2.29999 -0.570076 -0.524866 -0.632084 255 255 0 255
0.038999 0.200919 2.29543 -0.684394 -0.403492 -0.607288 255 255 0 255
0.046004 0.199748 2.28782 -0.923515 -0.37859 -0.0615585 255 255 0 255
0.045432 0.197139 2.27462 -0.926646 -0.354522 -0.125066 255 255 0 255
0.04655 0.194847 2.26265 -0.952755 -0.0400671 -0.301085 255 255 0 255
0.054386 0.193843 2.25569 -0.878834 0.423089 -0.220559 255 255 0 255
0.051316 0.190742 2.24055 -0.91526 0.379466 -0.135294 255 255 0 255
0.111496 0.179933 2.17106 0.216913 0.548093 -0.807801 255 255 0 255
0.128376 0.1808 2.17151 0.0304643 0.694078 -0.719255 255 255 0 255
0.141087 0.180849 2.16875 -0.109197 0.0177508 -0.993862 255 255 0 255
0.153777 0.180908 2.16604 -0.451425 -0.459562 -0.764865 255 255 0 255
0.163969 0.180476 2.1614 0.442269 -0.125162 -0.888106 255 255 0 255
-0.256852 0.128105 2.24496 0.174326 0.410939 -0.894841 0 255 0 255
-0.245341 0.128047 2.24878 -0.904255 -0.0689657 -0.421386 0 255 0 255
-0.169499 0.123414 2.25572 -0.869072 0.0739268 -0.489131 0 255 0 255
-0.18199 0.129436 2.27694 -0.898986 0.126062 -0.419442 0 255 0 255
-0.189338 0.134156 2.29441 -0.981149 0.157315 -0.112246 0 255 0 255
-0.189805 0.137158 2.307 0.864213 -0.314506 -0.392711 0 255 0 255
-0.180784 0.137816 2.31295 0.696498 -0.54295 -0.469144 0 255 0 255
-0.170888 0.138269 2.31833 0.818399 -0.422089 -0.389953 0 255 0 255
-0.172221 0.141483 2.3315 0.881727 -0.454713 -0.125672 0 255 0 255
-0.166639 0.143004 2.3399 0.807584 -0.385517 -0.446301 0 255 0 255
-0.166249 0.145791 2.35186 0.719823 -0.378853 -0.581658 0 255 0 255
-0.154595 0.145845 2.35615 0.700923 -0.448204 -0.554815 0 255 0 255
-0.149866 0.147587 2.36517 0.407066 -0.593263 -0.694505 0 255 0 255
-0.134714 0.146823 2.36721 0.409204 -0.42861 -0.80551 0 255 0 255
-0.126495 0.147743 2.37396 0.516905 -0.595258 -0.615205 0 255 0 255
-0.118266 0.148669 2.38074 0.698908 -0.363064 -0.616207 0 255 0 255
-0.110029 0.149602 2.38755 -0.0211599 -0.55623 -0.830759 0 255 0 255
-0.096555 0.149301 2.39095 0.0578028 -0.369224 -0.927541 0 255 0 255
-0.307456 0.271993 2.202 -0.795532 -0.189776 0.575424 255 0 0 255
-0.302959 0.273368 2.213 -0.784037 -0.0136191 0.620564 255 0 0 255
-0.297327 0.273754 2.216 -0.459124 0.200056 0.865553 255 0 0 255
-0.291809 0.274264 2.22 -0.34182 0.0419157 0.93883 255 0 0 255
-0.285883 0.274403 2.221 -0.305069 -0.026016 0.951975 255 0 0 255
-0.280202 0.274788 2.224 -0.42853 -0.000706771 0.903528 255 0 0 255
-0.27438 0.27505 2.226 -0.157087 0.0536658 0.986126 255 0 0 255
-0.268306 0.275065 2.226 -0.0833387 0.212061 0.973696 255 0 0 255
-0.262348 0.275203 2.227 -0.220313 0.167952 0.960861 255 0 0 255
-0.256615 0.275588 2.23 -0.55432 0.13051 0.822008 255 0 0 255
-0.251088 0.27622 2.235 -0.640081 0.101624 0.761557 255 0 0 255
-0.245424 0.276728 2.239 -0.630918 -0.0284818 0.775326 255 0 0 255
-0.240058 0.277606 2.246 -0.802092 0.0774178 0.592161 255 0 0 255
-0.234549 0.278361 2.252 -0.600639 0.208834 0.771765 255 0 0 255
-0.228803 0.278868 2.256 -0.962918 0.253729 0.0917134 255 0 0 255
-0.220469 0.276161 2.234 0.888807 -0.0513952 0.455391 255 0 0 255
-0.213118 0.274567 2.221 0.731337 -0.0292302 0.68139 255 0 0 255
-0.206769 0.274207 2.218 0.696447 0.0537609 0.715592 255 0 0 255
-0.199802 0.272983 2.208 0.872691 0.219576 0.436116 255 0 0 255
-0.192012 0.270521 2.188 0.902082 0.272328 0.334792 255 0 0 255
-0.184671 0.268553 2.172 0.804093 0.210435 0.556014 255 0 0 255
-0.178074 0.267575 2.164 0.69452 0.0668452 0.716362 255 0 0 255
-0.17168 0.266843 2.158 0.699483 0.05471 0.712552 255 0 0 255
-0.165395 0.266234 2.153 0.752385 0.154802 0.640275 255 0 0 255
-0.158841 0.26513 2.144 0.740206 0.223271 0.634228 255 0 0 255
-0.15262 0.264521 2.139 0.657624 0.257181 0.708088 255 0 0 255
-0.146357 0.263788 2.133 0.603988 0.261361 0.75292 255 0 0 255
-0.140259 0.263301 2.129 0.632646 0.221899 0.74197 255 0 0 255
-0.134056 0.262567 2.123 0.694946 0.199679 0.690781 255 0 0 255
-0.127884 0.261833 2.117 0.636127 0.199893 0.745242 255 0 0 255
-0.121803 0.261222 2.112 0.510902 0.180415 0.840494 255 0 0 255
-0.115914 0.260981 2.11 0.326964 0.158463 0.931657 255 0 0 255
-0.110087 0.260864 2.109 0.251012 0.166796 0.953505 255 0 0 255
-0.104216 0.260623 2.107 0.307348 0.105485 0.945732 255 0 0 255
-0.098309 0.260258 2.104 0.301936 0.231945 0.924682 255 0 0 255
-0.092506 0.26014 2.103 0.331249 0.163013 0.929355 255 0 0 255
-0.086667 0.259898 2.101 0.353783 0.185046 0.91684 255 0 0 255
-0.080838 0.259655 2.099 0.203483 0.224217 0.953059 255 0 0 255
-0.075055 0.259536 2.098 -0.0580024 0.300472 0.952025 255 0 0 255
-0.069377 0.259788 2.1 -0.0291501 0.227139 0.973426 255 0 0 255
-0.063597 0.259668 2.099 0.14493 0.162231 0.976052 255 0 0 255
-0.057822 0.259548 2.098 0.0874383 0.152879 0.984369 255 0 0 255
-0.052077 0.259551 2.098 -0.0587272 0.150268 0.9869 255 0 0 255
-0.046332 0.259554 2.098 -0.204401 0.173366 0.963413 255 0 0 255
-0.040607 0.259681 2.099 -0.20567 0.19151 0.9597 255 0 0 255
-0.034875 0.259806 2.1 -0.233903 0.222435 0.946474 255 0 0 255
-0.029152 0.260056 2.102 -0.286316 0.180014 0.941073 255 0 0 255
-0.023417 0.260305 2.104 -0.385601 0.179966 0.904944 255 0 0 255
-0.017689 0.260801 2.108 -0.468546 0.123069 0.874825 255 0 0 255
-0.011927 0.261049 2.11 -0.486585 0.203769 0.849537 255 0 0 255
-0.00616 0.261545 2.114 -0.404332 0.245893 0.880938 255 0 0 255
-0.00037 0.261669 2.115 -0.276177 0.329165 0.902982 255 0 0 255
0.005425 0.261792 2.116 -0.282141 0.331182 0.900397 255 0 0 255
0.011225 0.261915 2.117 -0.338773 0.280411 0.898111 255 0 0 255
0.017047 0.262286 2.12 -0.467553 0.273242 0.840674 255 0 0 255
0.022896 0.262779 2.124 -0.516191 0.27064 0.812589 255 0 0 255
0.028767 0.263273 2.128 -0.5572 0.292488 0.777161 255 0 0 255
0.034676 0.263889 2.133 -0.567144 0.198988 0.799219 255 0 0 255
0.040575 0.264258 2.136 -0.443687 0.118188 0.888354 255 0 0 255
0.046467 0.264503 2.138 -0.357707 0.214044 0.908972 255 0 0 255
0.052371 0.264748 2.14 -0.244828 0.450707 0.858442 255 0 0 255
0.058258 0.264868 2.141 -0.32004 0.550034 0.771386 255 0 0 255
0.06424 0.265359 2.145 -0.29611 0.646024 0.703543 255 0 0 255
0.070146 0.265479 2.146 -0.365168 0.58963 0.720408 255 0 0 255
0.076163 0.26597 2.15 -0.503858 0.521611 0.688512 255 0 0 255
0.082202 0.26646 2.154 -0.558431 0.461692 0.689199 255 0 0 255
0.088304 0.267073 2.159 -0.435711 0.5102 0.74152 255 0 0 255
0.094388 0.267563 2.163 -0.22015 0.440654 0.870263 255 0 0 255
0.100263 0.267433 2.162 -0.32978 0.161145 0.930203 255 0 0 255
0.106377 0.267922 2.166 -0.589521 0.0579989 0.805668 255 0 0 255
0.121399 0.275083 2.224 -0.998466 -0.0349203 0.0429605 255 0 0 255
0.12502 0.269757 2.181 0.324186 0.288362 0.900972 255 0 0 255
0.130147 0.268018 2.167 0.715191 0.0406211 0.697747 255 0 0 255
0.135888 0.267639 2.164 0.7044 0.0379789 0.708787 255 0 0 255
0.141349 0.266765 2.157 0.556678 0.320221 0.76653 255 0 0 255
0.147114 0.26651 2.155 0.558651 0.303151 0.772016 255 0 0 255
0.152582 0.265759 2.149 0.711293 0.148038 0.68713 255 0 0 255
0.158165 0.265255 2.145 0.693632 0.0977534 0.713665 255 0 0 255
0.163649 0.264628 2.14 0.709099 0.0527264 0.703135 255 0 0 255
0.169105 0.264 2.135 0.418058 -0.0756591 0.905264 255 0 0 255
0.174778 0.263743 2.133 0.204898 -0.108714 0.972727 255 0 0 255
0.180525 0.263609 2.132 0.0534655 -0.20481 0.977341 255 0 0 255
0.186353 0.263599 2.132 0.43818 -0.138965 0.888081 255 0 0 255
0.191549 0.262722 2.125 0.828862 -0.00320118 0.559444 255 0 0 255
0.196614 0.261722 2.117 0.866805 -0.0823011 0.491809 255 0 0 255
-0.120417 0.195695 2.36418 -0.812459 -0.534744 -0.23229 255 255 0 255
-0.109828 0.195071 2.35843 0.0319479 -0.800476 -0.598513 255 255 0 255
-0.094988 0.195237 2.35566 0.17374 -0.246165 -0.953529 255 255 0 255
-0.076764 0.196044 2.35531 -0.383055 -0.354765 -0.852884 255 255 0 255
-0.066233 0.195449 2.34972 -0.365992 -0.382288 -0.848473 255 255 0 255
-0.052314 0.195494 2.34654 -0.175937 -0.458511 -0.871099 255 255 0 255
-0.037569 0.195708 2.34403 -0.119687 -0.481234 -0.868383 255 255 0 255
-0.02115 0.196252 2.34278 -0.113397 -0.571492 -0.812735 255 255 0 255
-0.004758 0.19681 2.34161 -0.164159 -0.684966 -0.70984 255 255 0 255
0.011607 0.197382 2.34051 -0.198651 -0.75906 -0.619972 255 255 0 255
0.027098 0.197808 2.33889 -0.584443 -0.669998 -0.457743 255 255 0 255
0.027354 0.195354 2.32635 -0.590573 -0.80133 -0.095363 255 255 0 255
0.026775 0.192737 2.31319 -0.595562 -0.759095 -0.262832 255 255 0 255
0.032105 0.191246 2.30431 -0.513166 -0.73551 -0.442363 255 255 0 255
0.045854 0.191378 2.3016 -0.506086 -0.746082 -0.432711 255 255 0 255
0.047803 0.189246 2.29029 -0.726649 -0.655505 -0.205655 255 255 0 255
0.048074 0.186787 2.27771 0.888795 0.44098 -0.124821 255 255 0 255
0.044995 0.183672 2.26262 0.968338 0.243571 -0.0547163 255 255 0 255
0.039414 0.180058 2.24561 0.95021 -0.298536 -0.0893173 255 255 0 255
0.111924 0.166689 2.15955 0.0303059 0.533445 -0.845291 255 255 0 255
0.134583 0.168788 2.16462 -0.814932 -0.402908 -0.416594 255 255 0 255
0.151411 0.16972 2.16518 -0.675949 0.119789 -0.727148 255 255 0 255
0.16243 0.169476 2.16118 -0.629979 0.665848 -0.399716 255 255 0 255
-0.244895 0.117211 2.24965 -0.848435 0.0899282 -0.521605 0 255 0 255
-0.181117 0.115447 2.26523 -0.906231 0.153107 -0.394087 0 255 0 255
-0.186724 0.119773 2.28153 -0.944795 0.122282 -0.30399 0 255 0 255
-0.191484 0.123874 2.29718 -0.9934 0.0809486 -0.0812647 0 255 0 255
-0.191949 0.126885 2.30976 0.951766 -0.139794 -0.273127 0 255 0 255
-0.18552 0.128171 2.31751 0.819657 -0.461012 -0.340044 0 255 0 255
-0.179084 0.129461 2.32529 0.793483 -0.553916 -0.252114 0 255 0 255
-0.179556 0.13247 2.33784 0.830796 -0.45635 -0.318626 0 255 0 255
-0.17398 0.133979 2.34623 0.794673 -0.304254 -0.525285 0 255 0 255
-0.167534 0.135278 2.35403 0.696813 -0.173836 -0.695868 0 255 0 255
-0.15935 0.136158 2.36068 0.688878 -0.030579 -0.724232 0 255 0 255
-0.156359 0.138316 2.37087 0.593708 -0.166535 -0.787259 0 255 0 255
-0.142954 0.137936 2.37407 0.37011 -0.150783 -0.91667 0 255 0 255
-0.133006 0.138414 2.37965 0.676364 -0.0924266 -0.730745 0 255 0 255
-0.122178 0.138691 2.38469 0.673054 -0.102729 -0.732424 0 255 0 255
-0.113075 0.139397 2.39092 0.625398 0.0695713 -0.777199 0 255 0 255
-0.099608 0.139065 2.39433 -0.0110439 -0.272203 -0.962176 0 255 0 255
-0.07262 0.13844 2.40132 0.217457 -0.375285 -0.90104 0 255 0 255
-0.061719 0.138771 2.4066 -0.0487718 -0.329768 -0.942801 0 255 0 255
-0.307612 0.266106 2.203 -0.905305 0.224262 0.360734 255 0 0 255
-0.303522 0.267813 2.217 -0.26502 0.552588 0.790197 255 0 0 255
-0.297745 0.26807 2.219 -0.135676 0.645971 0.751208 255 0 0 255
-0.291956 0.268327 2.221 -0.0959391 0.41063 0.906741 255 0 0 255
-0.285769 0.268222 2.22 -0.218362 0.111487 0.969479 255 0 0 255
-0.280091 0.268599 2.223 -0.415351 0.107385 0.903301 255 0 0 255
-0.274518 0.269097 2.227 -0.365623 0.178295 0.913526 255 0 0 255
-0.268441 0.269111 2.227 -0.137581 0.302522 0.94316 255 0 0 255
-0.262598 0.269367 2.229 -0.1857 0.305203 0.934006 255 0 0 255
-0.256513 0.269381 2.229 -0.541104 0.20183 0.816377 255 0 0 255
-0.251102 0.27012 2.235 -0.634804 0.172304 0.753217 255 0 0 255
-0.245328 0.270496 2.238 -0.462833 0.229757 0.856153 255 0 0 255
-0.240178 0.271597 2.247 -0.808915 0.238839 0.537227 255 0 0 255
-0.23477 0.272456 2.254 -0.809453 0.230089 0.540226 255 0 0 255
-0.229526 0.273556 2.263 -0.886868 0.237619 0.396235 255 0 0 255
-0.22058 0.270184 2.235 0.972269 0.0791759 0.220055 255 0 0 255
-0.213129 0.268504 2.221 0.585503 -0.00812385 0.810629 255 0 0 255
-0.20678 0.268152 2.218 0.581015 0.00868179 0.813847 255 0 0 255
-0.200176 0.267438 2.212 0.835587 0.0854955 0.542665 255 0 0 255
-0.192637 0.265394 2.195 0.921534 0.2079 0.327951 255 0 0 255
-0.185106 0.263228 2.177 0.859416 0.220443 0.461312 255 0 0 255
-0.178167 0.261787 2.165 0.781852 0.066978 0.619856 255 0 0 255
-0.17177 0.261071 2.159 0.67085 0.0622162 0.738978 255 0 0 255
-0.165405 0.260355 2.153 0.680933 0.0958602 0.726044 255 0 0 255
-0.158998 0.259518 2.146 0.719344 0.157105 0.676656 255 0 0 255
-0.152771 0.258922 2.141 0.682038 0.19818 0.703952 255 0 0 255
-0.146434 0.258084 2.134 0.628901 0.231123 0.742338 255 0 0 255
-0.140399 0.257729 2.131 0.647151 0.177918 0.741311 255 0 0 255
-0.134126 0.256891 2.124 0.685115 0.202106 0.699836 255 0 0 255
-0.128013 0.256293 2.119 0.641721 0.237471 0.729248 255 0 0 255
-0.121926 0.255696 2.114 0.55699 0.212667 0.80283 255 0 0 255
-0.115976 0.25534 2.111 0.422911 0.144604 0.894559 255 0 0 255
-0.110094 0.255104 2.109 0.304953 0.0465424 0.95123 255 0 0 255
-0.104272 0.25499 2.108 0.258103 0.0540515 0.964604 255 0 0 255
-0.098455 0.254874 2.107 0.284104 0.0924624 0.954325 255 0 0 255
-0.092599 0.254638 2.105 0.307715 0.143905 0.940533 255 0 0 255
-0.086713 0.25428 2.102 0.305347 0.151042 0.940186 255 0 0 255
-0.08092 0.254164 2.101 0.175135 0.164716 0.970668 255 0 0 255
-0.075167 0.254169 2.101 -0.0291788 0.165053 0.985853 255 0 0 255
-0.069415 0.254173 2.101 0.030555 0.161211 0.986447 255 0 0 255
-0.063631 0.254056 2.1 0.144457 0.129705 0.980973 255 0 0 255
-0.057853 0.253938 2.099 0.0875788 0.14186 0.986005 255 0 0 255
-0.052105 0.253942 2.099 -0.0587892 0.179482 0.982003 255 0 0 255
-0.046379 0.254065 2.1 -0.23154 0.204282 0.951135 255 0 0 255
-0.040667 0.25431 2.102 -0.259661 0.252166 0.932195 255 0 0 255
-0.034927 0.254433 2.103 -0.255085 0.298346 0.91974 255 0 0 255
-0.029195 0.254677 2.105 -0.226452 0.302536 0.925846 255 0 0 255
-0.02343 0.254679 2.105 -0.407295 0.237601 0.881849 255 0 0 255
-0.017698 0.255164 2.109 -0.46565 0.222306 0.856592 255 0 0 255
-0.011933 0.255407 2.111 -0.486761 0.203565 0.849485 255 0 0 255
-0.006166 0.256012 2.116 -0.468108 0.240417 0.850338 255 0 0 255
-0.000371 0.256133 2.117 -0.282703 0.27755 0.918175 255 0 0 255
0.005435 0.256496 2.12 -0.254128 0.342256 0.904588 255 0 0 255
0.011247 0.256617 2.121 -0.301928 0.351497 0.886166 255 0 0 255
0.017072 0.256858 2.123 -0.49776 0.324301 0.804403 255 0 0 255
0.02293 0.25734 2.127 -0.55302 0.327873 0.765943 255 0 0 255
0.02881 0.257823 2.131 -0.507446 0.318023 0.80085 255 0 0 255
0.034695 0.258184 2.134 -0.445687 0.189257 0.874954 255 0 0 255
0.040596 0.258545 2.137 -0.418675 0.0804285 0.904567 255 0 0 255
0.046514 0.258905 2.14 -0.505859 0.147365 0.849935 255 0 0 255
0.052472 0.259386 2.144 -0.460197 0.328725 0.824717 255 0 0 255
0.058398 0.259625 2.146 -0.471836 0.448526 0.759075 255 0 0 255
0.064394 0.260105 2.15 -0.0425699 0.809011 0.58625 255 0 0 255
0.070314 0.260222 2.151 -0.355687 0.640225 0.680881 255 0 0 255
0.076345 0.260702 2.155 -0.38036 0.620403 0.685876 255 0 0 255
0.08236 0.26106 2.158 -0.491831 0.468932 0.733625 255 0 0 255
0.088472 0.26166 2.163 -0.295386 0.545958 0.784013 255 0 0 255
0.094481 0.261897 2.165 0.0675564 0.409748 0.909694 255 0 0 255
0.100315 0.261649 2.163 -0.0383467 0.162513 0.985961 255 0 0 255
0.106383 0.262006 2.166 -0.352884 -0.210685 0.911638 255 0 0 255
0.122716 0.271912 2.248 -0.998344 -0.0368573 0.0441798 255 0 0 255
0.125142 0.264042 2.183 0.711499 -0.133402 0.689908 255 0 0 255
0.130335 0.262463 2.17 0.774191 0.34832 0.528489 255 0 0 255
0.135958 0.26185 2.165 0.773653 0.349458 0.528526 255 0 0 255
0.141554 0.261238 2.16 0.651064 0.12565 0.748551 255 0 0 255
0.14719 0.260746 2.156 0.675201 -0.155168 0.721129 255 0 0 255
0.152662 0.260012 2.15 0.703944 -0.00350781 0.710247 255 0 0 255
0.158174 0.259398 2.145 0.703739 0.0497349 0.708715 255 0 0 255
0.163582 0.258664 2.139 0.756584 0.00161162 0.653894 255 0 0 255
0.169035 0.25805 2.134 0.537015 -0.0755456 0.840183 255 0 0 255
0.174542 0.257556 2.13 0.184219 -0.535987 0.823882 255 0 0 255
0.180366 0.257546 2.13 0.0365065 -0.535568 0.843702 255 0 0 255
0.186276 0.257657 2.131 0.238497 -0.416413 0.877336 255 0 0 255
0.19165 0.257042 2.126 0.698804 -0.125105 0.704288 255 0 0 255
0.196718 0.256064 2.118 0.840377 -0.162736 0.516995 255 0 0 255
-0.112574 0.185945 2.37079 0.946649 0.265485 -0.182682 255 255 0 255
-0.101141 0.185504 2.36564 -0.305611 -0.843782 -0.441173 255 255 0 255
-0.088021 0.18539 2.36171 0.229584 -0.417881 -0.879015 255 255 0 255
-0.071513 0.185926 2.36018 -0.193467 -0.446471 -0.873633 255 255 0 255
-0.060989 0.185354 2.3546 -0.216754 -0.598843 -0.770976 255 255 0 255
-0.04368 0.186075 2.35381 -0.0691932 -0.674289 -0.735218 255 255 0 255
-0.029797 0.186166 2.35071 -0.028341 -0.639906 -0.767931 255 255 0 255
-0.00915 0.18756 2.35246 0.0145154 -0.590252 -0.807089 255 255 0 255
0.004682 0.187678 2.34951 -0.143751 -0.550312 -0.822492 255 255 0 255
0.021878 0.188456 2.34903 -0.48825 -0.472683 -0.733609 255 255 0 255
0.029745 0.187457 2.34196 -0.669038 -0.542357 -0.508169 255 255 0 255
0.035069 0.185974 2.33309 -0.681325 -0.595925 -0.425052 255 255 0 255
0.038703 0.184166 2.323 -0.552867 -0.799758 -0.233936 255 255 0 255
0.047392 0.183343 2.3166 -0.633117 -0.740752 -0.22461 255 255 0 255
0.052703 0.181867 2.30777 -0.903156 -0.374009 -0.210774 255 255 0 255
0.055488 0.179898 2.29708 -0.903782 -0.416645 -0.0979067 255 255 0 255
0.057435 0.177764 2.28578 -0.919382 -0.384007 -0.0852956 255 255 0 255
0.056868 0.17513 2.27258 -0.866353 -0.497006 -0.0491636 255 255 0 255
0.052055 0.146063 2.12646 -0.0788017 -0.973862 -0.213035 255 255 0 255
0.102947 0.154006 2.15351 0.0662808 0.411956 -0.90879 255 255 0 255
0.124778 0.155987 2.15788 0.0384749 0.594161 -0.803425 255 255 0 255
0.135001 0.155577 2.15312 -0.0366323 0.742815 -0.668494 255 255 0 255
0.141907 0.154483 2.14575 -0.249416 0.607156 -0.754422 255 255 0 255
-0.252152 0.108364 2.25613 -0.784915 -0.073278 -0.615256 0 255 0 255
-0.180696 0.104456 2.26618 -0.907506 0.233717 -0.349012 0 255 0 255
-0.187155 0.109029 2.28309 -0.908553 0.256746 -0.329565 0 255 0 255
-0.188467 0.112277 2.29631 -0.984964 0.140941 -0.0999058 0 255 0 255
-0.190648 0.115739 2.31011 0.975459 -0.0188876 -0.21937 0 255 0 255
-0.186804 0.11767 2.31968 0.94852 -0.0940233 -0.30244 0 255 0 255
-0.184685 0.120037 2.33044 0.931824 -0.132624 -0.33781 0 255 0 255
-0.180839 0.121969 2.34001 0.79628 -0.0713297 -0.600708 0 255 0 255
-0.172672 0.122822 2.34662 0.77502 0.0175209 -0.631694 0 255 0 255
-0.16363 0.123466 2.35267 0.71802 -0.0786944 -0.69156 0 255 0 255
-0.15631 0.124548 2.35993 0.76506 -0.127669 -0.631177 0 255 0 255
-0.148982 0.125636 2.36721 0.606292 -0.0960062 -0.789425 0 255 0 255
-0.138178 0.125874 2.37219 0.435777 -0.223641 -0.871827 0 255 0 255
-0.12736 0.126121 2.37721 0.424531 -0.0837026 -0.901536 0 255 0 255
-0.118267 0.126805 2.38343 0.402423 -0.00787887 -0.91542 0 255 0 255
-0.106555 0.126859 2.38797 0.432978 0.0448989 -0.900285 0 255 0 255
-0.097438 0.127561 2.39426 0.29428 -0.0233171 -0.955435 0 255 0 255
-0.084827 0.127425 2.39832 0.412655 -0.385979 -0.825068 0 255 0 255
-0.304633 0.262709 2.225 -0.121301 0.376941 0.91826 255 0 0 255
-0.2987 0.262842 2.226 0.014112 0.475335 0.879692 255 0 0 255
-0.292234 0.262503 2.223 0.0853799 0.341613 0.935955 255 0 0 255
-0.286041 0.2624 2.222 -0.0821149 0.154358 0.984597 255 0 0 255
-0.280231 0.26265 2.224 -0.449565 0.194588 0.871795 255 0 0 255
-0.274779 0.263255 2.229 -0.446248 0.327593 0.832794 255 0 0 255
-0.268937 0.263506 2.231 -0.177419 0.448456 0.876019 255 0 0 255
-0.262848 0.263519 2.231 -0.153198 0.509423 0.84677 255 0 0 255
-0.256872 0.263651 2.232 -0.463496 0.427905 0.775931 255 0 0 255
-0.251228 0.264137 2.236 -0.59532 0.45046 0.665342 255 0 0 255
-0.24567 0.264741 2.241 -0.613716 0.367766 0.698642 255 0 0 255
-0.240405 0.265699 2.249 -0.7232 0.408812 0.556646 255 0 0 255
-0.234991 0.266539 2.256 -0.826031 0.245051 0.507566 255 0 0 255
-0.22964 0.267496 2.264 -0.66397 0.067206 0.744733 255 0 0 255
-0.220789 0.264318 2.237 0.886653 0.115444 0.447793 255 0 0 255
-0.213333 0.262676 2.223 0.760286 0.040006 0.648356 255 0 0 255
-0.206885 0.262215 2.219 0.626681 -0.0150581 0.77913 255 0 0 255
-0.200277 0.261517 2.213 0.785015 -0.0309265 0.618704 255 0 0 255
-0.193087 0.259991 2.2 0.905029 0.0938396 0.414869 255 0 0 255
-0.185287 0.25752 2.179 0.887321 0.164139 0.430952 255 0 0 255
-0.178259 0.255993 2.166 0.825227 0.0785611 0.559311 255 0 0 255
-0.171779 0.255176 2.159 0.690991 0.0698522 0.719481 255 0 0 255
-0.165568 0.254712 2.155 0.664772 0.0630337 0.744382 255 0 0 255
-0.159229 0.254012 2.149 0.695878 0.070602 0.714681 255 0 0 255
-0.152851 0.253193 2.142 0.696323 0.116707 0.708177 255 0 0 255
-0.146649 0.25261 2.137 0.646748 0.110419 0.754669 255 0 0 255
-0.140473 0.252027 2.132 0.637217 0.146452 0.756641 255 0 0 255
-0.13426 0.251326 2.126 0.657216 0.18822 0.729822 255 0 0 255
-0.128141 0.250742 2.121 0.627555 0.250766 0.737082 255 0 0 255
-0.122048 0.250158 2.116 0.628798 0.205398 0.74995 255 0 0 255
-0.116037 0.249692 2.112 0.537313 0.112037 0.835908 255 0 0 255
-0.110048 0.249225 2.108 0.303092 0.00540347 0.952946 255 0 0 255
-0.104228 0.249113 2.107 0.172015 0.0204039 0.984883 255 0 0 255
-0.098414 0.249001 2.106 0.284168 0.0500934 0.957465 255 0 0 255
-0.092561 0.24877 2.104 0.353191 0.0255191 0.935203 255 0 0 255
-0.086759 0.248657 2.103 0.255919 0.0512707 0.965338 255 0 0 255
-0.080924 0.248425 2.101 0.0893827 0.123317 0.988334 255 0 0 255
-0.075172 0.248429 2.101 0.0589997 0.0466625 0.997167 255 0 0 255
-0.069419 0.248433 2.101 0.144688 -0.000955241 0.989477 255 0 0 255
-0.063635 0.248319 2.1 0.145296 -0.0302628 0.988925 255 0 0 255
-0.057884 0.248322 2.1 0.0305548 0.0238713 0.999248 255 0 0 255
-0.052108 0.248207 2.099 -0.17734 0.0936846 0.97968 255 0 0 255
-0.046404 0.248447 2.101 -0.334252 0.204599 0.920008 255 0 0 255
-0.040689 0.248686 2.103 -0.282839 0.190139 0.940133 255 0 0 255
-0.034962 0.248924 2.105 -0.228189 0.202802 0.952261 255 0 0 255
-0.029211 0.249044 2.106 -0.174217 0.223157 0.959088 255 0 0 255
-0.023453 0.249164 2.107 -0.389728 0.230696 0.891567 255 0 0 255
-0.017716 0.249638 2.111 -0.507812 0.198258 0.838344 255 0 0 255
-0.011945 0.249876 2.113 -0.465593 0.227927 0.855145 255 0 0 255
-0.006169 0.250349 2.117 -0.450577 0.175814 0.875255 255 0 0 255
-0.000371 0.250704 2.12 -0.332882 0.140377 0.932461 255 0 0 255
0.005438 0.250822 2.121 -0.359064 0.155828 0.920213 255 0 0 255
0.011258 0.251058 2.123 -0.379038 0.226887 0.897136 255 0 0 255
0.01709 0.251294 2.125 -0.482717 0.37262 0.792552 255 0 0 255
0.022964 0.251884 2.13 -0.5463 0.355766 0.758279 255 0 0 255
0.028838 0.252237 2.133 -0.428392 0.338618 0.837746 255 0 0 255
0.034713 0.252472 2.135 -0.305655 0.221747 0.925961 255 0 0 255
0.040579 0.252588 2.136 -0.398717 0.127462 0.908173 255 0 0 255
0.046516 0.253059 2.14 -0.565375 0.130951 0.814372 255 0 0 255
0.0525 0.253647 2.145 -0.577651 0.225334 0.784566 255 0 0 255
0.058483 0.254117 2.149 -0.581127 0.314847 0.750442 255 0 0 255
0.064517 0.254705 2.154 -0.4901 0.424206 0.76148 255 0 0 255
0.070514 0.255056 2.157 -0.390718 0.462659 0.795793 255 0 0 255
0.076527 0.255406 2.16 -0.40371 0.47574 0.781466 255 0 0 255
0.082517 0.255638 2.162 -0.518458 0.450518 0.726798 255 0 0 255
0.088559 0.255988 2.165 -0.41183 0.453656 0.790312 255 0 0 255
0.094574 0.256219 2.167 0.146424 0.456534 0.877574 255 0 0 255
0.100321 0.255741 2.163 0.0563011 0.389089 0.919478 255 0 0 255
0.106291 0.255853 2.164 0.154271 0.089986 0.983922 255 0 0 255
0.112214 0.255847 2.164 -0.248564 0.0906211 0.964367 255 0 0 255
0.124977 0.257725 2.18 0.724855 -0.0985265 0.681819 255 0 0 255
0.130402 0.256654 2.171 0.725151 -0.35238 0.591595 255 0 0 255
0.135966 0.255937 2.165 0.697787 -0.0774913 0.712102 255 0 0 255
0.141628 0.255457 2.161 0.7321 -0.155485 0.663215 255 0 0 255
0.14713 0.254739 2.155 0.695108 -0.18615 0.694386 255 0 0 255
0.152742 0.254258 2.151 0.572408 -0.174817 0.801117 255 0 0 255
0.158257 0.253658 2.146 0.720663 -0.0819139 0.688429 255 0 0 255
0.163591 0.252822 2.139 0.758201 -0.0942433 0.645174 255 0 0 255
0.168807 0.251867 2.131 0.7372 -0.167727 0.654525 255 0 0 255
0.17406 0.251031 2.124 0.375132 -0.397799 0.837277 255 0 0 255
0.179868 0.251021 2.124 0.036805 -0.536584 0.843044 255 0 0 255
0.185937 0.251365 2.127 0.0536 -0.552845 0.831558 255 0 0 255
0.191481 0.251001 2.124 0.590869 -0.420815 0.688322 255 0 0 255
0.196264 0.24969 2.113 0.782294 -0.184413 0.594986 255 0 0 255
-0.104738 0.176231 2.37739 -0.21742 -0.726097 -0.652313 255 255 0 255
-0.093316 0.175817 2.37226 -0.131386 -0.796181 -0.590621 255 255 0 255
-0.084467 0.174927 2.36541 0.0012767 -0.619166 -0.785259 255 255 0 255
-0.064563 0.176152 2.36623 -0.0887899 -0.607585 -0.789276 255 255 0 255
-0.048096 0.176744 2.36479 -0.104466 -0.628379 -0.770861 255 255 0 255
-0.029956 0.177676 2.36462 -0.174399 -0.564652 -0.806693 255 255 0 255
-0.019485 0.177151 2.35916 -0.0303602 -0.565835 -0.82396 255 255 0 255
-0.000552 0.178274 2.35974 -0.291984 -0.40647 -0.865753 255 255 0 255
0.014114 0.178591 2.35739 -0.424447 -0.232963 -0.874971 255 255 0 255
0.02199 0.177601 2.35029 -0.504768 0.0729228 -0.860169 255 255 0 255
0.031546 0.176946 2.34442 -0.643797 0.176742 -0.744505 255 255 0 255
0.037714 0.175635 2.33616 -0.631952 -0.147555 -0.760831 255 255 0 255
0.050621 0.175657 2.3328 -0.740309 -0.360741 -0.567281 255 255 0 255
0.050031 0.173021 2.31968 -0.848413 -0.387873 -0.360207 255 255 0 255
0.052817 0.171049 2.309 -0.970443 -0.140598 -0.196144 255 255 0 255
0.050561 0.168072 2.2946 -0.962436 -0.0991498 -0.252756 255 255 0 255
0.060911 0.16761 2.28948 -0.941948 -0.18845 -0.277884 255 255 0 255
0.063699 0.165639 2.27879 -0.951803 -0.108443 -0.286898 255 255 0 255
0.084047 0.139167 2.13965 0.280322 0.259972 -0.924031 255 255 0 255
0.11664 0.143462 2.15246 -0.218551 0.455731 -0.86287 255 255 0 255
0.123566 0.142368 2.14504 -0.378628 0.51844 -0.766721 255 255 0 255
0.132136 0.141629 2.13895 -0.177421 0.408792 -0.895216 255 255 0 255
-0.257692 0.099097 2.26135 -0.166708 -0.143193 -0.975553 0 255 0 255
-0.192297 0.096565 2.27567 -0.89905 0.227951 -0.373827 0 255 0 255
-0.199618 0.101383 2.29315 0.902031 -0.431339 -0.0169295 0 255 0 255
-0.194057 0.102865 2.3015 0.919087 -0.376834 -0.115222 0 255 0 255
-0.189351 0.104572 2.31047 0.929426 -0.269383 -0.252189 0 255 0 255
-0.185505 0.106502 2.32004 0.963299 -0.162487 -0.213664 0 255 0 255
-0.185107 0.109313 2.33201 0.865437 -0.149423 -0.478217 0 255 0 255
-0.178672 0.110586 2.3398 0.778328 -0.100182 -0.619814 0 255 0 255
-0.16964 0.111207 2.34584 0.796203 -0.180828 -0.577375 0 255 0 255
-0.168379 0.1138 2.35721 0.813272 -0.311814 -0.491286 0 255 0 255
-0.163659 0.115521 2.36622 0.725012 -0.390688 -0.567205 0 255 0 255
-0.154607 0.116158 2.37232 0.481435 -0.310097 -0.819793 0 255 0 255
-0.142077 0.115936 2.37613 0.392466 -0.300522 -0.869285 0 255 0 255
-0.133869 0.116808 2.38289 0.440965 -0.143659 -0.885952 0 255 0 255
-0.120442 0.116392 2.38622 0.341252 -0.2995 -0.890981 0 255 0 255
-0.109604 0.116636 2.39134 0.491085 -0.0410327 -0.870145 0 255 0 255
-0.097014 0.11646 2.39535 0.571334 -0.190618 -0.798275 0 255 0 255
-0.086148 0.116724 2.40056 0.343621 -0.106046 -0.933102 0 255 0 255
-0.077882 0.117639 2.40752 0.426457 -0.176591 -0.887102 0 255 0 255
-0.304785 0.256752 2.226 -0.0114712 0.0386511 0.999187 255 0 0 255
-0.298715 0.256767 2.226 -0.0114712 0.0386512 0.999187 255 0 0 255
-0.29238 0.256551 2.224 0.291932 0.149044 0.944755 255 0 0 255
-0.286056 0.256335 2.222 -0.0230324 0.305282 0.951984 255 0 0 255
-0.280246 0.25658 2.224 -0.575291 0.228707 0.785323 255 0 0 255
-0.27504 0.257402 2.231 -0.606506 0.213804 0.765792 255 0 0 255
-0.269313 0.257762 2.234 -0.269924 0.325984 0.906022 255 0 0 255
-0.263332 0.257891 2.235 -0.308313 0.443945 0.841342 255 0 0 255
-0.257346 0.25802 2.236 -0.43191 0.457785 0.777101 255 0 0 255
-0.25169 0.258494 2.24 -0.536311 0.360094 0.76335 255 0 0 255
-0.246122 0.259084 2.245 -0.642893 0.301695 0.704037 255 0 0 255
-0.240738 0.259905 2.252 -0.748308 0.17343 0.64028 255 0 0 255
-0.235212 0.26061 2.258 -0.355375 -0.431182 0.829332 255 0 0 255
-0.229348 0.260968 2.261 -0.268458 -0.248242 0.930756 255 0 0 255
-0.220702 0.258095 2.236 0.953257 0.000619747 0.30216 255 0 0 255
-0.213344 0.256605 2.223 0.791885 0.0591938 0.607795 255 0 0 255
-0.20671 0.255924 2.217 0.662993 -0.0672186 0.745602 255 0 0 255
-0.200107 0.255242 2.211 0.777378 -0.113924 0.618631 255 0 0 255
-0.193185 0.254098 2.201 0.858706 0.00594799 0.512435 255 0 0 255
-0.185637 0.25203 2.183 0.895674 0.163756 0.413464 255 0 0 255
-0.178351 0.250193 2.167 0.830982 0.115443 0.544189 255 0 0 255
-0.171789 0.249279 2.159 0.709727 0.0264402 0.70398 255 0 0 255
-0.1655 0.248711 2.154 0.624267 -0.0353714 0.78041 255 0 0 255
-0.159238 0.248142 2.149 0.677479 0.0273553 0.735033 255 0 0 255
-0.152931 0.247458 2.143 0.675749 0.0529212 0.735229 255 0 0 255
-0.146657 0.246773 2.137 0.643148 0.0744623 0.762113 255 0 0 255
-0.14048 0.246204 2.132 0.611254 0.118195 0.782559 255 0 0 255
-0.134394 0.245749 2.128 0.599159 0.188758 0.778061 255 0 0 255
-0.128269 0.245179 2.123 0.625911 0.265502 0.733311 255 0 0 255
-0.12217 0.244608 2.118 0.670607 0.20871 0.711847 255 0 0 255
-0.115989 0.243807 2.111 0.555762 0.162228 0.815359 255 0 0 255
-0.110106 0.243582 2.109 0.333458 0.18574 0.924287 255 0 0 255
-0.104284 0.243472 2.108 0.20356 0.191106 0.96023 255 0 0 255
-0.098466 0.243362 2.107 0.336245 0.107597 0.935608 255 0 0 255
-0.092566 0.243021 2.104 0.37963 0.0584404 0.923291 255 0 0 255
-0.086723 0.242795 2.102 0.226541 0.0628606 0.971971 255 0 0 255
-0.080967 0.2428 2.102 0.0878771 0.0684477 0.993777 255 0 0 255
-0.075212 0.242804 2.102 0.0302485 0.0908424 0.995406 255 0 0 255
-0.069389 0.242577 2.1 0.0928816 0.116051 0.988891 255 0 0 255
-0.063608 0.242466 2.099 0.0842777 0.240308 0.967031 255 0 0 255
-0.057832 0.242353 2.098 0.00213147 0.238182 0.971218 255 0 0 255
-0.052136 0.242588 2.1 -0.179566 0.251511 0.951051 255 0 0 255
-0.046429 0.242821 2.102 -0.308103 0.233523 0.922247 255 0 0 255
-0.04073 0.24317 2.105 -0.282022 0.214127 0.935207 255 0 0 255
-0.034964 0.243173 2.105 -0.310801 0.250686 0.91682 255 0 0 255
-0.029226 0.243405 2.107 -0.206355 0.251783 0.945528 255 0 0 255
-0.023455 0.243407 2.107 -0.364385 0.322739 0.873535 255 0 0 255
-0.017725 0.243986 2.112 -0.522157 0.231864 0.820726 255 0 0 255
-0.011957 0.244333 2.115 -0.441041 0.245706 0.863198 255 0 0 255
-0.00617 0.244565 2.117 -0.406289 0.183059 0.89522 255 0 0 255
-0.000371 0.244796 2.119 -0.283523 0.174251 0.943001 255 0 0 255
0.005439 0.245027 2.121 -0.356762 0.12505 0.925788 255 0 0 255
0.01127 0.245488 2.125 -0.483491 0.226251 0.845604 255 0 0 255
0.017115 0.245834 2.128 -0.55947 0.306548 0.770079 255 0 0 255
0.022987 0.246295 2.132 -0.566093 0.327714 0.756401 255 0 0 255
0.028881 0.246756 2.136 -0.332252 0.437407 0.835634 255 0 0 255
0.034747 0.246869 2.137 -0.216984 0.406193 0.887652 255 0 0 255
0.04062 0.246983 2.138 -0.350479 0.351298 0.86819 255 0 0 255
0.046541 0.247327 2.141 -0.560279 0.279014 0.779897 255 0 0 255
0.052527 0.247902 2.146 -0.613302 0.2555 0.747383 255 0 0 255
0.05854 0.248476 2.151 -0.615967 0.301926 0.727616 255 0 0 255
0.064611 0.249166 2.157 -0.528762 0.349839 0.77332 255 0 0 255
0.070583 0.249393 2.159 -0.441384 0.302767 0.844697 255 0 0 255
0.076602 0.249736 2.162 -0.432301 0.396356 0.80995 255 0 0 255
0.082598 0.249962 2.164 -0.524561 0.38963 0.756984 255 0 0 255
0.088728 0.250535 2.169 -0.379965 0.495328 0.781202 255 0 0 255
0.09471 0.250645 2.17 0.135803 0.579199 0.803795 255 0 0 255
0.100558 0.250409 2.168 0.0171376 0.692317 0.72139 255 0 0 255
0.106592 0.250634 2.17 -0.00607647 0.823678 0.567026 255 0 0 255
0.112117 0.249704 2.162 0.205004 0.567177 0.797674 255 0 0 255
0.124583 0.250961 2.173 0.979828 -0.0698213 0.187252 255 0 0 255
0.130349 0.250608 2.17 0.601985 -0.349986 0.717721 255 0 0 255
0.135911 0.249908 2.164 0.651334 0.070632 0.755497 255 0 0 255
0.141504 0.249323 2.159 0.794751 0.102278 0.598256 255 0 0 255
0.147002 0.248622 2.153 0.697178 -0.213292 0.684433 255 0 0 255
0.152537 0.248036 2.148 0.550962 -0.25759 0.793781 255 0 0 255
0.158118 0.247566 2.144 0.690655 -0.252857 0.677539 255 0 0 255
0.163447 0.246749 2.137 0.748124 -0.176362 0.639693 255 0 0 255
0.168895 0.246163 2.132 0.747003 -0.15069 0.647518 255 0 0 255
0.174152 0.245345 2.125 0.549252 -0.148819 0.822299 255 0 0 255
0.179708 0.244989 2.122 0.17179 -0.350679 0.920605 255 0 0 255
0.18551 0.244979 2.122 0.131993 -0.438367 0.889052 255 0 0 255
0.19113 0.244738 2.12 0.71963 -0.124978 0.683018 255 0 0 255
0.196089 0.243689 2.111 0.679309 -0.155682 0.717149 255 0 0 255
-0.106626 0.167274 2.39032 0.210864 -0.482013 -0.850412 255 255 0 255
-0.099468 0.166062 2.38225 -0.133991 -0.791899 -0.59577 255 255 0 255
-0.088054 0.165674 2.37712 -0.293592 -0.698933 -0.652148 255 255 0 255
-0.074953 0.165624 2.3732 -0.170236 -0.705644 -0.687813 255 255 0 255
-0.056767 0.166574 2.37286 -0.100611 -0.674873 -0.731043 255 255 0 255
-0.042013 0.166878 2.37025 -0.170279 -0.595761 -0.784904 255 255 0 255
-0.029829 0.166696 2.36593 -0.212849 -0.532176 -0.819441 255 255 0 255
-0.015967 0.166857 2.36285 -0.0837724 -0.502689 -0.860399 255 255 0 255
0.002108 0.167862 2.36281 -0.248817 -0.590458 -0.767756 255 255 0 255
0.010843 0.167044 2.35627 -0.78149 -0.286961 -0.554009 255 255 0 255
0.014495 0.165226 2.34613 -0.705911 0.277974 -0.651475 255 255 0 255
0.024058 0.164586 2.34023 -0.572666 0.310234 -0.75882 255 255 0 255
0.035295 0.164288 2.33559 -0.421918 0.286389 -0.860213 255 255 0 255
0.048202 0.164338 2.33221 -0.692344 0.0932803 -0.715513 255 255 0 255
0.051828 0.162534 2.32214 -0.834922 -0.150006 -0.529532 255 255 0 255
0.056296 0.1609 2.31269 -0.954283 -0.291475 -0.066229 255 255 0 255
0.054041 0.157906 2.2983 -0.954805 -0.251454 -0.15849 255 255 0 255
0.059351 0.156442 2.28946 -0.932677 -0.0574519 -0.356108 255 255 0 255
0.064657 0.15498 2.28063 -0.953422 -0.132167 -0.271143 255 255 0 255
0.086679 0.128787 2.14279 0.110623 0.284181 -0.952367 255 255 0 255
0.110993 0.131404 2.14903 -0.0669192 0.352796 -0.933304 255 255 0 255
0.117099 0.13014 2.14092 -0.252781 0.282976 -0.925217 255 255 0 255
0.128973 0.130124 2.13745 -0.286718 0.0381106 -0.957257 255 255 0 255
0.141652 0.130295 2.13469 -0.0475695 0.266197 -0.962744 255 255 0 255
-0.273855 0.089789 2.26215 0.60413 0.18973 -0.77397 0 255 0 255
-0.266644 0.090762 2.26906 -0.064451 -0.101932 -0.992701 0 255 0 255
-0.191017 0.085354 2.27601 -0.904009 0.160048 -0.396426 0 255 0 255
-0.19747 0.089979 2.29288 -0.980942 0.143229 -0.13129 0 255 0 255
-0.196204 0.092577 2.30427 0.916764 -0.299452 -0.264334 0 255 0 255
-0.19236 0.094502 2.31384 0.920953 -0.281129 -0.269836 0 255 0 255
-0.190238 0.096875 2.32461 0.911113 -0.32792 -0.249682 0 255 0 255
-0.187255 0.099024 2.33477 0.833307 -0.304067 -0.461675 0 255 0 255
-0.17996 0.100064 2.34197 0.741323 -0.253914 -0.621263 0 255 0 255
-0.172658 0.10111 2.3492 0.843792 -0.189902 -0.501948 0 255 0 255
-0.170532 0.103487 2.35998 0.862091 -0.08549 -0.499491 0 255 0 255
-0.162355 0.104321 2.36665 0.776152 -0.0994662 -0.622651 0 255 0 255
-0.152438 0.104722 2.37218 0.47312 -0.24319 -0.846768 0 255 0 255
-0.140777 0.104693 2.37659 0.419654 -0.362705 -0.832067 0 255 0 255
-0.130836 0.105114 2.38221 0.411578 -0.386572 -0.825328 0 255 0 255
-0.120882 0.105543 2.38787 0.223279 -0.28266 -0.932872 0 255 0 255
-0.107442 0.105111 2.39127 0.424378 -0.05894 -0.903565 0 255 0 255
-0.09833 0.105777 2.39759 0.460222 -0.167221 -0.871913 0 255 0 255
-0.084859 0.105369 2.4011 0.296885 -0.059014 -0.953088 0 255 0 255
-0.076594 0.10627 2.40807 0.235268 -0.0452379 -0.970877 0 255 0 255
-0.067448 0.106963 2.4145 -0.152249 -0.24532 -0.957412 0 255 0 255
-0.304252 0.250226 2.222 -0.39174 -0.252611 0.884719 255 0 0 255
-0.298998 0.250916 2.228 -0.259032 -0.184491 0.948085 255 0 0 255
-0.292789 0.250818 2.227 0.0780693 0.0778143 0.993906 255 0 0 255
-0.286456 0.250607 2.225 -0.0495115 0.118356 0.991736 255 0 0 255
-0.280638 0.250847 2.227 -0.583461 0.130609 0.80157 255 0 0 255
-0.275177 0.251424 2.232 -0.639033 0.138712 0.756568 255 0 0 255
-0.269447 0.251775 2.235 -0.353662 0.108384 0.929073 255 0 0 255
-0.263464 0.251901 2.236 -0.357753 0.174963 0.917279 255 0 0 255
-0.257705 0.252252 2.239 -0.451492 0.174289 0.875088 255 0 0 255
-0.251928 0.252603 2.242 -0.61509 0.176109 0.768537 255 0 0 255
-0.246463 0.253292 2.248 -0.649954 0.116055 0.75106 255 0 0 255
-0.240644 0.253643 2.251 -0.728656 0.115714 0.675034 255 0 0 255
-0.235224 0.254444 2.258 -0.442483 -0.192218 0.875934 255 0 0 255
-0.228649 0.254005 2.254 -0.000779679 -0.355663 0.934614 255 0 0 255
-0.22101 0.252326 2.239 0.878056 0.228339 0.420569 255 0 0 255
-0.213452 0.250647 2.224 0.848957 0.114215 0.515971 255 0 0 255
-0.206627 0.249756 2.216 0.753717 -0.0120365 0.657088 255 0 0 255
-0.199936 0.248978 2.209 0.750852 -0.125913 0.648358 255 0 0 255
-0.193195 0.248087 2.201 0.793466 -0.0552246 0.606104 255 0 0 255
-0.185817 0.246293 2.185 0.886385 0.177343 0.427634 255 0 0 255
-0.178525 0.244499 2.169 0.836732 0.214586 0.503819 255 0 0 255
-0.171718 0.243268 2.158 0.757115 0.1269 0.640838 255 0 0 255
-0.165432 0.242714 2.153 0.67644 -0.0174433 0.736291 255 0 0 255
-0.159172 0.242159 2.148 0.619929 0.0356774 0.783846 255 0 0 255
-0.152939 0.241603 2.143 0.644831 0.068235 0.761274 255 0 0 255
-0.146733 0.241048 2.138 0.643953 0.1206 0.7555 255 0 0 255
-0.140554 0.240492 2.133 0.581422 0.135736 0.802199 255 0 0 255
-0.134528 0.240161 2.13 0.5521 0.196936 0.810186 255 0 0 255
-0.128457 0.239717 2.126 0.622169 0.220365 0.751229 255 0 0 255
-0.122292 0.239047 2.12 0.687215 0.201083 0.698069 255 0 0 255
-0.11616 0.238377 2.114 0.58028 0.226167 0.782384 255 0 0 255
-0.110269 0.238158 2.112 0.250336 0.294679 0.922224 255 0 0 255
-0.104388 0.237938 2.11 0.194156 0.324718 0.925668 255 0 0 255
-0.098565 0.237831 2.109 0.349046 0.303875 0.886469 255 0 0 255
-0.092615 0.237385 2.105 0.415907 0.272673 0.867566 255 0 0 255
-0.086769 0.237164 2.103 0.261261 0.248433 0.932751 255 0 0 255
-0.080972 0.237056 2.102 0.0306358 0.276424 0.960547 255 0 0 255
-0.075216 0.23706 2.102 0.0310199 0.284175 0.95827 255 0 0 255
-0.069492 0.237177 2.103 0.119671 0.306294 0.944385 255 0 0 255
-0.063733 0.237181 2.103 0.0103612 0.47079 0.882185 255 0 0 255
-0.057973 0.237184 2.103 -0.0503028 0.517055 0.854473 255 0 0 255
-0.052214 0.237187 2.103 -0.123597 0.511902 0.850106 255 0 0 255
-0.046476 0.237303 2.104 -0.200718 0.356506 0.912478 255 0 0 255
-0.040732 0.237418 2.105 -0.174628 0.241156 0.954646 255 0 0 255
-0.034999 0.237645 2.107 -0.340982 0.208113 0.916744 255 0 0 255
-0.029283 0.238098 2.111 -0.28578 0.330472 0.89951 255 0 0 255
