ply
format ascii 1.0
comment VCGLIB generated
element vertex 719
property float x
property float y
property float z
property float nx
property float ny
property float nz
property uchar red
property uchar green
property uchar blue
property uchar alpha
element face 0
property list uchar int vertex_indices
end_header
0.030161 -0.035599 2.228 -0.456101 0.485937 0.745544 255 0 0 255
0.036353 -0.035678 2.233 -0.377523 0.301347 0.875595 255 0 0 255
0.042495 -0.035694 2.234 -0.351042 0.356079 0.866012 255 0 0 255
0.048708 -0.035758 2.238 -0.301757 0.582201 0.754973 255 0 0 255
0.05487 -0.035773 2.239 -0.295647 0.695145 0.65526 255 0 0 255
0.061173 -0.035868 2.245 -0.296814 0.667653 0.682745 255 0 0 255
0.067208 -0.035804 2.241 -0.320289 0.477839 0.817976 255 0 0 255
0.073549 -0.035899 2.247 -0.137029 0.402735 0.905001 255 0 0 255
0.079639 -0.035867 2.245 -0.230763 0.376429 0.897245 255 0 0 255
-0.18275 -0.352215 2.64269 0.518909 -0.346484 -0.781461 255 255 0 255
-0.183988 -0.355784 2.62894 0.518909 -0.346484 -0.781461 255 255 0 255
-0.159795 -0.35091 2.6304 -0.00170685 -0.448732 -0.893665 255 255 0 255
-0.144956 -0.349118 2.62637 -0.0650523 -0.557704 -0.827487 255 255 0 255
-0.067389 -0.360591 2.51944 0.113173 -0.27696 -0.954193 255 255 0 255
-0.075296 -0.366468 2.50133 0.229101 -0.363963 -0.902798 255 255 0 255
-0.050657 -0.361115 2.50442 0.0197585 -0.391879 -0.919804 255 255 0 255
-0.026898 -0.356029 2.50708 0.0222287 -0.324785 -0.945527 255 255 0 255
0.000147 -0.349764 2.51207 -0.868803 -0.467994 -0.161749 255 255 0 255
-0.002782 -0.3539 2.4973 -0.822065 -0.420619 -0.383783 255 255 0 255
0.010078 -0.352532 2.49304 -0.328816 -0.0852447 -0.940539 255 255 0 255
0.045679 -0.346276 2.49142 -0.357729 0.880536 -0.310943 255 255 0 255
0.035297 -0.35303 2.47159 -0.670401 0.68931 -0.274618 255 255 0 255
0.04809 -0.35163 2.46752 0.859805 -0.50722 -0.0588578 255 255 0 255
0.022879 -0.363661 2.43737 -0.915072 0.0394357 -0.401359 255 255 0 255
0.0299 -0.36431 2.4293 -0.0142319 0.212957 -0.976958 255 255 0 255
-0.213578 -0.382703 2.57622 0.00327426 0.294735 -0.955573 0 255 0 255
-0.229147 -0.366474 2.62218 0.202159 -0.686483 -0.698479 0 255 0 255
-0.21513 -0.368724 2.62562 0.0890469 -0.397019 -0.91348 0 255 0 255
-0.190902 -0.374997 2.62293 0.420656 -0.0158784 -0.907081 0 255 0 255
-0.184488 -0.374189 2.63117 0.400777 0.326209 -0.856134 0 255 0 255
-0.166156 -0.378072 2.63226 0.0664847 0.0027107 -0.997784 0 255 0 255
-0.152055 -0.380262 2.63599 0.0921381 -0.150642 -0.984285 0 255 0 255
-0.346623 -0.042969 2.3 0.713149 0.282518 0.641562 255 0 0 255
-0.339316 -0.042841 2.293 0.465659 0.351742 0.812059 255 0 0 255
-0.332626 -0.042788 2.29 0.118523 0.398398 0.909523 255 0 0 255
-0.326807 -0.042847 2.293 -0.627592 0.228106 0.744377 255 0 0 255
-0.322508 -0.043112 2.307 -0.946702 0.13336 0.293209 255 0 0 255
-0.304014 -0.043176 2.31 0.742868 0.507246 0.436862 255 0 0 255
-0.296805 -0.043048 2.303 0.668123 0.396279 0.629741 255 0 0 255
-0.256165 -0.043645 2.334 0.692931 0.293675 0.658484 255 0 0 255
-0.248714 -0.04346 2.324 0.471445 0.419023 0.775989 255 0 0 255
-0.242256 -0.043444 2.323 0.017958 0.478528 0.877889 255 0 0 255
-0.236411 -0.043539 2.328 0.00478759 0.333268 0.94282 255 0 0 255
-0.229649 -0.043467 2.324 0.323797 0.440555 0.837297 255 0 0 255
-0.223003 -0.043413 2.321 0.540283 0.272115 0.796271 255 0 0 255
-0.215907 -0.043265 2.313 0.463791 0.292293 0.836339 255 0 0 255
-0.209488 -0.043249 2.312 0.278757 0.374755 0.884225 255 0 0 255
-0.20281 -0.043176 2.308 0.194521 0.409836 0.891177 255 0 0 255
-0.196578 -0.043196 2.309 0.0186681 0.45109 0.892283 255 0 0 255
-0.190176 -0.043179 2.308 0.103259 0.373963 0.921677 255 0 0 255
-0.183858 -0.043181 2.308 0.310394 0.31516 0.896844 255 0 0 255
-0.177077 -0.043071 2.302 0.202191 0.238264 0.94992 255 0 0 255
-0.170848 -0.043091 2.303 -0.15702 0.376882 0.912855 255 0 0 255
-0.164542 -0.043093 2.303 -0.20711 0.491394 0.845954 255 0 0 255
-0.158578 -0.043188 2.308 -0.336177 0.547812 0.766085 255 0 0 255
-0.152388 -0.043227 2.31 -0.236654 0.590486 0.771571 255 0 0 255
-0.14606 -0.043228 2.31 0.227847 0.652635 0.722601 255 0 0 255
-0.139369 -0.043117 2.304 0.597154 0.522557 0.608557 255 0 0 255
-0.132479 -0.042931 2.294 0.55948 0.592656 0.579432 255 0 0 255
-0.125698 -0.042764 2.285 -0.0255652 0.802128 0.596605 255 0 0 255
-0.119437 -0.042765 2.285 -0.326691 0.624712 0.709231 255 0 0 255
-0.113373 -0.042841 2.289 -0.700166 0.321505 0.637497 255 0 0 255
-0.107614 -0.043048 2.3 -0.776852 0.350951 0.522814 255 0 0 255
-0.102147 -0.043405 2.319 -0.692754 0.248211 0.677114 255 0 0 255
-0.09612 -0.043556 2.327 -0.515831 0.134401 0.846082 255 0 0 255
-0.089587 -0.043482 2.323 -0.0630506 0.53694 0.841261 255 0 0 255
-0.082395 -0.043052 2.3 0.867362 0.353692 0.35012 255 0 0 255
-0.075659 -0.042809 2.287 0.838655 0.374256 0.395714 255 0 0 255
-0.069025 -0.042586 2.275 0.767606 0.346116 0.53943 255 0 0 255
-0.062566 -0.042436 2.267 0.683525 0.370696 0.628791 255 0 0 255
-0.056176 -0.042306 2.26 0.568184 0.50698 0.648181 255 0 0 255
-0.04989 -0.042232 2.256 0.519057 0.530966 0.669817 255 0 0 255
-0.043607 -0.042139 2.251 0.501804 0.395683 0.769174 255 0 0 255
-0.037334 -0.042027 2.245 0.516709 0.310705 0.797793 255 0 0 255
-0.031136 -0.041971 2.242 0.57101 0.123784 0.811557 255 0 0 255
-0.024932 -0.041877 2.237 0.629563 0.101909 0.770237 255 0 0 255
-0.018755 -0.041784 2.232 0.714922 0.212142 0.666245 255 0 0 255
-0.012583 -0.041616 2.223 0.525567 0.462939 0.713769 255 0 0 255
-0.00648 -0.041578 2.221 0.0293549 0.435806 0.899562 255 0 0 255
-0.000389 -0.041597 2.222 -0.164272 0.226933 0.959956 255 0 0 255
0.005707 -0.041616 2.223 -0.312059 0.212953 0.925889 255 0 0 255
0.01182 -0.041672 2.226 -0.170291 0.357641 0.918201 255 0 0 255
0.017932 -0.04169 2.227 -0.213338 0.582913 0.784027 255 0 0 255
0.024083 -0.041765 2.231 -0.245571 0.570355 0.78383 255 0 0 255
0.030202 -0.041765 2.231 -0.206831 0.437735 0.874991 255 0 0 255
0.036352 -0.041802 2.233 -0.178574 0.141158 0.973748 255 0 0 255
0.042457 -0.041783 2.232 -0.427096 0.0812588 0.900548 255 0 0 255
0.04873 -0.041913 2.239 -0.623233 0.166039 0.764207 255 0 0 255
0.054992 -0.042007 2.244 -0.631788 0.192412 0.750881 255 0 0 255
0.061336 -0.042137 2.251 -0.234911 0.395873 0.887751 255 0 0 255
0.067418 -0.04208 2.248 -0.149042 0.47695 0.866202 255 0 0 255
0.073614 -0.042098 2.249 -0.131897 0.57565 0.806988 255 0 0 255
0.079851 -0.042135 2.251 -0.297165 0.565376 0.769444 255 0 0 255
0.087512 -0.042864 2.29 -0.948646 0.153095 0.276824 255 0 0 255
-0.181699 -0.363654 2.64484 -0.171178 0.0521851 -0.983857 255 255 0 255
-0.195653 -0.371496 2.62352 0.313952 0.0521109 -0.948008 255 255 0 255
-0.162985 -0.363723 2.63 -0.138284 -0.214245 -0.966942 255 255 0 255
-0.09225 -0.380832 2.50478 0.0783653 -0.378806 -0.922152 255 255 0 255
-0.052963 -0.3735 2.50429 0.018699 -0.475201 -0.879679 255 255 0 255
0.000761 -0.357865 2.52664 0.962438 -0.270055 -0.0279964 255 255 0 255
0.002816 -0.360266 2.51519 -0.907065 -0.256758 -0.333629 255 255 0 255
-0.003433 -0.365589 2.49822 -0.9814 0.00841864 -0.191787 255 255 0 255
0.005276 -0.365656 2.49117 -0.869733 -0.481838 -0.106756 255 255 0 255
0.011068 -0.369883 2.46933 0.930072 0.325128 -0.171049 255 255 0 255
0.02141 -0.369351 2.46346 0.949524 -0.307515 -0.0619509 255 255 0 255
0.00282 -0.379116 2.43786 0.0286868 -0.768743 -0.638915 255 255 0 255
0.013164 -0.378586 2.43199 -0.0728187 -0.455048 -0.887484 255 255 0 255
0.027615 -0.376573 2.42901 0.0261334 -0.323895 -0.945732 255 255 0 255
-0.161336 -0.418538 2.53263 0.089385 -0.622825 -0.777238 0 255 0 255
-0.20682 -0.393362 2.58563 0.659855 -0.0948324 -0.745385 0 255 0 255
-0.238519 -0.377246 2.6174 0.777749 -0.303365 -0.550524 0 255 0 255
-0.23808 -0.374097 2.62915 0.777748 -0.303365 -0.550524 0 255 0 255
-0.210506 -0.381819 2.62428 0.00775373 -0.179192 -0.983784 0 255 0 255
-0.193925 -0.385101 2.62628 0.146226 -0.167345 -0.974994 0 255 0 255
-0.173921 -0.389721 2.62629 0.182445 -0.0581721 -0.981494 0 255 0 255
-0.157288 -0.392968 2.62846 0.20106 -0.301788 -0.931933 0 255 0 255
-0.145738 -0.394173 2.63376 0.59719 -0.48531 -0.638622 0 255 0 255
-0.141839 -0.392335 2.64366 0.554061 -0.694342 -0.459245 0 255 0 255
-0.138791 -0.390159 2.65408 0.198411 -0.600037 -0.774977 0 255 0 255
-0.347524 -0.049392 2.306 0.683848 0.388061 0.617868 255 0 0 255
-0.339756 -0.049181 2.296 0.49371 0.418886 0.762092 255 0 0 255
-0.332914 -0.049099 2.292 0.183878 0.423438 0.887068 255 0 0 255
-0.326662 -0.049102 2.292 0.0789487 0.322512 0.943267 255 0 0 255
-0.322366 -0.049405 2.306 -0.87957 0.129773 0.457729 255 0 0 255
-0.320596 -0.050116 2.339 0.895466 0.443502 0.0380464 255 0 0 255
-0.315422 -0.050312 2.348 -0.792383 -0.510806 0.333477 255 0 0 255
-0.305327 -0.049715 2.32 0.74437 0.587543 0.317343 255 0 0 255
-0.297576 -0.049482 2.309 0.762168 0.457095 0.458436 255 0 0 255
-0.256601 -0.050124 2.338 0.710124 0.300528 0.636716 255 0 0 255
-0.249247 -0.049934 2.329 0.508315 0.387321 0.769155 255 0 0 255
-0.242462 -0.049851 2.325 0.109784 0.25809 0.959863 255 0 0 255
-0.236409 -0.049917 2.328 0.0980953 0.0802995 0.991932 255 0 0 255
-0.229646 -0.049834 2.324 0.457154 -0.0274707 0.888963 255 0 0 255
-0.222809 -0.049729 2.319 0.551177 0.122461 0.825353 255 0 0 255
-0.216092 -0.049646 2.315 0.423079 0.228839 0.87672 255 0 0 255
-0.209667 -0.049627 2.314 0.306218 0.362931 0.880063 255 0 0 255
-0.203071 -0.049565 2.311 0.208442 0.476045 0.854361 255 0 0 255
-0.196661 -0.049545 2.31 0.127796 0.488402 0.86321 255 0 0 255
-0.190339 -0.049547 2.31 0.133607 0.438108 0.888938 255 0 0 255
-0.183776 -0.049485 2.307 0.421371 0.333905 0.843181 255 0 0 255
-0.177229 -0.049423 2.304 0.209015 0.362109 0.9084 255 0 0 255
-0.170921 -0.049425 2.304 -0.122376 0.378327 0.917547 255 0 0 255
-0.164754 -0.049469 2.306 -0.305316 0.344239 0.887852 255 0 0 255
-0.158714 -0.049557 2.31 -0.390886 0.351241 0.850786 255 0 0 255
-0.152584 -0.049623 2.313 -0.0217598 0.314795 0.94891 255 0 0 255
-0.146312 -0.049646 2.314 0.170127 0.321107 0.931637 255 0 0 255
-0.139609 -0.049519 2.308 0.591108 0.257415 0.764414 255 0 0 255
-0.132824 -0.049349 2.3 0.674622 0.349538 0.65016 255 0 0 255
-0.126137 -0.0492 2.293 0.372985 0.586976 0.718569 255 0 0 255
-0.119697 -0.049137 2.29 0.173324 0.547287 0.818802 255 0 0 255
-0.11357 -0.049203 2.293 -0.586706 0.427034 0.688053 255 0 0 255
-0.107753 -0.049419 2.303 -0.778966 0.269149 0.566366 255 0 0 255
-0.10219 -0.049785 2.32 -0.640932 0.119181 0.758289 255 0 0 255
-0.096202 -0.049979 2.329 -0.445036 0.085608 0.891411 255 0 0 255
-0.089741 -0.049937 2.327 -0.159858 0.0487993 0.985933 255 0 0 255
-0.082716 -0.049552 2.309 0.911234 0.167605 0.376247 255 0 0 255
-0.075758 -0.049145 2.29 0.859654 0.330608 0.389477 255 0 0 255
-0.068994 -0.048802 2.274 0.775677 0.319628 0.544209 255 0 0 255
-0.062648 -0.048717 2.27 0.683042 0.321753 0.65569 255 0 0 255
-0.056275 -0.048589 2.264 0.6246 0.241169 0.742773 255 0 0 255
-0.050023 -0.048547 2.262 0.619383 0.221025 0.753335 255 0 0 255
-0.043665 -0.048376 2.254 0.657974 0.255431 0.708396 255 0 0 255
-0.037401 -0.048269 2.249 0.66136 0.235534 0.712128 255 0 0 255
-0.03115 -0.04814 2.243 0.672692 0.0899616 0.734433 255 0 0 255
-0.024965 -0.048076 2.24 0.594112 0.115045 0.796113 255 0 0 255
-0.018789 -0.047991 2.236 0.640826 0.06893 0.764585 255 0 0 255
-0.012617 -0.047841 2.229 0.658805 0.188986 0.72819 255 0 0 255
-0.006492 -0.047755 2.225 0.233302 0.220066 0.947175 255 0 0 255
-0.00039 -0.047734 2.224 -0.240623 0.259632 0.93525 255 0 0 255
0.005717 -0.047798 2.227 -0.311865 0.432752 0.845852 255 0 0 255
0.011841 -0.047862 2.23 -0.307185 0.4485 0.839336 255 0 0 255
0.017973 -0.047905 2.232 -0.211373 0.443346 0.871072 255 0 0 255
0.024115 -0.047948 2.234 -0.217276 0.280818 0.934843 255 0 0 255
0.030228 -0.047926 2.233 -0.0616398 0.31341 0.947615 255 0 0 255
0.036352 -0.047925 2.233 -0.0821791 0.205515 0.975198 255 0 0 255
0.042494 -0.047946 2.234 -0.457265 0.178887 0.871153 255 0 0 255
0.048773 -0.048096 2.241 -0.646549 0.0851268 0.758108 255 0 0 255
0.05504 -0.048203 2.246 -0.648147 0.0614979 0.759028 255 0 0 255
0.061335 -0.04831 2.251 -0.458464 0.0111045 0.888644 255 0 0 255
0.067507 -0.048309 2.251 -0.329531 0.0104828 0.944086 255 0 0 255
0.073842 -0.048415 2.256 -0.346831 0.381531 0.856821 255 0 0 255
0.080134 -0.048479 2.259 -0.567614 0.39995 0.719621 255 0 0 255
-0.182727 -0.378985 2.63275 0.316601 0.235783 -0.918787 255 255 0 255
-0.161938 -0.375132 2.63214 -0.0530787 0.0995276 -0.993618 255 255 0 255
-0.0887 -0.391292 2.50849 0.299074 -0.315979 -0.900395 255 255 0 255
-0.065714 -0.38641 2.51036 0.212486 -0.358981 -0.908836 255 255 0 255
-0.040271 -0.380629 2.51398 0.114356 -0.464183 -0.878326 255 255 0 255
-0.007388 -0.372178 2.52265 -0.924951 0.349587 -0.149179 255 255 0 255
0.001328 -0.372233 2.51557 -0.770336 0.337188 -0.54119 255 255 0 255
0.010033 -0.372283 2.50852 -0.876715 -0.0687831 -0.476066 255 255 0 255
0.01375 -0.374098 2.49817 -0.84021 -0.116941 -0.529502 255 255 0 255
0.014982 -0.376801 2.48616 -0.880753 -0.458312 -0.119264 255 255 0 255
-0.006126 -0.387501 2.45903 0.662262 -0.710405 -0.238188 255 255 0 255
-0.00486 -0.39022 2.44693 0.0151985 0.946632 -0.321957 255 255 0 255
0.012925 -0.387002 2.44609 0.0404102 -0.968646 -0.245135 255 255 0 255
0.024907 -0.385851 2.44137 0.201659 -0.738364 -0.643547 255 255 0 255
-0.241632 -0.400576 2.57253 0.153193 -0.300926 -0.941263 0 255 0 255
-0.227526 -0.389561 2.62414 0.119176 0.0745873 -0.990068 0 255 0 255
-0.193553 -0.396567 2.62756 0.159155 -0.211642 -0.964301 0 255 0 255
-0.191387 -0.394075 2.63837 0.684194 -0.302218 -0.663734 0 255 0 255
-0.174777 -0.397373 2.6405 0.109055 -0.620574 -0.776528 0 255 0 255
-0.161545 -0.399294 2.64475 -0.0674307 -0.854113 -0.515698 0 255 0 255
-0.149997 -0.400523 2.65006 0.517476 -0.50733 -0.689083 0 255 0 255
-0.144398 -0.399369 2.65896 0.192478 -0.525343 -0.828835 0 255 0 255
-0.120887 -0.405319 2.65735 0.0849429 -0.352265 -0.932038 0 255 0 255
-0.340197 -0.055538 2.299 0.51373 0.494508 0.701101 255 0 0 255
-0.333346 -0.055445 2.295 0.250772 0.437284 0.863653 255 0 0 255
-0.327228 -0.055473 2.296 -0.711404 0.345551 0.611964 255 0 0 255
-0.322502 -0.055742 2.307 -0.833124 0.199773 0.515747 255 0 0 255
-0.319222 -0.056277 2.329 -0.92356 -0.349336 0.158119 255 0 0 255
-0.314881 -0.056643 2.344 -0.702837 -0.636375 0.317879 255 0 0 255
-0.306772 -0.056333 2.331 -0.0133276 0.795878 0.605311 255 0 0 255
-0.299248 -0.056119 2.322 0.866592 0.401208 0.296733 255 0 0 255
-0.256818 -0.056577 2.34 0.685415 0.325571 0.651314 255 0 0 255
-0.249351 -0.056338 2.33 0.578733 0.368702 0.727411 255 0 0 255
-0.242772 -0.056292 2.328 0.335088 0.233111 0.912894 255 0 0 255
-0.236203 -0.056247 2.326 0.269612 -0.0404819 0.962118 255 0 0 255
-0.229743 -0.056225 2.325 0.423031 -0.0196572 0.905902 255 0 0 255
-0.223095 -0.056156 2.322 0.463569 0.0486642 0.884724 255 0 0 255
-0.216462 -0.056086 2.319 0.307924 0.200085 0.930134 255 0 0 255
-0.210118 -0.056088 2.319 0.231795 0.292174 0.92785 255 0 0 255
-0.20342 -0.055994 2.315 0.101238 0.426735 0.898693 255 0 0 255
-0.19717 -0.056021 2.316 0.155125 0.46999 0.868933 255 0 0 255
-0.190748 -0.055999 2.315 0.261111 0.424666 0.866879 255 0 0 255
-0.184172 -0.055929 2.312 0.3671 0.372323 0.852416 255 0 0 255
-0.177535 -0.055834 2.308 0.0344737 0.559637 0.828021 255 0 0 255
-0.171141 -0.055812 2.307 -0.116277 0.546429 0.829395 255 0 0 255
-0.165038 -0.055887 2.31 -0.239264 0.65573 0.71608 255 0 0 255
-0.15878 -0.055913 2.311 -0.218975 0.642879 0.734 255 0 0 255
-0.152715 -0.056012 2.315 -0.170197 0.527813 0.832134 255 0 0 255
-0.146247 -0.055965 2.313 0.188823 0.192205 0.963018 255 0 0 255
-0.139729 -0.055894 2.31 0.620504 0.165677 0.766502 255 0 0 255
-0.132938 -0.055702 2.302 0.656691 0.28498 0.698243 255 0 0 255
-0.126355 -0.055583 2.297 0.37026 0.502434 0.781325 255 0 0 255
-0.1198 -0.055464 2.292 -0.0398735 0.58752 0.808227 255 0 0 255
-0.113667 -0.055538 2.295 -0.470722 0.563824 0.678618 255 0 0 255
-0.107799 -0.055757 2.304 -0.655927 0.392738 0.644605 255 0 0 255
-0.102232 -0.05617 2.321 -0.689714 -0.147279 0.708946 255 0 0 255
-0.096201 -0.056365 2.329 -0.554507 -0.137658 0.820714 255 0 0 255
-0.089739 -0.056317 2.327 -0.167533 0.0801827 0.9826 255 0 0 255
-0.082823 -0.055955 2.312 0.896577 0.0262398 0.442109 255 0 0 255
-0.076054 -0.055642 2.299 0.861837 0.252603 0.439806 255 0 0 255
-0.069205 -0.055207 2.281 0.804433 0.335384 0.490311 255 0 0 255
-0.06273 -0.055014 2.273 0.729882 0.270644 0.627713 255 0 0 255
-0.056324 -0.054846 2.266 0.674428 0.123085 0.728009 255 0 0 255
-0.050022 -0.054749 2.262 0.623827 -0.0574567 0.779448 255 0 0 255
-0.043703 -0.054605 2.256 0.614113 0.0299723 0.788649 255 0 0 255
-0.03745 -0.054508 2.252 0.671505 0.232149 0.703696 255 0 0 255
-0.031136 -0.054267 2.242 0.679948 0.197436 0.70618 255 0 0 255
-0.024931 -0.054146 2.237 0.640201 0.110398 0.760233 255 0 0 255
-0.018763 -0.05405 2.233 0.622709 0.0286885 0.781927 255 0 0 255
-0.012611 -0.053929 2.228 0.538352 0.0022839 0.842717 255 0 0 255
-0.006489 -0.053832 2.224 0.210749 0.346918 0.913911 255 0 0 255
-0.00039 -0.053881 2.226 -0.222529 0.369467 0.902206 255 0 0 255
0.005722 -0.053953 2.229 -0.325382 0.446031 0.833776 255 0 0 255
0.011862 -0.054074 2.234 -0.217808 0.3101 0.925417 255 0 0 255
0.017972 -0.054025 2.232 -0.119932 0.112411 0.986398 255 0 0 255
0.024137 -0.054122 2.236 -0.157986 0.0567317 0.98581 255 0 0 255
0.030255 -0.054097 2.235 -0.118631 0.233187 0.965169 255 0 0 255
0.0364 -0.054121 2.236 -0.0922421 0.286738 0.953558 255 0 0 255
0.042532 -0.054121 2.236 -0.351095 0.497482 0.793249 255 0 0 255
0.04875 -0.054217 2.24 -0.54682 0.419656 0.724484 255 0 0 255
0.054966 -0.054289 2.243 -0.480341 0.257473 0.838439 255 0 0 255
0.061253 -0.054409 2.248 -0.34746 -0.109959 0.931225 255 0 0 255
0.067506 -0.054481 2.251 -0.528471 -0.0133204 0.848847 255 0 0 255
0.073809 -0.054577 2.255 -0.750351 0.141461 0.645726 255 0 0 255
0.080381 -0.054842 2.266 -0.838591 0.277428 0.468828 255 0 0 255
-0.167272 -0.385539 2.64346 0.0498895 -0.379661 -0.923779 255 255 0 255
-0.044676 -0.390589 2.52542 0.126022 -0.497619 -0.858192 255 255 0 255
-0.028424 -0.387985 2.5231 -0.226223 -0.783079 -0.579319 255 255 0 255
-0.014694 -0.386257 2.51922 -0.889906 0.333599 -0.311094 255 255 0 255
-0.009294 -0.387488 2.50991 -0.581933 0.511653 -0.632111 255 255 0 255
-0.003898 -0.388717 2.50061 -0.470781 0.442931 -0.763005 255 255 0 255
0.015586 -0.384881 2.50074 -0.754679 0.138148 -0.641385 255 255 0 255
0.015162 -0.388187 2.48762 -0.64118 0.0250063 -0.766983 255 255 0 255
0.021365 -0.389107 2.47894 -0.728222 -0.619555 -0.292992 255 255 0 255
0.015994 -0.394213 2.46242 -0.324259 -0.921157 -0.215233 255 255 0 255
0.038704 -0.389142 2.46502 -0.938638 -0.342563 -0.0401232 255 255 0 255
0.030867 -0.395152 2.44678 0.940153 0.246938 -0.234807 255 255 0 255
-0.241642 -0.408455 2.58609 0.6692 -0.440097 -0.598736 0 255 0 255
-0.231828 -0.402402 2.61621 0.698507 0.373732 -0.610256 0 255 0 255
-0.212758 -0.406828 2.61655 0.226066 0.356182 -0.906658 0 255 0 255
-0.211448 -0.403995 2.62786 0.16598 -0.0858785 -0.982383 0 255 0 255
-0.189794 -0.409425 2.62679 0.256048 0.452194 -0.854377 0 255 0 255
-0.188471 -0.406583 2.63813 0.881891 0.403623 -0.243634 0 255 0 255
-0.186302 -0.404087 2.64896 0.270045 -0.888552 -0.37088 0 255 0 255
-0.173934 -0.405703 2.65369 -0.00164936 -0.79893 -0.601421 0 255 0 255
-0.155595 -0.409702 2.65495 0.119823 -0.402173 -0.907689 0 255 0 255
-0.140635 -0.412315 2.6583 0.0926381 -0.236171 -0.967286 0 255 0 255
-0.341524 -0.062071 2.308 0.458942 0.735359 0.498617 255 0 0 255
-0.334068 -0.06186 2.3 0.00361081 0.693186 0.72075 255 0 0 255
-0.327652 -0.061838 2.299 -0.256452 0.615858 0.744951 255 0 0 255
-0.322358 -0.06203 2.306 -0.776651 0.27038 0.568954 255 0 0 255
-0.317985 -0.062411 2.32 -0.929486 -0.111485 0.351605 255 0 0 255
-0.314071 -0.062899 2.338 -0.843705 -0.464214 0.269569 255 0 0 255
-0.307821 -0.06293 2.339 0.56692 0.229516 0.791154 255 0 0 255
-0.301435 -0.062934 2.339 -0.953113 0.149467 0.263125 255 0 0 255
-0.257363 -0.063121 2.345 0.744125 0.361233 0.56195 255 0 0 255
-0.24999 -0.062882 2.336 0.660609 0.377306 0.649027 255 0 0 255
-0.242873 -0.062696 2.329 0.470612 0.349647 0.810106 255 0 0 255
-0.2362 -0.062619 2.326 0.44157 0.146175 0.885239 255 0 0 255
-0.229542 -0.062541 2.323 0.343805 0.108505 0.932751 255 0 0 255
-0.222996 -0.06249 2.321 0.387593 0.0717259 0.919036 255 0 0 255
-0.216366 -0.062413 2.318 0.263019 0.128798 0.956155 255 0 0 255
-0.209934 -0.062389 2.317 0.112845 0.212019 0.970729 255 0 0 255
-0.203593 -0.062391 2.317 0.0558756 0.3459 0.936606 255 0 0 255
-0.197338 -0.062421 2.318 -0.00382243 0.418072 0.908406 255 0 0 255
-0.190828 -0.06237 2.316 0.304886 0.369078 0.877967 255 0 0 255
-0.18409 -0.062238 2.311 0.149971 0.179359 0.972286 255 0 0 255
-0.177917 -0.062294 2.313 -0.0995302 0.433843 0.895474 255 0 0 255
-0.171732 -0.06235 2.315 -0.279244 0.643149 0.713009 255 0 0 255
-0.165679 -0.06246 2.319 -0.274647 0.599902 0.751456 255 0 0 255
-0.159328 -0.062463 2.319 -0.203949 0.687706 0.696753 255 0 0 255
-0.153174 -0.062546 2.322 0.0953551 0.584988 0.805417 255 0 0 255
-0.146434 -0.062386 2.316 0.368386 0.395827 0.841197 255 0 0 255
-0.139787 -0.062253 2.311 0.661343 0.295786 0.689302 255 0 0 255
-0.132994 -0.06204 2.303 0.494546 0.446568 0.745655 255 0 0 255
-0.126684 -0.062042 2.303 0.218576 0.518333 0.826774 255 0 0 255
-0.120216 -0.061962 2.3 0.0691842 0.716291 0.694363 255 0 0 255
-0.114012 -0.062018 2.302 -0.26594 0.694564 0.668473 255 0 0 255
-0.107937 -0.062154 2.307 -0.545429 0.4462 0.709516 255 0 0 255
-0.102099 -0.062452 2.318 -0.78076 0.080224 0.619659 255 0 0 255
-0.096158 -0.062723 2.328 -0.623778 0.159751 0.765102 255 0 0 255
-0.089661 -0.062643 2.325 -0.69576 -0.107633 0.710165 255 0 0 255
-0.082714 -0.062213 2.309 0.870745 0.0697016 0.486771 255 0 0 255
-0.07602 -0.061918 2.298 0.801769 0.261753 0.537263 255 0 0 255
-0.069386 -0.061623 2.287 0.825287 0.325236 0.461652 255 0 0 255
-0.06284 -0.061354 2.277 0.787337 0.337068 0.516222 255 0 0 255
-0.056298 -0.061032 2.265 0.773753 0.117263 0.62254 255 0 0 255
-0.049955 -0.060871 2.259 0.653395 -0.100708 0.750289 255 0 0 255
-0.043702 -0.060791 2.256 0.451327 0.00468096 0.892347 255 0 0 255
-0.037516 -0.060791 2.256 0.503249 0.0843003 0.86002 255 0 0 255
-0.031205 -0.060549 2.247 0.717167 0.243065 0.65314 255 0 0 255
-0.024987 -0.060415 2.242 0.712351 0.167391 0.681569 255 0 0 255
-0.018771 -0.0602 2.234 0.685941 0.0840724 0.722785 255 0 0 255
-0.012628 -0.060119 2.231 0.375847 0.2191 0.900408 255 0 0 255
-0.006492 -0.059958 2.225 -0.0939 0.390187 0.915935 255 0 0 255
-0.000391 -0.060119 2.231 -0.238938 0.473098 0.84799 255 0 0 255
0.005733 -0.060173 2.233 -0.226878 0.382807 0.895537 255 0 0 255
0.011872 -0.060254 2.236 -0.0891088 0.168203 0.981717 255 0 0 255
0.01798 -0.060173 2.233 -0.0823935 0.0911997 0.992418 255 0 0 255
0.024115 -0.060199 2.234 -0.196675 0.0660578 0.978241 255 0 0 255
0.030241 -0.060199 2.234 -0.234271 0.186178 0.954178 255 0 0 255
0.036465 -0.06036 2.24 -0.550205 0.386768 0.740057 255 0 0 255
0.042703 -0.060494 2.245 -0.402917 0.641942 0.652356 255 0 0 255
0.048989 -0.060655 2.251 -0.274559 0.638957 0.718576 255 0 0 255
0.055112 -0.060601 2.249 -0.0146847 0.675075 0.737603 255 0 0 255
0.061279 -0.0606 2.249 -0.0469539 0.4914 0.869668 255 0 0 255
0.067415 -0.060572 2.248 -0.413198 0.190798 0.890429 255 0 0 255
0.073906 -0.060841 2.258 -0.764355 0.176958 0.620038 255 0 0 255
0.080699 -0.061298 2.275 -0.867376 0.340602 0.362834 255 0 0 255
-0.157306 -0.397089 2.63795 0.0130254 -0.682718 -0.730566 255 255 0 255
-0.070765 -0.408307 2.52289 0.241714 -0.462418 -0.853079 255 255 0 255
-0.039486 -0.400313 2.53018 0.152362 -0.457072 -0.876283 255 255 0 255
-0.012427 -0.393784 2.53492 -0.760586 -0.377543 -0.528176 255 255 0 255
-0.017004 -0.398598 2.51907 -0.710414 -0.668133 -0.221157 255 255 0 255
-0.01077 -0.399525 2.5103 -0.815416 -0.559546 -0.148342 255 255 0 255
-0.013665 -0.403751 2.49549 -0.881468 -0.0102215 -0.472133 255 255 0 255
0.003337 -0.400772 2.49391 -0.560901 0.47265 -0.6797 255 255 0 255
0.016999 -0.398982 2.49019 -0.597229 0.264608 -0.757166 255 255 0 255
0.023201 -0.399893 2.48151 -0.639181 0.107864 -0.761455 255 255 0 255
0.037653 -0.397784 2.47846 -0.592591 0.458961 -0.66196 255 255 0 255
0.038884 -0.400499 2.46645 -0.880965 0.289794 -0.374058 255 255 0 255
-0.232 -0.423713 2.58149 0.78354 0.314552 -0.535838 0 255 0 255
-0.227313 -0.422272 2.59068 0.78354 0.314552 -0.535838 0 255 0 255
-0.212492 -0.425016 2.5936 0.812322 -0.320837 -0.487029 0 255 0 255
-0.206945 -0.423913 2.60232 0.373186 0.883507 -0.283104 0 255 0 255
-0.22592 -0.412719 2.62613 0.844691 0.378331 -0.378633 0 255 0 255
-0.212767 -0.414751 2.63016 0.297322 0.122387 -0.946901 0 255 0 255
-0.182652 -0.423706 2.62397 0.42816 0.307162 -0.8499 0 255 0 255
-0.175385 -0.423277 2.63176 0.423176 0.396113 -0.814872 0 255 0 255
-0.185461 -0.412395 2.66211 0.0763845 -0.599558 -0.796678 0 255 0 255
-0.159488 -0.419548 2.65881 0.0495592 -0.16442 -0.985145 0 255 0 255
-0.139431 -0.424265 2.65917 0.547861 -0.0180495 -0.836375 0 255 0 255
-0.337114 -0.068777 2.321 0.080885 0.893054 0.44262 255 0 0 255
-0.32893 -0.068397 2.308 0.0638198 0.818521 0.570921 255 0 0 255
-0.322773 -0.068431 2.309 -0.734099 0.259508 0.627499 255 0 0 255
-0.317432 -0.068643 2.316 -0.796974 0.196332 0.571215 255 0 0 255
-0.312724 -0.069003 2.328 -0.920784 0.0132127 0.389849 255 0 0 255
-0.30808 -0.069392 2.341 -0.955476 -0.189103 0.226509 255 0 0 255
-0.304137 -0.06996 2.36 -0.967359 0.106225 0.230072 255 0 0 255
-0.258457 -0.06984 2.355 0.870203 0.077381 0.486579 255 0 0 255
-0.250521 -0.069428 2.341 0.636884 0.311546 0.705208 255 0 0 255
-0.243495 -0.069254 2.335 0.556817 0.401485 0.727162 255 0 0 255
-0.236501 -0.06908 2.329 0.545744 0.328319 0.770954 255 0 0 255
-0.229835 -0.068994 2.326 0.499575 0.180599 0.847236 255 0 0 255
-0.223281 -0.068938 2.324 0.358088 0.170429 0.918001 255 0 0 255
-0.216643 -0.068852 2.321 0.125283 0.290009 0.948788 255 0 0 255
-0.210202 -0.068826 2.32 -0.045925 0.330827 0.942573 255 0 0 255
-0.203854 -0.068829 2.32 -0.00976797 0.455775 0.890042 255 0 0 255
-0.19776 -0.068921 2.323 0.222668 0.284947 0.932322 255 0 0 255
-0.191155 -0.068835 2.32 0.38189 0.113401 0.917224 255 0 0 255
-0.184406 -0.068689 2.315 0.318663 0.164565 0.933473 255 0 0 255
-0.177991 -0.068662 2.314 -0.33301 0.325561 0.884938 255 0 0 255
-0.172101 -0.068843 2.32 -0.487072 0.172335 0.85619 255 0 0 255
-0.165962 -0.068935 2.323 -0.358693 0.262496 0.895788 255 0 0 255
-0.159669 -0.068967 2.324 -0.318089 0.203504 0.925962 255 0 0 255
-0.153436 -0.069029 2.326 -0.0246482 0.326878 0.944745 255 0 0 255
-0.146812 -0.068912 2.322 0.287184 0.539796 0.791293 255 0 0 255
-0.140148 -0.068766 2.317 0.375001 0.566907 0.733479 255 0 0 255
-0.133396 -0.06856 2.31 0.424387 0.633608 0.646866 255 0 0 255
-0.126957 -0.068503 2.308 0.217259 0.769969 0.599956 255 0 0 255
-0.12058 -0.068475 2.307 -0.0044185 0.776864 0.629653 255 0 0 255
-0.114308 -0.068507 2.308 -0.20315 0.765723 0.610244 255 0 0 255
-0.108123 -0.068597 2.311 -0.497869 0.597046 0.629017 255 0 0 255
-0.102009 -0.068747 2.316 -0.753281 0.407424 0.516308 255 0 0 255
-0.096446 -0.069313 2.335 0.398893 0.0891496 0.912654 255 0 0 255
-0.089814 -0.069136 2.329 0.761087 -0.0114715 0.648548 255 0 0 255
-0.082785 -0.068603 2.311 0.805727 0.103962 0.583092 255 0 0 255
-0.076151 -0.068337 2.302 0.757445 0.217941 0.615451 255 0 0 255
-0.069598 -0.068101 2.294 0.778553 0.314501 0.543087 255 0 0 255
-0.063004 -0.067776 2.283 0.818265 0.332644 0.468818 255 0 0 255
-0.056347 -0.067301 2.267 0.788227 0.204457 0.580427 255 0 0 255
-0.049932 -0.067035 2.258 0.60691 0.106462 0.787608 255 0 0 255
-0.043663 -0.066917 2.254 0.401993 0.0343102 0.915 255 0 0 255
-0.037482 -0.066918 2.254 0.500643 0.130838 0.855709 255 0 0 255
-0.031232 -0.06677 2.249 0.495327 0.384013 0.779221 255 0 0 255
-0.024998 -0.066592 2.243 0.637054 0.463267 0.616073 255 0 0 255
-0.018771 -0.066325 2.234 0.621988 0.421636 0.659814 255 0 0 255
-0.012622 -0.066207 2.23 0.298351 0.489183 0.819565 255 0 0 255
-0.006501 -0.066148 2.228 -0.190517 0.444071 0.875503 255 0 0 255
-0.000392 -0.066355 2.235 -0.267555 0.300518 0.91548 255 0 0 255
0.005732 -0.066296 2.233 -0.0318651 0.147823 0.9885 255 0 0 255
0.011867 -0.066355 2.235 0.0313148 0.0298245 0.999065 255 0 0 255
0.01798 -0.066296 2.233 -0.0744739 0.0601982 0.995404 255 0 0 255
0.024147 -0.066414 2.237 -0.196037 0.0693023 0.978145 255 0 0 255
0.030268 -0.066384 2.236 -0.493166 0.212631 0.843549 255 0 0 255
0.036513 -0.066591 2.243 -0.701011 0.232999 0.674014 255 0 0 255
0.042778 -0.066769 2.249 -0.705248 0.223846 0.672694 255 0 0 255
0.049075 -0.066946 2.255 -0.304903 0.439433 0.844945 255 0 0 255
0.055259 -0.066945 2.255 0.086299 0.639609 0.763841 255 0 0 255
0.06136 -0.066855 2.252 0.0975007 0.596779 0.79646 255 0 0 255
0.067564 -0.066884 2.253 -0.279089 0.589564 0.757973 255 0 0 255
0.073839 -0.066972 2.256 -0.427899 0.449296 0.784242 255 0 0 255
0.080946 -0.067743 2.282 -0.868612 0.308811 0.38749 255 0 0 255
-0.165632 -0.405347 2.66047 0.00340821 -0.477689 -0.878522 255 255 0 255
-0.149099 -0.402807 2.65731 0.192477 -0.525343 -0.828835 255 255 0 255
-0.068061 -0.419 2.52605 0.226645 -0.495858 -0.838306 255 255 0 255
-0.045123 -0.413928 2.52792 0.184813 -0.417038 -0.889901 255 255 0 255
-0.015573 -0.406424 2.53425 -0.263786 -0.578926 -0.771532 255 255 0 255
0.002694 -0.406144 2.52055 -0.480472 -0.80369 -0.35104 255 255 0 255
0.001447 -0.409777 2.50688 0.830451 0.387533 -0.400212 255 255 0 255
0.003523 -0.412204 2.49539 -0.763783 -0.388178 -0.515707 255 255 0 255
0.00064 -0.416453 2.48056 -0.456367 0.233123 -0.85871 255 255 0 255
0.012642 -0.415238 2.47572 -0.709343 0.369975 -0.599959 255 255 0 255
0.029172 -0.415525 2.46114 0.944609 -0.268905 -0.188162 255 255 0 255
-0.206105 -0.432209 2.61546 0.400842 0.839806 -0.366131 0 255 0 255
-0.207321 -0.428311 2.62834 0.33391 0.564376 -0.754973 0 255 0 255
-0.187376 -0.433151 2.62836 0.639972 -0.216546 -0.737254 0 255 0 255
-0.175029 -0.434831 2.63308 0.694166 -0.242582 -0.677707 0 255 0 255
-0.210163 -0.416995 2.66633 0.489714 -0.760867 -0.425748 0 255 0 255
-0.137382 -0.436581 2.65953 0.30384 -0.561707 -0.769524 0 255 0 255
-0.131771 -0.43544 2.66849 0.0092639 -0.918526 -0.395253 0 255 0 255
-0.130416 -0.432568 2.67994 0.0374952 -0.888872 -0.456619 0 255 0 255
-0.109452 -0.437636 2.68003 0.0692578 -0.920895 -0.383609 0 255 0 255
-0.323607 -0.074945 2.315 -0.0843574 0.922244 0.377292 255 0 0 255
-0.317702 -0.075047 2.318 -0.0843574 0.922244 0.377292 255 0 0 255
-0.31245 -0.075311 2.326 -0.29422 -0.922204 0.250949 255 0 0 255
-0.307549 -0.075672 2.337 0.821271 -0.444565 0.357598 255 0 0 255
-0.305035 -0.076648 2.367 -0.981427 0.137271 0.134007 255 0 0 255
-0.258453 -0.07629 2.355 0.782514 0.082767 0.617107 255 0 0 255
-0.250732 -0.075905 2.343 0.6954 0.112204 0.70981 255 0 0 255
-0.243909 -0.07578 2.339 0.528593 0.319145 0.786597 255 0 0 255
-0.237005 -0.075621 2.334 0.604522 0.336199 0.722165 255 0 0 255
-0.229832 -0.075366 2.326 0.499461 0.246878 0.830415 255 0 0 255
-0.223085 -0.07524 2.322 0.229723 0.292185 0.928362 255 0 0 255
-0.21664 -0.075211 2.321 -0.051536 0.394112 0.917616 255 0 0 255
-0.210562 -0.075312 2.324 -0.10034 0.503321 0.858254 255 0 0 255
-0.20429 -0.075348 2.325 0.0142401 0.412989 0.910625 255 0 0 255
-0.197672 -0.075254 2.322 0.436712 0.0833569 0.895731 255 0 0 255
-0.190987 -0.075127 2.318 0.481068 0.0568282 0.87484 255 0 0 255
-0.184324 -0.075001 2.314 0.0798381 0.218856 0.972486 255 0 0 255
-0.178066 -0.075036 2.315 -0.39838 0.324696 0.857826 255 0 0 255
-0.17195 -0.075136 2.318 -0.433352 0.305349 0.84792 255 0 0 255
-0.165817 -0.075236 2.321 -0.244285 0.169848 0.954713 255 0 0 255
-0.159667 -0.075336 2.324 -0.219069 0.029286 0.97527 255 0 0 255
-0.153499 -0.075436 2.327 -0.134565 0.206186 0.969216 255 0 0 255
-0.146999 -0.075374 2.325 0.122577 0.524969 0.842249 255 0 0 255
-0.140509 -0.075311 2.323 0.220102 0.659603 0.718665 255 0 0 255
-0.133914 -0.075184 2.319 0.254342 0.775011 0.578506 255 0 0 255
-0.12756 -0.075186 2.319 0.151153 0.824099 0.545906 255 0 0 255
-0.121153 -0.075156 2.318 0.0153417 0.851869 0.52353 255 0 0 255
-0.114752 -0.075125 2.317 -0.171826 0.827016 0.535276 255 0 0 255
-0.108542 -0.075224 2.32 -0.396982 0.723234 0.5651 255 0 0 255
-0.102448 -0.075421 2.326 -0.552776 0.774202 0.308302 255 0 0 255
-0.096527 -0.075779 2.337 -0.0277646 0.369194 0.928937 255 0 0 255
-0.089466 -0.075229 2.32 0.692783 0.260686 0.67238 255 0 0 255
-0.082819 -0.074971 2.312 0.732199 0.259383 0.629766 255 0 0 255
-0.076183 -0.074681 2.303 0.723963 0.258802 0.639452 255 0 0 255
-0.069657 -0.074455 2.296 0.758173 0.339973 0.556409 255 0 0 255
-0.063059 -0.0741 2.285 0.812651 0.346594 0.468478 255 0 0 255
-0.056495 -0.073712 2.273 0.799562 0.386483 0.459708 255 0 0 255
-0.050064 -0.073421 2.264 0.702289 0.359338 0.614546 255 0 0 255
-0.04374 -0.073227 2.258 0.468798 0.276673 0.838856 255 0 0 255
-0.037498 -0.07313 2.255 0.437484 0.202194 0.876199 255 0 0 255
-0.031273 -0.073033 2.252 0.350293 0.399136 0.84734 255 0 0 255
-0.025109 -0.073066 2.253 0.371181 0.596583 0.711557 255 0 0 255
-0.018863 -0.072807 2.245 0.513415 0.628882 0.583876 255 0 0 255
-0.012673 -0.072613 2.239 0.375118 0.719621 0.584322 255 0 0 255
-0.006512 -0.072386 2.232 -0.020953 0.555094 0.831524 255 0 0 255
-0.000392 -0.072516 2.236 -0.0925254 0.459939 0.883117 255 0 0 255
0.005735 -0.072451 2.234 0.033182 0.27307 0.961422 255 0 0 255
0.011867 -0.072483 2.235 -0.0594745 0.230551 0.971241 255 0 0 255
0.017988 -0.072451 2.234 -0.171891 0.396146 0.901954 255 0 0 255
0.024136 -0.072515 2.236 -0.232148 0.466539 0.853492 255 0 0 255
0.030281 -0.072547 2.237 -0.441155 0.415284 0.795564 255 0 0 255
0.036529 -0.072774 2.244 -0.662486 0.233301 0.711816 255 0 0 255
0.042834 -0.073032 2.252 -0.691968 0.0724162 0.718287 255 0 0 255
0.049162 -0.073259 2.259 -0.567566 0.0665675 0.820632 255 0 0 255
0.055405 -0.073323 2.261 -0.312078 0.471711 0.82468 255 0 0 255
0.061577 -0.073289 2.26 -0.107475 0.663541 0.74038 255 0 0 255
0.067863 -0.073385 2.263 -0.095718 0.65612 0.748562 255 0 0 255
0.074067 -0.073384 2.263 -0.112812 0.504653 0.85592 255 0 0 255
0.081051 -0.074096 2.285 -0.879612 0.269811 0.391772 255 0 0 255
-0.153131 -0.415975 2.65644 -0.0175608 -0.209699 -0.977608 255 255 0 255
-0.068313 -0.427538 2.54029 0.216565 -0.651607 -0.726986 255 255 0 255
-0.05203 -0.424839 2.5378 0.190372 -0.611974 -0.767624 255 255 0 255
-0.030782 -0.420305 2.53862 0.0783868 -0.544832 -0.834873 255 255 0 255
-0.010403 -0.416056 2.539 -0.00832114 -0.520926 -0.853561 255 255 0 255
0.021563 -0.407529 2.54711 -0.293652 -0.684884 -0.66686 255 255 0 255
0.016974 -0.412383 2.53133 0.997262 -0.0722919 -0.0155494 255 255 0 255
0.017374 -0.415415 2.5188 0.939909 0.290107 -0.180024 255 255 0 255
-0.001254 -0.425481 2.49356 -0.802686 -0.470033 -0.367104 255 255 0 255
0.012406 -0.423631 2.4898 -0.660272 -0.711014 -0.241867 255 255 0 255
0.019439 -0.424223 2.48164 -0.423509 -0.881597 -0.208392 255 255 0 255
0.023989 -0.425733 2.47183 -0.798369 -0.581353 -0.156956 255 255 0 255
0.022769 -0.429393 2.4581 -0.585592 -0.203702 -0.784594 255 255 0 255
-0.189442 -0.436868 2.65545 -0.701457 0.704681 -0.106692 0 255 0 255
-0.171999 -0.440672 2.65718 0.12386 -0.909227 -0.397448 0 255 0 255
-0.160474 -0.442008 2.66252 0.148505 -0.709165 -0.689226 0 255 0 255
-0.156584 -0.44019 2.67242 0.265584 -0.871064 -0.413173 0 255 0 255
-0.146737 -0.440813 2.67883 0.386676 -0.815106 -0.431375 0 255 0 255
-0.141135 -0.439685 2.68777 0.312293 -0.946929 -0.0761531 0 255 0 255
-0.257791 -0.082529 2.349 0.821824 0.056072 0.566975 255 0 0 255
-0.250513 -0.082252 2.341 0.419964 0.0860668 0.90345 255 0 0 255
-0.244322 -0.082327 2.343 0.337869 0.305124 0.890361 255 0 0 255
-0.237204 -0.082085 2.336 0.503891 0.411703 0.759338 255 0 0 255
-0.230223 -0.081878 2.33 0.484324 0.423519 0.765547 255 0 0 255
-0.22337 -0.081706 2.325 0.136222 0.470975 0.871565 255 0 0 255
-0.217196 -0.08178 2.327 -0.107637 0.573269 0.812266 255 0 0 255
-0.21092 -0.081819 2.328 -0.0970246 0.509366 0.855063 255 0 0 255
-0.20455 -0.081823 2.328 0.314566 0.312644 0.896271 255 0 0 255
-0.197669 -0.081616 2.322 0.550066 0.0709992 0.832098 255 0 0 255
-0.190984 -0.081479 2.318 0.361376 0.121503 0.92447 255 0 0 255
-0.184559 -0.081447 2.317 -0.175492 0.446696 0.877306 255 0 0 255
-0.178524 -0.081591 2.321 -0.294129 0.604933 0.739962 255 0 0 255
-0.172392 -0.081699 2.324 -0.11742 0.612342 0.781825 255 0 0 255
-0.166028 -0.081702 2.324 0.0136402 0.317558 0.948141 255 0 0 255
-0.159595 -0.08167 2.323 -0.268239 0.147563 0.951984 255 0 0 255
-0.153497 -0.081813 2.327 -0.414598 0.163039 0.89528 255 0 0 255
-0.147249 -0.081886 2.329 -0.111617 0.492344 0.863214 255 0 0 255
-0.14093 -0.081924 2.33 -0.0984519 0.595612 0.797216 255 0 0 255
-0.134547 -0.081927 2.33 -0.0415095 0.720854 0.691843 255 0 0 255
-0.128218 -0.081964 2.331 0.0688235 0.763344 0.642315 255 0 0 255
-0.121831 -0.081967 2.331 0.0490039 0.79554 0.603916 255 0 0 255
-0.115245 -0.081828 2.327 -0.0408298 0.827994 0.559249 255 0 0 255
-0.109008 -0.081936 2.33 -0.356858 0.733682 0.578241 255 0 0 255
-0.102799 -0.082078 2.334 -0.389974 0.659262 0.642879 255 0 0 255
-0.089772 -0.081871 2.328 0.794072 0.196607 0.575148 255 0 0 255
-0.082818 -0.08131 2.312 0.655371 0.292993 0.696163 255 0 0 255
-0.076347 -0.08117 2.308 0.658777 0.3527 0.664542 255 0 0 255
-0.069808 -0.080926 2.301 0.731541 0.389879 0.559323 255 0 0 255
-0.063196 -0.08054 2.29 0.804382 0.349959 0.480102 255 0 0 255
-0.056619 -0.080119 2.278 0.7965 0.373126 0.475778 255 0 0 255
-0.050174 -0.079803 2.269 0.702369 0.453226 0.548876 255 0 0 255
-0.043797 -0.079523 2.261 0.607033 0.305739 0.733509 255 0 0 255
-0.037514 -0.079348 2.256 0.299507 0.206995 0.931369 255 0 0 255
-0.031314 -0.079313 2.255 0.0400046 0.298709 0.953505 255 0 0 255
-0.025142 -0.079349 2.256 -0.0815395 0.369726 0.925556 255 0 0 255
-0.018938 -0.079279 2.254 0.352358 0.588275 0.727857 255 0 0 255
-0.012718 -0.079033 2.247 0.637599 0.521518 0.566998 255 0 0 255
-0.006532 -0.078752 2.239 0.336892 0.593142 0.731222 255 0 0 255
-0.000392 -0.078682 2.237 0.0114668 0.546981 0.837066 255 0 0 255
0.005743 -0.078682 2.237 -0.0679319 0.510159 0.857393 255 0 0 255
0.011888 -0.078752 2.239 -0.149162 0.626383 0.765111 255 0 0 255
0.018028 -0.078751 2.239 -0.147857 0.663916 0.733045 255 0 0 255
0.0242 -0.078857 2.242 -0.173496 0.677782 0.7145 255 0 0 255
0.030375 -0.078926 2.244 -0.28901 0.58217 0.759968 255 0 0 255
0.036561 -0.078996 2.246 -0.545741 0.343112 0.764488 255 0 0 255
0.042777 -0.079101 2.249 -0.631598 0.079652 0.771193 255 0 0 255
0.049009 -0.079206 2.252 -0.645887 -0.00912505 0.763379 255 0 0 255
0.055428 -0.079556 2.262 -0.58589 0.201472 0.784947 255 0 0 255
0.061657 -0.07959 2.263 -0.177953 0.439471 0.880453 255 0 0 255
0.068042 -0.0798 2.269 -0.0875461 0.431148 0.898024 255 0 0 255
0.074033 -0.079553 2.262 -0.0502427 0.520132 0.852607 255 0 0 255
0.081192 -0.080501 2.289 -0.874553 0.202374 0.440683 255 0 0 255
-0.14448 -0.424687 2.6631 -0.152918 -0.543496 -0.825366 255 255 0 255
-0.039773 -0.428756 2.55999 -0.0145314 -0.897014 -0.441764 255 255 0 255
-0.04434 -0.433645 2.54416 -0.00431189 -0.581519 -0.813521 255 255 0 255
-0.028097 -0.430889 2.54175 -0.0574474 -0.284967 -0.956814 255 255 0 255
0.00141 -0.423214 2.54808 -0.249178 0.0639334 -0.966345 255 255 0 255
0.008454 -0.423802 2.53989 -0.559754 0.501406 -0.659748 255 255 0 255
0.020465 -0.422541 2.53499 0.997262 -0.0722919 -0.0155495 255 255 0 255
0.013412 -0.428352 2.51753 -0.906607 0.393834 -0.151523 255 255 0 255
0.013826 -0.431399 2.50496 0.911347 0.256185 -0.322204 255 255 0 255
0.020031 -0.432289 2.49625 -0.24271 -0.777183 -0.580584 255 255 0 255
0.036959 -0.429156 2.49479 -0.587606 -0.651301 -0.480131 255 255 0 255
0.031599 -0.43437 2.47832 -0.791654 -0.598288 -0.123839 255 255 0 255
-0.191741 -0.454122 2.63405 0.884859 0.00318672 -0.465848 0 255 0 255
-0.204796 -0.445241 2.65408 -0.910326 -0.124374 -0.394764 0 255 0 255
-0.20602 -0.441329 2.66691 -0.836403 0.035874 -0.546939 0 255 0 255
-0.197926 -0.441303 2.67416 0.290528 -0.953102 -0.0847889 0 255 0 255
-0.180488 -0.445148 2.67593 -0.108524 -0.82962 -0.547681 0 255 0 255
-0.163024 -0.448974 2.67778 0.135306 -0.818781 -0.557934 0 255 0 255
-0.150635 -0.450675 2.6827 0.625023 -0.371771 -0.686391 0 255 0 255
-0.142484 -0.450609 2.69014 0.529721 -0.538235 -0.655514 0 255 0 255
-0.149652 -0.444233 2.70648 -0.954741 0.0353631 -0.29533 0 255 0 255
-0.146609 -0.442066 2.71688 -0.924943 0.0907682 -0.369109 0 255 0 255
-0.257347 -0.08881 2.345 0.399799 0.487266 0.776358 255 0 0 255
-0.250402 -0.088626 2.34 0.311261 0.327985 0.891932 255 0 0 255
-0.244422 -0.088782 2.344 0.227399 0.604259 0.76365 255 0 0 255
-0.237606 -0.088635 2.34 0.386672 0.534278 0.751686 255 0 0 255
-0.230812 -0.088487 2.336 0.428405 0.430761 0.794301 255 0 0 255
-0.223942 -0.088302 2.331 0.175776 0.58135 0.79444 255 0 0 255
-0.217566 -0.088307 2.331 0.0398827 0.466383 0.883684 255 0 0 255
-0.211279 -0.088348 2.332 0.146704 0.28931 0.945927 255 0 0 255
-0.204635 -0.088239 2.329 0.380995 0.199062 0.902894 255 0 0 255
-0.197665 -0.087977 2.322 0.467374 0.290864 0.834841 255 0 0 255
-0.191145 -0.087905 2.32 0.105838 0.514537 0.850911 255 0 0 255
-0.184875 -0.087947 2.321 -0.204179 0.654915 0.727597 255 0 0 255
-0.178982 -0.088178 2.327 -0.267454 0.530567 0.804342 255 0 0 255
-0.172759 -0.088257 2.329 -0.0888128 0.522231 0.848167 255 0 0 255
-0.166239 -0.088184 2.327 0.0854663 0.576055 0.812931 255 0 0 255
-0.159661 -0.088074 2.324 -0.0049757 0.454121 0.890926 255 0 0 255
-0.15356 -0.088228 2.328 -0.369153 0.458196 0.808568 255 0 0 255
-0.1475 -0.088421 2.333 -0.19272 0.593446 0.781461 255 0 0 255
-0.141169 -0.088462 2.334 -0.0533444 0.596959 0.800496 255 0 0 255
-0.134833 -0.088502 2.335 -0.121908 0.59444 0.794846 255 0 0 255
-0.128435 -0.088505 2.335 -0.00634264 0.637717 0.770245 255 0 0 255
-0.122194 -0.088621 2.338 0.012191 0.745173 0.66676 255 0 0 255
-0.11549 -0.088396 2.332 0.0228418 0.702194 0.711619 255 0 0 255
-0.10938 -0.088625 2.338 -0.202073 0.692575 0.692464 255 0 0 255
-0.103149 -0.088779 2.342 -0.139671 0.527654 0.837898 255 0 0 255
-0.090079 -0.088555 2.336 0.696197 -0.048253 0.716227 255 0 0 255
-0.083031 -0.087875 2.318 0.76605 0.226291 0.601631 255 0 0 255
-0.076544 -0.087725 2.314 0.516702 0.319048 0.794498 255 0 0 255
-0.070019 -0.087499 2.308 0.649425 0.394769 0.649927 255 0 0 255
-0.063415 -0.087121 2.298 0.80409 0.315603 0.503819 255 0 0 255
-0.056841 -0.086705 2.287 0.825209 0.288826 0.485396 255 0 0 255
-0.050372 -0.086365 2.278 0.775555 0.324954 0.54122 255 0 0 255
-0.043913 -0.085949 2.267 0.744895 0.399182 0.534589 255 0 0 255
-0.03753 -0.085571 2.257 0.388908 0.405794 0.827092 255 0 0 255
-0.031313 -0.085495 2.255 0.000690524 0.383621 0.92349 255 0 0 255
-0.025175 -0.085648 2.259 -0.0874997 0.259534 0.961762 255 0 0 255
-0.018997 -0.085724 2.261 0.144136 0.165677 0.97559 255 0 0 255
-0.012763 -0.085497 2.255 0.663989 0.25148 0.704185 255 0 0 255
-0.006547 -0.08508 2.244 0.526153 0.49575 0.690938 255 0 0 255
-0.000393 -0.084928 2.24 0.163009 0.538927 0.82643 255 0 0 255
0.005753 -0.084966 2.241 -0.144255 0.63172 0.761656 255 0 0 255
0.011919 -0.085118 2.245 -0.217383 0.664976 0.714528 255 0 0 255
0.018092 -0.085193 2.247 -0.138584 0.717722 0.6824 255 0 0 255
0.024253 -0.085193 2.247 -0.128491 0.704295 0.698182 255 0 0 255
0.030442 -0.085268 2.249 -0.10425 0.609533 0.785876 255 0 0 255
0.036609 -0.085267 2.249 -0.218691 0.51462 0.82906 255 0 0 255
0.042852 -0.085418 2.253 -0.435203 0.303008 0.847812 255 0 0 255
0.049073 -0.085493 2.255 -0.69621 0.155716 0.700745 255 0 0 255
0.055476 -0.085833 2.264 -0.557616 0.188212 0.808481 255 0 0 255
0.061738 -0.085908 2.266 -0.444963 0.0919685 0.890814 255 0 0 255
0.06807 -0.086058 2.27 -0.138408 0.230346 0.963215 255 0 0 255
0.074195 -0.085943 2.267 0.0789127 0.278811 0.957098 255 0 0 255
0.081368 -0.086965 2.294 -0.929589 0.0234612 0.36785 255 0 0 255
-0.040844 -0.437519 2.57358 0.875567 -0.471724 -0.104205 255 255 0 255
-0.023758 -0.434424 2.57165 -0.391641 0.917034 -0.0752736 255 255 0 255
-0.03416 -0.441489 2.55212 -0.966037 0.131706 -0.222319 255 255 0 255
-0.022089 -0.440232 2.54704 -0.300558 -0.0737572 -0.950907 255 255 0 255
-0.004225 -0.436802 2.5458 -0.230854 0.235842 -0.943973 255 255 0 255
0.014437 -0.433047 2.54518 -0.681971 0.344802 -0.645002 255 255 0 255
0.012354 -0.437028 2.53101 -0.878295 0.400347 -0.261379 255 255 0 255
0.007801 -0.441946 2.51517 -0.878763 0.441807 -0.180504 255 255 0 255
0.007398 -0.445318 2.50204 -0.0140008 -0.336505 -0.941578 255 255 0 255
0.028474 -0.440599 2.50325 -0.387486 -0.346478 -0.854288 255 255 0 255
0.03549 -0.441161 2.49513 -0.996722 -0.0808686 -0.00232973 255 255 0 255
0.027665 -0.447341 2.47699 0.963053 0.0646011 -0.261448 255 255 0 255
-0.181925 -0.480039 2.5929 0.389264 -0.874283 -0.290006 0 255 0 255
-0.172977 -0.480378 2.59969 -0.559102 -0.805931 -0.194629 0 255 0 255
-0.167396 -0.479279 2.60857 -0.0831582 -0.807875 -0.583458 0 255 0 255
-0.182936 -0.469249 2.63025 -0.861058 0.0769321 -0.502653 0 255 0 255
-0.201047 -0.458174 2.65335 -0.906622 0.0321923 -0.420715 0 255 0 255
-0.224274 -0.444989 2.67936 -0.209622 -0.843837 -0.493962 0 255 0 255
-0.220433 -0.443212 2.68909 -0.335776 -0.531691 -0.777534 0 255 0 255
-0.200478 -0.448179 2.6893 -0.0450594 -0.714132 -0.698559 0 255 0 255
-0.1754 -0.455251 2.68662 -0.150895 -0.47805 -0.865274 0 255 0 255
-0.151133 -0.461941 2.68457 0.609049 -0.00227714 -0.793129 0 255 0 255
-0.148936 -0.459418 2.69549 0.623804 -0.679049 -0.386989 0 255 0 255
-0.142484 -0.458659 2.70394 -0.578191 -0.249529 -0.776808 0 255 0 255
-0.258659 -0.095719 2.357 0.712733 0.409456 0.569524 255 0 0 255
-0.251788 -0.095562 2.353 0.55898 0.571106 0.601149 255 0 0 255
-0.245043 -0.095445 2.35 0.353958 0.523334 0.775135 255 0 0 255
-0.238008 -0.095206 2.344 0.528625 0.382387 0.75785 255 0 0 255
-0.231202 -0.095048 2.34 0.564482 0.310511 0.764816 255 0 0 255
-0.224226 -0.094809 2.334 0.411923 0.250774 0.876032 255 0 0 255
-0.217935 -0.094854 2.335 0.217596 0.214391 0.952202 255 0 0 255
-0.211094 -0.094655 2.33 0.230071 0.26435 0.936582 255 0 0 255
-0.204631 -0.094619 2.329 0.310335 0.356117 0.881404 255 0 0 255
-0.198087 -0.094542 2.327 0.108508 0.666697 0.737388 255 0 0 255
-0.191801 -0.094586 2.328 0.0506261 0.703369 0.70902 255 0 0 255
-0.185508 -0.094631 2.329 -0.101908 0.645998 0.756506 255 0 0 255
-0.179363 -0.094757 2.332 -0.175526 0.196648 0.964635 255 0 0 255
-0.173053 -0.094801 2.333 -0.180431 0.331204 0.926147 255 0 0 255
-0.166665 -0.094804 2.333 -0.148412 0.528729 0.835715 255 0 0 255
-0.160207 -0.094767 2.332 -0.123931 0.724823 0.677696 255 0 0 255
-0.154084 -0.094933 2.336 -0.209882 0.700213 0.682386 255 0 0 255
-0.147939 -0.095099 2.34 -0.101106 0.591596 0.79987 255 0 0 255
-0.141408 -0.09502 2.338 -0.060591 0.553163 0.830867 255 0 0 255
-0.135119 -0.095105 2.34 -0.0355901 0.476465 0.878473 255 0 0 255
-0.128818 -0.095189 2.342 -0.203308 0.560747 0.802639 255 0 0 255
-0.122714 -0.095435 2.348 0.0350698 0.484194 0.874258 255 0 0 255
-0.115884 -0.095112 2.34 0.0512408 0.65528 0.753646 255 0 0 255
-0.109612 -0.095237 2.343 -0.140812 0.666161 0.732394 255 0 0 255
-0.103191 -0.095239 2.343 -0.139 0.584627 0.799306 255 0 0 255
-0.09838 -0.096826 2.382 -0.956119 0.026856 0.291745 255 0 0 255
-0.083029 -0.094229 2.318 0.505452 0.22647 0.832604 255 0 0 255
-0.076609 -0.094149 2.316 0.55187 0.148212 0.820654 255 0 0 255
-0.070108 -0.093947 2.311 0.607387 0.286378 0.740992 255 0 0 255
-0.063524 -0.093583 2.302 0.837173 0.186954 0.513994 255 0 0 255
-0.05689 -0.093056 2.289 0.824747 0.15024 0.545179 255 0 0 255
-0.050349 -0.092569 2.277 0.799228 0.138488 0.584855 255 0 0 255
-0.043989 -0.092326 2.271 0.726608 0.31599 0.610075 255 0 0 255
-0.037596 -0.09192 2.261 0.499803 0.489363 0.714648 255 0 0 255
