ply
format ascii 1.0
comment VCGLIB generated
element vertex 740
property float x
property float y
property float z
property float nx
property float ny
property float nz
property uchar red
property uchar green
property uchar blue
property uchar alpha
element face 0
property list uchar int vertex_indices
end_header
-0.046249 0.761164 1.877 -0.549194 0.361014 0.753694 255 0 0 255
-0.041168 0.761571 1.878 -0.864569 0.237623 0.442782 255 0 0 255
-0.036332 0.767249 1.892 -0.945838 0.0132942 0.324366 255 0 0 255
-0.031535 0.775766 1.913 0.877848 0.462095 0.125903 255 0 0 255
-0.026665 0.785499 1.937 0.234638 -0.971895 0.0190956 255 0 0 255
-0.197515 0.76888 1.909 0.838064 -0.0127903 0.545422 255 0 0 255
-0.191118 0.764051 1.897 -0.889594 -0.413266 0.19451 255 0 0 255
-0.189198 0.777347 1.93 0.559027 -0.823215 0.0990284 255 0 0 255
-0.18157 0.767282 1.905 0.747674 0.394344 0.534301 255 0 0 255
-0.166811 0.747554 1.856 0.298951 -0.865944 0.40096 255 0 0 255
-0.164643 0.76085 1.889 0.727435 0.602047 0.329207 255 0 0 255
-0.160691 0.766493 1.903 -0.0253926 -0.796443 0.604181 255 0 0 255
-0.156091 0.769316 1.91 0.568365 -0.388207 0.725435 255 0 0 255
-0.148925 0.759251 1.885 0.183814 0.695527 0.694589 255 0 0 255
-0.14403 0.760463 1.888 0.577618 0.232589 0.78247 255 0 0 255
-0.138384 0.757647 1.881 0.509647 0.211066 0.834093 255 0 0 255
-0.133059 0.756442 1.878 0.670505 0.619856 0.407678 255 0 0 255
-0.128091 0.757252 1.88 0.241588 -0.964015 0.110953 255 0 0 255
-0.123308 0.759269 1.885 0.33491 -0.855576 0.394747 255 0 0 255
-0.118059 0.758467 1.883 0.400754 -0.599249 0.693035 255 0 0 255
-0.11258 0.756053 1.877 -0.0324382 -0.589194 0.80734 255 0 0 255
-0.106276 0.747598 1.856 0.415035 0.82413 0.38543 255 0 0 255
-0.101285 0.748003 1.857 0.568257 0.415543 0.710217 255 0 0 255
-0.095823 0.744784 1.849 -0.0283563 -0.962027 0.271479 255 0 0 255
-0.090453 0.741967 1.842 0.488001 -0.210175 0.847161 255 0 0 255
-0.084936 0.737539 1.831 0.865843 -0.366383 0.340704 255 0 0 255
-0.080352 0.741166 1.84 -0.908429 0.254558 0.331597 255 0 0 255
-0.076333 0.750836 1.864 -0.70972 0.044372 0.703085 255 0 0 255
-0.074095 0.780646 1.938 -0.813068 -0.527307 0.246716 255 0 0 255
-0.068472 0.776621 1.928 -0.309431 -0.886941 0.342911 255 0 0 255
-0.062738 0.77058 1.913 -0.500271 -0.685721 0.528693 255 0 0 255
-0.059162 0.792334 1.967 -0.687962 -0.269862 0.673708 255 0 0 255
-0.052611 0.774612 1.923 -0.240542 -0.914987 0.323941 255 0 0 255
-0.047482 0.776225 1.927 -0.0429981 -0.994162 0.0989622 255 0 0 255
-0.041148 0.756086 1.877 -0.541586 0.241136 0.805319 255 0 0 255
-0.036602 0.767769 1.906 -0.937951 -0.175296 0.299198 255 0 0 255
-0.031618 0.772603 1.918 -0.683787 -0.721219 0.110807 255 0 0 255
-0.026349 0.770993 1.914 -0.92126 -0.333365 0.200367 255 0 0 255
-0.198347 0.766909 1.917 0.45511 0.224199 0.861748 255 0 0 255
-0.194749 0.773315 1.933 0.71369 -0.540034 0.446106 255 0 0 255
-0.187438 0.764918 1.912 0.428156 0.291626 0.855358 255 0 0 255
-0.181383 0.761322 1.903 0.171458 0.795702 0.580914 255 0 0 255
-0.178063 0.769328 1.923 0.934897 0.2169 0.28093 255 0 0 255
-0.169781 0.75573 1.889 0.00826038 0.84644 0.53242 255 0 0 255
-0.164822 0.756535 1.891 -0.179231 0.589026 0.787988 255 0 0 255
-0.159935 0.757739 1.894 -0.311409 0.194801 0.930095 255 0 0 255
-0.155033 0.758944 1.897 0.0209097 -0.499595 0.866007 255 0 0 255
-0.149719 0.758148 1.895 0.444414 0.0354775 0.895119 255 0 0 255
-0.143653 0.753351 1.883 0.611473 0.162757 0.774346 255 0 0 255
-0.138461 0.752955 1.882 0.12594 0.536398 0.834516 255 0 0 255
-0.133842 0.755759 1.889 -0.053444 -0.962058 0.267559 255 0 0 255
-0.128707 0.755763 1.889 0.359671 -0.912559 0.194611 255 0 0 255
-0.123638 0.756167 1.89 0.285977 -0.676427 0.678723 255 0 0 255
-0.117498 0.749769 1.874 0.154012 -0.358035 0.920919 255 0 0 255
-0.112524 0.750573 1.876 -0.0654341 -0.480064 0.87479 255 0 0 255
-0.106794 0.746175 1.865 0.223718 0.837043 0.499309 255 0 0 255
-0.101507 0.744578 1.861 0.532124 0.766279 0.360085 255 0 0 255
-0.095878 0.74018 1.85 0.681682 0.720254 0.128625 255 0 0 255
-0.090309 0.735782 1.839 0.345873 -0.776061 0.527353 255 0 0 255
-0.085263 0.735385 1.838 -0.81422 0.173215 0.554115 255 0 0 255
-0.080704 0.739388 1.848 -0.641402 0.275908 0.715876 255 0 0 255
-0.075803 0.740591 1.851 -0.941725 -0.275519 0.192985 255 0 0 255
-0.071536 0.748595 1.871 -0.62672 0.464146 0.625932 255 0 0 255
-0.067692 0.762602 1.906 -0.604943 -0.51188 0.609937 255 0 0 255
-0.062609 0.763804 1.909 -0.716425 -0.563509 0.411331 255 0 0 255
-0.057029 0.758605 1.896 0.703167 -0.254749 0.663822 255 0 0 255
-0.052285 0.764608 1.911 -0.719398 -0.366655 0.589941 255 0 0 255
-0.046449 0.754207 1.885 0.677214 0.555132 0.482918 255 0 0 255
-0.040645 0.741805 1.854 -0.777641 -0.333281 0.533102 255 0 0 255
-0.036449 0.759411 1.898 -0.732786 0.0971257 0.673491 255 0 0 255
-0.03129 0.759412 1.898 -0.931824 0.0120846 0.362709 255 0 0 255
-0.026653 0.774617 1.936 0.81193 -0.253214 0.525978 255 0 0 255
-0.20834 0.779592 1.962 0.96631 0.181799 0.182191 255 0 0 255
-0.20187 0.775227 1.951 0.96631 0.181799 0.182191 255 0 0 255
-0.193948 0.764901 1.925 0.937726 -0.154518 0.311116 255 0 0 255
-0.186952 0.757753 1.907 0.316841 0.26785 0.909872 255 0 0 255
-0.181865 0.758156 1.908 0.372043 0.572091 0.730956 255 0 0 255
-0.176864 0.758955 1.91 0.0743484 0.405883 0.910896 255 0 0 255
-0.171224 0.756973 1.905 0.617601 0.530148 0.580959 255 0 0 255
-0.165088 0.752607 1.894 0.172897 0.635488 0.752504 255 0 0 255
-0.159771 0.751817 1.892 0.135147 0.15674 0.97835 255 0 0 255
-0.154629 0.751821 1.892 0.154729 -0.370709 0.91577 255 0 0 255
-0.149486 0.751826 1.892 0.57502 -0.221053 0.78771 255 0 0 255
-0.144115 0.750638 1.889 0.531888 0.0866333 0.842371 255 0 0 255
-0.138613 0.748656 1.884 0.0502202 0.034265 0.99815 255 0 0 255
-0.133562 0.749057 1.885 -0.367826 -0.0148938 0.929775 255 0 0 255
-0.128098 0.747074 1.88 0.539496 -0.042595 0.84091 255 0 0 255
-0.122792 0.745886 1.877 0.340982 -0.31955 0.884092 255 0 0 255
-0.117313 0.743506 1.871 0.188565 -0.231844 0.954301 255 0 0 255
-0.112527 0.745496 1.876 -0.0927527 -0.155877 0.983412 255 0 0 255
-0.107141 0.743513 1.871 -0.489148 -0.0705196 0.869345 255 0 0 255
-0.102492 0.746696 1.879 -0.164066 -0.121035 0.978996 255 0 0 255
-0.09671 0.741533 1.866 0.373818 0.863414 0.338787 255 0 0 255
-0.091392 0.739549 1.861 0.434065 0.884185 0.172636 255 0 0 255
-0.086379 0.739949 1.862 0.437673 -0.338987 0.832785 255 0 0 255
-0.081318 0.739952 1.862 0.534872 -0.246387 0.808211 255 0 0 255
-0.075723 0.734789 1.849 -0.655199 0.509845 0.55747 255 0 0 255
-0.071079 0.738765 1.859 -0.901733 -0.254407 0.349506 255 0 0 255
-0.066736 0.746715 1.879 -0.909893 -0.226885 0.347301 255 0 0 255
-0.062546 0.757845 1.907 -0.716123 -0.420365 0.557191 255 0 0 255
-0.057181 0.755463 1.901 -0.999818 0.00398556 0.0186698 255 0 0 255
-0.051849 0.75308 1.895 0.335135 -0.829503 0.446776 255 0 0 255
-0.046401 0.748313 1.883 0.821817 0.377663 0.426599 255 0 0 255
-0.041479 0.751891 1.892 0.366221 -0.93051 0.00576234 255 0 0 255
-0.036182 0.748713 1.884 0.911742 0.341578 0.228148 255 0 0 255
-0.031637 0.762624 1.919 -0.922975 -0.312878 0.224108 255 0 0 255
-0.026351 0.760638 1.914 -0.909239 -0.277629 0.310173 255 0 0 255
-0.209321 0.758488 1.922 0.762767 -0.0977833 0.639237 255 0 0 255
-0.205372 0.763229 1.934 -0.724834 0.397569 0.562632 255 0 0 255
-0.198461 0.75692 1.918 0.311646 -0.133185 0.940818 255 0 0 255
-0.192745 0.754953 1.913 0.500935 0.330821 0.799764 255 0 0 255
-0.187742 0.755747 1.915 -0.139436 0.714264 0.685846 255 0 0 255
-0.182156 0.754174 1.911 0.295328 0.831269 0.470928 255 0 0 255
-0.177147 0.754968 1.913 0.570008 0.429788 0.700267 255 0 0 255
-0.171678 0.75379 1.91 0.391645 0.0582132 0.918273 255 0 0 255
-0.165703 0.750243 1.901 0.78175 0.290021 0.552046 255 0 0 255
-0.160114 0.748275 1.896 0.661549 0.272049 0.698815 255 0 0 255
-0.154552 0.746306 1.891 0.579812 -0.0804387 0.81077 255 0 0 255
-0.149175 0.745127 1.888 0.354964 -0.291149 0.888388 255 0 0 255
-0.143814 0.743948 1.885 0.308919 -0.0611708 0.949119 255 0 0 255
-0.13869 0.743952 1.885 0.326435 -0.165567 0.930606 255 0 0 255
-0.133425 0.743167 1.883 0.385568 -0.112769 0.915762 255 0 0 255
-0.127898 0.740803 1.877 0.54504 -0.175182 0.819904 255 0 0 255
-0.122534 0.739229 1.873 0.346466 0.0739404 0.935144 255 0 0 255
-0.117254 0.738049 1.87 -0.23137 0.356384 0.905239 255 0 0 255
-0.112351 0.739237 1.873 -0.168217 0.464184 0.869619 255 0 0 255
-0.107317 0.739635 1.874 -0.279164 0.000591673 0.960243 255 0 0 255
-0.102386 0.740823 1.877 -0.278743 -0.0436688 0.959373 255 0 0 255
-0.097128 0.739642 1.874 0.605451 0.358896 0.710368 255 0 0 255
-0.091788 0.737672 1.869 0.58652 0.696847 0.412793 255 0 0 255
-0.086568 0.736491 1.866 0.41975 0.731365 0.537508 255 0 0 255
-0.080884 0.730969 1.852 0.748848 0.34174 0.567839 255 0 0 255
-0.07589 0.731366 1.853 -0.975681 0.135969 0.171928 255 0 0 255
-0.070967 0.732553 1.856 -0.771613 0.484142 0.412576 255 0 0 255
-0.066489 0.738871 1.872 -0.924718 -0.108995 0.364714 255 0 0 255
-0.06222 0.74874 1.897 -0.99569 -0.0704117 0.0603724 255 0 0 255
-0.057303 0.7519 1.905 -0.724743 -0.688895 0.013108 255 0 0 255
-0.052343 0.75506 1.913 -0.807275 -0.360399 0.467353 255 0 0 255
-0.047857 0.766508 1.942 -0.539453 -0.83533 0.105902 255 0 0 255
-0.041546 0.747959 1.895 -0.982179 0.186003 0.0269816 255 0 0 255
-0.03651 0.750328 1.901 0.14903 0.874146 0.462232 255 0 0 255
-0.03088 0.739278 1.873 -0.885176 -0.315275 0.342146 255 0 0 255
-0.021159 0.755857 1.915 -0.918339 -0.161454 0.361367 255 0 0 255
-0.206931 0.744661 1.9 -0.897331 0.236504 0.372642 255 0 0 255
-0.201236 0.742707 1.895 -0.978592 -0.0584748 0.197331 255 0 0 255
-0.196811 0.745457 1.902 -0.811988 0.535027 0.233285 255 0 0 255
-0.192649 0.749382 1.912 0.619591 -0.752541 0.223132 255 0 0 255
-0.188041 0.751739 1.918 0.019635 0.902279 0.430706 255 0 0 255
-0.183114 0.752921 1.921 0.00628741 0.691239 0.722599 255 0 0 255
-0.17669 0.747831 1.908 0.364048 -0.119652 0.923663 255 0 0 255
-0.171504 0.747836 1.908 0.603506 -0.0318225 0.796723 255 0 0 255
-0.165969 0.746274 1.904 0.709223 -0.00412191 0.704972 255 0 0 255
-0.160372 0.744319 1.899 0.706022 0.332651 0.625201 255 0 0 255
-0.154557 0.741189 1.891 0.697401 -0.054534 0.714604 255 0 0 255
-0.149101 0.739626 1.887 0.521464 -0.108349 0.846366 255 0 0 255
-0.143743 0.738455 1.884 0.356486 -0.215545 0.909097 255 0 0 255
-0.138548 0.738068 1.883 0.221937 -0.262655 0.939019 255 0 0 255
-0.133217 0.736897 1.88 0.457295 -0.180939 0.870714 255 0 0 255
-0.127834 0.735334 1.876 0.313478 0.155429 0.936789 255 0 0 255
-0.122604 0.734554 1.874 0.351655 0.273716 0.89522 255 0 0 255
-0.117635 0.735342 1.876 -0.182375 0.535829 0.824395 255 0 0 255
-0.112595 0.735738 1.877 -0.0745454 0.253887 0.964357 255 0 0 255
-0.107435 0.73535 1.876 0.0141432 0.292323 0.956215 255 0 0 255
-0.10239 0.735746 1.877 0.00773886 0.0480095 0.998817 255 0 0 255
-0.097287 0.73575 1.877 0.331362 0.223154 0.916734 255 0 0 255
-0.092086 0.734969 1.875 0.435889 0.568115 0.69803 255 0 0 255
-0.086525 0.731053 1.865 0.62939 0.653862 0.41992 255 0 0 255
-0.081192 0.728704 1.859 0.551454 0.809634 0.200975 255 0 0 255
-0.076016 0.727531 1.856 -0.671465 0.584053 0.456088 255 0 0 255
-0.071467 0.73263 1.869 -0.269236 0.640389 0.719315 255 0 0 255
-0.066776 0.736944 1.88 -0.920739 0.0435002 0.387746 255 0 0 255
-0.062255 0.744003 1.898 -0.938078 -0.109616 0.328625 255 0 0 255
-0.057426 0.748317 1.909 -0.565915 -0.362081 0.740701 255 0 0 255
-0.052591 0.753415 1.922 -0.697321 -0.436627 0.568419 255 0 0 255
-0.047045 0.748321 1.909 0.100165 -0.190352 0.976593 255 0 0 255
-0.042885 0.766747 1.956 0.621199 -0.42606 0.657711 255 0 0 255
-0.036069 0.736172 1.878 0.966461 0.00729107 0.256709 255 0 0 255
-0.026532 0.755383 1.927 0.99892 -0.0280712 0.0370327 255 0 0 255
-0.02095 0.743232 1.896 -0.532115 -0.58307 0.613908 255 0 0 255
-0.209333 0.748081 1.922 0.580054 -0.454826 0.675774 255 0 0 255
-0.201561 0.738746 1.898 -0.978592 -0.0584748 0.197331 255 0 0 255
-0.197541 0.743033 1.909 -0.88008 0.146453 0.451676 255 0 0 255
-0.193663 0.748099 1.922 -0.678033 0.320747 0.661357 255 0 0 255
-0.189714 0.753165 1.935 0.787258 0.473215 0.395338 255 0 0 255
-0.183406 0.74889 1.924 0.896807 -0.0296087 0.441431 255 0 0 255
-0.176788 0.743057 1.909 0.574138 -0.0748922 0.815326 255 0 0 255
-0.171509 0.742674 1.908 0.459093 -0.0298285 0.887887 255 0 0 255
-0.165888 0.740733 1.903 0.626531 -0.0268309 0.778934 255 0 0 255
-0.160293 0.738792 1.898 0.741629 -0.034761 0.66991 255 0 0 255
-0.15448 0.735684 1.89 0.700754 -0.0292361 0.712804 255 0 0 255
-0.148948 0.733743 1.885 0.606252 -0.0570788 0.793222 255 0 0 255
-0.143519 0.732191 1.881 0.352209 -0.141062 0.92523 255 0 0 255
-0.138406 0.732196 1.881 0.272802 -0.136368 0.952357 255 0 0 255
-0.133151 0.731423 1.879 0.311578 -0.0846024 0.946447 255 0 0 255
-0.128043 0.731427 1.879 0.330243 0.0406122 0.943022 255 0 0 255
-0.122804 0.730654 1.877 0.194371 0.179419 0.96438 255 0 0 255
-0.117702 0.730658 1.877 -0.24803 0.256647 0.934138 255 0 0 255
-0.112719 0.731441 1.879 0.0870966 0.0524061 0.99482 255 0 0 255
-0.107382 0.729888 1.875 0.120617 0.0711778 0.990144 255 0 0 255
-0.102285 0.729892 1.875 -0.106513 0.0703012 0.991823 255 0 0 255
-0.097135 0.729507 1.874 -0.0711675 0.159543 0.984622 255 0 0 255
-0.092237 0.731067 1.878 -0.0261366 0.185509 0.982295 255 0 0 255
-0.086992 0.729903 1.875 0.452165 0.638628 0.622657 255 0 0 255
-0.081763 0.728738 1.872 0.457948 0.690062 0.560445 255 0 0 255
-0.076469 0.726795 1.867 -0.109582 0.982538 0.150371 255 0 0 255
-0.071355 0.726409 1.866 -0.00197051 0.967375 0.253343 255 0 0 255
-0.066423 0.727969 1.87 -0.875517 0.387085 0.289197 255 0 0 255
-0.061766 0.733032 1.883 -0.888567 0.131861 0.439388 255 0 0 255
-0.057217 0.740431 1.902 -0.666223 -0.401917 0.628179 255 0 0 255
-0.052238 0.743158 1.909 -0.558725 -0.333481 0.759353 255 0 0 255
-0.046973 0.741992 1.906 0.358115 0.0960302 0.928726 255 0 0 255
-0.041396 0.734987 1.888 0.458593 0.284729 0.841797 255 0 0 255
-0.035302 0.715524 1.838 -0.47767 -0.677509 0.559298 255 0 0 255
-0.031129 0.73499 1.888 -0.349579 0.920741 0.173295 255 0 0 255
-0.020906 0.736549 1.892 -0.974158 0.0821402 0.210402 255 0 0 255
-0.209993 0.745198 1.928 -0.640613 -0.372523 0.671447 255 0 0 255
-0.202948 0.738634 1.911 -0.863963 0.355338 0.356794 255 0 0 255
-0.19734 0.737094 1.907 -0.882115 0.0950248 0.46135 255 0 0 255
-0.195281 0.749083 1.938 0.412306 0.0844113 0.907127 255 0 0 255
-0.190112 0.749476 1.939 0.787258 0.473215 0.395338 255 0 0 255
-0.18265 0.740592 1.916 0.707976 -0.275991 0.650076 255 0 0 255
-0.176516 0.736733 1.906 0.583038 0.172176 0.793991 255 0 0 255
-0.171246 0.736352 1.905 0.541457 0.114522 0.832892 255 0 0 255
-0.165806 0.735199 1.902 0.694085 -0.0104945 0.719816 255 0 0 255
-0.16013 0.732885 1.896 0.73354 -0.0229357 0.679259 255 0 0 255
-0.154486 0.730572 1.89 0.694049 0.078554 0.71563 255 0 0 255
-0.149032 0.729031 1.886 0.658128 0.144263 0.738956 255 0 0 255
-0.143524 0.727104 1.881 0.47202 0.152 0.868385 255 0 0 255
-0.138411 0.727109 1.881 0.300741 0.0895082 0.949496 255 0 0 255
-0.133085 0.725955 1.878 0.229022 -0.00506535 0.973408 255 0 0 255
-0.12798 0.72596 1.878 0.203521 0.012042 0.978997 255 0 0 255
-0.122743 0.725191 1.876 0.30339 0.0266553 0.952494 255 0 0 255
-0.117581 0.724809 1.875 -0.00575877 -0.202722 0.979219 255 0 0 255
-0.112603 0.725587 1.877 0.0374827 -0.130469 0.990744 255 0 0 255
-0.107386 0.724818 1.875 0.0437724 -0.0707361 0.996534 255 0 0 255
-0.102452 0.725982 1.878 -0.145443 0.128594 0.980974 255 0 0 255
-0.097346 0.725986 1.878 -0.146729 0.250973 0.956809 255 0 0 255
-0.09229 0.726377 1.879 0.0440671 0.200123 0.978779 255 0 0 255
-0.087088 0.725607 1.877 0.391807 0.209102 0.895971 255 0 0 255
-0.081898 0.724838 1.875 0.430496 0.390788 0.813608 255 0 0 255
-0.076759 0.724454 1.874 0.127497 0.750064 0.64896 255 0 0 255
-0.07174 0.72523 1.876 -0.320907 0.766107 0.556865 255 0 0 255
-0.066533 0.724074 1.873 -0.314563 0.811399 0.492628 255 0 0 255
-0.061834 0.728715 1.885 -0.758888 0.187293 0.623707 255 0 0 255
-0.056979 0.732197 1.894 -0.586036 -0.43031 0.686582 255 0 0 255
-0.052076 0.735679 1.903 -0.749609 -0.40168 0.526061 255 0 0 255
-0.04663 0.731428 1.892 -0.249977 0.794481 0.553454 255 0 0 255
-0.040937 0.721765 1.867 0.0416382 0.770348 0.636263 255 0 0 255
-0.034958 0.703597 1.82 -0.525558 -0.815925 0.240946 255 0 0 255
-0.206732 0.728466 1.898 0.901422 -0.0224608 0.432358 255 0 0 255
-0.20168 0.728857 1.899 0.945371 0.232364 0.22865 255 0 0 255
-0.196002 0.726945 1.894 0.950062 0.226395 0.214773 255 0 0 255
-0.19297 0.735011 1.915 -0.375762 0.0378719 0.925942 255 0 0 255
-0.188942 0.739624 1.927 0.92768 -0.213329 0.306433 255 0 0 255
-0.182751 0.735792 1.917 0.647395 -0.0297559 0.761574 255 0 0 255
-0.176893 0.733112 1.91 0.628969 0.185395 0.755001 255 0 0 255
-0.171701 0.733119 1.91 0.603726 0.1614 0.780683 255 0 0 255
-0.1659 0.730438 1.903 0.726466 0.0838894 0.682063 255 0 0 255
-0.16022 0.728141 1.897 0.732597 0.0402862 0.679469 255 0 0 255
-0.154573 0.725844 1.891 0.644411 0.134336 0.752787 255 0 0 255
-0.149117 0.724315 1.887 0.638079 0.251814 0.727629 255 0 0 255
-0.143606 0.722401 1.882 0.512767 0.275376 0.813165 255 0 0 255
-0.138416 0.722023 1.881 0.417953 0.271355 0.866996 255 0 0 255
-0.13309 0.720877 1.878 0.275176 0.19962 0.940441 255 0 0 255
-0.128053 0.721266 1.879 0.24965 0.249581 0.93562 255 0 0 255
-0.122748 0.720119 1.876 0.404546 0.113475 0.90745 255 0 0 255
-0.117586 0.71974 1.875 0.10554 -0.0795932 0.991225 255 0 0 255
-0.112548 0.720129 1.876 -0.00597488 -0.173693 0.984782 255 0 0 255
-0.107448 0.720133 1.876 -0.230906 -0.0802516 0.969661 255 0 0 255
-0.102456 0.720906 1.878 -0.336098 0.0949043 0.937033 255 0 0 255
-0.09735 0.72091 1.878 -0.108599 0.178157 0.977991 255 0 0 255
-0.092244 0.720914 1.878 0.104392 0.104377 0.989044 255 0 0 255
-0.087092 0.720534 1.877 0.274481 0.211155 0.938123 255 0 0 255
-0.081945 0.720153 1.876 0.147139 0.377187 0.914374 255 0 0 255
-0.076844 0.720157 1.876 -0.246074 0.417941 0.874513 255 0 0 255
-0.07182 0.720928 1.878 -0.462498 0.549134 0.696095 255 0 0 255
-0.066891 0.72285 1.883 -0.736077 0.447751 0.50765 255 0 0 255
-0.061902 0.724389 1.887 -0.702822 0.239382 0.669878 255 0 0 255
-0.056982 0.727078 1.894 -0.625758 0.230753 0.745104 255 0 0 255
-0.051968 0.729 1.899 -0.0936227 -0.889518 0.447205 255 0 0 255
-0.047027 0.732457 1.908 -0.4773 -0.288111 0.830167 255 0 0 255
-0.041575 0.727853 1.896 -0.36962 0.812534 0.450743 255 0 0 255
-0.037246 0.744362 1.939 0.129 -0.962499 0.238652 255 0 0 255
-0.030637 0.713268 1.858 -0.987518 -0.131819 0.0862139 255 0 0 255
-0.201793 0.7241 1.9 0.716102 0.371851 0.590699 255 0 0 255
-0.195077 0.718391 1.885 0.23277 -0.279569 0.931482 255 0 0 255
-0.19066 0.721066 1.892 -0.94715 -0.31424 0.0645019 255 0 0 255
-0.187969 0.7306 1.917 -0.0815177 0.106007 0.991018 255 0 0 255
-0.182568 0.729845 1.915 0.471779 -0.0555396 0.879966 255 0 0 255
-0.177177 0.72909 1.913 0.629675 0.16366 0.759424 255 0 0 255
-0.171618 0.727572 1.909 0.621931 0.0927022 0.777566 255 0 0 255
-0.165993 0.725673 1.904 0.741218 0.00363438 0.671255 255 0 0 255
-0.160142 0.72263 1.896 0.72222 0.0140762 0.69152 255 0 0 255
-0.154743 0.721493 1.893 0.602924 0.131276 0.786924 255 0 0 255
-0.149281 0.719975 1.889 0.580172 0.26826 0.76905 255 0 0 255
-0.143917 0.718837 1.886 0.521664 0.356093 0.775284 255 0 0 255
-0.138569 0.7177 1.883 0.477913 0.383784 0.790132 255 0 0 255
-0.133237 0.716562 1.88 0.243185 0.321152 0.915272 255 0 0 255
-0.128126 0.716567 1.88 0.277071 0.347387 0.895854 255 0 0 255
-0.122819 0.715429 1.877 0.482635 0.24293 0.841456 255 0 0 255
-0.117528 0.714291 1.874 0.284272 0.133385 0.94942 255 0 0 255
-0.112373 0.713915 1.873 -0.10404 0.0742895 0.991795 255 0 0 255
-0.107395 0.714682 1.875 -0.229772 -0.048924 0.972014 255 0 0 255
-0.102406 0.715448 1.877 -0.233622 -0.0221021 0.972076 255 0 0 255
-0.097458 0.716596 1.88 -0.163977 -0.0520683 0.985089 255 0 0 255
-0.092298 0.716219 1.879 -0.0695145 0.124929 0.989728 255 0 0 255
-0.087189 0.716223 1.879 0.109961 0.246814 0.962804 255 0 0 255
-0.081992 0.715465 1.877 0.0368349 0.421379 0.906137 255 0 0 255
-0.07697 0.716231 1.879 -0.243728 0.42115 0.87363 255 0 0 255
-0.071937 0.716996 1.881 -0.561455 0.26682 0.783311 255 0 0 255
-0.066965 0.718524 1.885 -0.701017 0.1858 0.688516 255 0 0 255
-0.062003 0.720433 1.89 -0.694274 0.1951 0.692762 255 0 0 255
-0.056954 0.721579 1.893 -0.579131 -0.122935 0.805912 255 0 0 255
-0.051889 0.722725 1.896 -0.689551 0.024238 0.723831 255 0 0 255
-0.047029 0.727302 1.908 -0.58065 -0.158751 0.798526 255 0 0 255
-0.041731 0.725398 1.903 -0.827678 0.211669 0.519755 255 0 0 255
-0.036671 0.727687 1.909 -0.846043 -0.525464 0.0899911 255 0 0 255
-0.208381 0.723872 1.913 0.180768 -0.947675 0.263126 255 0 0 255
-0.203819 0.72615 1.919 -0.22362 0.120067 0.967253 255 0 0 255
-0.197051 0.720482 1.904 -0.60006 0.691443 0.402287 255 0 0 255
-0.192682 0.723517 1.912 -0.678779 0.529674 0.508631 255 0 0 255
-0.18778 0.724659 1.915 0.387631 -0.136772 0.911611 255 0 0 255
-0.182765 0.725423 1.917 0.208042 -0.268475 0.940553 255 0 0 255
-0.177092 0.723538 1.912 0.457121 -0.198685 0.866928 255 0 0 255
-0.171535 0.722032 1.908 0.507669 -0.234695 0.828969 255 0 0 255
-0.166 0.720525 1.904 0.704874 -0.060491 0.706749 255 0 0 255
-0.160148 0.717504 1.896 0.687253 0.0193743 0.72616 255 0 0 255
-0.154749 0.716375 1.893 0.519636 0.0728173 0.851279 255 0 0 255
-0.149366 0.715246 1.89 0.459579 0.195295 0.866399 255 0 0 255
-0.144075 0.714496 1.888 0.460009 0.286111 0.840555 255 0 0 255
-0.138648 0.712988 1.884 0.496055 0.367199 0.786825 255 0 0 255
-0.133385 0.712237 1.882 0.299453 0.424583 0.854434 255 0 0 255
-0.128268 0.712243 1.882 0.334277 0.31392 0.888658 255 0 0 255
-0.122955 0.711113 1.879 0.498284 0.296697 0.814668 255 0 0 255
-0.117658 0.709983 1.876 0.381778 0.390969 0.83749 255 0 0 255
-0.112498 0.709609 1.875 0.00277249 0.369434 0.929253 255 0 0 255
-0.107514 0.710371 1.877 -0.213556 0.242792 0.94628 255 0 0 255
-0.102356 0.709997 1.876 -0.249067 0.09319 0.963992 255 0 0 255
-0.097307 0.71038 1.877 -0.240194 0.0543358 0.969203 255 0 0 255
-0.092302 0.711142 1.879 -0.207509 0.072346 0.975554 255 0 0 255
-0.087285 0.711903 1.881 -0.0345496 0.282135 0.958753 255 0 0 255
-0.082127 0.711528 1.88 -0.0710811 0.413448 0.907749 255 0 0 255
-0.077056 0.71191 1.881 -0.211832 0.323392 0.92225 255 0 0 255
-0.071941 0.711914 1.881 -0.470149 0.307343 0.827346 255 0 0 255
-0.067003 0.713809 1.886 -0.651352 0.11108 0.750601 255 0 0 255
-0.062006 0.715326 1.89 -0.57296 0.0274484 0.819123 255 0 0 255
-0.056957 0.716465 1.893 -0.50408 0.0615741 0.861459 255 0 0 255
-0.051809 0.716467 1.893 -0.567492 0.180849 0.803272 255 0 0 255
-0.046957 0.721011 1.905 -0.82132 -0.00819001 0.570409 255 0 0 255
-0.041754 0.720635 1.904 -0.61089 0.539186 0.579735 255 0 0 255
-0.036711 0.723286 1.911 -0.295401 0.592461 0.749486 255 0 0 255
-0.031168 0.71534 1.89 0.570356 -0.20941 0.794256 255 0 0 255
-0.210796 0.709298 1.888 0.770077 -0.0255964 0.637438 255 0 0 255
-0.207626 0.716068 1.906 -0.955239 0.00399187 0.29581 255 0 0 255
-0.203295 0.719082 1.914 -0.320128 -0.715371 0.621098 255 0 0 255
-0.1983 0.719841 1.916 -0.288561 -0.468884 0.834794 255 0 0 255
-0.193597 0.721728 1.921 0.108964 0.0535427 0.992603 255 0 0 255
-0.188081 0.720608 1.918 0.29607 -0.08992 0.950924 255 0 0 255
-0.182201 0.717986 1.911 0.557825 -0.101677 0.823707 255 0 0 255
-0.176728 0.716866 1.908 0.541007 0.0261579 0.840611 255 0 0 255
-0.171182 0.71537 1.904 0.463284 -0.0346547 0.885532 255 0 0 255
-0.165919 0.715002 1.903 0.65459 -0.0140517 0.755854 255 0 0 255
-0.160155 0.712379 1.896 0.656508 0.0837763 0.749653 255 0 0 255
-0.154756 0.711258 1.893 0.504812 0.0982859 0.857616 255 0 0 255
-0.149372 0.710138 1.89 0.350946 0.193527 0.916179 255 0 0 255
-0.144234 0.710144 1.89 0.362422 0.327466 0.872592 255 0 0 255
-0.138875 0.709023 1.887 0.452751 0.400047 0.796856 255 0 0 255
-0.133603 0.708278 1.885 0.387309 0.364083 0.847016 255 0 0 255
-0.128342 0.707532 1.883 0.382785 0.294096 0.875776 255 0 0 255
-0.123091 0.706786 1.881 0.43351 0.317521 0.843356 255 0 0 255
-0.117789 0.705665 1.878 0.326581 0.436439 0.838371 255 0 0 255
-0.112623 0.705294 1.877 0.11005 0.44301 0.889736 255 0 0 255
-0.107462 0.704923 1.876 -0.0709231 0.337698 0.938579 255 0 0 255
-0.10247 0.70568 1.878 -0.106725 0.359695 0.926946 255 0 0 255
-0.097363 0.705685 1.878 -0.210238 0.359688 0.909079 255 0 0 255
-0.092355 0.706441 1.88 -0.276029 0.226807 0.934006 255 0 0 255
-0.087289 0.706821 1.881 -0.102915 0.124336 0.986889 255 0 0 255
-0.082218 0.7072 1.882 -0.139627 0.157539 0.977592 255 0 0 255
-0.077141 0.70758 1.883 -0.211367 0.269272 0.939583 255 0 0 255
-0.072021 0.707584 1.883 -0.461881 0.287736 0.838972 255 0 0 255
-0.067007 0.708714 1.886 -0.638365 0.254129 0.726573 255 0 0 255
-0.061976 0.709845 1.889 -0.633827 0.22297 0.74064 255 0 0 255
-0.056899 0.710599 1.891 -0.387884 0.228891 0.892835 255 0 0 255
-0.051866 0.712105 1.895 -0.536997 0.291836 0.791496 255 0 0 255
-0.046959 0.715865 1.905 -0.802579 0.491302 0.338363 255 0 0 255
-0.04191 0.718122 1.911 -0.547842 0.644656 0.533187 255 0 0 255
-0.036713 0.718124 1.911 -0.983914 0.117565 0.134508 255 0 0 255
-0.031087 0.708355 1.885 0.193745 0.968717 0.15508 255 0 0 255
-0.20698 0.708676 1.9 -0.570534 -0.452709 0.685234 255 0 0 255
-0.202772 0.712041 1.909 -0.468359 -0.6685 0.577709 255 0 0 255
-0.197998 0.713541 1.913 -0.464499 0.0398929 0.884674 255 0 0 255
-0.193403 0.715788 1.919 -0.12921 -0.131878 0.982809 255 0 0 255
-0.187893 0.714676 1.916 0.63855 0.0767506 0.765743 255 0 0 255
-0.182208 0.712819 1.911 0.304595 0.244382 0.920597 255 0 0 255
-0.176828 0.712081 1.909 0.558584 0.430408 0.709036 255 0 0 255
-0.171279 0.710596 1.905 0.603924 0.203957 0.770504 255 0 0 255
-0.165927 0.709858 1.903 0.631917 0.0844573 0.770421 255 0 0 255
-0.160331 0.708 1.898 0.643118 0.107283 0.758215 255 0 0 255
-0.154844 0.706515 1.894 0.524385 0.0962428 0.846024 255 0 0 255
-0.149537 0.705776 1.892 0.320169 0.0915829 0.942923 255 0 0 255
-0.144317 0.705409 1.891 0.207808 0.154515 0.965889 255 0 0 255
-0.139102 0.705043 1.89 0.369184 0.280964 0.885868 255 0 0 255
-0.133751 0.70393 1.887 0.45763 0.302803 0.835994 255 0 0 255
-0.128416 0.702817 1.884 0.402555 0.235002 0.884717 255 0 0 255
-0.123163 0.702077 1.882 0.353599 0.294854 0.88771 255 0 0 255
-0.117983 0.701709 1.881 0.27294 0.330615 0.903436 255 0 0 255
-0.112808 0.701342 1.88 0.20522 0.410008 0.888695 255 0 0 255
-0.107639 0.700974 1.879 -0.03423 0.391322 0.919617 255 0 0 255
-0.102584 0.701352 1.88 -0.208823 0.419782 0.883276 255 0 0 255
-0.097472 0.701357 1.88 -0.139976 0.401551 0.905077 255 0 0 255
-0.092409 0.701735 1.881 -0.0711212 0.295142 0.952803 255 0 0 255
-0.087294 0.701739 1.881 -0.106054 0.197863 0.974476 255 0 0 255
-0.082178 0.701743 1.881 -0.314925 0.234742 0.91963 255 0 0 255
-0.077145 0.702493 1.883 -0.349528 0.341453 0.872491 255 0 0 255
-0.072101 0.703243 1.885 -0.448769 0.457373 0.767735 255 0 0 255
-0.067117 0.704739 1.889 -0.642952 0.394577 0.656446 255 0 0 255
-0.062176 0.706981 1.895 -0.670884 0.54564 0.502187 255 0 0 255
-0.057083 0.70773 1.897 -0.531223 0.696825 0.481909 255 0 0 255
-0.052033 0.709225 1.901 -0.686646 0.636287 0.351649 255 0 0 255
-0.04706 0.712212 1.909 -0.654154 0.446163 0.610755 255 0 0 255
-0.042088 0.715945 1.919 -0.527571 0.431673 0.73166 255 0 0 255
-0.036734 0.713336 1.912 0.127193 0.253864 0.95884 255 0 0 255
-0.031138 0.704383 1.888 -0.319863 -0.947463 0.00139552 255 0 0 255
-0.206335 0.701317 1.894 -0.548893 -0.707918 0.444487 255 0 0 255
-0.201081 0.700955 1.893 -0.612021 -0.685095 0.395064 255 0 0 255
-0.195936 0.700964 1.893 -0.549697 0.3766 0.745658 255 0 0 255
-0.1919 0.705045 1.904 -0.370041 -0.671291 0.642213 255 0 0 255
-0.187705 0.708756 1.914 0.421624 0.47672 0.771344 255 0 0 255
-0.182598 0.709135 1.915 0.364609 0.531581 0.764514 255 0 0 255
-0.177299 0.708772 1.914 0.48376 0.452318 0.749256 255 0 0 255
-0.171557 0.706558 1.908 0.719319 0.207269 0.663039 255 0 0 255
-0.165934 0.704715 1.903 0.629825 0.0307103 0.776129 255 0 0 255
-0.160338 0.70287 1.898 0.632629 0.0598983 0.772135 255 0 0 255
-0.154851 0.701396 1.894 0.549076 0.0721911 0.832649 255 0 0 255
-0.149465 0.700292 1.891 0.389858 -0.0760418 0.91773 255 0 0 255
-0.144247 0.699929 1.89 0.095288 -0.141686 0.985315 255 0 0 255
-0.139109 0.699936 1.89 0.235296 -0.0286277 0.971502 255 0 0 255
-0.133828 0.699202 1.888 0.464737 0.044279 0.884341 255 0 0 255
-0.12849 0.698097 1.885 0.400914 0.0764899 0.912917 255 0 0 255
-0.123299 0.697733 1.884 0.234526 0.135119 0.962674 255 0 0 255
-0.118051 0.696998 1.882 0.14382 0.289425 0.946334 255 0 0 255
-0.112934 0.697003 1.882 0.171731 0.310505 0.934931 255 0 0 255
-0.107701 0.696268 1.88 0.00228269 0.403659 0.914906 255 0 0 255
-0.102698 0.697014 1.882 -0.208199 0.350508 0.913125 255 0 0 255
-0.097632 0.69739 1.883 -0.105178 0.384708 0.917027 255 0 0 255
-0.092512 0.697394 1.883 0.03656 0.308568 0.950499 255 0 0 255
-0.087298 0.696658 1.881 -0.107114 0.367054 0.924012 255 0 0 255
-0.082314 0.697774 1.884 -0.374799 0.334027 0.864842 255 0 0 255
-0.077272 0.698518 1.886 -0.450065 0.419937 0.788095 255 0 0 255
-0.072257 0.699633 1.889 -0.506864 0.485151 0.712543 255 0 0 255
-0.067191 0.700378 1.891 -0.745423 0.389865 0.540694 255 0 0 255
-0.062343 0.703714 1.9 -0.706289 0.485812 0.51492 255 0 0 255
-0.057296 0.705199 1.904 -0.656886 0.626695 0.41923 255 0 0 255
-0.052255 0.707054 1.909 -0.583408 0.597368 0.550261 255 0 0 255
-0.047112 0.707797 1.911 -0.423682 0.546724 0.72221 255 0 0 255
-0.042068 0.710392 1.918 -0.399447 0.194739 0.895834 255 0 0 255
-0.036774 0.708913 1.914 0.227214 0.329173 0.916525 255 0 0 255
-0.030661 0.688543 1.859 0.720015 0.691318 0.0604847 255 0 0 255
-0.195531 0.694376 1.889 -0.668167 -0.614849 0.418944 255 0 0 255
-0.19211 0.700634 1.906 -0.852687 -0.208404 0.479054 255 0 0 255
-0.188204 0.705421 1.919 0.505382 0.367112 0.780909 255 0 0 255
-0.183178 0.706164 1.921 0.520494 0.521935 0.675773 255 0 0 255
-0.177493 0.704335 1.916 0.679573 0.388263 0.622441 255 0 0 255
-0.171565 0.701402 1.908 0.760011 0.022692 0.649514 255 0 0 255
-0.165855 0.699204 1.902 0.643779 0.0383506 0.76425 255 0 0 255
-0.16043 0.698109 1.899 0.582882 0.0246757 0.812182 255 0 0 255
-0.154859 0.696278 1.894 0.615903 0.0197682 0.787574 255 0 0 255
-0.149314 0.694448 1.889 0.522773 0.103089 0.846215 255 0 0 255
-0.144102 0.694087 1.888 0.198115 -0.0178098 0.980017 255 0 0 255
-0.139042 0.694462 1.889 0.164022 -0.103428 0.98102 255 0 0 255
-0.133764 0.693733 1.887 0.354339 -0.038288 0.934333 255 0 0 255
-0.128428 0.692637 1.884 0.306383 0.0992416 0.946721 255 0 0 255
-0.12324 0.692275 1.883 0.147757 0.251081 0.956622 255 0 0 255
-0.11812 0.692282 1.883 0.107127 0.300206 0.94784 255 0 0 255
-0.112999 0.692287 1.883 0.171656 0.297243 0.939245 255 0 0 255
-0.107821 0.691925 1.882 0.0741508 0.288268 0.954674 255 0 0 255
-0.102758 0.692298 1.883 -0.173709 0.180909 0.968038 255 0 0 255
-0.097689 0.692671 1.884 -0.104204 0.162836 0.981135 255 0 0 255
-0.092565 0.692676 1.884 -0.0338441 0.224827 0.973811 255 0 0 255
-0.087442 0.692681 1.884 -0.284733 0.370291 0.884201 255 0 0 255
-0.082405 0.693421 1.886 -0.475961 0.410326 0.777877 255 0 0 255
-0.077358 0.69416 1.888 -0.458993 0.5061 0.730197 255 0 0 255
-0.072338 0.695267 1.891 -0.477359 0.531179 0.699983 255 0 0 255
-0.067301 0.696374 1.894 -0.743632 0.370184 0.556755 255 0 0 255
-0.062412 0.699319 1.902 -0.845371 0.238621 0.47792 255 0 0 255
-0.05751 0.702631 1.911 -0.688131 0.199754 0.697549 255 0 0 255
-0.052394 0.703737 1.914 -0.470532 0.239834 0.849164 255 0 0 255
-0.047188 0.703739 1.914 -0.530751 0.327998 0.781487 255 0 0 255
-0.042048 0.704845 1.917 -0.366225 0.538354 0.758982 255 0 0 255
-0.036795 0.704112 1.915 -0.0209676 0.320518 0.947011 255 0 0 255
-0.03157 0.703746 1.914 0.40069 0.490445 0.773893 255 0 0 255
-0.192017 0.695117 1.905 -0.772526 -0.520874 0.363172 255 0 0 255
-0.188899 0.702789 1.926 0.504634 0.368148 0.780904 255 0 0 255
-0.183282 0.701338 1.922 0.562467 0.334915 0.755951 255 0 0 255
-0.177408 0.698792 1.915 0.744537 -0.0394092 0.666417 255 0 0 255
-0.171303 0.695151 1.905 0.451504 0.239618 0.859492 255 0 0 255
-0.165862 0.694065 1.902 0.494149 0.336039 0.801807 255 0 0 255
-0.160353 0.692613 1.898 0.594296 0.345883 0.72607 255 0 0 255
-0.15503 0.691891 1.896 0.668608 0.432683 0.604772 255 0 0 255
-0.1494 0.689709 1.89 0.542491 0.29883 0.785114 255 0 0 255
-0.144185 0.689351 1.889 0.383005 0.188069 0.904399 255 0 0 255
-0.138828 0.688264 1.886 0.292089 0.212056 0.932586 255 0 0 255
-0.133771 0.688636 1.887 0.200277 0.183652 0.962373 255 0 0 255
-0.128503 0.687912 1.885 0.215565 0.277518 0.936224 255 0 0 255
-0.123443 0.688284 1.886 0.0741225 0.336984 0.938588 255 0 0 255
-0.118251 0.687925 1.885 0.104172 0.37895 0.919535 255 0 0 255
-0.113125 0.687931 1.885 0.17111 0.30121 0.93808 255 0 0 255
-0.107884 0.687207 1.883 0.176449 0.264886 0.947999 255 0 0 255
-0.102763 0.687213 1.883 -0.0331393 0.109754 0.993406 255 0 0 255
-0.097642 0.687218 1.883 -0.0970688 -0.0215762 0.995044 255 0 0 255
-0.09257 0.687588 1.884 -0.205149 0.116903 0.971724 255 0 0 255
-0.087539 0.688323 1.886 -0.398862 0.233338 0.886827 255 0 0 255
-0.082541 0.689422 1.889 -0.526494 0.353324 0.773283 255 0 0 255
-0.077526 0.690521 1.892 -0.536679 0.470995 0.7001 255 0 0 255
-0.072456 0.691255 1.894 -0.543189 0.526834 0.653752 255 0 0 255
-0.067411 0.692354 1.897 -0.671136 0.44693 0.591465 255 0 0 255
-0.062416 0.694183 1.902 -0.767774 0.208541 0.605834 255 0 0 255
-0.057453 0.696741 1.909 -0.777763 0.0888963 0.62224 255 0 0 255
-0.05237 0.698204 1.913 -0.633596 0.170579 0.754625 255 0 0 255
-0.04724 0.699301 1.916 -0.591251 0.258455 0.763952 255 0 0 255
-0.04205 0.699669 1.917 -0.368265 0.405886 0.836443 255 0 0 255
-0.036913 0.701131 1.921 0.31879 0.478142 0.818385 255 0 0 255
-0.188515 0.696135 1.922 0.609403 -0.18756 0.770357 255 0 0 255
-0.183004 0.695058 1.919 0.544852 -0.374014 0.7505 255 0 0 255
-0.176954 0.691806 1.91 0.699659 -0.083846 0.70954 255 0 0 255
-0.171401 0.690366 1.906 -0.0206819 0.479045 0.877547 255 0 0 255
-0.166307 0.690737 1.907 0.334188 0.424474 0.841511 255 0 0 255
-0.161037 0.690383 1.906 0.389781 0.549796 0.73878 255 0 0 255
-0.155446 0.68858 1.901 0.599998 0.440749 0.66764 255 0 0 255
-0.149803 0.686414 1.895 0.543978 0.601186 0.585375 255 0 0 255
-0.144498 0.685697 1.893 0.505584 0.594495 0.625268 255 0 0 255
-0.139056 0.684256 1.889 0.266699 0.46759 0.842752 255 0 0 255
-0.133919 0.684263 1.889 0.0827156 0.566294 0.820042 255 0 0 255
-0.128714 0.683908 1.888 0.169063 0.594541 0.78609 255 0 0 255
-0.12358 0.683914 1.888 0.171488 0.541435 0.823068 255 0 0 255
-0.118383 0.683559 1.887 0.235809 0.383072 0.893112 255 0 0 255
-0.113191 0.683202 1.886 0.266092 0.266898 0.926261 255 0 0 255
-0.108005 0.682846 1.885 0.29393 0.167117 0.941104 255 0 0 255
-0.102769 0.682127 1.883 0.11523 0.205148 0.971924 255 0 0 255
-0.097699 0.682495 1.884 -0.192838 0.283694 0.939325 255 0 0 255
-0.092575 0.6825 1.884 -0.392165 0.136918 0.909648 255 0 0 255
-0.08759 0.683592 1.887 -0.498597 0.270527 0.823539 255 0 0 255
-0.082545 0.684321 1.889 -0.605413 0.342297 0.718546 255 0 0 255
-0.077612 0.686137 1.894 -0.598368 0.429695 0.676252 255 0 0 255
-0.072575 0.687228 1.897 -0.595215 0.536806 0.597963 255 0 0 255
-0.067593 0.689043 1.902 -0.556567 0.531496 0.638549 255 0 0 255
-0.062452 0.689409 1.903 -0.675032 0.29819 0.674844 255 0 0 255
-0.057456 0.691586 1.909 -0.731522 0.210348 0.64856 255 0 0 255
-0.052373 0.693038 1.913 -0.665046 -0.028554 0.746256 255 0 0 255
-0.047341 0.695577 1.92 -0.626799 0.297178 0.720284 255 0 0 255
-0.042206 0.697029 1.924 -0.699383 0.404269 0.589432 255 0 0 255
-0.03703 0.698118 1.927 -0.5784 0.524907 0.624441 255 0 0 255
-0.187642 0.687706 1.913 0.943923 0.125243 0.305488 255 0 0 255
-0.181488 0.68412 1.903 -0.231144 -0.58778 0.775298 255 0 0 255
-0.176314 0.684129 1.903 -0.719446 -0.195159 0.666566 255 0 0 255
-0.17177 0.686655 1.91 -0.230656 0.259076 0.937911 255 0 0 255
-0.166577 0.686663 1.91 0.372146 0.303559 0.877131 255 0 0 255
-0.160877 0.684515 1.904 0.649333 0.157702 0.743974 255 0 0 255
-0.155781 0.684883 1.905 0.0822139 0.0277401 0.996229 255 0 0 255
-0.150285 0.683453 1.901 0.471494 0.541915 0.695717 255 0 0 255
-0.144887 0.682382 1.898 0.344432 0.796854 0.496377 255 0 0 255
-0.139358 0.680592 1.893 0.246591 0.810772 0.530888 255 0 0 255
-0.134281 0.680959 1.894 0.0907784 0.804808 0.586552 255 0 0 255
-0.129062 0.680606 1.893 0.187826 0.788708 0.585373 255 0 0 255
-0.123783 0.679894 1.891 0.347959 0.578365 0.737847 255 0 0 255
-0.118515 0.679181 1.889 0.320114 0.454733 0.831111 255 0 0 255
-0.113257 0.678469 1.887 0.274933 0.39534 0.876424 255 0 0 255
-0.108011 0.677756 1.885 0.312287 0.407665 0.858071 255 0 0 255
-0.102774 0.677042 1.883 0.135196 0.458059 0.878581 255 0 0 255
-0.097653 0.677048 1.883 -0.306009 0.521205 0.796683 255 0 0 255
-0.092679 0.678132 1.886 -0.471215 0.560955 0.680651 255 0 0 255
-0.087688 0.679216 1.889 -0.469943 0.570903 0.673218 255 0 0 255
-0.082681 0.680299 1.892 -0.59536 0.514278 0.617305 255 0 0 255
-0.077739 0.682102 1.897 -0.635629 0.483964 0.60146 255 0 0 255
-0.072694 0.683185 1.9 -0.633705 0.492962 0.59616 255 0 0 255
-0.067739 0.685346 1.906 -0.517139 0.68907 0.50769 255 0 0 255
-0.062521 0.68499 1.905 -0.46021 0.637724 0.617669 255 0 0 255
-0.057489 0.686792 1.91 -0.595294 0.280405 0.752993 255 0 0 255
-0.052321 0.687154 1.911 -0.462334 -0.0593312 0.884719 255 0 0 255
-0.047295 0.689674 1.918 -0.623396 -0.274499 0.732139 255 0 0 255
-0.042165 0.691115 1.922 -0.806278 -0.102724 0.582549 255 0 0 255
-0.037109 0.694354 1.931 -0.732578 0.4298 0.527828 255 0 0 255
-0.031559 0.687883 1.913 0.983584 -0.116608 0.137716 255 0 0 255
-0.175767 0.676848 1.897 -0.314414 -0.879821 0.356454 255 0 0 255
-0.171869 0.681852 1.911 -0.369346 0.305637 0.877593 255 0 0 255
-0.166585 0.681504 1.91 0.380862 0.265199 0.885784 255 0 0 255
-0.160632 0.678301 1.901 0.442677 -0.0193791 0.896472 255 0 0 255
-0.155544 0.678666 1.902 -0.103479 0.0953203 0.990054 255 0 0 255
-0.150451 0.679032 1.903 -0.042528 0.534954 0.84381 255 0 0 255
-0.145277 0.67904 1.903 0.126878 0.766937 0.629055 255 0 0 255
-0.139881 0.677977 1.9 0.230369 0.862436 0.450705 255 0 0 255
-0.134714 0.677984 1.9 0.21764 0.858283 0.464739 255 0 0 255
-0.12941 0.677278 1.898 0.403377 0.696882 0.592994 255 0 0 255
-0.123986 0.675858 1.894 0.482184 0.550833 0.681235 255 0 0 255
-0.11871 0.675151 1.892 0.31347 0.528943 0.788642 255 0 0 255
-0.113444 0.674444 1.89 0.200476 0.633771 0.74709 255 0 0 255
-0.108303 0.67445 1.89 0.201565 0.708121 0.67671 255 0 0 255
-0.103053 0.673742 1.888 0.00248461 0.844684 0.535259 255 0 0 255
-0.098022 0.674462 1.89 -0.194367 0.840825 0.505208 255 0 0 255
-0.092979 0.675181 1.892 -0.368037 0.837469 0.403973 255 0 0 255
-0.087972 0.676257 1.895 -0.282578 0.816585 0.503327 255 0 0 255
-0.08286 0.676619 1.896 -0.439599 0.696458 0.567186 255 0 0 255
-0.077908 0.678407 1.901 -0.600115 0.498932 0.625243 255 0 0 255
-0.072851 0.679482 1.904 -0.714723 0.479484 0.509182 255 0 0 255
-0.06792 0.681985 1.911 -0.584601 0.694033 0.420191 255 0 0 255
-0.062754 0.682345 1.912 -0.216601 0.864608 0.453361 255 0 0 255
-0.057643 0.68342 1.915 0.418209 0.505792 0.754504 255 0 0 255
-0.052351 0.682352 1.912 -0.00841006 0.0640639 0.99791 255 0 0 255
-0.047125 0.681998 1.911 -0.17766 -0.185564 0.966438 255 0 0 255
-0.042036 0.683785 1.916 -0.393365 -0.300578 0.86886 255 0 0 255
-0.037054 0.68807 1.928 -0.78049 -0.27299 0.562415 255 0 0 255
-0.031973 0.691641 1.938 -0.966237 -0.0396423 0.254588 255 0 0 255
-0.17624 0.673493 1.902 -0.0886849 0.878802 0.468874 255 0 0 255
-0.171878 0.67669 1.911 -0.652334 0.357423 0.668363 255 0 0 255
-0.166507 0.67599 1.909 0.698647 0.157251 0.697971 255 0 0 255
-0.160725 0.673521 1.902 0.12544 0.544877 0.82908 255 0 0 255
-0.155716 0.674237 1.904 -0.367132 0.534098 0.761547 255 0 0 255
-0.150697 0.674954 1.906 -0.22065 0.722852 0.654827 255 0 0 255
-0.145666 0.675671 1.908 -0.0757761 0.850717 0.520133 255 0 0 255
-0.140404 0.675324 1.907 0.134411 0.851245 0.507263 255 0 0 255
-0.135076 0.674624 1.905 0.293952 0.778444 0.554633 255 0 0 255
-0.12969 0.673569 1.902 0.51623 0.673154 0.5295 255 0 0 255
-0.124124 0.671451 1.896 0.43437 0.700352 0.566418 255 0 0 255
-0.118905 0.671104 1.895 0.176173 0.77227 0.610379 255 0 0 255
-0.11369 0.670757 1.894 0.0950122 0.856301 0.507662 255 0 0 255
-0.108596 0.671117 1.895 0.0150025 0.899821 0.436001 255 0 0 255
-0.103387 0.670769 1.894 -0.116636 0.919504 0.375379 255 0 0 255
-0.09839 0.671838 1.897 -0.237629 0.91559 0.324388 255 0 0 255
-0.093377 0.672906 1.9 -0.206868 0.923833 0.322085 255 0 0 255
-0.088255 0.673265 1.901 -0.108415 0.920716 0.374871 255 0 0 255
-0.08304 0.672916 1.9 -0.162061 0.873839 0.458411 255 0 0 255
-0.077953 0.673629 1.902 -0.422285 0.680154 0.599221 255 0 0 255
-0.072932 0.675051 1.906 -0.640275 0.612137 0.464042 255 0 0 255
-0.068031 0.677888 1.914 -0.707184 0.530244 0.467689 255 0 0 255
-0.062988 0.679663 1.919 -0.365576 0.703669 0.609266 255 0 0 255
-0.057797 0.680021 1.92 0.518505 0.520556 0.678361 255 0 0 255
-0.052327 0.676836 1.911 0.536047 0.244178 0.808103 255 0 0 255
-0.041928 0.676842 1.911 -0.50241 -0.0995677 0.858877 255 0 0 255
-0.03694 0.680741 1.922 -0.978605 0.163438 0.124978 255 0 0 255
-0.032074 0.688535 1.944 -0.96843 -0.00608116 0.249211 255 0 0 255
-0.027102 0.696683 1.967 -0.951825 0.306012 0.0196189 255 0 0 255
-0.187965 0.673255 1.916 0.294464 0.752087 0.589623 255 0 0 255
-0.182565 0.672563 1.914 -0.0422821 0.987429 0.152303 255 0 0 255
-0.177454 0.672924 1.915 -0.00817536 0.903799 0.42788 255 0 0 255
-0.172247 0.672933 1.915 -0.112544 0.816277 0.566592 255 0 0 255
-0.166865 0.67224 1.913 0.247458 0.846064 0.472165 255 0 0 255
-0.161241 0.670492 1.908 0.075854 0.864004 0.497739 255 0 0 255
-0.156297 0.671555 1.911 -0.0557911 0.966043 0.252284 255 0 0 255
-0.151101 0.671564 1.911 -0.164019 0.889352 0.426792 255 0 0 255
-0.146056 0.672275 1.913 0.0217242 0.850934 0.524824 255 0 0 255
-0.14078 0.671932 1.912 0.365686 0.574466 0.7323 255 0 0 255
-0.135438 0.671237 1.91 0.375227 0.633619 0.676559 255 0 0 255
-0.130107 0.670542 1.908 0.44174 0.661849 0.605658 255 0 0 255
-0.124655 0.669143 1.904 0.398065 0.74292 0.538159 255 0 0 255
-0.119351 0.668448 1.902 0.166142 0.812894 0.558213 255 0 0 255
-0.114117 0.668103 1.901 -0.0654105 0.769981 0.634706 255 0 0 255
-0.108946 0.66811 1.901 -0.0165404 0.840051 0.542255 255 0 0 255
-0.103829 0.668467 1.902 -0.1715 0.855533 0.488519 255 0 0 255
-0.098759 0.669176 1.904 -0.244253 0.76721 0.593067 255 0 0 255
-0.093678 0.669885 1.906 -0.370283 0.751448 0.546093 255 0 0 255
-0.088632 0.670945 1.909 -0.161544 0.818573 0.551219 255 0 0 255
-0.083351 0.670247 1.907 -0.048085 0.882491 0.467865 255 0 0 255
-0.078204 0.670604 1.908 -0.250377 0.819973 0.514738 255 0 0 255
-0.073166 0.672014 1.912 -0.710817 0.603743 0.360878 255 0 0 255
-0.068177 0.674127 1.918 -0.48498 0.663512 0.569691 255 0 0 255
-0.06309 0.675537 1.922 -0.262532 0.588007 0.765065 255 0 0 255
-0.057801 0.674838 1.92 0.481378 0.422338 0.768053 255 0 0 255
-0.05244 0.673084 1.915 0.520059 0.613035 0.594749 255 0 0 255
-0.047131 0.671681 1.911 0.262723 0.732167 0.628418 255 0 0 255
-0.041975 0.672387 1.913 -0.475453 0.514385 0.713689 255 0 0 255
-0.036923 0.675201 1.921 -0.922038 0.276408 0.271006 255 0 0 255
-0.032258 0.687154 1.955 -0.981575 0.171514 0.0842184 255 0 0 255
-0.02753 0.702269 1.998 -0.965386 0.23203 0.119126 255 0 0 255
-0.188858 0.671218 1.925 -0.0205142 0.968497 0.248179 255 0 0 255
-0.183624 0.671228 1.925 -0.00434191 0.980177 0.198075 255 0 0 255
-0.17839 0.671238 1.925 0.0875962 0.968656 0.232449 255 0 0 255
-0.173066 0.670899 1.924 0.122948 0.953237 0.276085 255 0 0 255
-0.167747 0.67056 1.923 0.179736 0.929484 0.322109 255 0 0 255
-0.162348 0.669872 1.921 0.173322 0.853357 0.491672 255 0 0 255
-0.157124 0.669881 1.921 0.213168 0.792965 0.570759 255 0 0 255
-0.151742 0.669193 1.919 0.229202 0.751505 0.618633 255 0 0 255
-0.146446 0.668853 1.918 0.378019 0.603823 0.701783 255 0 0 255
-0.140935 0.667466 1.914 0.398095 0.408876 0.821183 255 0 0 255
-0.135659 0.667126 1.913 0.24041 0.572357 0.783971 255 0 0 255
-0.130251 0.666087 1.91 0.435969 0.561344 0.703437 255 0 0 255
-0.124859 0.665049 1.907 0.524326 0.538298 0.659786 255 0 0 255
-0.119421 0.663661 1.903 0.259475 0.528965 0.808003 255 0 0 255
-0.114184 0.663319 1.902 0.0667325 0.754058 0.653409 255 0 0 255
-0.109067 0.663675 1.903 -0.191324 0.694982 0.693105 255 0 0 255
-0.104054 0.664727 1.906 -0.311927 0.666064 0.67754 255 0 0 255
-0.098973 0.665431 1.908 -0.322537 0.641986 0.695575 255 0 0 255
-0.093831 0.665786 1.909 -0.418759 0.585903 0.6938 255 0 0 255
-0.088777 0.666838 1.912 -0.225724 0.693488 0.684195 255 0 0 255
-0.083575 0.666843 1.912 -0.0994918 0.705946 0.701243 255 0 0 255
-0.078414 0.667197 1.913 -0.45522 0.692151 0.560091 255 0 0 255
-0.073477 0.669643 1.92 -0.639049 0.624673 0.448777 255 0 0 255
-0.068359 0.670694 1.923 -0.235106 0.671541 0.702679 255 0 0 255
-0.063225 0.671744 1.926 0.118704 0.60505 0.787289 255 0 0 255
-0.057864 0.670353 1.922 0.387077 0.453422 0.802857 255 0 0 255
-0.052662 0.670705 1.923 -0.0233601 0.754081 0.656366 255 0 0 255
-0.04738 0.670011 1.921 0.0823423 0.928672 0.361645 255 0 0 255
-0.042175 0.670362 1.922 -0.463678 0.829763 0.310638 255 0 0 255
-0.03708 0.672806 1.929 -0.60018 0.665938 0.443069 255 0 0 255
-0.03259 0.688852 1.975 -0.96145 0.274124 0.0216841 255 0 0 255
-0.027587 0.698272 2.002 -0.967718 0.209359 0.14032 255 0 0 255
-0.189458 0.668094 1.931 0.0447959 0.849691 0.525375 255 0 0 255
-0.184684 0.669834 1.936 0.0259648 0.837794 0.545369 255 0 0 255
-0.179142 0.668807 1.933 0.113646 0.848233 0.517287 255 0 0 255
-0.173705 0.668125 1.931 0.251545 0.789585 0.559714 255 0 0 255
-0.16828 0.667443 1.929 0.44213 0.691435 0.571348 255 0 0 255
-0.162611 0.665722 1.924 0.344509 0.542633 0.766069 255 0 0 255
-0.157461 0.666078 1.925 0.384555 0.482274 0.787102 255 0 0 255
-0.151909 0.664703 1.921 0.390706 0.341583 0.854793 255 0 0 255
-0.146608 0.664365 1.92 0.491362 0.413624 0.766472 255 0 0 255
-0.140944 0.662298 1.914 0.30767 0.48356 0.819456 255 0 0 255
-0.135879 0.662998 1.916 0.18006 0.540605 0.821782 255 0 0 255
-0.130599 0.66266 1.915 0.46195 0.534432 0.707803 255 0 0 255
-0.125259 0.661976 1.913 0.521129 0.45732 0.720613 255 0 0 255
-0.119804 0.660599 1.909 0.439177 0.503569 0.744004 255 0 0 255
-0.114551 0.66026 1.908 -0.0661333 0.656631 0.751307 255 0 0 255
-0.10936 0.660267 1.908 -0.335383 0.680688 0.651292 255 0 0 255
-0.104279 0.660966 1.91 -0.290236 0.762864 0.577755 255 0 0 255
-0.099134 0.661318 1.911 -0.181707 0.72745 0.661663 255 0 0 255
-0.093984 0.66167 1.912 -0.332455 0.675497 0.658162 255 0 0 255
-0.088968 0.66306 1.916 -0.263084 0.618675 0.740289 255 0 0 255
-0.083755 0.663066 1.916 -0.234559 0.631953 0.73866 255 0 0 255
-0.078664 0.664109 1.919 -0.646584 0.495917 0.579651 255 0 0 255
-0.073634 0.665844 1.924 -0.52808 0.404554 0.746637 255 0 0 255
-0.068506 0.666887 1.927 -0.40658 0.417243 0.812774 255 0 0 255
-0.063229 0.666545 1.926 0.24758 0.499444 0.830217 255 0 0 255
-0.057898 0.665511 1.923 0.112448 0.583417 0.80435 255 0 0 255
-0.052748 0.666553 1.926 -0.230617 0.658522 0.716354 255 0 0 255
-0.047531 0.666902 1.927 -0.030529 0.748265 0.662697 255 0 0 255
-0.042265 0.666559 1.926 -0.433453 0.791775 0.430361 255 0 0 255
-0.037197 0.669676 1.935 -0.657695 0.64072 0.396124 255 0 0 255
-0.03274 0.686637 1.984 -0.968648 0.245295 0.0393952 255 0 0 255
-0.027658 0.694599 2.007 -0.967718 0.209359 0.14032 255 0 0 255
-0.184885 0.665292 1.938 0.106453 0.536634 0.837073 255 0 0 255
-0.179523 0.664959 1.937 0.34382 0.444374 0.827236 255 0 0 255
-0.174165 0.664626 1.936 0.349918 0.459783 0.816185 255 0 0 255
