ply
format ascii 1.0
comment VCGLIB generated
element vertex 727
property float x
property float y
property float z
property float nx
property float ny
property float nz
property uchar red
property uchar green
property uchar blue
property uchar alpha
element face 0
property list uchar int vertex_indices
end_header
0.139052 0.268645 2.28752 0.374551 0.0664488 -0.924822 255 255 0 255
-0.260466 0.206796 2.30109 -0.332656 -0.114905 -0.936022 0 255 0 255
-0.257546 0.208898 2.31105 0.350174 0.520071 -0.779041 0 255 0 255
-0.24512 0.208812 2.31426 0.530239 0.120236 -0.839279 0 255 0 255
-0.168761 0.19975 2.29696 0.789683 -0.210435 -0.576297 0 255 0 255
-0.161441 0.200918 2.30413 -0.983154 0.0306085 -0.1802 0 255 0 255
-0.167131 0.205036 2.32032 -0.967197 -0.131642 -0.217258 0 255 0 255
-0.175442 0.20973 2.33825 -0.958637 0.276662 -0.0668865 0 255 0 255
-0.168994 0.211093 2.34599 0.773353 -0.407455 -0.485701 0 255 0 255
-0.16428 0.212851 2.35494 0.581473 -0.682646 -0.442586 0 255 0 255
-0.157821 0.214222 2.36272 0.60973 -0.765031 -0.207263 0 255 0 255
-0.156587 0.21676 2.37404 0.50293 -0.854107 -0.132523 0 255 0 255
-0.147503 0.21756 2.38008 0.380234 -0.89389 -0.23745 0 255 0 255
-0.13841 0.218367 2.38616 0.362437 -0.85282 -0.37595 0 255 0 255
-0.130181 0.219374 2.39285 0.508779 -0.785505 -0.352316 0 255 0 255
-0.121942 0.220389 2.39958 0.563482 -0.747191 -0.352413 0 255 0 255
-0.310659 0.317547 2.27 -0.849996 0.257357 0.459646 255 0 0 255
-0.305946 0.319104 2.281 -0.45367 0.426244 0.782624 255 0 0 255
-0.299727 0.319122 2.281 0.00763123 0.411253 0.911489 255 0 0 255
-0.293507 0.319139 2.281 0.0903226 0.320859 0.94281 255 0 0 255
-0.28716 0.319016 2.28 -0.0794218 0.261588 0.961906 255 0 0 255
-0.280941 0.319033 2.28 -0.214309 0.369851 0.904036 255 0 0 255
-0.274841 0.319189 2.281 -0.20453 0.489639 0.847597 255 0 0 255
-0.268971 0.319625 2.284 -0.203975 0.544484 0.813591 255 0 0 255
-0.262853 0.319781 2.285 -0.311785 0.469765 0.8259 255 0 0 255
-0.257066 0.320357 2.289 -0.407087 0.520957 0.750256 255 0 0 255
-0.251147 0.320792 2.292 -0.468808 0.427925 0.772722 255 0 0 255
-0.245317 0.321367 2.296 -0.743795 0.300442 0.59708 255 0 0 255
-0.239673 0.322221 2.302 -0.826582 0.157374 0.540367 255 0 0 255
-0.234907 0.324336 2.317 -0.871068 0.432237 0.233265 255 0 0 255
-0.219277 0.320024 2.286 0.929018 0.345235 0.133183 255 0 0 255
-0.209957 0.315417 2.253 0.830746 0.349022 0.433642 255 0 0 255
-0.202626 0.31361 2.24 0.844573 0.274096 0.459965 255 0 0 255
-0.194926 0.311102 2.222 0.905029 0.0531867 0.422011 255 0 0 255
-0.187664 0.309154 2.208 0.877893 0.0310823 0.477847 255 0 0 255
-0.180643 0.307485 2.196 0.844259 0.10138 0.526259 255 0 0 255
-0.174084 0.306516 2.189 0.801879 0.0988861 0.589246 255 0 0 255
-0.167255 0.304987 2.178 0.815744 0.196409 0.544045 255 0 0 255
-0.160634 0.303737 2.169 0.735824 0.246003 0.630909 255 0 0 255
-0.154205 0.302767 2.162 0.4912 0.41238 0.767245 255 0 0 255
-0.148225 0.302636 2.161 0.288603 0.394532 0.872383 255 0 0 255
-0.142183 0.302365 2.159 0.372648 0.29901 0.87848 255 0 0 255
-0.136153 0.302094 2.157 0.332528 0.251939 0.908819 255 0 0 255
-0.130132 0.301823 2.155 0.342826 0.24505 0.906874 255 0 0 255
-0.124065 0.301411 2.152 0.347157 0.157631 0.924464 255 0 0 255
-0.118068 0.301138 2.15 0.346528 0.190886 0.918412 255 0 0 255
-0.112134 0.301006 2.149 0.347763 0.14828 0.925783 255 0 0 255
-0.106106 0.300592 2.146 0.357649 0.134746 0.924084 255 0 0 255
-0.100094 0.300179 2.143 0.456334 0.0514828 0.888318 255 0 0 255
-0.094055 0.299625 2.139 0.211962 0.0331919 0.976714 255 0 0 255
-0.088284 0.299911 2.141 -0.0579112 0.107739 0.992491 255 0 0 255
-0.082386 0.299776 2.14 0.05871 0.186885 0.980626 255 0 0 255
-0.076529 0.299782 2.14 0.309799 0.131834 0.941618 255 0 0 255
-0.07054 0.299226 2.136 0.417782 0.148293 0.896363 255 0 0 255
-0.064664 0.29909 2.135 0.116245 0.160954 0.980092 255 0 0 255
-0.058848 0.299234 2.136 0.000130976 0.237728 0.971332 255 0 0 255
-0.052976 0.299098 2.135 0.0311149 0.247197 0.968466 255 0 0 255
-0.047132 0.299101 2.135 0.0567907 0.366106 0.928839 255 0 0 255
-0.041268 0.298964 2.134 0.00695148 0.394445 0.918893 255 0 0 255
-0.035443 0.299107 2.135 -0.0250771 0.288022 0.957295 255 0 0 255
-0.029598 0.299109 2.135 -0.0251046 0.287973 0.957309 255 0 0 255
-0.023753 0.299111 2.135 -0.0391106 0.343268 0.938423 255 0 0 255
-0.017917 0.299252 2.136 -0.164478 0.412922 0.895792 255 0 0 255
-0.012075 0.299393 2.137 -0.416937 0.326216 0.848379 255 0 0 255
-0.006233 0.299814 2.14 -0.422115 0.289216 0.85917 255 0 0 255
-0.000375 0.300094 2.142 -0.352032 0.255063 0.900565 255 0 0 255
0.005497 0.300515 2.145 -0.437441 0.228041 0.869852 255 0 0 255
0.011385 0.300934 2.148 -0.44406 0.212028 0.870548 255 0 0 255
0.017282 0.301214 2.15 -0.43844 0.326157 0.837492 255 0 0 255
0.0232 0.301633 2.153 -0.466806 0.41299 0.782005 255 0 0 255
0.029135 0.302051 2.156 -0.612867 0.410325 0.675298 255 0 0 255
0.035183 0.30331 2.165 -0.781236 0.36559 0.505978 255 0 0 255
0.0413 0.304708 2.175 -0.800449 0.302731 0.517335 255 0 0 255
0.047449 0.305966 2.184 -0.811972 0.282941 0.510535 255 0 0 255
0.053648 0.307224 2.193 -0.809198 0.233012 0.539355 255 0 0 255
0.059868 0.308341 2.201 -0.796534 0.13725 0.588809 255 0 0 255
0.066132 0.309457 2.209 -0.760288 0.0454573 0.647994 255 0 0 255
0.072375 0.310294 2.215 -0.798178 0.0969966 0.594562 255 0 0 255
0.078826 0.31183 2.226 -0.873551 0.137749 0.466833 255 0 0 255
0.085414 0.313645 2.239 -0.863048 0.19605 0.465523 255 0 0 255
0.091869 0.31476 2.247 -0.780684 0.0974493 0.617282 255 0 0 255
0.098323 0.315735 2.254 -0.718107 0.139787 0.681749 255 0 0 255
0.104722 0.316428 2.259 -0.72861 0.187415 0.65879 255 0 0 255
0.184954 0.316168 2.258 -0.817981 0.295997 0.493247 255 0 0 255
0.192226 0.317977 2.271 -0.351485 0.355573 0.86604 255 0 0 255
0.198519 0.318104 2.272 -0.0587696 0.316922 0.946629 255 0 0 255
0.204637 0.317952 2.271 0.408154 0.233313 0.882596 255 0 0 255
0.21047 0.317379 2.267 0.528216 0.126451 0.839642 255 0 0 255
0.216472 0.317086 2.265 0.321785 0.00876569 0.946772 255 0 0 255
0.222462 0.316792 2.263 -0.0310678 -0.169081 0.985112 255 0 0 255
0.228946 0.317198 2.266 -0.287123 -0.0580012 0.956136 255 0 0 255
0.235341 0.317464 2.268 0.0783324 -0.0404665 0.996106 255 0 0 255
0.241214 0.31703 2.265 0.510451 -0.0529563 0.858275 255 0 0 255
-0.107309 0.26973 2.39126 0.122534 -0.601842 -0.789159 255 255 0 255
-0.086415 0.270661 2.39259 -0.246101 -0.482199 -0.840785 255 255 0 255
-0.074132 0.27021 2.38817 -0.543889 -0.347071 -0.76402 255 255 0 255
-0.073861 0.267802 2.37556 -0.899621 -0.177468 -0.398984 255 255 0 255
-0.070161 0.265954 2.36529 -0.731793 -0.07081 -0.677839 255 255 0 255
-0.057911 0.265521 2.36096 -0.370538 -0.178799 -0.911445 255 255 0 255
-0.039703 0.26609 2.36085 -0.337678 -0.544942 -0.767471 255 255 0 255
-0.033469 0.264682 2.35244 -0.584201 -0.546827 -0.59974 255 255 0 255
-0.023831 0.263849 2.34646 -0.515654 -0.583255 -0.627626 255 255 0 255
-0.014207 0.263023 2.34051 -0.644531 -0.468205 -0.604454 255 255 0 255
-0.003745 0.262347 2.33521 -0.785404 -0.397311 -0.474641 255 255 0 255
-0.00349 0.259949 2.32264 -0.898364 -0.288979 -0.330807 255 255 0 255
-0.000684 0.257982 2.31189 -0.790706 -0.0875003 -0.605911 255 255 0 255
0.009753 0.25732 2.30665 -0.611654 0.209939 -0.762762 255 255 0 255
0.022715 0.257102 2.3033 -0.597338 0.29419 -0.746083 255 255 0 255
0.026353 0.255289 2.2932 -0.980316 0.194428 -0.0343372 255 255 0 255
0.009714 0.249964 2.26821 0.939357 0.0984526 -0.328505 255 255 0 255
0.136608 0.257668 2.28675 0.342402 0.0501475 -0.938214 255 255 0 255
-0.262564 0.19674 2.3038 -0.146157 -0.461352 -0.875096 0 255 0 255
-0.253604 0.197427 2.30945 -0.0539495 -0.11662 -0.99171 0 255 0 255
-0.237726 0.196511 2.31023 -0.543722 0.245383 -0.802592 0 255 0 255
-0.214046 0.193802 2.3056 -0.58421 0.112239 -0.803804 0 255 0 255
-0.182545 0.189317 2.29563 0.517534 -0.246238 -0.819466 0 255 0 255
-0.164458 0.190818 2.30749 0.927395 -0.321162 -0.191815 0 255 0 255
-0.171011 0.195159 2.32427 -0.935856 0.0316194 -0.350962 0 255 0 255
-0.178448 0.199687 2.34159 0.98459 -0.150063 -0.0898001 0 255 0 255
-0.173741 0.201435 2.35053 0.915774 -0.188386 -0.354779 0 255 0 255
-0.1699 0.203383 2.36006 0.843177 -0.379543 -0.380789 0 255 0 255
-0.162577 0.204545 2.36724 0.845502 -0.519095 -0.125162 0 255 0 255
-0.165698 0.208067 2.38149 0.742509 -0.669573 -0.018777 0 255 0 255
-0.161856 0.210017 2.39102 0.637992 -0.673686 -0.37298 0 255 0 255
-0.152778 0.210799 2.39707 0.291532 -0.766907 -0.571719 0 255 0 255
-0.138449 0.210421 2.39967 0.493684 -0.429392 -0.75624 0 255 0 255
-0.1241 0.210059 2.40234 0.705363 -0.282481 -0.650128 0 255 0 255
-0.309856 0.310537 2.264 -0.947354 0.102486 0.303343 255 0 0 255
-0.305964 0.312886 2.281 -0.606479 0.175593 0.775467 255 0 0 255
-0.299876 0.313041 2.282 0.0576961 0.140572 0.988388 255 0 0 255
-0.293395 0.312784 2.28 0.0805689 0.133118 0.98782 255 0 0 255
-0.287177 0.3128 2.28 -0.0804493 0.129431 0.98832 255 0 0 255
-0.281204 0.313091 2.282 -0.269581 0.298988 0.915386 255 0 0 255
-0.27534 0.313519 2.285 -0.314641 0.413417 0.854452 255 0 0 255
-0.26934 0.31381 2.287 -0.2439 0.419274 0.874484 255 0 0 255
-0.263099 0.313825 2.287 -0.276451 0.371985 0.886116 255 0 0 255
-0.257194 0.314253 2.29 -0.482143 0.302113 0.822354 255 0 0 255
-0.251381 0.314817 2.294 -0.470079 0.408389 0.78246 255 0 0 255
-0.245545 0.31538 2.298 -0.667506 0.240718 0.704621 255 0 0 255
-0.239583 0.315807 2.301 -0.74212 0.331185 0.58273 255 0 0 255
-0.234313 0.317194 2.311 -0.310267 0.642149 0.700985 255 0 0 255
-0.220442 0.315437 2.298 0.755493 0.00622876 0.655127 255 0 0 255
-0.211182 0.311057 2.266 0.903256 0.360464 0.232797 255 0 0 255
-0.203091 0.308187 2.245 0.889199 0.304056 0.341871 255 0 0 255
-0.194851 0.304905 2.221 0.933088 0.0924924 0.347552 255 0 0 255
-0.187591 0.302994 2.207 0.869957 0.0430362 0.491246 255 0 0 255
-0.180736 0.301633 2.197 0.824952 0.0363767 0.564031 255 0 0 255
-0.174015 0.300408 2.188 0.820816 -0.00451295 0.571175 255 0 0 255
-0.167189 0.298909 2.177 0.770623 0.123584 0.625193 255 0 0 255
-0.160719 0.297958 2.17 0.705324 0.228488 0.671053 255 0 0 255
-0.154429 0.297281 2.165 0.535667 0.28081 0.796371 255 0 0 255
-0.14844 0.297153 2.164 0.399467 0.197447 0.895232 255 0 0 255
-0.142324 0.29675 2.161 0.434335 0.0572588 0.89893 255 0 0 255
-0.136224 0.296347 2.158 0.322777 0.0547833 0.944888 255 0 0 255
-0.130201 0.296081 2.156 0.371186 0.125926 0.91998 255 0 0 255
-0.12413 0.295677 2.153 0.368478 0.165584 0.914771 255 0 0 255
-0.11813 0.29541 2.151 0.300265 0.144219 0.94289 255 0 0 255
-0.112089 0.295005 2.148 0.3484 0.207568 0.914075 255 0 0 255
-0.106113 0.294737 2.146 0.397057 0.16129 0.90351 255 0 0 255
-0.100101 0.294332 2.143 0.390209 0.239163 0.889122 255 0 0 255
-0.094105 0.293926 2.14 0.212504 0.186589 0.95918 255 0 0 255
-0.088331 0.294207 2.142 0.00139427 0.0962341 0.995358 255 0 0 255
-0.08243 0.294075 2.141 0.115104 0.0416129 0.992482 255 0 0 255
-0.07657 0.29408 2.141 0.207074 0.0528736 0.976895 255 0 0 255
-0.070611 0.293672 2.138 0.329634 0.185291 0.925748 255 0 0 255
-0.064698 0.293402 2.136 0.115452 0.256477 0.95963 255 0 0 255
-0.058851 0.293406 2.136 0.0296487 0.184169 0.982447 255 0 0 255
-0.053029 0.293547 2.137 -0.0290152 0.188334 0.981676 255 0 0 255
-0.047201 0.293688 2.138 -0.0289529 0.260641 0.965002 255 0 0 255
-0.041329 0.293553 2.137 0.0294243 0.273006 0.961562 255 0 0 255
-0.035462 0.293418 2.136 -0.0284599 0.326932 0.944619 255 0 0 255
-0.029614 0.29342 2.136 -0.0860317 0.344425 0.934864 255 0 0 255
-0.023777 0.293559 2.137 -0.153231 0.437959 0.88584 255 0 0 255
-0.017935 0.293698 2.138 -0.180733 0.457066 0.870877 255 0 0 255
-0.012093 0.293974 2.14 -0.315119 0.418814 0.851642 255 0 0 255
-0.006242 0.294387 2.143 -0.373569 0.313457 0.873035 255 0 0 255
-0.000375 0.294524 2.144 -0.369591 0.327847 0.869436 255 0 0 255
0.005503 0.294936 2.147 -0.431087 0.313555 0.846077 255 0 0 255
0.011397 0.295348 2.15 -0.432501 0.310212 0.846588 255 0 0 255
0.017315 0.295896 2.154 -0.521678 0.366225 0.77054 255 0 0 255
0.023256 0.296444 2.158 -0.547751 0.463236 0.696693 255 0 0 255
0.029218 0.296992 2.162 -0.661112 0.458327 0.594026 255 0 0 255
0.035251 0.297952 2.169 -0.758042 0.364632 0.540755 255 0 0 255
0.041341 0.299048 2.177 -0.790792 0.27967 0.544457 255 0 0 255
0.047474 0.300144 2.185 -0.814741 0.25103 0.522667 255 0 0 255
0.0537 0.301515 2.195 -0.788775 0.230569 0.5698 255 0 0 255
0.059899 0.302473 2.202 -0.755628 0.0751564 0.650675 255 0 0 255
0.066167 0.303567 2.21 -0.774708 0.0582881 0.629627 255 0 0 255
0.072445 0.304524 2.217 -0.836659 0.111093 0.53634 255 0 0 255
0.078938 0.306168 2.229 -0.886614 0.198691 0.417657 255 0 0 255
0.085611 0.308223 2.244 -0.758044 0.203406 0.619673 255 0 0 255
0.091997 0.309041 2.25 -0.693533 0.123356 0.709785 255 0 0 255
0.098504 0.310134 2.258 -0.693372 0.0401877 0.719458 255 0 0 255
0.104868 0.310677 2.262 -0.780914 0.122261 0.612557 255 0 0 255
0.177527 0.307824 2.242 -0.966045 0.161209 0.201912 255 0 0 255
0.185621 0.311108 2.266 -0.788288 0.242372 0.56556 255 0 0 255
0.192492 0.312194 2.274 -0.428461 0.206983 0.879533 255 0 0 255
0.198793 0.312319 2.275 -0.0289282 0.289459 0.956753 255 0 0 255
0.20492 0.31217 2.274 0.512999 0.202716 0.83411 255 0 0 255
0.210576 0.311333 2.268 0.63022 0.120612 0.766991 255 0 0 255
0.21639 0.310771 2.264 0.320377 -0.0321024 0.946746 255 0 0 255
0.222377 0.310483 2.262 0.0501574 -0.148184 0.987687 255 0 0 255
0.228657 0.310607 2.263 -0.175568 -0.236181 0.955717 255 0 0 255
0.235148 0.311005 2.266 0.0197717 -0.23648 0.971435 255 0 0 255
0.241016 0.310579 2.263 0.373563 -0.180016 0.90997 255 0 0 255
0.24643 0.309604 2.256 0.520001 -0.071751 0.851147 255 0 0 255
-0.102887 0.259398 2.39552 0.0818391 -0.236167 -0.96826 255 255 0 255
-0.086294 0.259672 2.39393 -0.315255 -0.0371081 -0.948281 255 255 0 255
-0.073157 0.25939 2.39008 -0.651782 -0.337461 -0.679191 255 255 0 255
-0.069459 0.257543 2.37982 -0.730483 -0.548317 -0.407115 255 255 0 255
-0.06405 0.255984 2.37074 -0.64964 -0.611914 -0.451143 255 255 0 255
-0.052665 0.255436 2.36582 -0.272313 -0.517137 -0.811428 255 255 0 255
-0.033615 0.256196 2.36631 -0.254391 -0.416609 -0.872767 255 255 0 255
-0.022271 0.255669 2.3615 -0.452516 -0.651685 -0.608716 255 255 0 255
-0.017757 0.253987 2.35194 -0.502741 -0.720743 -0.477264 255 255 0 255
-0.008991 0.253036 2.3454 -0.572014 -0.681275 -0.456797 255 255 0 255
-0.001936 0.251798 2.33768 -0.640277 -0.646206 -0.415287 255 255 0 255
0.004263 0.250417 2.32937 -0.837031 -0.52405 -0.157323 255 255 0 255
0.004519 0.248009 2.3168 -0.859067 -0.442769 -0.256826 255 255 0 255
0.008171 0.246189 2.30667 -0.688457 -0.133543 -0.712876 255 255 0 255
0.017747 0.245406 2.30084 -0.632821 -0.0533326 -0.772459 255 255 0 255
0.024774 0.244184 2.2932 -0.8438 0.153844 -0.514134 255 255 0 255
0.018282 0.240582 2.27565 0.871969 0.34589 -0.346454 255 255 0 255
0.010124 0.236672 2.25679 0.807959 0.199412 -0.55447 255 255 0 255
0.143397 0.248334 2.29296 0.232072 0.0733442 -0.96993 255 255 0 255
0.170405 0.250833 2.30099 -0.111728 -0.313215 -0.943087 255 255 0 255
0.186637 0.249022 2.28854 -0.728402 -0.39184 -0.562042 255 255 0 255
-0.269832 0.187914 2.3102 0.521184 0.00194854 -0.853442 0 255 0 255
-0.259156 0.18817 2.31461 -0.360867 -0.359029 -0.86074 0 255 0 255
-0.237247 0.185785 2.31112 -0.551303 -0.116598 -0.826118 0 255 0 255
-0.178635 0.177635 2.29414 0.720482 -0.355684 -0.59531 0 255 0 255
-0.167473 0.180723 2.31086 0.942943 -0.18984 -0.273532 0 255 0 255
-0.167088 0.183481 2.32284 -0.943558 0.111624 -0.31183 0 255 0 255
-0.174514 0.188043 2.34017 -0.982092 0.0543299 -0.180396 0 255 0 255
-0.170671 0.18999 2.34971 0.940989 -0.137354 -0.309311 0 255 0 255
-0.171171 0.192936 2.36222 0.932971 -0.203991 -0.296569 0 255 0 255
-0.166459 0.194684 2.37117 0.989444 -0.138767 -0.0417626 0 255 0 255
-0.169579 0.198222 2.38541 0.97822 -0.206411 -0.0219209 0 255 0 255
-0.168353 0.200763 2.39669 0.884576 -0.257049 -0.389167 0 255 0 255
-0.160154 0.201721 2.40331 0.517849 -0.336813 -0.786377 0 255 0 255
-0.142346 0.200519 2.40359 0.0479971 -0.428385 -0.902321 0 255 0 255
-0.122765 0.198942 2.40281 0.563601 -0.422656 -0.709729 0 255 0 255
-0.069176 0.201259 2.42907 -0.308614 -0.0384005 -0.950412 0 255 0 255
-0.310968 0.30544 2.272 -0.895281 0.00474769 0.445476 255 0 0 255
-0.306249 0.306937 2.283 -0.539377 -0.131786 0.831688 255 0 0 255
-0.300156 0.307088 2.284 -0.0202292 0.0790804 0.996663 255 0 0 255
-0.29367 0.306836 2.282 0.160588 0.123581 0.979254 255 0 0 255
-0.287319 0.306718 2.281 -0.192467 0.222498 0.955747 255 0 0 255
-0.281467 0.307138 2.284 -0.359157 0.267911 0.893996 255 0 0 255
-0.275597 0.307558 2.287 -0.339641 0.342354 0.876035 255 0 0 255
-0.269709 0.307977 2.29 -0.214371 0.346488 0.913231 255 0 0 255
-0.263344 0.307858 2.289 -0.252443 0.416852 0.873217 255 0 0 255
-0.257546 0.308411 2.293 -0.466748 0.435528 0.769715 255 0 0 255
-0.251725 0.308964 2.297 -0.594204 0.240664 0.767465 255 0 0 255
-0.246094 0.309786 2.303 -0.685657 0.65212 0.323441 255 0 0 255
-0.240743 0.311011 2.312 -0.0960938 0.895022 0.435547 255 0 0 255
-0.236152 0.313312 2.329 -0.792267 0.4786 0.378491 255 0 0 255
-0.230876 0.314805 2.34 0.993148 -0.0774925 0.08748 255 0 0 255
-0.220359 0.309034 2.297 0.723011 -0.203529 0.660175 255 0 0 255
-0.212033 0.306087 2.275 0.903794 0.221346 0.366281 255 0 0 255
-0.203827 0.30314 2.253 0.889731 0.323157 0.32241 255 0 0 255
-0.195389 0.299653 2.227 0.927786 0.233363 0.291127 255 0 0 255
-0.187602 0.296974 2.207 0.868159 0.105913 0.484854 255 0 0 255
-0.180583 0.29537 2.195 0.850767 0.0498289 0.523176 255 0 0 255
-0.173787 0.294035 2.185 0.79748 0.0216158 0.602958 255 0 0 255
-0.167199 0.292969 2.177 0.692588 0.139445 0.707727 255 0 0 255
-0.160951 0.292441 2.173 0.634029 0.247799 0.732532 255 0 0 255
-0.154652 0.291778 2.168 0.597591 0.21515 0.772396 255 0 0 255
-0.148449 0.291249 2.164 0.530274 0.135404 0.836944 255 0 0 255
-0.142267 0.290719 2.16 0.466509 0.0286975 0.884051 255 0 0 255
-0.13617 0.290324 2.157 0.276323 0.0555309 0.959459 255 0 0 255
-0.130269 0.290332 2.157 0.3265 0.0982418 0.940078 255 0 0 255
-0.124138 0.289802 2.153 0.324675 0.208887 0.922471 255 0 0 255
-0.118248 0.28981 2.153 0.301762 0.221339 0.927334 255 0 0 255
-0.1122 0.289413 2.15 0.347621 0.259203 0.901096 255 0 0 255
-0.106268 0.289285 2.149 0.32504 0.301076 0.896495 255 0 0 255
-0.100247 0.288888 2.146 0.446184 0.336745 0.82917 255 0 0 255
-0.094198 0.288355 2.142 0.277347 0.379048 0.882837 255 0 0 255
-0.088336 0.288361 2.142 0.18329 0.173461 0.967634 255 0 0 255
-0.082397 0.288097 2.14 0.228249 0.0254073 0.973271 255 0 0 255
-0.076539 0.288102 2.14 0.0892406 0.0186775 0.995835 255 0 0 255
-0.070682 0.288107 2.14 0.180371 0.177324 0.967483 255 0 0 255
-0.064763 0.287842 2.138 0.113465 0.327015 0.938183 255 0 0 255
-0.05891 0.287846 2.138 0.0598676 0.259509 0.963883 255 0 0 255
-0.053008 0.28758 2.136 -0.0288559 0.264651 0.963912 255 0 0 255
-0.047204 0.287853 2.138 -0.0584319 0.206145 0.976775 255 0 0 255
-0.041351 0.287856 2.138 -0.00352556 0.23121 0.972897 255 0 0 255
-0.035514 0.287993 2.139 -0.0249906 0.286739 0.957683 255 0 0 255
-0.029657 0.287995 2.139 -0.135941 0.392732 0.90955 255 0 0 255
-0.023823 0.288266 2.141 -0.223429 0.456336 0.8613 255 0 0 255
-0.01797 0.288402 2.142 -0.206377 0.518342 0.829898 255 0 0 255
-0.012105 0.288403 2.142 -0.261557 0.5135 0.817255 255 0 0 255
-0.006248 0.288807 2.145 -0.31004 0.456656 0.83387 255 0 0 255
-0.000376 0.289077 2.147 -0.289571 0.419891 0.860139 255 0 0 255
0.005511 0.28948 2.15 -0.404765 0.366469 0.837774 255 0 0 255
0.011408 0.289749 2.152 -0.48547 0.33597 0.807121 255 0 0 255
0.017324 0.290152 2.155 -0.58598 0.389147 0.710768 255 0 0 255
0.02329 0.290959 2.161 -0.624018 0.394538 0.674493 255 0 0 255
0.029274 0.29163 2.166 -0.65336 0.379834 0.654864 255 0 0 255
0.035318 0.292571 2.173 -0.741802 0.280714 0.609041 255 0 0 255
0.0414 0.293511 2.18 -0.78547 0.228051 0.575351 255 0 0 255
0.047564 0.29472 2.189 -0.811755 0.222308 0.540031 255 0 0 255
0.053753 0.295793 2.197 -0.738968 0.195307 0.644811 255 0 0 255
0.059931 0.296598 2.203 -0.698896 0.104179 0.707595 255 0 0 255
0.066111 0.297267 2.208 -0.777185 0.0187247 0.628994 255 0 0 255
0.072515 0.298743 2.219 -0.868019 0.111504 0.48385 255 0 0 255
0.079049 0.300489 2.232 -0.89674 0.21681 0.385812 255 0 0 255
0.08573 0.302503 2.247 -0.754442 0.23275 0.613714 255 0 0 255
0.091962 0.302767 2.249 -0.616467 0.219592 0.75614 255 0 0 255
0.098466 0.303838 2.257 -0.726665 0.131245 0.674339 255 0 0 255
0.104921 0.304639 2.263 -0.813705 0.152864 0.560818 255 0 0 255
0.178884 0.303995 2.259 -0.9092 0.214428 0.356898 255 0 0 255
0.185796 0.305195 2.268 -0.730161 0.121169 0.672446 255 0 0 255
0.192503 0.305991 2.274 -0.567746 0.0849454 0.81881 255 0 0 255
0.198893 0.306248 2.276 -0.0313748 0.0691388 0.997114 255 0 0 255
0.205023 0.306101 2.275 0.584233 0.0762119 0.808 255 0 0 255
0.210589 0.305147 2.268 0.689885 0.0271961 0.723408 255 0 0 255
0.216403 0.304596 2.264 0.372574 -0.0317723 0.927458 255 0 0 255
0.222391 0.304314 2.262 0.107627 -0.044886 0.993178 255 0 0 255
0.228569 0.3043 2.262 -0.0866525 -0.115407 0.989531 255 0 0 255
0.234954 0.304555 2.264 -0.0332835 -0.142394 0.98925 255 0 0 255
0.240924 0.304272 2.262 0.326614 -0.0206106 0.944933 255 0 0 255
0.246772 0.303854 2.259 0.563036 -0.156478 0.811484 255 0 0 255
-0.101901 0.248503 2.39746 -0.0424232 -0.209223 -0.976947 255 255 0 255
-0.087029 0.248527 2.3947 -0.182452 -0.047585 -0.982063 255 255 0 255
-0.072181 0.248563 2.392 -0.490331 -0.204487 -0.847208 255 255 0 255
-0.062492 0.247736 2.38584 -0.6389 -0.46914 -0.609684 255 255 0 255
-0.056235 0.246332 2.37737 -0.599374 -0.586358 -0.544917 255 255 0 255
-0.049984 0.244931 2.36891 -0.410996 -0.492371 -0.767237 255 255 0 255
-0.034355 0.245151 2.36701 -0.130162 -0.316185 -0.939726 255 255 0 255
-0.019604 0.245236 2.36457 -0.196661 -0.381191 -0.903337 255 255 0 255
-0.00743 0.24489 2.36041 -0.437401 -0.75753 -0.484591 255 255 0 255
-0.000377 0.243662 2.35269 -0.53244 -0.798359 -0.281301 255 255 0 255
0.00497 0.242141 2.34378 -0.586378 -0.770063 -0.251327 255 255 0 255
0.009464 0.240473 2.33427 -0.713679 -0.695971 -0.0792893 255 255 0 255
0.007176 0.237607 2.31988 -0.825949 -0.545211 -0.143365 255 255 0 255
0.00998 0.235638 2.30914 -0.695623 -0.395567 -0.599696 255 255 0 255
0.017861 0.234572 2.30208 -0.627315 -0.52893 -0.571584 255 255 0 255
0.029957 0.234267 2.29813 -0.713706 -0.257954 -0.651217 255 255 0 255
0.031907 0.232152 2.2868 0.940742 0.322384 -0.105229 255 255 0 255
0.027115 0.22882 2.27048 0.863684 0.326995 -0.383568 255 255 0 255
0.161255 0.238665 2.29509 0.0682798 0.122798 -0.99008 255 255 0 255
0.179845 0.239706 2.29681 0.40357 0.914757 -0.0187615 255 255 0 255
0.187535 0.23874 2.29028 -0.834128 0.279878 -0.475288 255 255 0 255
-0.265039 0.17621 2.30798 0.197597 -0.0242546 -0.979983 0 255 0 255
-0.254362 0.176448 2.31241 0.275435 0.240318 -0.930797 0 255 0 255
-0.229872 0.17339 2.30712 -0.718416 0.237422 -0.653842 0 255 0 255
-0.210524 0.171596 2.3056 -0.852305 -0.24128 -0.464069 0 255 0 255
-0.184237 0.168178 2.29932 0.376536 -0.683956 -0.62484 0 255 0 255
-0.169623 0.170428 2.31363 0.982306 -0.0650861 -0.175611 0 255 0 255
-0.173567 0.174213 2.32859 -0.950729 0.0915461 -0.2962 0 255 0 255
-0.179256 0.178397 2.34471 0.977486 0.0311631 -0.208685 0 255 0 255
-0.174548 0.180136 2.35365 0.940819 0.0605102 -0.333463 0 255 0 255
-0.168969 0.181675 2.36201 0.969568 0.00898838 -0.244659 0 255 0 255
-0.167732 0.184227 2.37333 0.999018 0.023718 -0.0374184 0 255 0 255
-0.167367 0.186979 2.38522 0.996533 -0.0731341 -0.0396602 0 255 0 255
-0.167008 0.189728 2.3971 0.801188 0.067936 -0.594544 0 255 0 255
-0.161423 0.191273 2.40547 0.65103 -0.10778 -0.751361 0 255 0 255
-0.14973 0.191424 2.40982 0.289744 -0.289063 -0.912409 0 255 0 255
-0.131037 0.189994 2.40961 0.48334 -0.552635 -0.678952 0 255 0 255
-0.311122 0.299377 2.273 -0.862451 -0.00364139 0.506128 255 0 0 255
-0.305864 0.300317 2.28 -0.617995 -0.150122 0.771716 255 0 0 255
-0.300041 0.300728 2.283 -0.28522 -0.00931565 0.958417 255 0 0 255
-0.293815 0.300745 2.283 0.0602884 0.255345 0.964969 255 0 0 255
-0.287462 0.30063 2.282 -0.215357 0.365175 0.905687 255 0 0 255
-0.281729 0.301173 2.286 -0.363812 0.340254 0.867103 255 0 0 255
-0.275853 0.301584 2.289 -0.390767 0.256511 0.884027 255 0 0 255
-0.26996 0.301995 2.292 -0.295365 0.279545 0.913572 255 0 0 255
-0.26382 0.302142 2.293 -0.294078 0.291741 0.910168 255 0 0 255
-0.257785 0.30242 2.295 -0.396128 0.429665 0.811462 255 0 0 255
-0.252068 0.303094 2.3 -0.780753 0.402762 0.47771 255 0 0 255
-0.246429 0.303899 2.306 -0.92302 0.105451 0.37002 255 0 0 255
-0.241382 0.305495 2.318 -0.593624 -0.190146 0.781956 255 0 0 255
-0.237992 0.309331 2.347 -0.993787 0.109091 0.0220538 255 0 0 255
-0.234245 0.312903 2.374 0.978929 -0.202708 0.0246485 255 0 0 255
-0.219797 0.301977 2.291 0.909605 0.0291902 0.414448 255 0 0 255
-0.212419 0.300408 2.279 0.873456 0.152814 0.462301 255 0 0 255
-0.204382 0.297784 2.259 0.902197 0.298705 0.311152 255 0 0 255
-0.196103 0.294632 2.235 0.912155 0.304273 0.274576 255 0 0 255
-0.187954 0.291479 2.211 0.895721 0.233553 0.378334 255 0 0 255
-0.180841 0.289777 2.198 0.860805 0.201378 0.467398 255 0 0 255
-0.173877 0.288205 2.186 0.800902 0.130044 0.584503 255 0 0 255
-0.16744 0.287424 2.18 0.668326 0.191185 0.71888 255 0 0 255
-0.161183 0.286907 2.176 0.61005 0.231978 0.757644 255 0 0 255
-0.154804 0.286125 2.17 0.625448 0.211636 0.751016 255 0 0 255
-0.148458 0.285343 2.164 0.606534 0.116971 0.786406 255 0 0 255
-0.142276 0.284825 2.16 0.493543 0.109515 0.862799 255 0 0 255
-0.136241 0.28457 2.158 0.196745 0.130956 0.97167 255 0 0 255
-0.130338 0.284578 2.158 0.277876 0.185678 0.942501 255 0 0 255
-0.124261 0.28419 2.155 0.325181 0.19549 0.925225 255 0 0 255
-0.118365 0.284197 2.155 0.330519 0.209362 0.920285 255 0 0 255
-0.112312 0.283809 2.152 0.327969 0.0885692 0.940527 255 0 0 255
-0.106373 0.283684 2.151 0.255172 0.0946875 0.962248 255 0 0 255
-0.100394 0.283426 2.149 0.425988 0.139737 0.893872 255 0 0 255
-0.09438 0.283037 2.146 0.401897 0.181157 0.897586 255 0 0 255
-0.088424 0.282779 2.144 0.307549 0.145132 0.940399 255 0 0 255
-0.08244 0.282388 2.141 0.277012 0.0569218 0.959179 255 0 0 255
-0.076508 0.282129 2.139 0.0187649 0.114517 0.993244 255 0 0 255
-0.070719 0.282398 2.141 0.00101734 0.151417 0.988469 255 0 0 255
-0.064828 0.28227 2.14 0.0298286 0.262033 0.964598 255 0 0 255
-0.058997 0.282406 2.141 0.0574951 0.378846 0.923672 255 0 0 255
-0.053085 0.282146 2.139 0.0294706 0.378112 0.925291 255 0 0 255
-0.047251 0.282281 2.14 -0.0581752 0.323387 0.944477 255 0 0 255
-0.041373 0.282151 2.139 -0.0284028 0.333418 0.942351 255 0 0 255
-0.035533 0.282286 2.14 -0.0841706 0.366402 0.926642 255 0 0 255
-0.029673 0.282288 2.14 -0.20029 0.360573 0.910973 255 0 0 255
-0.023847 0.282685 2.143 -0.323743 0.340975 0.882568 255 0 0 255
-0.017996 0.28295 2.145 -0.243795 0.4157 0.876218 255 0 0 255
-0.012134 0.283215 2.147 -0.262969 0.490012 0.831105 255 0 0 255
-0.006261 0.28348 2.149 -0.283659 0.507269 0.813766 255 0 0 255
-0.000376 0.283612 2.15 -0.270925 0.466682 0.841907 255 0 0 255
0.005514 0.283743 2.151 -0.35444 0.438312 0.825987 255 0 0 255
0.011425 0.284271 2.155 -0.474898 0.405755 0.780919 255 0 0 255
0.017358 0.284797 2.159 -0.620277 0.39889 0.675384 255 0 0 255
0.023334 0.285587 2.165 -0.638161 0.403121 0.65593 255 0 0 255
0.02933 0.286245 2.17 -0.616962 0.350401 0.704682 255 0 0 255
0.035353 0.286903 2.175 -0.713839 0.225522 0.663004 255 0 0 255
0.041441 0.287824 2.182 -0.796142 0.144724 0.587549 255 0 0 255
0.047611 0.289008 2.191 -0.826561 0.153959 0.541382 255 0 0 255
0.05383 0.290192 2.2 -0.703379 0.126936 0.699389 255 0 0 255
0.059934 0.290584 2.203 -0.624718 0.138394 0.768489 255 0 0 255
0.066145 0.291372 2.209 -0.81155 0.0843944 0.578156 255 0 0 255
0.072584 0.29295 2.221 -0.880693 0.137815 0.453196 255 0 0 255
0.079231 0.295056 2.237 -0.895287 0.188228 0.403772 255 0 0 255
0.085812 0.296634 2.249 -0.731364 0.209142 0.649127 255 0 0 255
0.092091 0.297024 2.252 -0.613301 0.210528 0.761275 255 0 0 255
0.098516 0.297809 2.258 -0.740888 0.151585 0.654299 255 0 0 255
0.105067 0.298858 2.266 -0.832497 0.169586 0.527436 255 0 0 255
0.179053 0.298095 2.261 -0.808385 0.201809 0.552981 255 0 0 255
0.185807 0.299007 2.268 -0.684752 0.163807 0.710128 255 0 0 255
0.192515 0.299786 2.274 -0.52133 0.100382 0.847431 255 0 0 255
0.198992 0.30017 2.277 -0.00524763 -0.0461411 0.998921 255 0 0 255
0.204945 0.299762 2.274 0.6014 -0.0785739 0.795075 255 0 0 255
0.210601 0.298959 2.268 0.683397 -0.0448084 0.728671 255 0 0 255
0.21632 0.298288 2.263 0.479494 -0.0384403 0.876703 255 0 0 255
0.222404 0.298143 2.262 0.108165 -0.0298846 0.993684 255 0 0 255
0.228583 0.29813 2.262 -0.115254 -0.0277189 0.992949 255 0 0 255
0.234864 0.298248 2.263 0.0918121 -0.138766 0.98606 255 0 0 255
0.240938 0.298102 2.262 0.196563 -0.153064 0.96847 255 0 0 255
0.246896 0.297824 2.26 0.556858 -0.17036 0.812949 255 0 0 255
-0.10263 0.237308 2.39824 -0.0296581 -0.276112 -0.960668 255 255 0 255
-0.09119 0.236775 2.39313 -0.182201 -0.197655 -0.96319 255 255 0 255
-0.073774 0.237286 2.39216 -0.268269 -0.178942 -0.946579 255 255 0 255
-0.060663 0.23707 2.38834 -0.497139 -0.284492 -0.819706 255 255 0 255
-0.050989 0.236269 2.38222 -0.585562 -0.385496 -0.713099 255 255 0 255
-0.043036 0.235177 2.37495 -0.508098 -0.436933 -0.742244 255 255 0 255
-0.033388 0.234388 2.3689 -0.185857 -0.268891 -0.945069 255 255 0 255
-0.014383 0.235258 2.36944 -0.0908907 -0.381735 -0.919792 255 255 0 255
0.000335 0.235392 2.36707 -0.25634 -0.501106 -0.826549 255 255 0 255
0.011629 0.234934 2.36237 -0.572158 -0.709345 -0.411661 255 255 0 255
0.015266 0.233121 2.35228 -0.678857 -0.698519 -0.226328 255 255 0 255
0.018903 0.231308 2.34219 -0.821462 -0.564605 -0.080131 255 255 0 255
0.019998 0.229039 2.33027 0.769925 0.638132 -0.0016419 255 255 0 255
0.018559 0.226309 2.31651 -0.597843 -0.775934 -0.20127 255 255 0 255
0.023894 0.2248 2.30762 -0.572832 -0.76987 -0.281362 255 255 0 255
0.033448 0.224062 2.30183 -0.796707 -0.598076 -0.0869637 255 255 0 255
0.032022 0.221327 2.28803 0.980792 0.134681 -0.141098 255 255 0 255
0.028922 0.218277 2.27295 0.911812 0.17613 -0.370914 255 255 0 255
0.103318 0.219716 2.2648 0.415741 0.382158 -0.825297 255 255 0 255
0.152953 0.226587 2.28985 -0.0768067 0.185057 -0.979722 255 255 0 255
0.176563 0.228616 2.29536 -0.240261 0.212973 -0.947057 255 255 0 255
0.188434 0.228452 2.29202 -0.943283 0.145328 -0.29849 255 255 0 255
-0.2513 0.165104 2.31145 0.383954 0.338779 -0.858958 0 255 0 255
-0.231128 0.163031 2.30924 -0.793641 0.217602 -0.56814 0 255 0 255
-0.21179 0.161188 2.30773 0.207475 -0.795132 -0.569842 0 255 0 255
-0.160067 0.154452 2.29596 -0.782074 -0.282518 -0.555467 0 255 0 255
-0.169178 0.159512 2.31459 -0.973104 -0.217078 -0.0771102 0 255 0 255
-0.177444 0.164352 2.33255 -0.915481 0.31125 -0.254986 0 255 0 255
-0.176198 0.166912 2.34389 0.87566 -0.463535 -0.135481 0 255 0 255
-0.171487 0.168649 2.35285 0.75587 -0.340058 -0.559483 0 255 0 255
-0.164169 0.169773 2.36005 0.961187 -0.117683 -0.249541 0 255 0 255
-0.171612 0.174378 2.37726 -0.927037 0.356077 -0.117523 0 255 0 255
-0.170378 0.176932 2.38856 0.839738 -0.401207 -0.365887 0 255 0 255
-0.164796 0.178468 2.39693 0.769864 -0.0577596 -0.635589 0 255 0 255
-0.156598 0.1794 2.40358 0.729308 0.0552087 -0.681954 0 255 0 255
-0.151877 0.181147 2.41257 0.603868 -0.0738798 -0.793653 0 255 0 255
-0.137556 0.180679 2.41525 0.452753 -0.355513 -0.817695 0 255 0 255
-0.310866 0.292921 2.271 -0.742599 -0.0534266 0.667602 255 0 0 255
-0.305613 0.293841 2.278 -0.721906 -0.0847313 0.686784 255 0 0 255
-0.300189 0.294631 2.284 -0.444481 -0.00937133 0.895739 255 0 0 255
-0.294217 0.294906 2.286 -0.227161 0.222812 0.948026 255 0 0 255
-0.287982 0.294922 2.286 -0.231928 0.326966 0.916134 255 0 0 255
-0.282115 0.295325 2.289 -0.321336 0.321337 0.890778 255 0 0 255
-0.275989 0.295469 2.29 -0.34261 0.249959 0.905615 255 0 0 255
-0.269976 0.295743 2.292 -0.342425 0.207585 0.916326 255 0 0 255
-0.264065 0.296145 2.295 -0.398784 0.267493 0.877165 255 0 0 255
-0.258025 0.296418 2.297 -0.554825 0.278728 0.783888 255 0 0 255
-0.252411 0.297206 2.303 -0.709528 0.116848 0.694922 255 0 0 255
-0.246657 0.297866 2.308 -0.782726 0.20211 0.588636 255 0 0 255
-0.241604 0.299429 2.32 -0.556965 0.195853 0.807113 255 0 0 255
-0.239324 0.304605 2.36 0.977071 -0.187123 0.101578 255 0 0 255
-0.219809 0.295725 2.291 0.835013 -0.0946473 0.542029 255 0 0 255
-0.212524 0.294318 2.28 0.846174 0.0527698 0.530287 255 0 0 255
-0.204756 0.292136 2.263 0.898174 0.207079 0.387818 255 0 0 255
-0.196992 0.289824 2.245 0.901956 0.29811 0.31242 255 0 0 255
-0.1889 0.286866 2.222 0.901748 0.327888 0.281672 255 0 0 255
-0.181345 0.284553 2.204 0.865961 0.307674 0.39427 255 0 0 255
-0.174047 0.282498 2.188 0.803541 0.279975 0.525296 255 0 0 255
-0.167527 0.281604 2.181 0.636601 0.306535 0.707655 255 0 0 255
-0.161193 0.280968 2.176 0.621223 0.228438 0.749599 255 0 0 255
-0.154885 0.280332 2.171 0.599654 0.293802 0.744376 255 0 0 255
-0.148673 0.279824 2.167 0.56356 0.370803 0.738177 255 0 0 255
-0.14235 0.279058 2.161 0.404146 0.484209 0.776021 255 0 0 255
-0.136376 0.278938 2.16 0.27245 0.503066 0.82018 255 0 0 255
-0.130406 0.278817 2.159 0.352196 0.383 0.853972 255 0 0 255
-0.124384 0.278566 2.157 0.365142 0.322899 0.87316 255 0 0 255
-0.118317 0.278186 2.154 0.419876 0.180624 0.889426 255 0 0 255
-0.112266 0.277805 2.151 0.400805 0.104757 0.910155 255 0 0 255
-0.106331 0.277683 2.15 0.275772 0.0219389 0.960973 255 0 0 255
-0.1004 0.27756 2.149 0.324027 0.028584 0.945616 255 0 0 255
-0.094386 0.277178 2.146 0.371599 0.0643948 0.926157 255 0 0 255
-0.088388 0.276797 2.143 0.325553 0.150446 0.933478 255 0 0 255
-0.082484 0.276673 2.142 0.277563 0.208258 0.937863 255 0 0 255
-0.076549 0.276419 2.14 0.0603296 0.194364 0.979073 255 0 0 255
-0.070756 0.276682 2.142 -0.0580521 0.184032 0.981205 255 0 0 255
-0.064862 0.276557 2.141 -0.0866309 0.251087 0.96408 255 0 0 255
-0.059055 0.276819 2.143 -0.0867431 0.324601 0.941865 255 0 0 255
-0.053163 0.276693 2.142 0.00349318 0.44301 0.89651 255 0 0 255
-0.04732 0.276826 2.143 0.000873057 0.42678 0.904355 255 0 0 255
-0.041433 0.276699 2.142 0.017035 0.464229 0.885551 255 0 0 255
-0.035585 0.276831 2.143 -0.0566141 0.388865 0.919554 255 0 0 255
-0.029731 0.276962 2.144 -0.196214 0.32335 0.925713 255 0 0 255
-0.023871 0.277093 2.145 -0.347374 0.318838 0.881858 255 0 0 255
-0.018022 0.277482 2.148 -0.36819 0.311433 0.87604 255 0 0 255
-0.012146 0.277612 2.149 -0.318633 0.341122 0.884369 255 0 0 255
-0.006267 0.277871 2.151 -0.308059 0.438028 0.84453 255 0 0 255
-0.000377 0.278258 2.154 -0.285953 0.465586 0.837533 255 0 0 255
0.005524 0.278387 2.155 -0.353968 0.465769 0.811027 255 0 0 255
0.011441 0.278774 2.158 -0.472822 0.485534 0.73532 255 0 0 255
0.017383 0.27929 2.162 -0.620299 0.427685 0.657507 255 0 0 255
0.023379 0.280193 2.169 -0.612224 0.390946 0.687272 255 0 0 255
0.029359 0.280579 2.172 -0.521904 0.408428 0.748868 255 0 0 255
0.035371 0.281094 2.176 -0.653739 0.229545 0.721065 255 0 0 255
0.041462 0.281996 2.183 -0.776973 0.105933 0.620557 255 0 0 255
0.047657 0.283285 2.193 -0.822947 0.00663376 0.56808 255 0 0 255
0.053857 0.284315 2.201 -0.703967 0.0385083 0.709188 255 0 0 255
0.059965 0.284699 2.204 -0.626778 0.072873 0.775783 255 0 0 255
0.066179 0.28547 2.21 -0.82104 0.184472 0.540243 255 0 0 255
0.072622 0.287016 2.222 -0.883836 0.180664 0.431502 255 0 0 255
0.079307 0.289207 2.239 -0.895754 0.144843 0.420293 255 0 0 255
0.085856 0.290623 2.25 -0.773039 0.161745 0.613392 255 0 0 255
0.092178 0.291134 2.254 -0.619314 0.339101 0.708139 255 0 0 255
0.098609 0.291903 2.26 -0.709063 0.282079 0.646267 255 0 0 255
0.105166 0.292931 2.268 -0.835804 0.191833 0.514424 255 0 0 255
0.178588 0.291149 2.255 -0.943902 0.142275 0.298004 255 0 0 255
0.185982 0.293075 2.27 -0.609925 0.318484 0.725645 255 0 0 255
0.192526 0.293581 2.274 -0.236803 0.31602 0.918725 255 0 0 255
0.198917 0.293827 2.276 0.141038 0.0637518 0.987949 255 0 0 255
0.204867 0.293428 2.273 0.485041 -0.0711225 0.871594 255 0 0 255
0.210521 0.292642 2.267 0.634682 -0.0280549 0.772264 255 0 0 255
0.216333 0.292113 2.263 0.466163 0.0662882 0.882212 255 0 0 255
0.22222 0.291713 2.26 0.0812736 0.0947771 0.992175 255 0 0 255
0.228596 0.291958 2.262 -0.0328046 0.0588705 0.997727 255 0 0 255
0.23467 0.291816 2.261 0.192134 -0.0271949 0.980992 255 0 0 255
0.240739 0.291673 2.26 0.38004 -0.128488 0.916002 255 0 0 255
0.246036 0.290627 2.252 0.49194 -0.154804 0.856756 255 0 0 255
-0.126284 0.227142 2.4094 0.480878 -0.755696 -0.444611 255 255 0 255
-0.109661 0.22751 2.40764 0.159495 -0.691436 -0.704612 255 255 0 255
-0.097354 0.227143 2.40307 -0.164252 -0.487512 -0.857527 255 255 0 255
-0.082495 0.227237 2.40029 -0.233623 -0.342176 -0.910129 255 255 0 255
-0.070228 0.22689 2.39583 -0.275973 -0.264915 -0.923937 255 255 0 255
-0.060543 0.226101 2.38967 -0.361205 -0.301025 -0.882561 255 255 0 255
-0.049163 0.225621 2.38471 -0.487496 -0.407121 -0.772399 255 255 0 255
-0.042066 0.22439 2.37685 -0.334218 -0.659067 -0.673743 255 255 0 255
-0.029011 0.224229 2.37316 -0.204845 -0.650811 -0.731084 255 255 0 255
-0.017678 0.223773 2.36834 -0.126904 -0.4585 -0.879587 255 255 0 255
0.002141 0.224858 2.36954 -0.291152 -0.315189 -0.903264 255 255 0 255
0.01513 0.224731 2.36604 -0.71887 -0.271253 -0.640038 255 255 0 255
0.020462 0.223228 2.35716 -0.890861 -0.299146 -0.341874 255 255 0 255
0.021552 0.220954 2.34526 -0.86864 -0.449637 -0.208064 255 255 0 255
0.024341 0.218987 2.33456 -0.77272 -0.616818 -0.149797 255 255 0 255
0.027977 0.217176 2.32447 -0.694508 -0.691588 -0.198406 255 255 0 255
0.035838 0.216145 2.31745 -0.68544 -0.674786 -0.273562 255 255 0 255
0.041157 0.214649 2.3086 -0.827966 -0.520614 -0.208407 255 255 0 255
0.027924 0.209707 2.28617 0.96274 0.228614 -0.144455 255 255 0 255
0.005772 0.200557 2.24411 -0.730952 0.210529 -0.649143 255 255 0 255
0.111795 0.210626 2.2723 0.831006 -0.0205191 -0.555884 255 255 0 255
0.147173 0.214925 2.28653 -0.450439 0.381978 -0.806968 255 255 0 255
0.168272 0.216532 2.29009 -0.368301 -0.0999243 -0.924321 255 255 0 255
-0.258059 0.153318 2.3054 -0.024128 -0.303237 -0.95261 0 255 0 255
-0.249965 0.154153 2.31172 0.500389 0.00819482 -0.865762 0 255 0 255
-0.232386 0.152666 2.31136 -0.903829 0.159948 -0.396874 0 255 0 255
-0.215644 0.151409 2.31169 0.467941 -0.626387 -0.623434 0 255 0 255
-0.138906 0.138439 2.28249 0.865392 0.473198 -0.164865 0 255 0 255
-0.163549 0.147323 2.31196 -0.914522 -0.13611 -0.380951 0 255 0 255
-0.182184 0.154709 2.3371 -0.926878 0.372387 -0.0471741 0 255 0 255
-0.187001 0.158732 2.35259 0.912839 -0.372954 -0.166221 0 255 0 255
-0.178831 0.159626 2.35915 0.717417 -0.563618 -0.409448 0 255 0 255
-0.171521 0.160735 2.36634 -0.83692 0.546638 -0.0274262 0 255 0 255
-0.17983 0.165573 2.38411 0.959466 -0.271147 -0.0768392 0 255 0 255
-0.175125 0.167303 2.39306 0.782362 -0.335771 -0.524564 0 255 0 255
-0.16433 0.167594 2.39794 0.642717 -0.245637 -0.725657 0 255 0 255
-0.156132 0.168512 2.4046 0.695068 -0.130082 -0.707078 0 255 0 255
-0.150539 0.17005 2.41302 0.660797 -0.213244 -0.719635 0 255 0 255
-0.141454 0.170776 2.41916 0.538767 -0.36327 -0.760108 0 255 0 255
-0.089742 0.173112 2.44645 -0.568238 -0.739224 -0.361461 0 255 0 255
-0.305495 0.287501 2.277 -0.728659 -0.0352185 0.683971 255 0 0 255
-0.300074 0.288275 2.283 -0.604824 -0.00660716 0.796332 255 0 0 255
-0.294233 0.28867 2.286 -0.326319 0.0488329 0.943997 255 0 0 255
-0.288123 0.288812 2.287 -0.375541 0.0451144 0.925707 255 0 0 255
-0.282254 0.289207 2.29 -0.41605 0.223338 0.881489 255 0 0 255
-0.276246 0.289474 2.292 -0.314198 0.310398 0.897181 255 0 0 255
-0.270226 0.289742 2.294 -0.262553 0.266325 0.927436 255 0 0 255
-0.264195 0.29001 2.296 -0.419522 0.181471 0.889421 255 0 0 255
-0.258264 0.290403 2.299 -0.535359 0.412436 0.73708 255 0 0 255
-0.252535 0.291049 2.304 -0.643761 0.355946 0.677403 255 0 0 255
-0.246885 0.291821 2.31 -0.779019 0.253743 0.573362 255 0 0 255
-0.241513 0.292972 2.319 -0.505753 0.22959 0.831566 255 0 0 255
-0.231608 0.296536 2.347 0.957835 -0.238286 0.160534 255 0 0 255
-0.219726 0.289347 2.29 0.808833 -0.0508943 0.585831 255 0 0 255
-0.21263 0.288222 2.281 0.794022 -0.0452115 0.606205 255 0 0 255
-0.20522 0.286591 2.268 0.867094 0.142711 0.477265 255 0 0 255
-0.197617 0.284581 2.252 0.903866 0.196375 0.380082 255 0 0 255
-0.189761 0.282065 2.232 0.921169 0.244424 0.302828 255 0 0 255
-0.181849 0.279295 2.21 0.882137 0.270684 0.38544 255 0 0 255
-0.174614 0.27741 2.195 0.830863 0.318058 0.456624 255 0 0 255
-0.167767 0.27603 2.184 0.705186 0.367952 0.606073 255 0 0 255
-0.161424 0.275408 2.179 0.581436 0.417353 0.69839 255 0 0 255
-0.155108 0.274785 2.174 0.44362 0.559916 0.699783 255 0 0 255
-0.149025 0.274541 2.172 0.408008 0.601968 0.686414 255 0 0 255
-0.142886 0.27417 2.169 0.407499 0.63205 0.659134 255 0 0 255
-0.136826 0.273926 2.167 0.424816 0.594323 0.682871 255 0 0 255
-0.130656 0.273428 2.163 0.43724 0.427597 0.791191 255 0 0 255
-0.124564 0.273056 2.16 0.424514 0.313768 0.849316 255 0 0 255
-0.118489 0.272684 2.157 0.48739 0.24862 0.837042 255 0 0 255
-0.112378 0.272186 2.153 0.454272 0.210272 0.865692 255 0 0 255
-0.106337 0.271813 2.15 0.330391 0.112215 0.93715 255 0 0 255
-0.100359 0.271566 2.148 0.301325 0.0798309 0.950174 255 0 0 255
-0.094436 0.271446 2.147 0.326601 0.146704 0.933707 255 0 0 255
-0.088476 0.271198 2.145 0.226347 0.23538 0.945179 255 0 0 255
-0.082566 0.271077 2.144 0.166081 0.353717 0.92049 255 0 0 255
-0.076661 0.270955 2.143 0.098391 0.365876 0.925448 255 0 0 255
-0.070761 0.270833 2.142 0.0303772 0.255173 0.966418 255 0 0 255
-0.064927 0.270964 2.143 -0.114706 0.225072 0.967567 255 0 0 255
-0.059087 0.271094 2.144 -0.171568 0.248248 0.953382 255 0 0 255
-0.053266 0.27135 2.146 -0.0581899 0.226785 0.972205 255 0 0 255
-0.04739 0.271353 2.146 -0.0212645 0.290658 0.956591 255 0 0 255
-0.041513 0.271356 2.146 0.0653015 0.259645 0.963494 255 0 0 255
-0.035604 0.271105 2.144 -0.058333 0.219475 0.973873 255 0 0 255
-0.029746 0.271234 2.145 -0.107022 0.28639 0.952117 255 0 0 255
-0.023883 0.271362 2.146 -0.323434 0.292175 0.900013 255 0 0 255
-0.018032 0.271743 2.149 -0.368256 0.301909 0.87934 255 0 0 255
-0.012163 0.272123 2.152 -0.342642 0.328891 0.880015 255 0 0 255
-0.006276 0.272376 2.154 -0.427211 0.347399 0.834748 255 0 0 255
-0.000377 0.272756 2.157 -0.331954 0.449308 0.829415 255 0 0 255
0.00553 0.272756 2.157 -0.34921 0.492988 0.796878 255 0 0 255
0.011463 0.273387 2.162 -0.468671 0.483494 0.739311 255 0 0 255
0.017424 0.274019 2.167 -0.623793 0.383751 0.680895 255 0 0 255
0.023423 0.274776 2.173 -0.549524 0.316428 0.773238 255 0 0 255
0.029401 0.275028 2.175 -0.494813 0.354919 0.793217 255 0 0 255
0.035422 0.275531 2.179 -0.571929 0.271033 0.774234 255 0 0 255
0.041465 0.276035 2.183 -0.687052 0.185251 0.702596 255 0 0 255
0.047617 0.277044 2.191 -0.784622 0.00619404 0.619944 255 0 0 255
0.053812 0.278052 2.199 -0.730273 -0.0512743 0.681229 255 0 0 255
0.059996 0.278808 2.205 -0.737178 0.0769792 0.6713 255 0 0 255
0.066303 0.279942 2.214 -0.8351 0.22321 0.502777 255 0 0 255
0.072724 0.281328 2.225 -0.890314 0.194925 0.411515 255 0 0 255
0.079418 0.283473 2.242 -0.872349 0.0823216 0.481903 255 0 0 255
0.085937 0.284733 2.252 -0.752058 0.176998 0.634886 255 0 0 255
0.092388 0.285612 2.259 -0.697439 0.289589 0.655528 255 0 0 255
0.09879 0.286239 2.264 -0.711582 0.339684 0.615033 255 0 0 255
0.105358 0.287244 2.272 -0.745455 0.304801 0.592784 255 0 0 255
0.179549 0.286511 2.267 -0.884932 0.146718 0.442007 255 0 0 255
0.186567 0.287764 2.277 -0.56445 0.517502 0.643108 255 0 0 255
0.192707 0.287627 2.276 -0.0985522 0.361649 0.927091 255 0 0 255
0.199016 0.287742 2.277 0.402671 0.0176628 0.915174 255 0 0 255
0.204788 0.287098 2.272 0.541311 -0.0317971 0.840221 255 0 0 255
0.210626 0.286581 2.268 0.556489 -0.00353652 0.830847 255 0 0 255
0.216536 0.28619 2.265 0.41906 0.126562 0.899094 255 0 0 255
0.222528 0.285924 2.263 0.110102 0.137222 0.984402 255 0 0 255
0.228811 0.286038 2.264 0.024604 0.0911984 0.995529 255 0 0 255
0.234788 0.285772 2.262 0.218243 0.0532577 0.97444 255 0 0 255
0.240646 0.28538 2.259 0.487688 0.0806287 0.869287 255 0 0 255
-0.114121 0.218138 2.4188 0.0154099 -0.816778 -0.576747 255 255 0 255
-0.102664 0.217641 2.41361 -0.153113 -0.879112 -0.451351 255 255 0 255
-0.093795 0.216695 2.40674 -0.278447 -0.700213 -0.657396 255 255 0 255
-0.081513 0.216365 2.40222 -0.270342 -0.723763 -0.634888 255 255 0 255
-0.069249 0.216045 2.39775 -0.344243 -0.555693 -0.756771 255 255 0 255
-0.057858 0.215581 2.39275 -0.385018 -0.540325 -0.748205 255 255 0 255
-0.043069 0.215742 2.39015 -0.248575 -0.675171 -0.694518 255 255 0 255
-0.024895 0.216532 2.38997 -0.193144 -0.820885 -0.537442 255 255 0 255
-0.014416 0.215944 2.38454 -0.274029 -0.770715 -0.575244 255 255 0 255
-0.006505 0.214898 2.37737 -0.440373 -0.624557 -0.644981 255 255 0 255
0.003097 0.214168 2.37141 -0.602884 -0.290975 -0.742876 255 255 0 255
0.014384 0.213757 2.3667 -0.683708 -0.185591 -0.705762 255 255 0 255
0.019718 0.212258 2.35781 -0.820013 -0.203537 -0.534931 255 255 0 255
0.026742 0.211075 2.35014 -0.786665 -0.471234 -0.398869 255 255 0 255
0.032066 0.209581 2.34128 -0.780835 -0.562192 -0.272465 255 255 0 255
0.035696 0.207774 2.33121 -0.848518 -0.495881 -0.184715 255 255 0 255
0.036792 0.205491 2.3193 -0.889821 -0.368087 -0.269686 255 255 0 255
0.042111 0.204001 2.31045 0.952755 0.292977 -0.0801378 255 255 0 255
0.033101 0.199803 2.29111 0.924117 0.184431 -0.334654 255 255 0 255
0.003915 0.191755 2.25681 0.885762 0.38106 -0.264988 255 255 0 255
0.107706 0.199145 2.2703 0.827551 -0.136303 -0.544593 255 255 0 255
0.156651 0.203732 2.28228 -0.251037 -0.186444 -0.949852 255 255 0 255
-0.253795 0.144471 2.31566 0.120044 -0.592506 -0.796571 0 255 0 255
-0.240532 0.144011 2.31835 -0.437445 -0.428907 -0.790367 0 255 0 255
-0.163113 0.13636 2.31294 -0.83729 0.0775975 -0.541225 0 255 0 255
-0.184327 0.144446 2.33985 -0.942586 0.230063 -0.242081 0 255 0 255
-0.186543 0.147859 2.35356 -0.904807 0.423896 -0.0404412 0 255 0 255
-0.184438 0.150213 2.36427 0.727493 -0.557503 -0.39993 0 255 0 255
-0.178867 0.151726 2.37263 0.90375 -0.413512 -0.110653 0 255 0 255
-0.180233 0.154919 2.38569 0.906736 -0.0784984 -0.414328 0 255 0 255
-0.175528 0.156644 2.39464 0.755322 -0.115221 -0.645145 0 255 0 255
-0.166474 0.15733 2.40069 0.696737 -0.462838 -0.548032 0 255 0 255
-0.15828 0.158231 2.40735 0.609913 -0.592867 -0.525847 0 255 0 255
-0.150948 0.159347 2.41462 0.582669 -0.689607 -0.430045 0 255 0 255
-0.143608 0.160469 2.42192 0.65893 -0.598176 -0.456066 0 255 0 255
-0.088419 0.161879 2.447 -0.568471 0.174177 -0.804055 0 255 0 255
-0.081019 0.163047 2.4545 -0.683925 -0.323937 -0.653691 0 255 0 255
-0.311036 0.280656 2.272 -0.63731 0.172729 0.751 255 0 0 255
-0.305511 0.28129 2.277 -0.678255 0.113677 0.725981 255 0 0 255
-0.299959 0.281923 2.282 -0.566232 0.130117 0.813911 255 0 0 255
-0.294121 0.28231 2.285 -0.349753 0.0390334 0.936028 255 0 0 255
-0.288265 0.282696 2.288 -0.488959 0.0532592 0.870679 255 0 0 255
-0.282515 0.283206 2.292 -0.5462 0.16598 0.821046 255 0 0 255
-0.276623 0.283591 2.295 -0.459584 0.293229 0.838331 255 0 0 255
-0.270595 0.283853 2.297 -0.247287 0.500808 0.829482 255 0 0 255
-0.264785 0.284362 2.301 -0.547686 0.641343 0.537326 255 0 0 255
-0.25884 0.284747 2.304 -0.406721 0.517841 0.752608 255 0 0 255
-0.252988 0.285256 2.308 -0.47883 0.516845 0.709643 255 0 0 255
-0.247219 0.285888 2.313 -0.782327 0.506737 0.362191 255 0 0 255
-0.242048 0.287261 2.324 -0.623308 0.525144 0.579406 255 0 0 255
-0.23014 0.288276 2.332 -0.95215 -0.28998 0.0965556 255 0 0 255
-0.219739 0.283097 2.29 0.764204 -0.121439 0.633439 255 0 0 255
-0.212642 0.281996 2.281 0.75005 -0.128807 0.648717 255 0 0 255
-0.205503 0.280772 2.271 0.851927 -0.0143446 0.523465 255 0 0 255
