ply
format ascii 1.0
comment VCGLIB generated
element vertex 731
property float x
property float y
property float z
property float nx
property float ny
property float nz
property uchar red
property uchar green
property uchar blue
property uchar alpha
element face 0
property list uchar int vertex_indices
end_header
-0.317667 0.336286 2.191 -0.124247 0.728499 0.673685 255 0 0 255
-0.311698 0.336305 2.191 -0.236291 0.526804 0.816483 255 0 0 255
-0.305868 0.336477 2.192 -0.0210167 0.55847 0.829259 255 0 0 255
-0.299621 0.336189 2.19 0.0416531 0.456804 0.888592 255 0 0 255
-0.293787 0.336361 2.191 -0.205298 0.294603 0.933307 255 0 0 255
-0.288077 0.336686 2.193 -0.394274 0.32083 0.861171 255 0 0 255
-0.282613 0.337318 2.197 -0.587021 0.37222 0.718929 255 0 0 255
-0.277252 0.338103 2.202 -0.684276 0.383267 0.620381 255 0 0 255
-0.272109 0.339195 2.209 -0.799698 0.336413 0.497303 255 0 0 255
-0.267168 0.340594 2.218 -0.852517 0.238889 0.464915 255 0 0 255
-0.261942 0.341686 2.225 -0.882457 0.211181 0.420325 255 0 0 255
-0.256792 0.342931 2.233 -0.838694 0.245507 0.486126 255 0 0 255
-0.251597 0.344176 2.241 -0.704025 0.244892 0.666616 255 0 0 255
-0.246358 0.345421 2.249 -0.0321646 -0.383633 0.922925 255 0 0 255
-0.239792 0.344822 2.245 0.668628 -0.156971 0.72684 255 0 0 255
-0.232728 0.343455 2.236 0.624458 -0.245944 0.741326 255 0 0 255
-0.225711 0.342087 2.227 0.82024 0.151764 0.551519 255 0 0 255
-0.218447 0.340259 2.215 0.778242 0.276853 0.563641 255 0 0 255
-0.211919 0.339505 2.21 0.779009 0.278183 0.561925 255 0 0 255
-0.204952 0.337982 2.2 0.835291 0.103148 0.540046 255 0 0 255
-0.197768 0.335998 2.187 0.877364 -0.0587974 0.47621 255 0 0 255
-0.190479 0.333707 2.172 0.594741 0.0541378 0.802093 255 0 0 255
-0.18412 0.332951 2.167 0.460296 0.188038 0.867623 255 0 0 255
-0.178117 0.332809 2.166 0.254692 0.223743 0.940782 255 0 0 255
-0.172119 0.332668 2.165 0.295695 0.12916 0.946511 255 0 0 255
-0.166049 0.332372 2.163 0.271766 0.120481 0.954792 255 0 0 255
-0.15999 0.332075 2.161 0.113837 0.221849 0.968413 255 0 0 255
-0.154154 0.33224 2.162 0.000528382 0.150215 0.988653 255 0 0 255
-0.148244 0.33225 2.162 0.144199 0.154123 0.977473 255 0 0 255
-0.142268 0.332106 2.161 0.272508 0.0629085 0.960095 255 0 0 255
-0.136234 0.331808 2.159 0.389013 0.0366133 0.920505 255 0 0 255
-0.130089 0.331203 2.155 0.467709 0.0133603 0.883782 255 0 0 255
-0.123966 0.330596 2.151 0.305915 0.0647154 0.949857 255 0 0 255
-0.118084 0.330605 2.151 0.142519 0.0230643 0.989523 255 0 0 255
-0.112149 0.330459 2.15 -0.0283878 0.15854 0.986944 255 0 0 255
-0.106367 0.330774 2.152 -0.143833 0.183055 0.972524 255 0 0 255
-0.100481 0.330781 2.152 -0.0575537 0.208593 0.976308 255 0 0 255
-0.094594 0.330788 2.152 0.144386 0.155448 0.977235 255 0 0 255
-0.088625 0.330487 2.15 0.250037 0.137485 0.958426 255 0 0 255
-0.082705 0.330339 2.149 0.147317 0.126631 0.98095 255 0 0 255
-0.076825 0.330345 2.149 0.0884292 0.106259 0.990399 255 0 0 255
-0.070913 0.330196 2.148 0.00169799 0.102513 0.99473 255 0 0 255
-0.065066 0.330354 2.149 -0.236568 0.333944 0.912424 255 0 0 255
-0.059241 0.330666 2.151 -0.31414 0.494842 0.810215 255 0 0 255
-0.053405 0.330978 2.153 -0.0889204 0.612952 0.785101 255 0 0 255
-0.047535 0.331135 2.154 0.113351 0.48525 0.866997 255 0 0 255
-0.041602 0.330831 2.152 0.122776 0.281036 0.951811 255 0 0 255
-0.035713 0.330833 2.152 -0.145625 0.153374 0.977379 255 0 0 255
-0.029838 0.330989 2.153 -0.22741 0.129668 0.965127 255 0 0 255
-0.023957 0.331145 2.154 -0.275499 0.0514782 0.959922 255 0 0 255
-0.018079 0.331454 2.156 -0.349353 0.046602 0.935831 255 0 0 255
-0.012189 0.331762 2.158 -0.463536 0.0949722 0.880974 255 0 0 255
-0.006295 0.332378 2.162 -0.519547 0.153183 0.840598 255 0 0 255
-0.000379 0.332993 2.166 -0.4734 0.270846 0.838174 255 0 0 255
0.005557 0.333454 2.169 -0.559687 0.287382 0.777278 255 0 0 255
0.011514 0.334069 2.173 -0.608414 0.311063 0.730118 255 0 0 255
0.017501 0.334836 2.178 -0.750557 0.389884 0.53353 255 0 0 255
0.023602 0.336833 2.191 -0.827282 0.48176 0.288984 255 0 0 255
0.029895 0.340214 2.213 -0.839249 0.516777 0.169124 255 0 0 255
0.036309 0.343593 2.235 -0.883 0.412302 0.224317 255 0 0 255
0.042748 0.346204 2.252 -0.913232 0.242102 0.327711 255 0 0 255
0.049301 0.348968 2.27 -0.924135 0.191711 0.330485 255 0 0 255
0.055929 0.351578 2.287 -0.85396 0.150175 0.498196 255 0 0 255
0.062567 0.353726 2.301 0.377679 0.387672 0.840874 255 0 0 255
0.068863 0.353721 2.301 0.507878 0.411347 0.756871 255 0 0 255
0.074931 0.35264 2.294 0.683196 0.406593 0.606568 255 0 0 255
0.080995 0.351712 2.288 0.704265 0.42613 0.567824 255 0 0 255
0.086987 0.350631 2.281 0.840499 0.338037 0.42343 255 0 0 255
0.092696 0.348626 2.268 0.903639 0.28009 0.324017 255 0 0 255
0.09829 0.346467 2.254 0.881295 0.173793 0.439449 255 0 0 255
0.104085 0.345231 2.246 0.686585 0.110151 0.718657 255 0 0 255
0.11013 0.344916 2.244 0.302655 0.0195306 0.9529 255 0 0 255
0.116216 0.344754 2.243 0.304553 0.0474144 0.951314 255 0 0 255
0.122241 0.344439 2.241 0.309691 0.0772584 0.947693 255 0 0 255
0.128198 0.343969 2.238 0.19422 0.0249697 0.98064 255 0 0 255
0.134257 0.343806 2.237 -0.0878952 0.00218038 0.996127 255 0 0 255
0.140499 0.344104 2.239 -0.502121 -0.133104 0.854493 255 0 0 255
0.147014 0.345017 2.245 -0.637083 -0.117256 0.761824 255 0 0 255
0.153492 0.345775 2.25 -0.592238 -0.11075 0.798116 255 0 0 255
0.159856 0.346225 2.253 -0.509503 -0.130493 0.850516 255 0 0 255
0.166161 0.346521 2.255 -0.48369 -0.140464 0.863894 255 0 0 255
-0.098179 0.323792 2.37832 0.948807 -0.284426 -0.137359 255 255 0 255
-0.08931 0.322699 2.37156 -0.63188 -0.257368 -0.731088 255 255 0 255
-0.081311 0.321485 2.36424 -0.252245 -0.209208 -0.944778 255 255 0 255
-0.075895 0.319891 2.35517 -0.857387 -0.249995 -0.449877 255 255 0 255
-0.067055 0.318814 2.34849 -0.733617 -0.183091 -0.654434 255 255 0 255
-0.059082 0.317613 2.34124 -0.414213 -0.149189 -0.89787 255 255 0 255
-0.042565 0.317711 2.34003 -0.137741 -0.196621 -0.970756 255 255 0 255
-0.028639 0.317433 2.33709 -0.367603 -0.161824 -0.915796 255 255 0 255
-0.017296 0.316776 2.33239 -0.787719 -0.048992 -0.614084 255 255 0 255
-0.017905 0.314299 2.3192 -0.781668 -0.0946221 -0.616475 255 255 0 255
-0.006581 0.313653 2.31456 -0.575799 -0.352015 -0.73793 255 255 0 255
0.033651 0.317487 2.33082 0.140887 -0.24376 -0.959548 255 255 0 255
0.069556 0.3207 2.34423 0.950156 -0.286619 -0.122694 255 255 0 255
0.092658 0.321962 2.34854 -0.0306357 -0.615213 -0.787765 255 255 0 255
0.099606 0.320721 2.34116 -0.631314 -0.760729 -0.150778 255 255 0 255
0.103157 0.318951 2.3313 0.804987 0.488262 -0.337041 255 255 0 255
-0.279242 0.228325 2.20113 -0.958798 0.268966 -0.0914504 0 255 0 255
-0.280611 0.231391 2.21432 -0.959516 0.230493 -0.16187 0 255 0 255
-0.281129 0.234259 2.22685 -0.714921 0.425718 -0.554664 0 255 0 255
-0.276491 0.235966 2.23553 0.627028 0.172627 -0.759628 0 255 0 255
-0.27099 0.237483 2.24359 -0.234302 0.579004 -0.780933 0 255 0 255
-0.246525 0.234783 2.23777 0.933773 -0.307936 -0.182327 0 255 0 255
-0.181017 0.245381 2.30051 -0.896878 0.266075 -0.353289 0 255 0 255
-0.190219 0.250131 2.31911 -0.971852 0.0526843 -0.229628 0 255 0 255
-0.190741 0.253007 2.3316 0.995611 -0.0116712 -0.0928542 0 255 0 255
-0.19127 0.25588 2.34407 0.87569 -0.138765 -0.462505 0 255 0 255
-0.179604 0.256161 2.34815 0.638605 -0.091353 -0.764093 0 255 0 255
-0.169667 0.256822 2.35347 0.59699 -0.174226 -0.783102 0 255 0 255
-0.161466 0.25786 2.36001 0.585918 -0.173988 -0.791472 0 255 0 255
-0.152381 0.258721 2.36599 0.590263 -0.25468 -0.765982 0 255 0 255
-0.337579 0.332221 2.204 0.645566 0.554051 0.525616 255 0 0 255
-0.330825 0.331487 2.199 0.0132035 0.7889 0.61438 255 0 0 255
-0.324689 0.331355 2.198 -0.0433646 0.880681 0.471721 255 0 0 255
-0.318991 0.331676 2.2 0.0465023 0.852388 0.520838 255 0 0 255
-0.312713 0.331393 2.198 0.0649567 0.768977 0.635968 255 0 0 255
-0.306724 0.331412 2.198 0.126638 0.713263 0.689361 255 0 0 255
-0.300461 0.331129 2.196 0.047581 0.671343 0.739618 255 0 0 255
-0.294475 0.331147 2.196 -0.185008 0.563579 0.805078 255 0 0 255
-0.28862 0.331316 2.197 -0.307449 0.529426 0.790685 255 0 0 255
-0.283145 0.331937 2.201 -0.520916 0.574605 0.631249 255 0 0 255
-0.277773 0.332708 2.206 -0.654875 0.522992 0.545544 255 0 0 255
-0.272373 0.333479 2.211 -0.73577 0.456081 0.500632 255 0 0 255
-0.267426 0.334854 2.22 -0.841583 0.404383 0.358067 255 0 0 255
-0.262312 0.336077 2.228 -0.790889 0.504363 0.346571 255 0 0 255
-0.257153 0.3373 2.236 -0.806725 0.369793 0.460921 255 0 0 255
-0.25195 0.338523 2.244 -0.782443 0.115306 0.611953 255 0 0 255
-0.245935 0.33869 2.245 0.703544 -0.0479562 0.709032 255 0 0 255
-0.239381 0.338102 2.241 0.620643 -0.439647 0.64924 255 0 0 255
-0.232534 0.337061 2.234 0.489717 -0.243108 0.837303 255 0 0 255
-0.225929 0.336321 2.229 0.733375 0.0272412 0.679279 255 0 0 255
-0.218955 0.334978 2.22 0.77661 0.143582 0.613401 255 0 0 255
-0.212317 0.334086 2.214 0.800102 0.168506 0.57571 255 0 0 255
-0.204966 0.331987 2.2 0.880521 -0.0147971 0.473776 255 0 0 255
-0.1976 0.329737 2.185 0.843584 -0.0744564 0.53181 255 0 0 255
-0.190579 0.327939 2.173 0.617402 0.247505 0.746697 255 0 0 255
-0.184387 0.327498 2.17 0.385502 0.283246 0.878157 255 0 0 255
-0.178293 0.327208 2.168 0.300303 0.235392 0.924342 255 0 0 255
-0.172131 0.326767 2.165 0.347576 0.175215 0.921136 255 0 0 255
-0.166137 0.326628 2.164 0.270171 0.161124 0.949235 255 0 0 255
-0.160148 0.326488 2.163 0.114907 0.151213 0.9818 255 0 0 255
-0.154236 0.326498 2.163 0.0295035 0.106452 0.99388 255 0 0 255
-0.148254 0.326357 2.162 0.221417 -0.00198807 0.975177 255 0 0 255
-0.142212 0.326065 2.16 0.318569 -0.0384598 0.947119 255 0 0 255
-0.13618 0.325773 2.158 0.361782 -0.0565654 0.930545 255 0 0 255
-0.130098 0.325329 2.155 0.420257 0.0540325 0.905795 255 0 0 255
-0.124032 0.324884 2.152 0.221576 0.250801 0.942339 255 0 0 255
-0.118146 0.324893 2.152 0.117164 0.234474 0.965036 255 0 0 255
-0.112209 0.324749 2.151 -0.057567 0.259989 0.963894 255 0 0 255
-0.106424 0.325059 2.153 -0.17159 0.24596 0.953971 255 0 0 255
-0.100535 0.325066 2.153 -0.0287356 0.239997 0.970348 255 0 0 255
-0.094689 0.325224 2.154 0.229187 0.197691 0.953096 255 0 0 255
-0.088672 0.324777 2.151 0.350658 0.101748 0.93096 255 0 0 255
-0.082749 0.324632 2.15 0.222798 -0.00860957 0.974827 255 0 0 255
-0.076795 0.324335 2.148 0.0584641 -0.0739588 0.995546 255 0 0 255
-0.070951 0.324491 2.149 -0.231377 0.0686928 0.970436 255 0 0 255
-0.065131 0.324798 2.151 -0.430609 0.204958 0.878959 255 0 0 255
-0.059355 0.325406 2.155 -0.447258 0.294628 0.844485 255 0 0 255
-0.053508 0.325712 2.157 -0.145939 0.33475 0.930937 255 0 0 255
-0.047583 0.325565 2.156 0.282216 0.250295 0.926124 255 0 0 255
-0.041624 0.325115 2.153 0.25329 0.1589 0.954251 255 0 0 255
-0.035715 0.324966 2.152 -0.0869508 0.197402 0.976459 255 0 0 255
-0.02984 0.32512 2.153 -0.256002 0.192138 0.947389 255 0 0 255
-0.023969 0.325424 2.155 -0.305392 0.243444 0.920582 255 0 0 255
-0.018088 0.325727 2.157 -0.354511 0.271893 0.894649 255 0 0 255
-0.012196 0.32603 2.159 -0.525027 0.277645 0.804525 255 0 0 255
-0.006301 0.326786 2.164 -0.548073 0.303584 0.779393 255 0 0 255
-0.000379 0.327239 2.167 -0.505203 0.347001 0.790164 255 0 0 255
0.005562 0.327843 2.171 -0.554986 0.366033 0.747001 255 0 0 255
0.011531 0.328597 2.176 -0.694159 0.441729 0.568348 255 0 0 255
0.017567 0.330107 2.186 -0.773591 0.533324 0.342232 255 0 0 255
0.023754 0.332974 2.205 -0.849274 0.492619 0.189892 255 0 0 255
0.030073 0.336144 2.226 -0.865556 0.397237 0.304983 255 0 0 255
0.03649 0.339161 2.246 -0.892239 0.300219 0.337311 255 0 0 255
0.042883 0.341122 2.259 -0.911775 0.220055 0.34676 255 0 0 255
0.049435 0.343686 2.276 -0.923524 0.0906043 0.372684 255 0 0 255
0.056006 0.345796 2.29 -0.905278 0.0856066 0.416105 255 0 0 255
0.06268 0.348057 2.305 0.114246 0.50561 0.855164 255 0 0 255
0.069018 0.348203 2.306 0.240702 0.590564 0.770258 255 0 0 255
0.075099 0.347141 2.299 0.602306 0.519404 0.606174 255 0 0 255
0.081142 0.346079 2.292 0.687135 0.451426 0.569263 255 0 0 255
0.087184 0.345167 2.286 0.803213 0.384998 0.454561 255 0 0 255
0.092825 0.342896 2.271 0.915515 0.270712 0.29757 255 0 0 255
0.098384 0.340625 2.256 0.892409 0.222312 0.392662 255 0 0 255
0.104092 0.339108 2.246 0.774718 0.141285 0.616321 255 0 0 255
0.110039 0.338497 2.242 0.466418 -0.0625382 0.882351 255 0 0 255
0.116068 0.338187 2.24 0.215313 -0.145223 0.965686 255 0 0 255
0.122195 0.338179 2.24 0.220974 -0.0808523 0.971923 255 0 0 255
0.128206 0.337869 2.238 0.219102 -0.0159338 0.975572 255 0 0 255
0.134266 0.337709 2.237 -0.0293393 -0.00925686 0.999527 255 0 0 255
0.140383 0.3377 2.237 -0.394357 -0.0439182 0.917907 255 0 0 255
0.146893 0.338596 2.243 -0.680572 0.105724 0.725013 255 0 0 255
0.153366 0.33934 2.248 -0.617382 -0.0103156 0.786596 255 0 0 255
0.159795 0.339934 2.252 -0.44352 -0.0518519 0.894763 255 0 0 255
0.166172 0.340376 2.255 -0.489354 -0.0852856 0.867905 255 0 0 255
-0.098062 0.312826 2.37965 0.896989 0.334336 -0.28919 255 255 0 255
-0.086616 0.312137 2.37465 -0.263056 -0.351016 -0.89866 255 255 0 255
-0.073469 0.311716 2.37087 -0.179804 -0.56416 -0.80585 255 255 0 255
-0.073206 0.309349 2.35826 -0.817397 -0.0560624 -0.573341 255 255 0 255
-0.066083 0.308026 2.35039 -0.773675 -0.058302 -0.630894 255 255 0 255
-0.06239 0.306181 2.34014 -0.606831 -0.0207111 -0.794561 255 255 0 255
-0.044166 0.306579 2.34011 -0.0954071 -0.196541 -0.975843 255 255 0 255
-0.028533 0.306596 2.33836 -0.446651 -0.0580094 -0.892826 255 255 0 255
-0.016339 0.306094 2.33425 -0.874042 0.0946243 -0.476547 255 255 0 255
-0.017798 0.303471 2.32046 -0.607284 -0.132232 -0.783404 255 255 0 255
0.001184 0.304051 2.3213 -0.41034 -0.126726 -0.903084 255 255 0 255
0.035439 0.307062 2.33327 -0.0665949 -0.275745 -0.958921 255 255 0 255
0.073875 0.310778 2.34849 0.997628 -0.0674579 -0.0137386 255 255 0 255
0.095267 0.311832 2.35156 -0.224384 -0.454184 -0.862189 255 255 0 255
0.110688 0.311957 2.35039 -0.685311 -0.42887 -0.588574 255 255 0 255
0.109149 0.309376 2.33682 0.961689 0.220344 -0.163101 255 255 0 255
-0.295057 0.221424 2.21414 0.327529 0.387555 -0.861699 0 255 0 255
-0.28442 0.221743 2.21832 0.0993764 0.138225 -0.985403 0 255 0 255
-0.281501 0.223836 2.22828 -0.607703 0.430408 -0.667417 0 255 0 255
-0.272565 0.224562 2.23379 0.623259 0.446712 -0.64187 0 255 0 255
-0.268782 0.226465 2.24313 -0.613969 -0.650711 -0.446786 0 255 0 255
-0.244327 0.223704 2.23734 0.651931 -0.436258 -0.620213 0 255 0 255
-0.193924 0.23473 2.29863 0.827882 -0.557327 -0.06323 0 255 0 255
-0.187491 0.236105 2.3063 -0.906487 0.419922 -0.0441231 0 255 0 255
-0.189739 0.239376 2.32003 0.994263 -0.106901 -0.00377599 0 255 0 255
-0.18678 0.24151 2.33012 0.986621 0.095165 -0.132372 0 255 0 255
-0.189042 0.244773 2.3438 0.877455 0.0242163 -0.479048 0 255 0 255
-0.178249 0.245218 2.34849 0.531772 -0.263801 -0.804753 0 255 0 255
-0.171801 0.246608 2.3562 0.606358 -0.231822 -0.76065 0 255 0 255
-0.163602 0.24763 2.36275 0.588239 -0.165578 -0.791555 0 255 0 255
-0.158014 0.249217 2.37109 0.600431 -0.226152 -0.767032 0 255 0 255
-0.337752 0.326367 2.205 -0.520757 0.120558 0.84515 255 0 0 255
-0.331747 0.326386 2.205 -0.236874 0.390792 0.889479 255 0 0 255
-0.326185 0.326849 2.208 -0.243442 0.618823 0.746856 255 0 0 255
-0.32017 0.326868 2.208 0.0274727 0.653948 0.75604 255 0 0 255
-0.313586 0.326295 2.204 0.257841 0.625382 0.736489 255 0 0 255
-0.307301 0.326017 2.202 0.190667 0.740786 0.644113 255 0 0 255
-0.300889 0.325591 2.199 0.0730545 0.742241 0.66614 255 0 0 255
-0.295029 0.325757 2.2 -0.0880869 0.797757 0.59651 255 0 0 255
-0.289295 0.326071 2.202 -0.29043 0.75364 0.589642 255 0 0 255
-0.284063 0.326977 2.208 -0.458902 0.769044 0.44495 255 0 0 255
-0.278671 0.327735 2.213 -0.463507 0.764842 0.447413 255 0 0 255
-0.273498 0.328788 2.22 -0.845138 0.453977 0.282217 255 0 0 255
-0.268406 0.32999 2.228 -0.776004 0.580288 0.247153 255 0 0 255
-0.26327 0.331191 2.236 -0.73515 0.592396 0.329579 255 0 0 255
-0.258319 0.332689 2.246 -0.637538 0.550031 0.539455 255 0 0 255
-0.253201 0.334038 2.255 -0.888816 0.457739 0.0219276 255 0 0 255
-0.245294 0.331684 2.239 0.136806 -0.55987 0.817208 255 0 0 255
-0.238648 0.330958 2.234 0.416809 -0.358507 0.83531 255 0 0 255
-0.232237 0.330529 2.231 0.230803 -0.259706 0.937701 255 0 0 255
-0.225943 0.330247 2.229 0.56036 -0.0749982 0.824847 255 0 0 255
-0.219166 0.329224 2.222 0.815004 -0.0343394 0.578438 255 0 0 255
-0.212139 0.327756 2.212 0.834208 0.0159914 0.551218 255 0 0 255
-0.204513 0.325251 2.195 0.868834 -0.139174 0.475141 255 0 0 255
-0.197342 0.323337 2.182 0.740574 -0.00517967 0.671955 255 0 0 255
-0.190767 0.322312 2.175 0.573989 0.238093 0.783485 255 0 0 255
-0.184484 0.321732 2.171 0.280488 0.48745 0.826873 255 0 0 255
-0.178552 0.321744 2.171 0.330867 0.488883 0.807169 255 0 0 255
-0.172301 0.321162 2.167 0.421656 0.414183 0.806634 255 0 0 255
-0.166225 0.320877 2.165 0.402219 0.304224 0.86352 255 0 0 255
-0.160159 0.320591 2.163 0.231607 0.219784 0.947657 255 0 0 255
-0.154246 0.320602 2.163 0.0851008 0.0844055 0.992791 255 0 0 255
-0.148264 0.320464 2.162 0.296655 0.0689221 0.952494 255 0 0 255
-0.142156 0.320029 2.159 0.367545 0.0764634 0.926857 255 0 0 255
-0.136126 0.319741 2.157 0.255439 0.128627 0.958231 255 0 0 255
-0.130167 0.319602 2.156 0.211486 0.241647 0.947038 255 0 0 255
-0.124213 0.319462 2.155 0.163957 0.409864 0.89729 255 0 0 255
-0.118319 0.31947 2.155 0.165367 0.397981 0.902366 255 0 0 255
-0.11232 0.319182 2.153 0.000749113 0.363791 0.93148 255 0 0 255
-0.10653 0.319486 2.155 -0.114449 0.284998 0.951671 255 0 0 255
-0.100635 0.319492 2.155 0.000179675 0.200668 0.979659 255 0 0 255
-0.094739 0.319499 2.155 0.281699 0.159687 0.946121 255 0 0 255
-0.088678 0.318912 2.151 0.414593 0.0659482 0.907614 255 0 0 255
-0.082716 0.318621 2.149 0.329821 0.0616777 0.942027 255 0 0 255
-0.076764 0.31833 2.147 0.00255266 0.0532803 0.998576 255 0 0 255
-0.070956 0.318632 2.149 -0.380288 0.0804426 0.921363 255 0 0 255
-0.065166 0.319081 2.152 -0.488212 0.15969 0.857991 255 0 0 255
-0.059387 0.319679 2.156 -0.466634 0.115994 0.876811 255 0 0 255
-0.053561 0.320127 2.159 -0.087912 0.0581636 0.994429 255 0 0 255
-0.047608 0.319834 2.157 0.325848 0.120652 0.937692 255 0 0 255
-0.041647 0.319392 2.154 0.227885 0.212621 0.95019 255 0 0 255
-0.035751 0.319395 2.154 -0.143296 0.276839 0.950172 255 0 0 255
-0.029883 0.319694 2.156 -0.323271 0.338254 0.883787 255 0 0 255
-0.024004 0.319992 2.158 -0.339584 0.39147 0.855239 255 0 0 255
-0.018115 0.32029 2.16 -0.358503 0.424723 0.831316 255 0 0 255
-0.012219 0.320736 2.163 -0.511742 0.415011 0.752253 255 0 0 255
-0.006313 0.321478 2.168 -0.506088 0.436057 0.74413 255 0 0 255
-0.00038 0.321775 2.17 -0.499499 0.403125 0.766806 255 0 0 255
0.005573 0.322516 2.175 -0.668624 0.463876 0.581172 255 0 0 255
0.011574 0.32385 2.184 -0.729721 0.533139 0.428099 255 0 0 255
0.017672 0.326074 2.199 -0.839688 0.480767 0.252561 255 0 0 255
0.023918 0.329186 2.22 -0.865671 0.424968 0.264603 255 0 0 255
0.030196 0.331408 2.235 -0.890706 0.29142 0.348881 255 0 0 255
0.036525 0.333334 2.248 -0.891549 0.157509 0.424655 255 0 0 255
0.042924 0.335259 2.261 -0.906322 0.122273 0.404511 255 0 0 255
0.049438 0.33748 2.276 -0.915333 0.00818576 0.402614 255 0 0 255
0.05601 0.339552 2.29 -0.907613 -0.0041363 0.419787 255 0 0 255
0.062712 0.34192 2.306 -0.698725 0.248883 0.670702 255 0 0 255
0.069262 0.343102 2.314 -0.101851 0.639603 0.761928 255 0 0 255
0.075333 0.341911 2.306 0.506179 0.705491 0.496049 255 0 0 255
0.081324 0.340571 2.297 0.675616 0.577731 0.458006 255 0 0 255
0.087381 0.339676 2.291 0.826789 0.439333 0.351292 255 0 0 255
0.093077 0.337594 2.277 0.903514 0.30701 0.299012 255 0 0 255
0.098565 0.335067 2.26 0.87652 0.3595 0.320114 255 0 0 255
0.104192 0.333281 2.248 0.810842 0.129901 0.570668 255 0 0 255
0.109998 0.332236 2.241 0.482247 0.0116775 0.875957 255 0 0 255
0.116024 0.331932 2.239 0.230935 0.0502099 0.971673 255 0 0 255
0.122094 0.331776 2.238 0.0807612 0.137539 0.987198 255 0 0 255
0.128215 0.331767 2.238 -0.0805287 0.307886 0.948009 255 0 0 255
0.134275 0.33161 2.237 -0.076105 0.436479 0.89649 255 0 0 255
0.140518 0.331898 2.239 -0.380911 0.471667 0.795259 255 0 0 255
0.146968 0.332629 2.244 -0.547921 0.417737 0.724761 255 0 0 255
0.153581 0.333657 2.251 -0.701179 0.360565 0.615094 255 0 0 255
0.16009 0.334388 2.256 -0.553696 0.393176 0.734053 255 0 0 255
0.168984 0.339861 2.293 -0.802367 0.587393 0.105719 255 0 0 255
-0.091064 0.302902 2.38567 -0.959119 -0.276294 -0.0612513 255 255 0 255
-0.082204 0.301843 2.37891 -0.114462 -0.395752 -0.911196 255 255 0 255
-0.07164 0.301055 2.37337 -0.0169206 -0.341631 -0.939682 255 255 0 255
-0.076518 0.297879 2.3572 -0.721087 -0.185103 -0.66766 255 255 0 255
-0.067678 0.296831 2.3505 -0.854962 -0.13964 -0.499541 255 255 0 255
-0.063982 0.294985 2.34025 -0.4085 -0.0679548 -0.910225 255 255 0 255
-0.04149 0.296098 2.34319 -0.036481 -0.167553 -0.985188 255 255 0 255
-0.028426 0.295747 2.33963 -0.559176 -0.0273594 -0.828598 255 255 0 255
-0.019645 0.29473 2.33309 -0.87492 0.190675 -0.445149 255 255 0 255
-0.019392 0.29236 2.3205 -0.724364 0.120312 -0.678839 255 255 0 255
0.000436 0.293122 2.32193 -0.18134 -0.161008 -0.970151 255 255 0 255
0.035527 0.296363 2.33448 -0.649381 -0.562718 -0.511521 255 255 0 255
0.067155 0.299088 2.34476 0.9386 -0.103376 -0.329156 255 255 0 255
0.090242 0.300468 2.34902 0.379549 -0.893807 -0.238853 255 255 0 255
0.107358 0.300902 2.34906 -0.703652 -0.0387542 -0.709487 255 255 0 255
0.105827 0.298303 2.33549 0.927356 -0.15752 -0.339408 255 255 0 255
-0.281366 0.210513 2.21719 0.226461 0.248753 -0.94172 0 255 0 255
-0.275008 0.211815 2.22461 0.472645 0.121401 -0.872851 0 255 0 255
-0.266069 0.212528 2.23015 0.55528 0.354464 -0.752342 0 255 0 255
-0.257119 0.213248 2.23572 0.19774 0.11006 -0.974056 0 255 0 255
-0.199881 0.222589 2.29189 0.813535 -0.537489 -0.221962 0 255 0 255
-0.201254 0.225685 2.30503 0.845958 -0.487635 -0.215793 0 255 0 255
-0.192225 0.226471 2.31086 0.867813 -0.453045 -0.204086 0 255 0 255
-0.190132 0.228797 2.32156 0.883146 -0.463596 -0.0716402 0 255 0 255
-0.185433 0.23055 2.33045 -0.971194 0.219709 -0.0922494 0 255 0 255
-0.192038 0.234783 2.34713 0.72841 -0.649167 -0.219092 0 255 0 255
-0.182991 0.235584 2.35302 0.504 -0.454107 -0.734692 0 255 0 255
-0.174806 0.236583 2.35954 0.465247 -0.468834 -0.750827 0 255 0 255
-0.160508 0.236267 2.36194 0.495086 -0.294207 -0.817516 0 255 0 255
-0.152299 0.237283 2.36854 0.579754 -0.28441 -0.763542 0 255 0 255
-0.337006 0.319634 2.2 -0.597977 0.0762997 0.797874 255 0 0 255
-0.331917 0.320525 2.206 -0.52898 0.0944681 0.84336 255 0 0 255
-0.3265 0.321125 2.21 -0.291117 0.0819474 0.953171 255 0 0 255
-0.320624 0.321289 2.211 -0.0238955 0.206334 0.97819 255 0 0 255
-0.3146 0.321308 2.211 0.15347 0.185299 0.970624 255 0 0 255
-0.308296 0.321036 2.209 0.0240045 0.39392 0.918831 255 0 0 255
-0.302139 0.320908 2.208 -0.143737 0.718873 0.680119 255 0 0 255
-0.29612 0.320926 2.208 -0.141427 0.808206 0.571665 255 0 0 255
-0.290495 0.32138 2.211 -0.397661 0.76582 0.505356 255 0 0 255
-0.285109 0.322124 2.216 -0.519654 0.745806 0.416812 255 0 0 255
-0.279696 0.322868 2.221 -0.485671 0.799766 0.352843 255 0 0 255
-0.274501 0.323902 2.228 -0.599504 0.769207 0.221167 255 0 0 255
-0.269748 0.325518 2.239 -0.66587 0.697442 0.264938 255 0 0 255
-0.257035 0.332836 2.289 0.991534 -0.127739 0.0233072 255 0 0 255
-0.244432 0.324418 2.231 0.512088 -0.181933 0.839444 255 0 0 255
-0.238343 0.324433 2.231 0.192956 -0.225186 0.955018 255 0 0 255
-0.232043 0.324157 2.229 0.215339 -0.13083 0.967736 255 0 0 255
-0.225957 0.324171 2.229 0.499521 -0.209327 0.840631 255 0 0 255
-0.21918 0.323167 2.222 0.780056 -0.0397027 0.624449 255 0 0 255
-0.212056 0.321581 2.211 0.84454 -0.103669 0.525362 255 0 0 255
-0.20434 0.318976 2.193 0.869371 -0.0955572 0.484833 255 0 0 255
-0.197354 0.317389 2.182 0.763069 0.00701185 0.64628 255 0 0 255
-0.191042 0.31682 2.178 0.538261 0.155558 0.828298 255 0 0 255
-0.185006 0.316686 2.177 0.19043 0.280313 0.94083 255 0 0 255
-0.178975 0.316553 2.176 0.270674 0.391604 0.879421 255 0 0 255
-0.172789 0.316127 2.173 0.496609 0.320259 0.80673 255 0 0 255
-0.166543 0.315557 2.169 0.520258 0.30634 0.797175 255 0 0 255
-0.160244 0.31484 2.164 0.352689 0.214862 0.910739 255 0 0 255
-0.154328 0.31485 2.164 0.141786 0.104293 0.984388 255 0 0 255
-0.148343 0.314714 2.163 0.27391 0.0898072 0.957553 255 0 0 255
-0.142231 0.314287 2.16 0.3457 0.12698 0.929714 255 0 0 255
-0.136198 0.314005 2.158 0.199505 0.183607 0.962541 255 0 0 255
-0.130357 0.31416 2.159 0.0582131 0.304055 0.950874 255 0 0 255
-0.124452 0.314168 2.159 0.117374 0.226516 0.96691 255 0 0 255
-0.118437 0.313885 2.157 0.200073 0.23621 0.950882 255 0 0 255
-0.112484 0.313747 2.156 0.0614977 0.160653 0.985093 255 0 0 255
-0.106587 0.313755 2.156 -0.0573058 0.232856 0.970821 255 0 0 255
-0.100688 0.313762 2.156 0.0573379 0.178308 0.982303 255 0 0 255
-0.094746 0.313622 2.155 0.302977 0.117166 0.945768 255 0 0 255
-0.088726 0.313192 2.152 0.414831 0.156646 0.896313 255 0 0 255
-0.082722 0.312761 2.149 0.221059 0.28291 0.933325 255 0 0 255
-0.07677 0.312475 2.147 -0.0589852 0.255392 0.965037 255 0 0 255
-0.070993 0.312917 2.15 -0.404847 0.236832 0.883182 255 0 0 255
-0.0652 0.313358 2.153 -0.445801 0.202212 0.871993 255 0 0 255
-0.059391 0.313799 2.156 -0.383648 0.058696 0.921612 255 0 0 255
-0.05354 0.314094 2.158 -0.0864024 0.00452437 0.99625 255 0 0 255
-0.047611 0.313952 2.157 0.204977 0.0816297 0.975357 255 0 0 255
-0.041669 0.313664 2.155 0.115859 0.266218 0.956925 255 0 0 255
-0.035787 0.313812 2.156 -0.199946 0.257035 0.945492 255 0 0 255
-0.029913 0.314105 2.158 -0.346754 0.28661 0.893094 255 0 0 255
-0.024039 0.314544 2.161 -0.366778 0.320821 0.87324 255 0 0 255
-0.018141 0.314836 2.163 -0.405281 0.3671 0.837249 255 0 0 255
-0.012237 0.315274 2.166 -0.540157 0.319414 0.778592 255 0 0 255
-0.00632 0.315857 2.17 -0.535943 0.356542 0.765273 255 0 0 255
-0.00038 0.316294 2.173 -0.592067 0.396382 0.701668 255 0 0 255
0.005589 0.317458 2.181 -0.777403 0.446625 0.442912 255 0 0 255
0.011622 0.319204 2.193 -0.844525 0.448453 0.29269 255 0 0 255
0.017754 0.321532 2.209 -0.889587 0.365597 0.273812 255 0 0 255
0.023984 0.324005 2.226 -0.884043 0.21995 0.412421 255 0 0 255
0.030212 0.325459 2.236 -0.887637 0.209499 0.410135 255 0 0 255
0.03656 0.327494 2.25 -0.884726 0.0739753 0.460203 255 0 0 255
0.042927 0.329092 2.261 -0.891246 0.0120066 0.45336 255 0 0 255
0.049442 0.331273 2.276 -0.905985 -0.0251039 0.422564 255 0 0 255
0.055989 0.333161 2.289 -0.897398 0.028189 0.44032 255 0 0 255
0.062743 0.335777 2.307 -0.56035 0.066946 0.825546 255 0 0 255
0.069327 0.337083 2.316 -0.139641 0.691973 0.708289 255 0 0 255
0.075501 0.33635 2.311 0.41933 0.745874 0.517528 255 0 0 255
0.081542 0.33518 2.303 0.698752 0.542923 0.465812 255 0 0 255
0.087539 0.33401 2.295 0.806126 0.472536 0.356189 255 0 0 255
0.093246 0.331967 2.281 0.871134 0.428955 0.239004 255 0 0 255
0.09879 0.329632 2.265 0.82558 0.473281 0.307282 255 0 0 255
0.10443 0.327879 2.253 0.777612 0.525089 0.345834 255 0 0 255
0.110152 0.326562 2.244 0.58017 0.281198 0.764415 255 0 0 255
0.116084 0.325972 2.24 0.105304 0.194771 0.97518 255 0 0 255
0.122211 0.325964 2.24 0.123639 0.221136 0.967374 255 0 0 255
0.12851 0.326393 2.243 -0.215329 0.403679 0.8892 255 0 0 255
0.134825 0.32682 2.246 -0.259408 0.672737 0.692916 255 0 0 255
0.14103 0.326957 2.247 -0.407205 0.656773 0.634692 255 0 0 255
0.147305 0.327238 2.249 -0.555161 0.657603 0.509269 255 0 0 255
0.154274 0.328975 2.261 -0.533458 0.765251 0.360296 255 0 0 255
-0.090088 0.292068 2.38759 -0.732428 -0.102876 -0.673027 255 255 0 255
-0.082088 0.29089 2.38024 -0.199856 -0.218477 -0.955157 255 255 0 255
-0.071525 0.290123 2.37468 -0.841748 0.281113 -0.460908 255 255 0 255
-0.0704 0.28787 2.36266 -0.957288 0.174458 -0.230573 255 255 0 255
-0.064992 0.286296 2.35359 -0.761328 -0.110492 -0.638883 255 255 0 255
-0.060442 0.284587 2.34394 -0.329106 -0.329113 -0.885084 255 255 0 255
-0.038815 0.285622 2.34628 -0.294377 -0.218211 -0.930444 255 255 0 255
-0.029169 0.28475 2.3403 -0.721813 0.149002 -0.675858 255 255 0 255
-0.022945 0.283334 2.33193 -0.812025 0.208502 -0.545107 255 255 0 255
-0.020982 0.281228 2.32055 -0.589026 0.157648 -0.792587 255 255 0 255
0.000541 0.282316 2.32318 0.0241487 -0.166954 -0.985669 255 255 0 255
0.040714 0.286489 2.33937 -0.0430144 -0.51782 -0.854407 255 255 0 255
0.076565 0.290001 2.35271 0.778543 0.609581 -0.149275 255 255 0 255
0.096244 0.290884 2.35452 0.0139039 0.00607461 -0.999885 255 255 0 255
0.110807 0.290941 2.3527 -0.770082 0.129566 -0.624649 255 255 0 255
0.10674 0.287904 2.33727 0.997568 -0.0596202 -0.0361121 255 255 0 255
-0.28981 0.199174 2.21249 0.0714346 0.0308334 -0.996969 0 255 0 255
-0.282604 0.20026 2.21926 0.30427 0.164092 -0.938346 0 255 0 255
-0.277106 0.201753 2.22733 0.405934 -0.14845 -0.901765 0 255 0 255
-0.267312 0.202248 2.23223 0.516548 -0.0727499 -0.853162 0 255 0 255
-0.255787 0.202351 2.23592 0.140285 0.0436303 -0.989149 0 255 0 255
-0.202875 0.212586 2.29524 0.942301 -0.320949 -0.0951838 0 255 0 255
-0.20338 0.2155 2.30777 0.935251 -0.321558 -0.148005 0 255 0 255
-0.196089 0.216657 2.31481 0.862741 -0.456232 -0.218015 0 255 0 255
-0.194864 0.219179 2.32611 -0.796201 0.602937 -0.0503101 0 255 0 255
-0.197985 0.222668 2.3404 -0.653569 0.751334 -0.0913539 0 255 0 255
-0.19764 0.225377 2.35226 0.503132 -0.766474 -0.39922 0 255 0 255
-0.18947 0.226351 2.35874 0.489465 -0.769248 -0.410708 0 255 0 255
-0.177809 0.226563 2.36287 0.319428 -0.633206 -0.704994 0 255 0 255
-0.167876 0.22717 2.36824 0.423673 -0.634845 -0.646122 0 255 0 255
-0.158803 0.227977 2.37423 0.520685 -0.600888 -0.606482 0 255 0 255
-0.152339 0.229363 2.38201 0.390444 -0.726798 -0.565082 0 255 0 255
-0.13888 0.229235 2.38515 0.427874 -0.640965 -0.63725 0 255 0 255
-0.132398 0.230635 2.393 0.379758 -0.707601 -0.595889 0 255 0 255
-0.121534 0.231096 2.39797 0.506493 -0.756372 -0.413964 0 255 0 255
-0.337484 0.314069 2.203 -0.622178 0.252494 0.741041 255 0 0 255
-0.331936 0.314515 2.206 -0.453608 0.315766 0.833386 255 0 0 255
-0.326371 0.314962 2.209 -0.229545 0.0389802 0.972517 255 0 0 255
-0.320353 0.31498 2.209 -0.0231252 7.97485e-05 0.999733 255 0 0 255
-0.314334 0.314999 2.209 0.000827501 -0.0358318 0.999358 255 0 0 255
-0.308174 0.314874 2.208 -0.0670648 0.17171 0.982862 255 0 0 255
-0.302293 0.315034 2.209 -0.201558 0.452834 0.868514 255 0 0 255
-0.296674 0.31548 2.212 -0.413549 0.577796 0.703654 255 0 0 255
-0.2913 0.31621 2.217 -0.657223 0.520738 0.544876 255 0 0 255
-0.286284 0.317368 2.225 -0.617751 0.505312 0.602531 255 0 0 255
-0.280972 0.318241 2.231 -0.81844 0.419351 0.392811 255 0 0 255
-0.276119 0.319684 2.241 -0.697793 0.643484 0.314664 255 0 0 255
-0.244228 0.318051 2.229 0.259354 0.224224 0.939393 255 0 0 255
-0.238144 0.318066 2.229 0.229202 0.188078 0.955036 255 0 0 255
-0.232058 0.318081 2.229 0.168885 0.106123 0.979906 255 0 0 255
-0.22587 0.317952 2.228 0.424302 0.15356 0.892405 255 0 0 255
-0.218996 0.316824 2.22 0.814129 -0.055614 0.578015 255 0 0 255
-0.211686 0.314982 2.207 0.877152 -0.0732566 0.474592 255 0 0 255
-0.204167 0.312712 2.191 0.837446 0.0376606 0.545222 255 0 0 255
-0.197367 0.31144 2.182 0.676331 0.148046 0.721567 255 0 0 255
-0.190967 0.310739 2.177 0.47731 0.190379 0.857864 255 0 0 255
-0.184933 0.310608 2.176 0.17258 0.0914625 0.98074 255 0 0 255
-0.179069 0.310762 2.177 0.25134 0.040937 0.967033 255 0 0 255
-0.172959 0.310488 2.175 0.387852 0.0454144 0.920602 255 0 0 255
-0.16663 0.309785 2.17 0.536606 0.139286 0.832258 255 0 0 255
-0.160402 0.309224 2.166 0.389268 0.256571 0.88467 255 0 0 255
-0.154338 0.308949 2.164 0.169577 0.235785 0.956896 255 0 0 255
-0.148352 0.308816 2.163 0.201118 0.266 0.94276 255 0 0 255
-0.142372 0.308683 2.162 0.29504 0.329496 0.896875 255 0 0 255
-0.136333 0.308406 2.16 0.220694 0.357979 0.907274 255 0 0 255
-0.130365 0.308272 2.159 0.11845 0.261817 0.957821 255 0 0 255
-0.12446 0.30828 2.159 0.198518 0.0713251 0.977499 255 0 0 255
-0.1185 0.308145 2.158 0.22459 0.0989088 0.969421 255 0 0 255
-0.112544 0.30801 2.157 0.0794125 -0.0043147 0.996833 255 0 0 255
-0.106643 0.308017 2.157 0.00113879 0.0195303 0.999809 255 0 0 255
-0.100742 0.308024 2.157 0.0881005 -0.0136503 0.996018 255 0 0 255
-0.094796 0.307888 2.156 0.250748 0.0114181 0.967985 255 0 0 255
-0.088814 0.307608 2.154 0.309537 0.168615 0.935818 255 0 0 255
-0.082843 0.307328 2.152 0.228413 0.311083 0.922526 255 0 0 255
-0.076918 0.307191 2.151 -0.139495 0.438286 0.887945 255 0 0 255
-0.071097 0.307481 2.153 -0.244817 0.460506 0.853228 255 0 0 255
-0.065265 0.307771 2.155 -0.328105 0.295185 0.897337 255 0 0 255
-0.059422 0.308061 2.157 -0.229947 0.122464 0.965467 255 0 0 255
-0.053518 0.308065 2.157 -0.0862999 0.150008 0.984911 255 0 0 255
-0.047636 0.308211 2.158 0.0301003 0.128262 0.991283 255 0 0 255
-0.041729 0.308214 2.158 0.0180735 0.229421 0.973159 255 0 0 255
-0.035822 0.308216 2.158 -0.129272 0.258588 0.957299 255 0 0 255
-0.029943 0.308504 2.16 -0.394962 0.226932 0.890228 255 0 0 255
-0.024052 0.308792 2.162 -0.437269 0.250019 0.863879 255 0 0 255
-0.018159 0.309222 2.165 -0.428947 0.337187 0.838039 255 0 0 255
-0.012249 0.309651 2.168 -0.503694 0.343879 0.79249 255 0 0 255
-0.006329 0.310366 2.173 -0.572183 0.296751 0.764555 255 0 0 255
-0.000381 0.310937 2.177 -0.714768 0.322662 0.620481 255 0 0 255
0.005602 0.312223 2.186 -0.818967 0.329497 0.469814 255 0 0 255
0.01166 0.314222 2.2 -0.892013 0.308505 0.33036 255 0 0 255
0.017803 0.316363 2.215 -0.90597 0.16809 0.388541 255 0 0 255
0.024007 0.318219 2.228 -0.885884 0.162879 0.434373 255 0 0 255
0.030255 0.319788 2.239 -0.881 0.116668 0.458506 255 0 0 255
0.036562 0.321357 2.25 -0.860613 0.0534642 0.506446 255 0 0 255
0.042911 0.322782 2.26 -0.871032 0.0459915 0.489069 255 0 0 255
0.04938 0.324636 2.273 -0.916986 0.0334171 0.397516 255 0 0 255
0.055968 0.326775 2.288 -0.915442 0.106041 0.388229 255 0 0 255
0.062639 0.328913 2.303 -0.910105 0.0748723 0.407557 255 0 0 255
0.069451 0.331337 2.32 0.233097 0.715578 0.658494 255 0 0 255
0.075735 0.331046 2.318 0.667639 0.582152 0.464066 255 0 0 255
0.08176 0.329756 2.309 0.688198 0.574994 0.442453 255 0 0 255
0.087736 0.328465 2.3 0.791516 0.510419 0.336119 255 0 0 255
0.093498 0.326602 2.287 0.758166 0.589435 0.278839 255 0 0 255
0.099145 0.324597 2.273 0.634783 0.751725 0.178776 255 0 0 255
0.104994 0.323448 2.265 0.506659 0.733399 0.453235 255 0 0 255
0.110896 0.322584 2.259 0.450791 0.845465 0.286317 255 0 0 255
0.117024 0.322433 2.258 0.093595 0.978501 0.183784 255 0 0 255
0.123147 0.322283 2.257 -0.0621475 0.980746 0.185135 255 0 0 255
0.12955 0.322846 2.261 -0.0698837 0.978979 0.191614 255 0 0 255
0.136034 0.323551 2.266 -0.140755 0.973679 0.179271 255 0 0 255
0.142232 0.323542 2.266 -0.225156 0.946986 0.229178 255 0 0 255
0.148166 0.322961 2.262 -0.307507 0.918484 0.24865 255 0 0 255
-0.097117 0.282398 2.39689 -0.0438041 -0.652323 -0.756674 255 255 0 255
-0.088251 0.281365 2.39009 -0.700351 -0.0990333 -0.706895 255 255 0 255
-0.087118 0.279101 2.37805 0.126042 -0.554366 -0.822673 255 255 0 255
-0.080837 0.277662 2.36952 -0.816212 -0.040561 -0.576327 255 255 0 255
-0.077131 0.275811 2.35924 -0.749757 -0.347764 -0.562961 255 255 0 255
-0.066582 0.275071 2.35371 -0.662837 -0.442933 -0.603703 255 255 0 255
-0.058612 0.27392 2.34643 -0.188507 -0.577191 -0.794554 255 255 0 255
-0.039555 0.274591 2.34697 -0.589867 -0.199481 -0.782473 255 255 0 255
-0.031615 0.273457 2.33977 -0.846527 0.236752 -0.476803 255 255 0 255
-0.028795 0.271484 2.32898 -0.812072 0.303966 -0.49814 255 255 0 255
-0.020867 0.270356 2.32182 -0.867623 0.157558 -0.4716 255 255 0 255
0.005747 0.272347 2.32808 0.17818 -0.135941 -0.974562 255 255 0 255
0.05099 0.277486 2.34793 0.0922637 -0.456551 -0.8849 255 255 0 255
0.09631 0.280326 2.35569 0.261403 -0.580106 -0.771457 255 255 0 255
0.1041 0.27927 2.34891 -0.964774 0.235378 -0.117513 255 255 0 255
0.106808 0.277356 2.33843 -0.929213 0.272384 -0.249739 255 255 0 255
-0.291903 0.189133 2.2152 0.408242 -0.611332 -0.677947 0 255 0 255
-0.282986 0.189797 2.2207 0.319447 -0.527856 -0.78697 0 255 0 255
-0.274917 0.190673 2.22686 0.22817 -0.194154 -0.954066 0 255 0 255
-0.267698 0.191759 2.23369 0.496826 -0.289211 -0.818243 0 255 0 255
-0.241576 0.188392 2.22665 0.0893516 0.136021 -0.986668 0 255 0 255
-0.206372 0.205512 2.31111 0.958736 -0.242104 -0.149034 0 255 0 255
-0.205149 0.208036 2.3224 -0.961626 0.226023 -0.155526 0 255 0 255
-0.209132 0.21174 2.33729 -0.893073 0.396231 -0.213122 0 255 0 255
-0.209656 0.21465 2.34974 0.931861 -0.357933 -0.0593261 0 255 0 255
-0.208449 0.217166 2.36097 0.786141 -0.502137 -0.360335 0 255 0 255
-0.196813 0.217338 2.36504 0.495929 -0.744413 -0.447106 0 255 0 255
-0.188643 0.218299 2.37154 0.340699 -0.780288 -0.524476 0 255 0 255
-0.17698 0.218492 2.3757 0.322375 -0.783418 -0.531347 0 255 0 255
-0.168789 0.21947 2.38227 0.365604 -0.746564 -0.555857 0 255 0 255
-0.157099 0.219682 2.38652 0.342754 -0.717139 -0.60682 0 255 0 255
-0.144522 0.219714 2.39024 0.384887 -0.693059 -0.609534 0 255 0 255
-0.136297 0.220718 2.39691 0.403602 -0.725527 -0.557419 0 255 0 255
-0.126315 0.221346 2.40247 0.587066 -0.738286 -0.332095 0 255 0 255
-0.342723 0.307348 2.198 -0.760929 0.246326 0.600259 255 0 0 255
-0.338729 0.309185 2.211 -0.39898 0.509347 0.762483 255 0 0 255
-0.332406 0.308924 2.209 -0.10677 0.19684 0.974605 255 0 0 255
-0.326537 0.309082 2.21 -0.0845386 -0.0371763 0.995726 255 0 0 255
-0.320371 0.308961 2.209 -0.0808725 -0.0893846 0.992709 255 0 0 255
-0.314494 0.309119 2.21 -0.239599 0.0808724 0.967498 255 0 0 255
-0.308611 0.309276 2.211 -0.350433 0.314755 0.882114 255 0 0 255
-0.302858 0.309574 2.213 -0.359071 0.549167 0.754642 255 0 0 255
-0.297362 0.310151 2.217 -0.458246 0.542823 0.703814 255 0 0 255
-0.291843 0.310727 2.221 -0.693402 0.367323 0.619893 255 0 0 255
-0.286687 0.311724 2.228 -0.66502 0.207363 0.71746 255 0 0 255
-0.281367 0.31258 2.234 -0.846869 0.166496 0.505066 255 0 0 255
-0.276751 0.314275 2.246 -0.831421 0.302232 0.466256 255 0 0 255
-0.24501 0.312954 2.236 0.300153 0.229963 0.925757 255 0 0 255
-0.238479 0.312409 2.232 0.286242 0.270149 0.919285 255 0 0 255
-0.232176 0.312143 2.23 0.216326 0.204473 0.954669 255 0 0 255
-0.225985 0.312017 2.229 0.653985 0.0903446 0.751093 255 0 0 255
-0.218911 0.310631 2.219 0.834599 0.00687838 0.550815 255 0 0 255
-0.211795 0.309104 2.208 0.867657 -0.0327221 0.496086 255 0 0 255
-0.204459 0.307157 2.194 0.816246 0.137808 0.561027 255 0 0 255
-0.197651 0.30591 2.185 0.718115 0.204267 0.665271 255 0 0 255
-0.191242 0.305222 2.18 0.495414 0.237557 0.835543 255 0 0 255
-0.18503 0.304814 2.177 0.255356 0.160885 0.953367 255 0 0 255
-0.178998 0.304685 2.176 0.277216 0.0300131 0.960339 255 0 0 255
-0.172811 0.304276 2.173 0.425911 0.0381486 0.903961 255 0 0 255
-0.166718 0.304007 2.171 0.436977 0.150543 0.886785 255 0 0 255
-0.16056 0.303597 2.168 0.336302 0.326434 0.88337 255 0 0 255
-0.154562 0.303467 2.167 0.242836 0.317477 0.916645 255 0 0 255
-0.148568 0.303336 2.166 0.169131 0.303293 0.937768 255 0 0 255
-0.142644 0.303346 2.166 0.248063 0.290016 0.924313 255 0 0 255
-0.136531 0.302934 2.163 0.297237 0.281776 0.912279 255 0 0 255
-0.130555 0.302803 2.162 0.278332 0.172005 0.944958 255 0 0 255
-0.124468 0.302391 2.159 0.281396 0.117161 0.952413 255 0 0 255
-0.118507 0.302259 2.158 0.21922 -0.0146336 0.975566 255 0 0 255
-0.112499 0.301986 2.156 0.116408 0.000858459 0.993201 255 0 0 255
-0.106551 0.301853 2.155 -0.0568861 0.0120896 0.998307 255 0 0 255
-0.100701 0.302 2.156 0.0919092 0.0719584 0.993164 255 0 0 255
-0.094714 0.301726 2.154 0.200623 0.0606829 0.977787 255 0 0 255
-0.08882 0.301732 2.154 0.147238 0.187385 0.971189 255 0 0 255
-0.082887 0.301598 2.153 0.0334505 0.261402 0.96465 255 0 0 255
-0.07703 0.301743 2.154 -0.203762 0.34307 0.916943 255 0 0 255
-0.071201 0.302028 2.156 -0.225853 0.3641 0.903561 255 0 0 255
-0.06533 0.302172 2.157 -0.17001 0.305605 0.936858 255 0 0 255
-0.059454 0.302316 2.158 -0.114286 0.217195 0.969415 255 0 0 255
-0.053547 0.30232 2.158 -0.0854206 0.206454 0.97472 255 0 0 255
-0.047662 0.302464 2.159 -0.114199 0.223994 0.967877 255 0 0 255
-0.041752 0.302467 2.159 -0.0606113 0.286403 0.95619 255 0 0 255
-0.035825 0.302329 2.158 -0.142577 0.323671 0.935366 255 0 0 255
-0.029959 0.302751 2.161 -0.34907 0.270493 0.897209 255 0 0 255
-0.024076 0.303173 2.164 -0.476668 0.262408 0.839005 255 0 0 255
-0.018185 0.303735 2.168 -0.487484 0.328215 0.809095 255 0 0 255
-0.012261 0.304016 2.17 -0.48643 0.327691 0.809941 255 0 0 255
-0.006332 0.304577 2.174 -0.599048 0.296607 0.743751 255 0 0 255
-0.000381 0.305278 2.179 -0.77483 0.272262 0.570536 255 0 0 255
0.005612 0.306819 2.19 -0.878225 0.2725 0.393021 255 0 0 255
0.011677 0.30864 2.203 -0.902543 0.235224 0.360675 255 0 0 255
0.017805 0.31032 2.215 -0.897813 0.166821 0.407557 255 0 0 255
0.024009 0.31214 2.228 -0.896568 0.128354 0.423899 255 0 0 255
0.03027 0.313819 2.24 -0.87261 0.140523 0.467766 255 0 0 255
0.036581 0.315358 2.251 -0.855442 0.104639 0.507218 255 0 0 255
0.042914 0.316617 2.26 -0.875975 0.114179 0.468648 255 0 0 255
0.049448 0.318855 2.276 -0.916845 0.154819 0.368002 255 0 0 255
0.05607 0.321093 2.292 -0.901738 0.167672 0.398441 255 0 0 255
0.062724 0.32305 2.306 -0.889835 0.0766796 0.449794 255 0 0 255
0.069605 0.325708 2.325 0.391064 0.645316 0.656229 255 0 0 255
0.076034 0.325983 2.327 -0.292107 0.762843 0.57684 255 0 0 255
0.082049 0.324577 2.317 0.532948 0.683205 0.499196 255 0 0 255
0.088161 0.323731 2.311 0.577208 0.689534 0.437463 255 0 0 255
0.094036 0.322184 2.3 0.642298 0.741118 0.19544 255 0 0 255
0.099937 0.320917 2.291 0.532131 0.83089 0.162664 255 0 0 255
0.105974 0.32021 2.286 0.274189 0.949746 0.151009 255 0 0 255
0.112131 0.319923 2.284 0.217628 0.972878 0.0783985 255 0 0 255
0.11838 0.319916 2.284 0.0222907 0.983484 0.179616 255 0 0 255
0.124573 0.319768 2.283 -0.0580338 0.99074 0.122741 255 0 0 255
0.131048 0.32032 2.287 0.0193936 0.987207 0.158263 255 0 0 255
0.137544 0.320871 2.291 0.0558707 0.964867 0.256731 255 0 0 255
0.143998 0.321283 2.294 0.26147 0.896159 0.358515 255 0 0 255
-0.096997 0.2714 2.39823 -0.794745 -0.205902 -0.570951 255 255 0 255
-0.090707 0.269963 2.38968 -0.698983 -0.242363 -0.672818 255 255 0 255
-0.080992 0.26909 2.38348 -0.635037 -0.533989 -0.558197 255 255 0 255
-0.073004 0.267942 2.37615 -0.666761 -0.720652 -0.189973 255 255 0 255
-0.063314 0.267082 2.37002 -0.515862 -0.778772 -0.356932 255 255 0 255
-0.057057 0.265662 2.36155 -0.389001 -0.792491 -0.46972 255 255 0 255
-0.043119 0.265522 2.35846 -0.423684 -0.735617 -0.528544 255 255 0 255
-0.036027 0.264256 2.35065 -0.768017 -0.303565 -0.563914 255 255 0 255
-0.0315 0.262564 2.34105 -0.990279 -0.0883978 -0.107392 255 255 0 255
-0.036339 0.259299 2.32483 -0.932093 0.120921 -0.341439 255 255 0 255
-0.023302 0.259043 2.32127 -0.74743 0.0526421 -0.662252 255 255 0 255
0.011799 0.262543 2.33359 0.32138 -0.158074 -0.933663 255 255 0 255
0.058713 0.268102 2.35464 -0.00942708 -0.471276 -0.881936 255 255 0 255
0.085191 0.270226 2.36123 0.434473 0.840844 -0.322822 255 255 0 255
0.099766 0.270339 2.35933 0.181306 0.0487051 -0.98222 255 255 0 255
0.104168 0.268713 2.35008 0.948228 -0.30418 -0.0913147 255 255 0 255
-0.300335 0.17783 2.21052 0.915065 -0.0799262 -0.395307 0 255 0 255
-0.304261 0.181581 2.2256 0.814742 -0.36848 -0.44768 0 255 0 255
-0.29022 0.18098 2.22724 0.183417 -0.617414 -0.764957 0 255 0 255
-0.281302 0.18163 2.23276 0.158692 -0.665804 -0.729055 0 255 0 255
-0.264656 0.180437 2.23261 0.105902 -0.282587 -0.953378 0 255 0 255
-0.195625 0.166742 2.19409 0.693553 -0.526742 -0.491454 0 255 0 255
-0.202442 0.193926 2.3096 -0.990023 0.0775918 -0.117621 0 255 0 255
-0.204677 0.197259 2.32332 -0.961847 0.138817 -0.235756 0 255 0 255
-0.207787 0.200785 2.33761 -0.985867 0.0465549 -0.160931 0 255 0 255
-0.209173 0.203906 2.35066 0.990769 0.0218607 -0.133785 0 255 0 255
-0.207095 0.20623 2.3613 0.92347 -0.0999042 -0.370435 0 255 0 255
-0.202412 0.20796 2.37015 0.727791 -0.432606 -0.53214 0 255 0 255
-0.197726 0.209692 2.37901 0.715585 -0.383886 -0.583583 0 255 0 255
-0.186945 0.210051 2.38375 0.380784 -0.656867 -0.650791 0 255 0 255
-0.17528 0.210224 2.38794 0.37623 -0.67927 -0.630114 0 255 0 255
-0.162728 0.210212 2.39161 0.38593 -0.71972 -0.577114 0 255 0 255
-0.154523 0.211189 2.39823 0.40058 -0.782147 -0.477264 0 255 0 255
-0.147182 0.212366 2.40547 0.335565 -0.77516 -0.535278 0 255 0 255
-0.135463 0.21258 2.40984 0.374798 -0.719372 -0.584834 0 255 0 255
-0.34508 0.303415 2.213 -0.57259 -0.168919 0.802252 255 0 0 255
-0.338441 0.302886 2.209 -0.248768 -0.404143 0.880217 255 0 0 255
-0.332274 0.302767 2.208 0.128353 -0.0878991 0.987826 255 0 0 255
-0.32626 0.302785 2.208 -0.00133929 -0.239053 0.971005 255 0 0 255
-0.320099 0.302666 2.207 -0.106668 -0.121464 0.986848 255 0 0 255
-0.31437 0.302958 2.209 -0.361078 -0.0129961 0.932445 255 0 0 255
-0.308908 0.303524 2.213 -0.637118 0.257626 0.726436 255 0 0 255
-0.30356 0.304228 2.218 -0.492828 0.48611 0.721677 255 0 0 255
-0.297782 0.304519 2.22 -0.466743 0.522025 0.713892 255 0 0 255
-0.292123 0.304947 2.223 -0.554008 0.371252 0.745149 255 0 0 255
-0.286704 0.30565 2.228 -0.622766 0.375502 0.686411 255 0 0 255
-0.281509 0.306627 2.235 -0.777778 0.33064 0.534545 255 0 0 255
-0.276891 0.308289 2.247 -0.914504 0.177061 0.363774 255 0 0 255
-0.245025 0.306857 2.236 0.313719 0.28576 0.905495 255 0 0 255
-0.238707 0.306597 2.234 0.352351 0.141947 0.925041 255 0 0 255
-0.232399 0.306337 2.232 0.283887 0.188755 0.940096 255 0 0 255
-0.226101 0.306076 2.23 0.546162 0.0607251 0.835476 255 0 0 255
-0.219023 0.304717 2.22 0.834505 0.0258599 0.550393 255 0 0 255
-0.211616 0.302808 2.206 0.86995 0.0648376 0.48886 255 0 0 255
-0.204471 0.301174 2.194 0.801424 0.159612 0.576406 255 0 0 255
-0.197753 0.300088 2.186 0.690899 0.229654 0.685506 255 0 0 255
-0.191429 0.299551 2.182 0.506799 0.313493 0.803043 255 0 0 255
-0.185211 0.29915 2.179 0.373479 0.35702 0.856183 255 0 0 255
-0.179091 0.298887 2.177 0.397601 0.229995 0.888265 255 0 0 255
-0.172902 0.298486 2.174 0.395601 0.189181 0.898727 255 0 0 255
-0.166805 0.298222 2.172 0.31441 0.288692 0.904325 255 0 0 255
-0.160793 0.298095 2.171 0.262328 0.34963 0.899413 255 0 0 255
-0.154714 0.29783 2.169 0.271682 0.2732 0.922795 255 0 0 255
-0.148646 0.297565 2.167 0.254793 0.162391 0.953263 255 0 0 255
-0.142653 0.297437 2.166 0.247777 0.148903 0.957306 255 0 0 255
-0.136603 0.297171 2.164 0.27259 0.191548 0.94287 255 0 0 255
-0.130563 0.296905 2.162 0.343807 0.247683 0.905787 255 0 0 255
-0.124476 0.296501 2.159 0.394442 0.150129 0.906574 255 0 0 255
-0.11846 0.296234 2.157 0.276307 0.155324 0.948435 255 0 0 255
-0.112506 0.296104 2.156 0.0590832 0.142374 0.988048 255 0 0 255
-0.106657 0.296248 2.157 -0.0573859 0.146814 0.987498 255 0 0 255
-0.100801 0.296392 2.158 0.0915438 0.0830927 0.992328 255 0 0 255
-0.094808 0.296124 2.156 0.1717 0.136104 0.975702 255 0 0 255
-0.088908 0.29613 2.156 0.0588887 0.142493 0.988042 255 0 0 255
-0.083007 0.296135 2.156 -0.0584109 0.161844 0.985086 255 0 0 255
-0.077178 0.296415 2.158 -0.254103 0.169612 0.952189 255 0 0 255
-0.071305 0.296557 2.159 -0.194314 0.200469 0.960237 255 0 0 255
-0.065395 0.296561 2.159 -0.143715 0.188543 0.971492 255 0 0 255
-0.059485 0.296565 2.159 -0.0852742 0.230991 0.969212 255 0 0 255
-0.0536 0.296706 2.16 -0.113225 0.268517 0.956598 255 0 0 255
-0.047687 0.29671 2.16 -0.196437 0.31319 0.929153 255 0 0 255
-0.041812 0.296987 2.162 -0.0979468 0.461783 0.881568 255 0 0 255
-0.035893 0.29699 2.162 -0.0829331 0.4223 0.902654 255 0 0 255
-0.029988 0.297129 2.163 -0.322408 0.352367 0.878573 255 0 0 255
-0.024089 0.297406 2.165 -0.508222 0.296351 0.808632 255 0 0 255
-0.018203 0.298094 2.17 -0.522008 0.325466 0.788403 255 0 0 255
-0.012279 0.298507 2.173 -0.443267 0.354357 0.823374 255 0 0 255
-0.006338 0.29892 2.176 -0.599826 0.319743 0.733467 255 0 0 255
