ply
format ascii 1.0
comment VCGLIB generated
element vertex 723
property float x
property float y
property float z
property float nx
property float ny
property float nz
property uchar red
property uchar green
property uchar blue
property uchar alpha
element face 0
property list uchar int vertex_indices
end_header
-0.052914 -0.118778 2.38129 0.142084 -0.360643 -0.921818 255 255 0 255
-0.044139 -0.119242 2.37434 -0.136785 -0.503886 -0.852871 255 255 0 255
-0.027014 -0.117379 2.37325 0.0855335 -0.604337 -0.792124 255 255 0 255
-0.002404 -0.11341 2.3775 -0.457323 -0.571561 -0.681303 255 255 0 255
-0.002864 -0.116406 2.36425 -0.957473 -0.186884 -0.21982 255 255 0 255
-0.004149 -0.11964 2.35039 -0.662689 0.238695 -0.709836 255 255 0 255
0.002067 -0.120774 2.34183 -0.713605 0.269811 -0.646507 255 255 0 255
0.018256 -0.119094 2.34043 -0.327378 0.400375 -0.855876 255 255 0 255
0.023621 -0.120452 2.33133 -0.352998 0.32634 -0.876867 255 255 0 255
0.049723 -0.115929 2.33725 0.137341 0.246283 -0.959418 255 255 0 255
0.069147 -0.113266 2.33848 -0.369624 0.642024 -0.671702 255 255 0 255
0.081912 -0.112475 2.33496 -0.712817 0.333513 -0.616978 255 255 0 255
0.083908 -0.114748 2.32361 -0.838384 0.520154 -0.162949 255 255 0 255
0.08095 -0.118444 2.30859 -0.823037 0.527112 -0.211574 255 255 0 255
-0.212894 -0.190101 2.29827 -0.837169 0.0529268 -0.544378 0 255 0 255
-0.214934 -0.186191 2.31215 -0.940904 0.290267 -0.174481 0 255 0 255
-0.224585 -0.179683 2.33133 0.978346 0.0338171 -0.204196 0 255 0 255
-0.211434 -0.180993 2.33452 0.158068 -0.169034 -0.972853 0 255 0 255
-0.20842 -0.178829 2.3448 0.572319 0.0874816 -0.815351 0 255 0 255
-0.189316 -0.182135 2.344 0.717251 0.496119 -0.489302 0 255 0 255
-0.189677 -0.178811 2.35665 0.725895 0.548274 -0.415298 0 255 0 255
-0.188349 -0.176066 2.36813 0.508044 0.593496 -0.624223 0 255 0 255
-0.180231 -0.175612 2.37499 0.753155 0.325023 -0.571941 0 255 0 255
-0.160207 -0.179153 2.37385 0.0266723 -0.667645 -0.744002 0 255 0 255
-0.152912 -0.178394 2.38137 0.0538201 -0.76941 -0.636484 0 255 0 255
-0.145609 -0.177629 2.38892 -0.0476467 0.82164 -0.568012 0 255 0 255
-0.128075 -0.180269 2.3897 0.0953859 0.42493 -0.900187 0 255 0 255
-0.027761 -0.200516 2.37423 -0.133721 -0.561414 -0.81666 0 255 0 255
-0.019487 -0.199949 2.38162 0.427786 -0.431998 -0.793963 0 255 0 255
-0.008635 -0.200219 2.38738 0.152527 -0.512211 -0.845207 0 255 0 255
-0.326686 0.095958 2.168 -0.847091 -0.143235 0.511781 255 0 0 255
-0.319147 0.095478 2.157 -0.9551 -0.210186 0.208821 255 0 0 255
-0.314718 0.095927 2.167 -0.519666 -0.566391 0.639647 255 0 0 255
-0.30952 0.096154 2.172 -0.186116 -0.366837 0.911477 255 0 0 255
-0.303455 0.096116 2.171 -0.128795 -0.232162 0.964112 255 0 0 255
-0.297531 0.096122 2.171 -0.452185 -0.0887815 0.887494 255 0 0 255
-0.292144 0.096306 2.175 -0.676809 -0.0250457 0.735732 255 0 0 255
-0.287523 0.096754 2.185 -0.89842 -0.00399125 0.439119 255 0 0 255
-0.283878 0.097558 2.203 -0.84523 0.211696 0.490684 255 0 0 255
-0.24263 0.097951 2.211 -0.62228 0.367992 0.690905 255 0 0 255
-0.236694 0.098 2.212 -0.417006 -0.345994 0.840473 255 0 0 255
-0.230751 0.09805 2.213 -0.0814517 -0.291227 0.95318 255 0 0 255
-0.224903 0.098143 2.215 0.196121 -0.153661 0.968465 255 0 0 255
-0.218451 0.097971 2.211 0.525501 0.0996805 0.844933 255 0 0 255
-0.212211 0.097887 2.209 0.426792 0.282582 0.859067 255 0 0 255
-0.206076 0.097847 2.208 0.397476 0.318769 0.860465 255 0 0 255
-0.199673 0.097675 2.204 0.547999 0.346759 0.76122 255 0 0 255
-0.193115 0.097413 2.198 0.693453 0.269112 0.668357 255 0 0 255
-0.186334 0.097018 2.189 0.687889 0.212624 0.693974 255 0 0 255
-0.179931 0.096801 2.184 0.618232 0.288522 0.731125 255 0 0 255
-0.173476 0.096539 2.178 0.481164 0.34873 0.804281 255 0 0 255
-0.167283 0.09641 2.175 0.351194 0.434022 0.829631 255 0 0 255
-0.161254 0.096369 2.174 0.437626 0.409077 0.800712 255 0 0 255
-0.155016 0.096195 2.17 0.445251 0.489191 0.749963 255 0 0 255
-0.148867 0.096066 2.167 0.565062 0.449197 0.692046 255 0 0 255
-0.142537 0.095803 2.161 0.52717 0.330101 0.783024 255 0 0 255
-0.136365 0.095629 2.157 0.490161 0.392318 0.77835 255 0 0 255
-0.130155 0.09541 2.152 0.43507 0.341072 0.833297 255 0 0 255
-0.124144 0.095324 2.15 0.26976 0.446298 0.853257 255 0 0 255
-0.118199 0.095283 2.149 0.14462 0.485889 0.861973 255 0 0 255
-0.112258 0.095241 2.148 0.0583282 0.518389 0.853154 255 0 0 255
-0.106323 0.095199 2.147 0.0949111 0.494416 0.864028 255 0 0 255
-0.100393 0.095157 2.146 0.117107 0.592056 0.797343 255 0 0 255
-0.094512 0.09516 2.146 0.0799388 0.645913 0.759214 255 0 0 255
-0.088672 0.095206 2.147 0.00981705 0.65678 0.754018 255 0 0 255
-0.082748 0.095164 2.146 -0.0651093 0.646978 0.759724 255 0 0 255
-0.076974 0.095299 2.149 -0.136378 0.606661 0.783175 255 0 0 255
-0.071116 0.095345 2.15 -0.214955 0.567519 0.794806 255 0 0 255
-0.065283 0.095435 2.152 -0.289447 0.416772 0.861697 255 0 0 255
-0.059411 0.095481 2.153 -0.324815 0.35944 0.874813 255 0 0 255
-0.053607 0.095659 2.157 -0.328494 0.351597 0.876625 255 0 0 255
-0.047738 0.095749 2.159 -0.275952 0.383933 0.881162 255 0 0 255
-0.041857 0.095839 2.161 -0.285565 0.325464 0.901402 255 0 0 255
-0.035949 0.095884 2.162 -0.269811 0.191908 0.943596 255 0 0 255
-0.030034 0.095929 2.163 -0.105466 -0.00341932 0.994417 255 0 0 255
-0.024092 0.095886 2.162 0.0209222 -0.196199 0.980341 255 0 0 255
-0.018156 0.095842 2.161 -0.0162808 -0.379631 0.924995 255 0 0 255
-0.01223 0.095842 2.161 0.0150244 -0.541179 0.840773 255 0 0 255
-0.006307 0.095887 2.162 -0.0025337 -0.60489 0.796305 255 0 0 255
-0.000379 0.095798 2.16 0.0337286 -0.589751 0.80688 255 0 0 255
0.005547 0.095842 2.161 -0.0426991 -0.498976 0.865563 255 0 0 255
0.011478 0.095886 2.162 -0.278851 -0.251856 0.92672 255 0 0 255
0.017422 0.095975 2.164 -0.157932 -0.273601 0.948789 255 0 0 255
0.023356 0.095974 2.164 -0.235561 -0.173008 0.956336 255 0 0 255
0.029303 0.096018 2.165 -0.311662 -0.032765 0.949628 255 0 0 255
0.035272 0.096106 2.167 -0.444583 0.0505452 0.89431 255 0 0 255
0.04129 0.096283 2.171 -0.555741 0.0221696 0.83106 255 0 0 255
0.047351 0.096503 2.176 -0.526773 0.123248 0.841023 255 0 0 255
0.053391 0.096635 2.179 -0.581931 0.0734064 0.809918 255 0 0 255
0.059501 0.096856 2.184 -0.591902 0.0694375 0.803014 255 0 0 255
0.065578 0.096987 2.187 -0.551107 -0.00699426 0.834405 255 0 0 255
0.071737 0.097207 2.192 -0.473337 -0.134333 0.870579 255 0 0 255
0.077781 0.09725 2.193 -0.213534 -0.30953 0.926604 255 0 0 255
0.083869 0.097337 2.195 -0.393996 -0.391104 0.831748 255 0 0 255
0.090131 0.097601 2.201 -0.688396 -0.249891 0.68093 255 0 0 255
0.096556 0.097998 2.21 -0.804622 -0.14607 0.575541 255 0 0 255
0.103263 0.098616 2.224 -0.832951 -0.149838 0.532674 255 0 0 255
0.146111 0.098729 2.227 0.846891 0.114816 0.519223 255 0 0 255
0.151868 0.098504 2.222 0.77768 0.103739 0.620042 255 0 0 255
0.157313 0.098102 2.213 0.835334 0.0893152 0.54244 255 0 0 255
0.162782 0.097744 2.205 0.778451 0.18744 0.599066 255 0 0 255
0.168283 0.09743 2.198 0.555277 0.233114 0.798327 255 0 0 255
0.17422 0.097382 2.197 0.459912 0.0176086 0.88779 255 0 0 255
0.179824 0.097156 2.192 0.72309 0.0530583 0.688714 255 0 0 255
0.185399 0.09693 2.187 0.759273 -0.0122108 0.650658 255 0 0 255
0.189721 0.096084 2.168 0.992553 0.0131816 0.121099 255 0 0 255
-0.183648 -0.145748 2.38645 0.115954 -0.351374 -0.929027 255 255 0 255
-0.150651 -0.142622 2.38187 -0.402853 0.172452 -0.898871 255 255 0 255
-0.160264 -0.148231 2.36212 0.189849 -0.0615753 -0.979881 255 255 0 255
-0.06864 -0.134569 2.37175 0.29499 -0.212453 -0.931582 255 255 0 255
-0.036427 -0.128466 2.38096 0.00550145 -0.401738 -0.915738 255 255 0 255
-0.012632 -0.124681 2.38453 0.234898 -0.340275 -0.910514 255 255 0 255
-0.007243 -0.126046 2.37536 -0.347602 -0.554229 -0.756309 255 255 0 255
0.003144 -0.125996 2.36973 -0.989824 0.138198 -0.0338998 255 255 0 255
-0.005639 -0.131366 2.35058 -0.819783 0.0932667 -0.565028 255 255 0 255
-0.001084 -0.132967 2.34083 -0.709526 0.0747513 -0.700703 255 255 0 255
0.005962 -0.133855 2.33286 -0.631335 0.29438 -0.717465 255 255 0 255
0.018812 -0.133079 2.32909 -0.24149 0.0781933 -0.967248 255 255 0 255
0.033301 -0.131816 2.32658 -0.345518 -0.0473412 -0.937217 255 255 0 255
0.06516 -0.125539 2.33677 -0.441571 0.620811 -0.647772 255 255 0 255
0.065515 -0.128302 2.32417 -0.490319 0.695865 -0.524746 255 255 0 255
0.071664 -0.129394 2.3158 -0.679888 0.674152 -0.288567 255 255 0 255
-0.218441 -0.199368 2.30347 -0.97425 -0.131952 -0.182826 0 255 0 255
-0.218794 -0.196031 2.31615 -0.949034 -0.301967 -0.0902805 0 255 0 255
-0.217466 -0.193283 2.32763 0.949085 -0.244809 -0.198255 0 255 0 255
-0.208538 -0.193161 2.3338 0.70324 0.15467 -0.693924 0 255 0 255
-0.193682 -0.195068 2.3359 0.19847 -0.0955379 -0.97544 0 255 0 255
-0.187267 -0.194056 2.3439 0.0937112 0.103018 -0.990255 0 255 0 255
-0.174918 -0.195069 2.34786 -0.945035 -0.318128 -0.0755184 0 255 0 255
-0.183747 -0.188835 2.36633 -0.779458 0.602714 -0.170824 0 255 0 255
-0.197688 -0.180883 2.38818 -0.742555 -0.285109 -0.606073 0 255 0 255
-0.181086 -0.183332 2.38929 -0.216634 -0.421202 -0.880715 0 255 0 255
-0.152559 -0.189793 2.3825 0.029337 -0.0388677 -0.998814 0 255 0 255
-0.132496 -0.193349 2.38155 -0.183637 0.0875083 -0.979091 0 255 0 255
-0.111551 -0.197171 2.38012 -0.315396 -0.0815063 -0.945453 0 255 0 255
0.003299 -0.222476 2.3555 0.729638 -0.221713 -0.646893 0 255 0 255
-0.018335 -0.211963 2.38234 0.39151 0.0104507 -0.920115 0 255 0 255
-0.010909 -0.21112 2.39032 0.169486 -0.0782697 -0.98242 0 255 0 255
-0.319154 0.089576 2.157 -0.951171 -0.187483 0.245203 255 0 0 255
-0.314578 0.089956 2.166 -0.740836 -0.000686135 0.671686 255 0 0 255
-0.309383 0.09017 2.171 -0.3798 -0.225952 0.897049 255 0 0 255
-0.303461 0.090175 2.171 -0.140672 -0.10553 0.984416 255 0 0 255
-0.297811 0.090264 2.173 -0.368412 0.0267988 0.929277 255 0 0 255
-0.292553 0.090478 2.178 -0.820289 0.0243639 0.571429 255 0 0 255
-0.287792 0.090857 2.187 -0.906021 -0.0311172 0.422086 255 0 0 255
-0.28427 0.091652 2.206 0.386726 0.0370381 0.92145 255 0 0 255
-0.242087 0.091689 2.206 -0.707658 0.402309 0.580833 255 0 0 255
-0.236806 0.091985 2.213 -0.262221 0.525549 0.809345 255 0 0 255
-0.23086 0.092031 2.214 0.0570231 0.418835 0.90627 255 0 0 255
-0.225009 0.092119 2.216 0.124342 0.261772 0.957087 255 0 0 255
-0.218554 0.091957 2.212 0.427302 0.158854 0.890044 255 0 0 255
-0.212312 0.091879 2.21 0.307498 0.148803 0.939842 255 0 0 255
-0.20608 0.0918 2.208 0.438483 0.0592459 0.896784 255 0 0 255
-0.199767 0.091679 2.205 0.601818 -0.0468456 0.797258 255 0 0 255
-0.193207 0.091434 2.199 0.710869 -0.0141527 0.703182 255 0 0 255
-0.186594 0.091147 2.192 0.667469 0.104449 0.737276 255 0 0 255
-0.180265 0.090984 2.188 0.533936 0.31271 0.785573 255 0 0 255
-0.173957 0.090822 2.184 0.503019 0.393868 0.769311 255 0 0 255
-0.167748 0.0907 2.181 0.362168 0.448095 0.817341 255 0 0 255
-0.161628 0.090621 2.179 0.315709 0.48074 0.818057 255 0 0 255
-0.155448 0.090499 2.176 0.344437 0.510083 0.788149 255 0 0 255
-0.149352 0.090419 2.174 0.406906 0.554251 0.726108 255 0 0 255
-0.143002 0.090173 2.168 0.517751 0.574778 0.633691 255 0 0 255
-0.136811 0.090009 2.164 0.484978 0.596452 0.639563 255 0 0 255
-0.13052 0.089763 2.158 0.351896 0.650789 0.672787 255 0 0 255
-0.124493 0.089682 2.156 0.140027 0.687716 0.712347 255 0 0 255
-0.118531 0.089643 2.155 0.0954266 0.682797 0.724349 255 0 0 255
-0.112627 0.089646 2.155 0.0732543 0.677782 0.731604 255 0 0 255
-0.106672 0.089607 2.154 0.0276254 0.685473 0.727574 255 0 0 255
-0.100769 0.089609 2.154 -0.0343295 0.708056 0.705321 255 0 0 255
-0.094866 0.089611 2.154 0.0218391 0.707381 0.706495 255 0 0 255
-0.088963 0.089613 2.154 0.113977 0.676577 0.727498 255 0 0 255
-0.082982 0.089532 2.152 0.00086798 0.595563 0.803309 255 0 0 255
-0.077119 0.089575 2.153 0.00147421 0.486172 0.873862 255 0 0 255
-0.071217 0.089576 2.153 -0.107035 0.308616 0.945145 255 0 0 255
-0.065375 0.089661 2.155 -0.197621 0.216167 0.956147 255 0 0 255
-0.059495 0.089704 2.156 -0.308646 0.0926779 0.946651 255 0 0 255
-0.053634 0.089789 2.158 -0.379697 0.0161771 0.92497 255 0 0 255
-0.047739 0.089831 2.159 -0.245715 0.0273384 0.968956 255 0 0 255
-0.041858 0.089915 2.161 -0.134194 0.0277432 0.990567 255 0 0 255
-0.035933 0.089916 2.161 -0.0565834 -0.0498106 0.997155 255 0 0 255
-0.030007 0.089917 2.161 0.000149386 -0.0855571 0.996333 255 0 0 255
-0.024082 0.089918 2.161 0.107555 -0.168616 0.979796 255 0 0 255
-0.018148 0.089876 2.16 0.149401 -0.219441 0.964119 255 0 0 255
-0.012219 0.089835 2.159 0.0940048 -0.366329 0.925725 255 0 0 255
-0.006296 0.089794 2.158 0.0728271 -0.407921 0.910108 255 0 0 255
-0.000378 0.089794 2.158 -0.0129356 -0.39591 0.918198 255 0 0 255
0.005539 0.089794 2.158 -0.272088 -0.201802 0.940874 255 0 0 255
0.011473 0.089918 2.161 -0.404071 0.0247488 0.914393 255 0 0 255
0.017415 0.090001 2.163 -0.301033 0.0256098 0.95327 255 0 0 255
0.023368 0.090084 2.165 -0.265127 0.157047 0.951338 255 0 0 255
0.029345 0.090208 2.168 -0.448721 0.252621 0.857224 255 0 0 255
0.035338 0.090333 2.171 -0.525312 0.347201 0.776852 255 0 0 255
0.041348 0.090457 2.174 -0.504036 0.361062 0.78459 255 0 0 255
0.047374 0.09058 2.177 -0.453925 0.279939 0.845923 255 0 0 255
0.053416 0.090704 2.18 -0.530504 0.181942 0.827927 255 0 0 255
0.059584 0.090994 2.187 -0.541345 0.0641777 0.838347 255 0 0 255
0.06567 0.091118 2.19 -0.48267 -0.00771194 0.875768 255 0 0 255
0.071771 0.091241 2.193 -0.280507 -0.115162 0.952918 255 0 0 255
0.077748 0.091198 2.192 -0.154503 -0.189529 0.969643 255 0 0 255
0.083794 0.091238 2.193 -0.309792 -0.317952 0.896067 255 0 0 255
0.09001 0.091444 2.198 -0.589434 -0.326642 0.738832 255 0 0 255
0.09634 0.091733 2.205 -0.814232 -0.259471 0.519328 255 0 0 255
0.103033 0.092313 2.219 -0.890932 -0.120133 0.437958 255 0 0 255
0.14146 0.093587 2.25 0.965016 0.225104 0.134436 255 0 0 255
0.14618 0.092669 2.228 0.842494 0.0862242 0.53176 255 0 0 255
0.151871 0.092416 2.222 0.793635 -0.0533823 0.606048 255 0 0 255
0.157388 0.09208 2.214 0.808591 -0.0418627 0.586879 255 0 0 255
0.162933 0.091786 2.207 0.751018 0.0829752 0.655047 255 0 0 255
0.168516 0.091533 2.201 0.549985 0.19621 0.811799 255 0 0 255
0.174383 0.091446 2.199 0.562039 0.231669 0.794003 255 0 0 255
0.17991 0.091193 2.193 0.751575 0.0549737 0.657353 255 0 0 255
0.185318 0.090898 2.186 0.77415 -0.134602 0.618525 255 0 0 255
0.1913 0.090894 2.186 0.77415 -0.134602 0.618525 255 0 0 255
-0.192694 -0.159997 2.38184 0.570376 0.15825 -0.805996 255 255 0 255
-0.177861 -0.158874 2.37834 -0.363512 0.12434 -0.923254 255 255 0 255
-0.16137 -0.157271 2.37604 -0.218456 0.0247445 -0.975533 255 255 0 255
-0.115787 -0.156385 2.35384 -0.347012 -0.0794936 -0.934486 255 255 0 255
-0.062587 -0.144322 2.37722 0.316059 -0.0960473 -0.943865 255 255 0 255
-0.037082 -0.140023 2.38179 -0.151646 -0.229976 -0.961309 255 255 0 255
-0.014131 -0.136412 2.38475 0.937898 -0.287443 -0.194229 255 255 0 255
0.001271 -0.13492 2.38258 -0.976614 0.214491 -0.0148026 255 255 0 255
-0.013352 -0.14199 2.35937 0.859708 -0.500597 -0.101513 255 255 0 255
-0.00546 -0.142637 2.35195 -0.722456 0.416642 -0.551785 255 255 0 255
0.000759 -0.143757 2.34338 -0.70562 -0.193328 -0.681708 255 255 0 255
0.005311 -0.145352 2.33363 -0.645855 -0.10949 -0.755568 255 255 0 255
0.043419 -0.140127 2.3351 -0.760974 -0.173269 -0.625217 255 255 0 255
0.044622 -0.142667 2.32305 -0.817232 0.388142 -0.426002 255 255 0 255
0.0541 -0.142797 2.31702 -0.641067 0.516117 -0.568028 255 255 0 255
0.048695 -0.147272 2.30012 -0.482065 0.626494 -0.612469 255 255 0 255
-0.188618 -0.221035 2.28367 -0.901322 0.0699172 -0.42747 0 255 0 255
-0.204954 -0.21206 2.3077 -0.978725 -0.119822 -0.166551 0 255 0 255
-0.218794 -0.203993 2.32985 0.968132 -0.0600319 -0.243139 0 255 0 255
-0.220845 -0.200066 2.34366 0.644228 -0.294757 -0.705754 0 255 0 255
-0.20685 -0.201722 2.34633 0.220199 -0.526884 -0.820917 0 255 0 255
-0.191144 -0.203951 2.3479 0.095389 -0.414214 -0.905167 0 255 0 255
-0.172877 -0.207041 2.3478 0.206847 -0.327274 -0.922012 0 255 0 255
-0.182542 -0.200477 2.36684 0.689031 0.696955 -0.198721 0 255 0 255
-0.193078 -0.193638 2.38639 0.716011 0.534546 -0.448988 0 255 0 255
-0.171386 -0.19787 2.3841 0.106355 0.252068 -0.961847 0 255 0 255
-0.143715 -0.204111 2.37794 -0.0781541 0.0773908 -0.993933 0 255 0 255
-0.118551 -0.209452 2.37362 -0.23681 0.0586609 -0.969783 0 255 0 255
-0.071515 -0.218894 2.36764 0.785015 -0.0388897 -0.618255 0 255 0 255
-0.004714 -0.23485 2.34932 0.118585 -0.764758 -0.633311 0 255 0 255
0.017856 -0.235749 2.36043 -0.340922 -0.816099 -0.466641 0 255 0 255
-0.002062 -0.225741 2.38611 -0.25945 0.177081 -0.949383 0 255 0 255
-0.319012 0.083636 2.156 -0.812693 0.160808 0.560063 255 0 0 255
-0.314294 0.083952 2.164 -0.795772 0.0921933 0.598538 255 0 0 255
-0.308961 0.084112 2.168 -0.359812 -0.0323633 0.932463 255 0 0 255
-0.303326 0.084195 2.17 -0.197392 -0.124466 0.972391 255 0 0 255
-0.29768 0.084278 2.172 -0.516097 -0.024328 0.856184 255 0 0 255
-0.292289 0.084439 2.176 -0.816937 -0.0407572 0.575286 255 0 0 255
-0.287534 0.084794 2.185 -0.848649 -0.0231581 0.528449 255 0 0 255
-0.284018 0.085536 2.204 -0.580304 -0.471892 0.663751 255 0 0 255
-0.243189 0.086036 2.216 -0.360769 0.610467 0.705107 255 0 0 255
-0.237559 0.086196 2.22 0.0518615 0.649768 0.758362 255 0 0 255
-0.231281 0.086123 2.218 -0.0590121 0.517026 0.853933 255 0 0 255
-0.225115 0.086089 2.217 0.390887 0.335114 0.857267 255 0 0 255
-0.218657 0.085938 2.213 0.458227 0.254396 0.851652 255 0 0 255
-0.212412 0.085864 2.211 0.390741 0.177961 0.903134 255 0 0 255
-0.206084 0.085752 2.208 0.543939 0.00434008 0.839113 255 0 0 255
-0.19959 0.085561 2.203 0.635804 -0.0821197 0.767469 255 0 0 255
-0.193123 0.085371 2.198 0.65694 -0.0800094 0.749686 255 0 0 255
-0.186597 0.085142 2.192 0.573965 0.0841532 0.814544 255 0 0 255
-0.180433 0.085068 2.19 0.439066 0.179468 0.880348 255 0 0 255
-0.1742 0.084954 2.187 0.467221 0.219906 0.856356 255 0 0 255
-0.167905 0.084802 2.183 0.391714 0.242685 0.887504 255 0 0 255
-0.16178 0.084728 2.181 0.334342 0.212424 0.9182 255 0 0 255
-0.155737 0.084692 2.18 0.306973 0.175713 0.935357 255 0 0 255
-0.149698 0.084656 2.179 0.317628 0.13361 0.938755 255 0 0 255
-0.143467 0.084504 2.175 0.537311 0.306258 0.785814 255 0 0 255
-0.137067 0.084235 2.168 0.574589 0.433543 0.694181 255 0 0 255
-0.130826 0.084043 2.163 0.350453 0.613305 0.707841 255 0 0 255
-0.124784 0.083968 2.161 0.186915 0.689342 0.699907 255 0 0 255
-0.118809 0.083932 2.16 0.157688 0.68609 0.710222 255 0 0 255
-0.112786 0.083856 2.158 0.123016 0.659081 0.741943 255 0 0 255
-0.106823 0.08382 2.157 0.0577792 0.66435 0.745185 255 0 0 255
-0.100912 0.083822 2.157 0.0220754 0.665554 0.746023 255 0 0 255
-0.095044 0.083863 2.158 -0.00232919 0.640579 0.767889 255 0 0 255
-0.089088 0.083826 2.157 0.121953 0.607032 0.785264 255 0 0 255
-0.083099 0.08375 2.155 0.194411 0.49722 0.845563 255 0 0 255
-0.077156 0.083712 2.154 0.0795069 0.425399 0.901507 255 0 0 255
-0.071251 0.083714 2.154 -0.0240942 0.254079 0.966883 255 0 0 255
-0.065346 0.083715 2.154 -0.0888905 0.14382 0.985604 255 0 0 255
-0.059468 0.083755 2.155 -0.165812 -0.0293531 0.985721 255 0 0 255
-0.05361 0.083834 2.157 -0.251853 -0.0665629 0.965474 255 0 0 255
-0.047762 0.083952 2.16 -0.249697 -0.134768 0.9589 255 0 0 255
-0.041859 0.083992 2.161 -0.224456 -0.11886 0.967208 255 0 0 255
-0.03595 0.084031 2.162 -0.114854 -0.0720564 0.990766 255 0 0 255
-0.030008 0.083993 2.161 -0.0531729 0.113976 0.99206 255 0 0 255
-0.024082 0.083994 2.161 0.100891 0.174059 0.979553 255 0 0 255
-0.018131 0.083877 2.158 0.308596 0.226163 0.923915 255 0 0 255
-0.012208 0.083839 2.157 0.270084 0.175981 0.946618 255 0 0 255
-0.006287 0.083761 2.155 0.0846917 0.223351 0.971052 255 0 0 255
-0.000378 0.083761 2.155 -0.216332 0.340784 0.914914 255 0 0 255
0.00554 0.083878 2.158 -0.442618 0.226557 0.867618 255 0 0 255
0.011484 0.084072 2.163 -0.493042 0.404714 0.77014 255 0 0 255
0.017447 0.084227 2.167 -0.243448 0.444472 0.862077 255 0 0 255
0.02339 0.084227 2.167 -0.233098 0.409053 0.882236 255 0 0 255
0.029372 0.084343 2.17 -0.478057 0.241711 0.844416 255 0 0 255
0.035404 0.084537 2.175 -0.570752 0.215384 0.792371 255 0 0 255
0.041463 0.08473 2.18 -0.454669 0.290316 0.842017 255 0 0 255
0.047462 0.084768 2.181 -0.30294 0.278428 0.91143 255 0 0 255
0.053491 0.084845 2.183 -0.407896 -0.00315716 0.913023 255 0 0 255
0.059531 0.084921 2.185 -0.453266 -0.114188 0.884031 255 0 0 255
0.065581 0.084998 2.187 -0.430462 -0.220297 0.875312 255 0 0 255
0.071675 0.085113 2.19 -0.244777 -0.308644 0.919142 255 0 0 255
0.077714 0.08515 2.191 -0.135444 -0.208097 0.968685 255 0 0 255
0.083758 0.085188 2.192 -0.214322 -0.317681 0.923658 255 0 0 255
0.089848 0.085264 2.194 -0.369447 -0.355158 0.858703 255 0 0 255
0.09608 0.085456 2.199 -0.636562 -0.328025 0.697989 255 0 0 255
0.102803 0.086037 2.214 -0.926385 -0.0456845 0.373797 255 0 0 255
0.142658 0.088159 2.269 0.971317 0.218303 0.0942691 255 0 0 255
0.146511 0.086758 2.233 0.949699 0.0700369 0.305234 255 0 0 255
0.151738 0.08625 2.22 0.8267 -0.100427 0.553608 255 0 0 255
0.157249 0.085936 2.212 0.738666 -0.0997014 0.666657 255 0 0 255
0.162936 0.085738 2.207 0.683157 0.0570581 0.728039 255 0 0 255
0.168673 0.08558 2.203 0.533405 -0.012983 0.845761 255 0 0 255
0.174545 0.085499 2.201 0.620351 0.0676181 0.781404 255 0 0 255
0.179995 0.085223 2.194 0.835303 0.020449 0.54941 255 0 0 255
0.184983 0.084754 2.182 0.812827 -0.223328 0.537994 255 0 0 255
0.190604 0.084595 2.178 0.943209 -0.102043 0.316141 255 0 0 255
-0.186558 -0.170069 2.38728 -0.0582292 -0.409693 -0.910363 255 255 0 255
-0.177629 -0.170563 2.37987 -0.601669 -0.63237 -0.487957 255 255 0 255
-0.169552 -0.171289 2.37193 -0.280079 -0.040805 -0.959109 255 255 0 255
-0.063231 -0.155962 2.37807 0.256266 0.0519933 -0.965207 255 255 0 255
-0.031886 -0.149919 2.38667 -0.454452 0.144996 -0.878891 255 255 0 255
-0.017295 -0.148645 2.38382 -0.275877 0.136305 -0.951479 255 255 0 255
-0.015234 -0.150964 2.37229 -0.892261 0.44185 -0.0929458 255 255 0 255
-0.019833 -0.155211 2.35607 -0.837315 0.268945 -0.475996 255 255 0 255
-0.011936 -0.155848 2.34862 -0.883865 0.324102 -0.337255 255 255 0 255
0.009251 -0.152613 2.35065 0.108498 -0.549914 -0.828144 255 255 0 255
0.027908 -0.150086 2.351 -0.230192 -0.868926 -0.438154 255 255 0 255
0.035752 -0.150695 2.3437 -0.55565 -0.718967 -0.417539 255 255 0 255
0.040274 -0.152273 2.33404 -0.968001 -0.111549 -0.224791 255 255 0 255
0.05224 -0.151658 2.32978 -0.98731 -0.144131 -0.0666769 255 255 0 255
0.028646 -0.161522 2.29965 0.92692 -0.21892 -0.304783 255 255 0 255
-0.219424 -0.221421 2.30673 0.52361 -0.384903 -0.760054 0 255 0 255
-0.207979 -0.222231 2.31112 -0.995584 -0.00892579 -0.0934547 0 255 0 255
-0.212537 -0.217383 2.32677 -0.989096 -0.133826 -0.0614853 0 255 0 255
-0.214577 -0.213435 2.3406 0.981976 0.00672615 -0.188885 0 255 0 255
-0.210715 -0.211567 2.35032 0.282815 -0.339193 -0.897198 0 255 0 255
-0.189102 -0.215905 2.34782 0.0490854 -0.317045 -0.947139 0 255 0 255
-0.178454 -0.216384 2.35296 0.668154 -0.110423 -0.735784 0 255 0 255
-0.166947 -0.217148 2.35756 0.749217 -0.408426 -0.521404 0 255 0 255
-0.166442 -0.214079 2.36969 0.892799 0.302651 -0.333636 0 255 0 255
-0.160853 -0.212774 2.37836 0.85624 -0.451578 -0.25086 0 255 0 255
-0.073761 -0.229663 2.37054 -0.989937 -0.126236 -0.0639542 0 255 0 255
-0.001522 -0.240969 2.37442 -0.404124 0.0591435 -0.91279 0 255 0 255
0.027052 -0.243916 2.38181 -0.672835 0.333775 -0.660218 0 255 0 255
-0.320375 0.076649 2.126 -0.997021 0.0110704 0.0763371 255 0 0 255
-0.319461 0.077844 2.159 -0.856675 0.113192 0.503286 255 0 0 255
-0.314735 0.078138 2.167 -0.578181 0.0389548 0.814978 255 0 0 255
-0.309252 0.078252 2.17 -0.282372 0.116777 0.952171 255 0 0 255
-0.303332 0.078257 2.17 -0.163391 -0.0603697 0.984713 255 0 0 255
-0.297548 0.078298 2.171 -0.354856 -0.176542 0.918101 255 0 0 255
-0.292295 0.078483 2.176 -0.844519 -0.0624803 0.531868 255 0 0 255
-0.287671 0.078849 2.186 -0.862194 -0.0492132 0.504181 255 0 0 255
-0.23842 0.080405 2.228 -0.0297928 0.289153 0.956819 255 0 0 255
-0.231911 0.080265 2.224 0.342586 0.363184 0.866448 255 0 0 255
-0.225526 0.080161 2.221 0.47356 0.313192 0.823196 255 0 0 255
-0.218958 0.079984 2.216 0.491827 0.239879 0.836997 255 0 0 255
-0.212608 0.07988 2.213 0.427031 0.187878 0.884504 255 0 0 255
-0.206181 0.079739 2.209 0.59282 0.113841 0.797248 255 0 0 255
-0.199503 0.07949 2.202 0.652901 0.0283637 0.756912 255 0 0 255
-0.192951 0.079277 2.196 0.620903 0.0799586 0.779799 255 0 0 255
-0.186601 0.079136 2.192 0.498161 0.183901 0.847358 255 0 0 255
-0.180437 0.079067 2.19 0.395232 0.22785 0.889874 255 0 0 255
-0.174203 0.078962 2.187 0.447252 0.247644 0.859441 255 0 0 255
-0.167985 0.078857 2.184 0.430666 0.237059 0.870821 255 0 0 255
-0.161857 0.078788 2.182 0.404819 0.133223 0.90464 255 0 0 255
-0.155668 0.078683 2.179 0.358769 0.0742434 0.930469 255 0 0 255
-0.149632 0.078649 2.178 0.322537 -0.0205399 0.946334 255 0 0 255
-0.143535 0.07858 2.176 0.514668 0.174036 0.83954 255 0 0 255
-0.137322 0.078438 2.172 0.464539 0.319418 0.825939 255 0 0 255
-0.131191 0.078332 2.169 0.242095 0.550354 0.799062 255 0 0 255
-0.125133 0.078262 2.167 0.122939 0.629073 0.767563 255 0 0 255
-0.119196 0.078264 2.167 0.197964 0.644981 0.738113 255 0 0 255
-0.113154 0.078194 2.165 0.149697 0.641508 0.752369 255 0 0 255
-0.107172 0.07816 2.164 0.0366039 0.626862 0.77827 255 0 0 255
-0.101241 0.078162 2.164 0.106576 0.548378 0.829411 255 0 0 255
-0.095311 0.078164 2.164 0.160638 0.479135 0.862917 255 0 0 255
-0.089297 0.078094 2.162 0.275206 0.394193 0.876854 255 0 0 255
-0.083293 0.078023 2.16 0.192887 0.441172 0.876449 255 0 0 255
-0.077265 0.077916 2.157 0.0951737 0.484341 0.869687 255 0 0 255
-0.071352 0.077918 2.157 0.0621661 0.499079 0.864324 255 0 0 255
-0.065408 0.077883 2.156 0.0577355 0.350214 0.934889 255 0 0 255
-0.059497 0.077884 2.156 -0.057062 0.242664 0.968431 255 0 0 255
-0.053586 0.077885 2.156 -0.178756 0.174487 0.968298 255 0 0 255
-0.047697 0.077922 2.157 -0.208627 -0.0382022 0.977249 255 0 0 255
-0.041802 0.077959 2.158 -0.231568 -0.0865656 0.96896 255 0 0 255
-0.035934 0.078068 2.161 -0.200869 0.0203686 0.979406 255 0 0 255
-0.030022 0.078105 2.162 -0.142223 0.147541 0.978777 255 0 0 255
-0.024116 0.078178 2.164 0.0576635 0.296131 0.953405 255 0 0 255
-0.018165 0.078106 2.162 0.0968583 0.469524 0.877591 255 0 0 255
-0.012236 0.078106 2.162 0.0815111 0.561763 0.823273 255 0 0 255
-0.006299 0.077998 2.159 0.083664 0.514152 0.853609 255 0 0 255
-0.000379 0.07807 2.161 -0.143852 0.646903 0.748882 255 0 0 255
0.005558 0.078215 2.165 -0.490185 0.479582 0.727818 255 0 0 255
0.011521 0.078395 2.17 -0.339679 0.353779 0.871469 255 0 0 255
0.01748 0.078431 2.171 -0.149956 0.314574 0.937313 255 0 0 255
0.023433 0.078431 2.171 -0.116957 0.20472 0.971808 255 0 0 255
0.0294 0.078466 2.172 -0.326783 0.084591 0.941306 255 0 0 255
0.035421 0.07861 2.176 -0.588377 -0.0704585 0.805511 255 0 0 255
0.041464 0.078754 2.18 -0.418066 -0.0282698 0.907977 255 0 0 255
0.047485 0.078825 2.182 -0.149574 -0.0569247 0.987111 255 0 0 255
0.053468 0.078824 2.182 -0.0628661 -0.0459879 0.996962 255 0 0 255
0.05945 0.078823 2.182 -0.194247 -0.247163 0.949304 255 0 0 255
0.065522 0.07893 2.185 -0.293609 -0.406128 0.865363 255 0 0 255
0.071611 0.079038 2.188 -0.400211 -0.261185 0.878415 255 0 0 255
0.07768 0.079108 2.19 -0.200394 -0.293881 0.9346 255 0 0 255
0.083721 0.079143 2.191 -0.147044 -0.117486 0.982128 255 0 0 255
0.089686 0.079105 2.19 -0.397383 -0.0358899 0.916951 255 0 0 255
0.095907 0.079284 2.195 -0.559332 -0.159271 0.813499 255 0 0 255
0.102759 0.079932 2.213 -0.946435 0.123415 0.298378 255 0 0 255
0.146317 0.08053 2.23 0.961543 0.0642764 0.267028 255 0 0 255
0.151604 0.080094 2.218 0.856754 -0.0964709 0.506623 255 0 0 255
0.157252 0.079874 2.212 0.737461 -0.128351 0.663082 255 0 0 255
0.162939 0.079691 2.207 0.604782 -0.130122 0.785689 255 0 0 255
0.168676 0.079544 2.203 0.474001 -0.0626459 0.878293 255 0 0 255
0.174469 0.079432 2.2 0.615447 -0.0824156 0.783858 255 0 0 255
0.179999 0.079212 2.194 0.858712 0.00258785 0.512452 255 0 0 255
0.184902 0.07874 2.181 0.85557 -0.196829 0.478808 255 0 0 255
0.188245 0.077653 2.151 0.992708 -0.0361264 0.115004 255 0 0 255
-0.168981 -0.179873 2.387 -0.179612 -0.490628 -0.852657 255 255 0 255
-0.166797 -0.182257 2.37514 -0.0526525 -0.419139 -0.906394 255 255 0 255
-0.135583 -0.179339 2.36954 -0.000759631 -0.630733 -0.776 255 255 0 255
-0.075576 -0.171001 2.37088 0.315037 -0.0164404 -0.948937 255 255 0 255
-0.032539 -0.16149 2.3875 -0.370798 0.280406 -0.885371 255 255 0 255
-0.023791 -0.161879 2.38058 -0.699386 0.242063 -0.672506 255 255 0 255
-0.025887 -0.165422 2.36612 -0.928977 -0.139216 -0.342959 255 255 0 255
-0.025474 -0.16824 2.35337 0.894727 0.165191 -0.41494 255 255 0 255
-0.01175 -0.16716 2.35001 -0.995223 -0.0378833 -0.0899786 255 255 0 255
0.031855 -0.157275 2.36794 -0.197393 -0.848069 -0.491746 255 255 0 255
0.044674 -0.156401 2.3642 -0.545499 -0.811679 -0.208826 255 255 0 255
0.050842 -0.15748 2.35576 -0.562242 -0.790174 -0.243945 255 255 0 255
0.052037 -0.160029 2.34374 -0.997044 -0.0663406 -0.0387608 255 255 0 255
0.034215 -0.168241 2.31791 0.891671 -0.20283 -0.4047 255 255 0 255
0.045354 -0.167847 2.31304 0.954847 -0.134313 -0.265003 255 255 0 255
-0.230009 -0.228853 2.31549 0.845887 -0.511173 -0.152239 0 255 0 255
-0.214369 -0.231196 2.31691 0.744621 -0.654947 -0.128779 0 255 0 255
-0.213871 -0.228127 2.329 0.671078 -0.74017 -0.0424598 0 255 0 255
-0.220967 -0.222368 2.34635 0.899314 0.250075 -0.358743 0 255 0 255
-0.20445 -0.224986 2.34729 0.592356 -0.0776298 -0.801928 0 255 0 255
-0.199736 -0.223412 2.35646 0.170354 -0.289057 -0.942033 0 255 0 255
-0.137096 -0.229107 2.37626 0.0144079 -0.454196 -0.890785 0 255 0 255
-0.127236 -0.229266 2.3822 -0.188274 -0.24293 -0.951598 0 255 0 255
-0.011489 -0.249296 2.38233 -0.334397 0.118561 -0.934945 0 255 0 255
-0.001497 -0.249359 2.38872 -0.275423 0.196948 -0.940933 0 255 0 255
-0.325956 0.072065 2.163 -0.8758 0.0868255 0.4748 255 0 0 255
-0.318578 0.071737 2.153 -0.972705 0.0270365 0.230466 255 0 0 255
-0.31474 0.072208 2.167 -0.465261 -0.104631 0.878968 255 0 0 255
-0.309257 0.072313 2.17 -0.228913 -0.101715 0.968118 255 0 0 255
-0.303197 0.072284 2.169 -0.0680359 -0.197087 0.978022 255 0 0 255
-0.297278 0.072289 2.169 -0.431531 -0.221389 0.87451 255 0 0 255
-0.292031 0.07246 2.174 -0.744322 -0.180648 0.642924 255 0 0 255
-0.287676 0.072865 2.186 -0.881267 0.0126398 0.47245 255 0 0 255
-0.243966 0.074132 2.223 0.00685891 -0.101699 0.994792 255 0 0 255
-0.238103 0.074203 2.225 0.0994454 -0.145252 0.984384 255 0 0 255
-0.23202 0.074207 2.225 0.179664 0.0253119 0.983402 255 0 0 255
-0.225631 0.074111 2.222 0.513018 0.11029 0.851263 255 0 0 255
-0.21906 0.073948 2.217 0.541585 0.112927 0.833027 255 0 0 255
-0.212708 0.073851 2.214 0.519462 0.0665256 0.8519 255 0 0 255
-0.206371 0.073754 2.211 0.587923 0.0245297 0.808545 255 0 0 255
-0.199779 0.073558 2.205 0.624693 0.0642733 0.77822 255 0 0 255
-0.193306 0.073394 2.2 0.566199 0.191809 0.801641 255 0 0 255
-0.186945 0.073264 2.196 0.4476 0.257852 0.856251 255 0 0 255
-0.180687 0.073167 2.193 0.420344 0.217102 0.881009 255 0 0 255
-0.174445 0.07307 2.19 0.413869 0.2368 0.878999 255 0 0 255
-0.168219 0.072973 2.187 0.453844 0.206134 0.866911 255 0 0 255
-0.161934 0.072842 2.183 0.478006 0.167268 0.862283 255 0 0 255
-0.155671 0.072711 2.179 0.408599 0.0994697 0.907278 255 0 0 255
-0.149498 0.072614 2.176 0.267657 0.113085 0.956855 255 0 0 255
-0.143472 0.072583 2.175 0.269387 0.250378 0.929915 255 0 0 255
-0.137388 0.072519 2.173 0.323607 0.44008 0.837621 255 0 0 255
-0.131314 0.072454 2.171 0.243547 0.501543 0.830144 255 0 0 255
-0.125367 0.072456 2.171 0.190185 0.376351 0.906747 255 0 0 255
-0.119363 0.072425 2.17 0.250779 0.303027 0.919394 255 0 0 255
-0.113313 0.07236 2.168 0.308809 0.289552 0.905978 255 0 0 255
-0.107223 0.072262 2.165 0.171416 0.244154 0.954466 255 0 0 255
-0.10129 0.072264 2.165 0.142277 0.214318 0.966346 255 0 0 255
-0.095268 0.072199 2.163 0.224545 0.160706 0.961121 255 0 0 255
-0.089298 0.072167 2.162 0.193414 0.221875 0.9557 255 0 0 255
-0.083295 0.072102 2.16 0.123952 0.405081 0.90584 255 0 0 255
-0.07741 0.072137 2.161 0.0605956 0.485905 0.871909 255 0 0 255
-0.071486 0.072138 2.161 0.0879825 0.504586 0.858867 255 0 0 255
-0.065531 0.072106 2.16 0.222901 0.30675 0.925321 255 0 0 255
-0.059581 0.072073 2.159 0.147909 0.187593 0.971047 255 0 0 255
-0.053662 0.072074 2.159 0.00178769 0.112376 0.993664 255 0 0 255
-0.047764 0.072109 2.16 -0.119202 -0.0494184 0.991639 255 0 0 255
-0.041841 0.072109 2.16 -0.259553 0.00597536 0.965711 255 0 0 255
-0.035952 0.072177 2.162 -0.303003 -0.0585809 0.951188 255 0 0 255
-0.030037 0.072211 2.163 -0.233829 -0.000982897 0.972277 255 0 0 255
-0.024128 0.072278 2.165 -0.131617 0.143654 0.980837 255 0 0 255
-0.018182 0.072245 2.164 0.0278159 0.2509 0.967613 255 0 0 255
-0.012254 0.072279 2.165 0.0657654 0.424233 0.903162 255 0 0 255
-0.006314 0.072246 2.164 -0.018951 0.489017 0.872068 255 0 0 255
-0.000379 0.072279 2.165 -0.173442 0.487318 0.855827 255 0 0 255
0.005563 0.072346 2.167 -0.452711 0.182776 0.872723 255 0 0 255
0.011521 0.072446 2.17 -0.229478 0.142487 0.962828 255 0 0 255
0.01748 0.072479 2.171 -0.0423052 0.0561963 0.997523 255 0 0 255
0.023423 0.072445 2.17 -0.0529572 -0.0004811 0.998597 255 0 0 255
0.029387 0.072478 2.171 -0.213807 -0.0875121 0.972948 255 0 0 255
0.035389 0.072578 2.174 -0.505381 -0.128706 0.853244 255 0 0 255
0.041446 0.072744 2.179 -0.494552 -0.184901 0.849253 255 0 0 255
0.047486 0.072843 2.182 -0.222758 -0.161076 0.961475 255 0 0 255
0.053444 0.072809 2.181 -0.000683746 -0.0779724 0.996955 255 0 0 255
0.059397 0.072775 2.18 -0.057058 -0.17357 0.983167 255 0 0 255
0.065404 0.072807 2.181 -0.307218 -0.171864 0.935991 255 0 0 255
0.071481 0.072906 2.184 -0.492118 -0.127398 0.861156 255 0 0 255
0.07761 0.073038 2.188 -0.396446 -0.0236042 0.917755 255 0 0 255
0.083685 0.073103 2.19 -0.208087 0.019454 0.977917 255 0 0 255
0.089688 0.073102 2.19 -0.455905 0.0924145 0.885218 255 0 0 255
0.096084 0.073401 2.199 -0.802292 0.22034 0.554778 255 0 0 255
0.103178 0.074167 2.222 -0.915445 0.118428 0.384625 255 0 0 255
0.147041 0.074786 2.241 0.972738 -0.00114942 0.231905 255 0 0 255
0.151538 0.073982 2.217 0.843081 0.0150779 0.537575 255 0 0 255
0.157041 0.073713 2.209 0.760189 -0.0478125 0.647941 255 0 0 255
0.162721 0.073543 2.204 0.64118 -0.127344 0.756751 255 0 0 255
0.168526 0.07344 2.201 0.422054 -0.124611 0.897966 255 0 0 255
0.174393 0.073371 2.199 0.530768 0.0572801 0.845579 255 0 0 255
0.17992 0.073167 2.193 0.881646 0.0593218 0.468168 255 0 0 255
0.18482 0.072731 2.18 0.910855 -0.0239175 0.412033 255 0 0 255
-0.17392 -0.202129 2.34497 0.248192 -0.398459 -0.882967 255 255 0 255
-0.073702 -0.181977 2.37348 0.15123 0.0617027 -0.986571 255 255 0 255
-0.044041 -0.176256 2.38084 -0.341481 0.287075 -0.894974 255 255 0 255
-0.035281 -0.176637 2.37387 -0.268052 0.303673 -0.914293 255 255 0 255
-0.015705 -0.173819 2.3745 -0.894106 -0.399602 -0.202218 255 255 0 255
-0.013635 -0.17615 2.36295 -0.996162 -0.0857137 -0.0177071 255 255 0 255
0.004228 -0.1738 2.36255 0.782859 -0.621751 -0.0236248 255 255 0 255
0.041155 -0.165756 2.37578 0.247944 -0.77914 -0.575729 255 255 0 255
0.075521 -0.158418 2.38744 0.102784 -0.779353 -0.618097 255 255 0 255
0.041894 -0.171367 2.35055 -0.966525 -0.0818225 -0.243176 255 255 0 255
0.040619 -0.174674 2.33672 0.935256 -0.0099783 -0.353833 255 255 0 255
0.050101 -0.174753 2.33064 0.987198 -0.0977049 -0.126069 255 255 0 255
0.043056 -0.179808 2.31256 0.796238 -0.258237 -0.5471 255 255 0 255
-0.231339 -0.239571 2.3177 0.648902 -0.48676 -0.5848 0 255 0 255
-0.213026 -0.236406 2.34213 0.771078 0.29323 -0.565203 0 255 0 255
-0.208317 -0.234841 2.35128 0.597862 0.314394 -0.737372 0 255 0 255
-0.197696 -0.23538 2.35638 0.601973 -0.43928 -0.666829 0 255 0 255
-0.189597 -0.235008 2.36325 -0.113451 -0.828601 -0.548224 0 255 0 255
-0.174724 -0.237027 2.36555 0.874998 -0.426166 -0.229698 0 255 0 255
-0.167448 -0.23634 2.37308 0.91982 -0.350546 -0.176205 0 255 0 255
-0.172872 -0.231167 2.38918 -0.661123 0.639808 -0.391871 0 255 0 255
-0.162201 -0.231669 2.39445 0.322288 -0.413222 -0.851691 0 255 0 255
-0.13709 -0.237219 2.39015 -0.106232 -0.40937 -0.906163 0 255 0 255
-0.105146 -0.245118 2.38148 -0.242457 -0.434171 -0.867589 0 255 0 255
-0.000119 -0.264935 2.37648 0.682349 -0.717114 -0.141941 0 255 0 255
-0.006342 -0.259428 2.39332 -0.0159024 -0.015662 -0.999751 0 255 0 255
-0.322344 0.065412 2.139 -0.99553 0.0636824 0.0697416 255 0 0 255
-0.319619 0.066059 2.16 -0.799871 -0.133193 0.585205 255 0 0 255
-0.314454 0.066217 2.165 -0.460223 -0.275269 0.844051 255 0 0 255
-0.308976 0.066313 2.168 -0.168223 -0.304895 0.937411 255 0 0 255
-0.303062 0.066317 2.168 -0.10926 -0.227581 0.96761 255 0 0 255
-0.297146 0.066321 2.168 -0.309778 -0.204992 0.928448 255 0 0 255
-0.291901 0.066479 2.173 -0.500022 -0.188769 0.845189 255 0 0 255
-0.287812 0.066911 2.187 -0.903531 -0.0146893 0.428271 255 0 0 255
-0.254095 0.069142 2.259 0.940067 -0.172192 0.294319 255 0 0 255
-0.244189 0.068105 2.225 0.0910349 0.140796 0.985844 255 0 0 255
-0.238107 0.068109 2.225 -0.0225227 -0.0961775 0.995109 255 0 0 255
-0.232128 0.068143 2.226 0.129407 -0.140311 0.981614 255 0 0 255
-0.225736 0.068055 2.223 0.456917 0.0197534 0.88929 255 0 0 255
-0.219261 0.067936 2.219 0.546387 -0.00309272 0.837527 255 0 0 255
-0.212711 0.067786 2.214 0.563158 0.0233918 0.826018 255 0 0 255
-0.206188 0.067636 2.209 0.587883 -0.0162912 0.808782 255 0 0 255
-0.199691 0.067486 2.204 0.589473 -0.0342884 0.80706 255 0 0 255
-0.193309 0.067367 2.2 0.521284 0.0249952 0.853017 255 0 0 255
-0.187033 0.067278 2.197 0.488135 0.045993 0.871556 255 0 0 255
-0.180772 0.067189 2.194 0.459711 -0.000469672 0.888069 255 0 0 255
-0.174528 0.067099 2.191 0.399858 0.0120331 0.916498 255 0 0 255
-0.168376 0.067041 2.189 0.492448 0.0579365 0.868411 255 0 0 255
-0.162011 0.06689 2.184 0.514504 0.0544241 0.855759 255 0 0 255
-0.155888 0.066832 2.182 0.408233 0.112041 0.905976 255 0 0 255
-0.149706 0.066742 2.179 0.126139 0.307591 0.943121 255 0 0 255
-0.143804 0.066775 2.18 0.151359 0.28164 0.947507 255 0 0 255
-0.13777 0.066747 2.179 0.33459 0.325309 0.884434 255 0 0 255
-0.131619 0.066657 2.176 0.37716 0.0848379 0.922254 255 0 0 255
-0.125542 0.066598 2.174 0.242823 0.0300687 0.969604 255 0 0 255
-0.119475 0.066538 2.172 0.288822 -0.0221365 0.957127 255 0 0 255
-0.113419 0.066479 2.17 0.326151 0.0691485 0.942785 255 0 0 255
-0.107374 0.066419 2.168 0.236235 0.0549933 0.970138 255 0 0 255
-0.101432 0.066421 2.168 0.247638 0.165695 0.954579 255 0 0 255
-0.095358 0.066331 2.165 0.224593 0.150513 0.962758 255 0 0 255
-0.089424 0.066332 2.165 0.0469563 0.257153 0.965229 255 0 0 255
-0.083451 0.066303 2.164 0.0151514 0.284858 0.95845 255 0 0 255
-0.077554 0.066335 2.165 0.0912525 0.233862 0.967978 255 0 0 255
-0.071586 0.066305 2.164 0.200428 0.141075 0.969498 255 0 0 255
-0.065562 0.066215 2.161 0.275703 0.0131352 0.961153 255 0 0 255
-0.059582 0.066154 2.159 0.197196 -0.0247981 0.98005 255 0 0 255
-0.053613 0.066094 2.157 0.0314241 0.0681178 0.997182 255 0 0 255
-0.047698 0.066095 2.157 -0.0882491 0.0389247 0.995338 255 0 0 255
-0.041803 0.066126 2.158 -0.204116 0.0167737 0.978803 255 0 0 255
-0.035919 0.066188 2.16 -0.250727 -0.0384589 0.967294 255 0 0 255
-0.030024 0.06625 2.162 -0.300525 -0.0309081 0.953273 255 0 0 255
-0.024128 0.066342 2.165 -0.224409 -0.0178746 0.974331 255 0 0 255
-0.018199 0.066373 2.166 -0.112822 0.0278757 0.993224 255 0 0 255
-0.01226 0.066373 2.166 -0.0287883 0.0744477 0.996809 255 0 0 255
-0.006323 0.066404 2.167 -0.0502283 0.115547 0.992031 255 0 0 255
-0.00038 0.066435 2.168 -0.202075 0.0663643 0.977119 255 0 0 255
0.005568 0.066465 2.169 -0.281409 0.0130106 0.9595 255 0 0 255
0.011527 0.066527 2.171 -0.249794 -0.05204 0.9669 255 0 0 255
0.017481 0.066526 2.171 -0.0855055 -0.0321704 0.995818 255 0 0 255
0.023445 0.066557 2.172 -0.000176448 -0.025028 0.999687 255 0 0 255
0.029388 0.066526 2.171 -0.124304 -0.0588676 0.990497 255 0 0 255
0.035373 0.066586 2.173 -0.321331 -0.218751 0.921355 255 0 0 255
0.041389 0.066678 2.176 -0.513132 -0.185709 0.837979 255 0 0 255
0.047443 0.0668 2.18 -0.371569 -0.0801795 0.924937 255 0 0 255
0.05342 0.066799 2.18 -0.0760295 -0.00165337 0.997104 255 0 0 255
0.059452 0.066859 2.182 -0.0582078 0.0454229 0.997271 255 0 0 255
0.065405 0.066827 2.181 -0.254362 0.138069 0.957203 255 0 0 255
0.071548 0.06698 2.186 -0.517491 0.122571 0.846864 255 0 0 255
0.077647 0.06707 2.189 -0.53211 0.0669851 0.844021 255 0 0 255
0.083762 0.067161 2.192 -0.469717 0.269966 0.840527 255 0 0 255
0.089853 0.067221 2.194 -0.532882 0.39203 0.749899 255 0 0 255
0.096522 0.067679 2.209 -0.889704 0.294437 0.348903 255 0 0 255
0.146912 0.068583 2.239 0.967543 -0.0648132 0.244254 255 0 0 255
0.151746 0.067998 2.22 0.798039 0.0554874 0.600045 255 0 0 255
0.157186 0.06772 2.211 0.808425 0.0665159 0.584829 255 0 0 255
0.16265 0.067473 2.203 0.601271 0.121402 0.789769 255 0 0 255
0.168452 0.067378 2.2 0.355667 0.107938 0.928359 255 0 0 255
0.174396 0.067345 2.199 0.439438 0.0797478 0.894726 255 0 0 255
0.180251 0.067281 2.197 0.456186 0.164716 0.874507 255 0 0 255
0.185077 0.066849 2.183 0.943095 0.0371489 0.330443 255 0 0 255
-0.152055 -0.201487 2.38773 -0.0201516 0.270466 -0.962519 255 255 0 255
-0.182591 -0.213434 2.35392 0.0518962 -0.300973 -0.95222 255 255 0 255
-0.065982 -0.191225 2.38009 0.122762 0.0721486 -0.98981 255 255 0 255
-0.051358 -0.189871 2.37708 -0.0500073 -0.139572 -0.988948 255 255 0 255
-0.032591 -0.187266 2.37702 -0.0109481 0.00383744 -0.999933 255 255 0 255
-0.011359 -0.183901 2.3788 0.958321 0.17197 -0.228139 255 255 0 255
-0.015112 -0.187976 2.36318 0.993648 0.0784554 -0.080676 255 255 0 255
0.03265 -0.176616 2.38386 0.981629 0.124586 -0.14451 255 255 0 255
0.054595 -0.172943 2.38655 0.485697 -0.591245 -0.643839 255 255 0 255
0.05495 -0.17575 2.37398 -0.651534 0.657476 -0.378456 255 255 0 255
0.072699 -0.173302 2.37386 0.680889 -0.554277 -0.478713 255 255 0 255
0.027562 -0.189904 2.32852 0.241379 -0.69461 -0.677682 255 255 0 255
0.046144 -0.187208 2.32898 0.725223 -0.353495 -0.590841 255 255 0 255
-0.20594 -0.250201 2.33852 0.705434 0.0875792 -0.703344 0 255 0 255
-0.198696 -0.249548 2.34595 0.497629 0.318642 -0.806742 0 255 0 255
-0.226032 -0.236453 2.37718 0.549567 -0.638522 -0.538763 0 255 0 255
-0.201917 -0.241867 2.37301 0.482845 -0.816396 -0.316795 0 255 0 255
-0.176919 -0.247556 2.3684 0.279337 -0.707171 -0.649523 0 255 0 255
-0.197559 -0.236925 2.3948 0.598949 0.746234 -0.290509 0 255 0 255
-0.198769 -0.233251 2.40797 -0.874413 -0.477214 -0.0875769 0 255 0 255
-0.191513 -0.232588 2.41544 -0.95715 -0.28594 -0.0458613 0 255 0 255
-0.146087 -0.245427 2.39753 -0.131954 -0.663901 -0.736087 0 255 0 255
-0.05953 -0.266009 2.37818 -0.0704242 -0.0817066 -0.994165 0 255 0 255
-0.033424 -0.271811 2.37389 -0.216581 0.205644 -0.95436 0 255 0 255
-0.014093 -0.275205 2.37415 0.14766 -0.733974 -0.662932 0 255 0 255
-0.005816 -0.274718 2.38164 0.570439 -0.673462 -0.470158 0 255 0 255
-9.1e-05 -0.273336 2.3908 -0.597238 -0.431575 -0.676055 0 255 0 255
-0.323855 0.059838 2.149 -0.921146 0.195063 0.33681 255 0 0 255
-0.319475 0.06012 2.159 -0.679195 0.0460941 0.732509 255 0 0 255
-0.314168 0.060236 2.163 -0.459871 -0.168245 0.871902 255 0 0 255
-0.308695 0.060323 2.166 -0.250501 -0.200258 0.947178 255 0 0 255
-0.302786 0.060327 2.166 -0.179478 -0.145551 0.972935 255 0 0 255
-0.29715 0.060387 2.168 -0.322231 -0.170387 0.931201 255 0 0 255
-0.291636 0.060474 2.171 -0.479472 -0.127462 0.868251 255 0 0 255
-0.287816 0.060924 2.187 -0.908605 -0.00704138 0.417597 255 0 0 255
-0.250724 0.062119 2.229 0.632981 0.263144 0.728073 255 0 0 255
-0.244192 0.062011 2.225 0.2372 0.0972503 0.966581 255 0 0 255
-0.237789 0.061931 2.222 0.253704 -0.122139 0.95954 255 0 0 255
-0.231818 0.061962 2.223 0.136878 -0.249697 0.958601 255 0 0 255
-0.225638 0.061937 2.222 0.253095 -0.285128 0.92447 255 0 0 255
-0.219264 0.061857 2.219 0.533671 -0.0610872 0.843483 255 0 0 255
-0.212715 0.06172 2.214 0.620096 -0.0899876 0.779348 255 0 0 255
-0.206191 0.061584 2.209 0.5872 -0.106986 0.802341 255 0 0 255
-0.199785 0.061475 2.205 0.524226 -0.0229274 0.85127 255 0 0 255
-0.1934 0.061366 2.201 0.487599 0.0168606 0.872905 255 0 0 255
-0.187121 0.061285 2.198 0.506063 -0.0259707 0.862106 255 0 0 255
-0.180693 0.061149 2.193 0.475592 -0.0270483 0.87925 255 0 0 255
-0.17453 0.061095 2.191 0.356386 -0.0446088 0.933273 255 0 0 255
-0.168301 0.061014 2.188 0.475605 -0.0122835 0.879573 255 0 0 255
-0.162014 0.060905 2.184 0.490818 -0.043834 0.870159 255 0 0 255
-0.155819 0.060824 2.181 0.335939 0.00944189 0.941836 255 0 0 255
-0.149777 0.060798 2.18 0.139723 -0.0244405 0.989889 255 0 0 255
-0.143806 0.0608 2.18 0.145566 -0.0560942 0.987757 255 0 0 255
-0.137708 0.060746 2.178 0.369607 -0.18201 0.911188 255 0 0 255
-0.131439 0.060609 2.173 0.447663 -0.038513 0.893373 255 0 0 255
-0.125486 0.060611 2.173 0.305143 -0.151693 0.940148 255 0 0 255
-0.119367 0.060529 2.17 0.253563 -0.1136 0.960625 255 0 0 255
-0.113421 0.06053 2.17 0.25339 -0.0932522 0.962859 255 0 0 255
-0.107326 0.060448 2.167 0.26272 -0.0190019 0.964685 255 0 0 255
-0.101387 0.06045 2.167 0.254092 -0.110681 0.960826 255 0 0 255
-0.095359 0.060395 2.165 0.163206 -0.247642 0.955006 255 0 0 255
-0.089425 0.060397 2.165 0.0144354 -0.196312 0.980435 255 0 0 255
-0.083452 0.06037 2.164 0.0556273 -0.194751 0.979274 255 0 0 255
-0.07752 0.060371 2.164 0.10356 -0.166347 0.980614 255 0 0 255
-0.071521 0.060317 2.162 0.252615 -0.0626954 0.965533 255 0 0 255
-0.065563 0.06029 2.161 0.320881 -0.0468285 0.945961 255 0 0 255
-0.059583 0.060235 2.159 0.2227 -0.0141593 0.974784 255 0 0 255
-0.053663 0.060236 2.159 0.0297098 0.0137829 0.999464 255 0 0 255
-0.047743 0.060236 2.159 -0.0775308 0.171135 0.982192 255 0 0 255
-0.041843 0.060265 2.16 -0.224457 0.11103 0.968138 255 0 0 255
-0.035936 0.060293 2.161 -0.246994 0.146858 0.957824 255 0 0 255
-0.030024 0.060322 2.162 -0.351445 0.100055 0.930847 255 0 0 255
-0.024117 0.060378 2.164 -0.307285 0.0955331 0.94681 255 0 0 255
-0.018191 0.060406 2.165 -0.00694802 0.115581 0.993274 255 0 0 255
-0.01226 0.060434 2.166 0.0582386 -0.000603902 0.998303 255 0 0 255
-0.006317 0.060407 2.165 -0.112098 -0.0851348 0.990044 255 0 0 255
-0.00038 0.060462 2.167 -0.152789 -0.112426 0.981843 255 0 0 255
0.005563 0.060462 2.167 -0.198478 -0.0286399 0.979687 255 0 0 255
0.011516 0.060518 2.169 -0.140041 -0.139131 0.980322 255 0 0 255
0.017473 0.060546 2.17 -0.0654091 -0.193928 0.978833 255 0 0 255
0.023435 0.060573 2.171 -0.0578416 -0.0856738 0.994643 255 0 0 255
0.029375 0.060545 2.17 -0.108117 -0.112799 0.987718 255 0 0 255
0.035358 0.0606 2.172 -0.284528 -0.0830778 0.955061 255 0 0 255
0.041352 0.060656 2.174 -0.546928 0.0172985 0.837001 255 0 0 255
0.047422 0.060794 2.179 -0.502281 0.145949 0.852299 255 0 0 255
0.053446 0.06085 2.181 -0.298277 0.172741 0.938718 255 0 0 255
0.05948 0.060905 2.183 -0.0976243 0.280721 0.954812 255 0 0 255
0.065436 0.060876 2.182 -0.234954 0.232165 0.943873 255 0 0 255
0.071516 0.060958 2.185 -0.548045 0.152785 0.822377 255 0 0 255
0.077648 0.061069 2.189 -0.542303 0.048264 0.838795 255 0 0 255
0.083878 0.061235 2.195 -0.626848 0.204286 0.751884 255 0 0 255
0.0901 0.061373 2.2 -0.709222 0.13488 0.691962 255 0 0 255
0.096829 0.061818 2.216 -0.842408 -0.00668174 0.5388 255 0 0 255
0.145996 0.062055 2.225 0.912176 -0.0922981 0.399269 255 0 0 255
0.151817 0.061942 2.221 0.774676 0.0453438 0.630731 255 0 0 255
0.157259 0.061688 2.212 0.812596 0.0295138 0.58208 255 0 0 255
0.1628 0.061491 2.205 0.648987 0.212582 0.730496 255 0 0 255
0.168608 0.061405 2.202 0.292384 0.287405 0.912091 255 0 0 255
0.174557 0.061375 2.201 0.347851 0.2615 0.900343 255 0 0 255
0.180254 0.061261 2.197 0.489036 0.220791 0.843857 255 0 0 255
