ply
format ascii 1.0
comment VCGLIB generated
element vertex 734
property float x
property float y
property float z
property float nx
property float ny
property float nz
property uchar red
property uchar green
property uchar blue
property uchar alpha
element face 0
property list uchar int vertex_indices
end_header
-0.066845 0.588304 2.033 -0.484901 0.845714 0.222799 255 0 0 255
-0.061486 0.590045 2.039 -0.594054 0.753977 0.28039 255 0 0 255
-0.056176 0.592654 2.048 -0.782905 0.462942 0.415625 255 0 0 255
-0.050817 0.595263 2.057 -0.870381 0.282216 0.403474 255 0 0 255
-0.045496 0.599029 2.07 -0.92398 0.194047 0.329555 255 0 0 255
-0.040182 0.603952 2.087 -0.92496 0.0097457 0.379939 255 0 0 255
-0.034708 0.607717 2.1 0.308852 0.281976 0.90835 255 0 0 255
-0.029012 0.608299 2.102 0.477217 0.270786 0.836026 255 0 0 255
-0.023195 0.605986 2.094 0.727434 0.0368122 0.68519 255 0 0 255
-0.017437 0.604251 2.088 0.664944 -0.109417 0.738835 255 0 0 255
-0.01178 0.605988 2.094 0.664944 -0.109417 0.738835 255 0 0 255
-0.195001 0.602076 2.101 0.391004 -0.612065 0.687381 255 0 0 255
-0.188741 0.600371 2.095 0.399401 -0.595677 0.696884 255 0 0 255
-0.18225 0.597806 2.086 0.525678 -0.522618 0.671218 255 0 0 255
-0.175216 0.593234 2.07 0.783049 0.27198 0.559341 255 0 0 255
-0.168678 0.590095 2.059 0.482169 0.364535 0.796635 255 0 0 255
-0.162913 0.589535 2.057 -0.403025 0.493625 0.770652 255 0 0 255
-0.15777 0.591267 2.063 -0.757762 0.134025 0.638619 255 0 0 255
-0.15252 0.592712 2.068 -0.471028 0.0502609 0.880685 255 0 0 255
-0.146887 0.592723 2.068 0.472297 0.105783 0.875069 255 0 0 255
-0.140912 0.591302 2.063 0.767806 0.27153 0.580298 255 0 0 255
-0.134703 0.588733 2.054 0.755646 0.506944 0.414737 255 0 0 255
-0.128793 0.58731 2.049 0.545769 0.680113 0.489471 255 0 0 255
-0.12261 0.584454 2.039 0.456334 0.853261 0.252398 255 0 0 255
-0.11671 0.582743 2.033 0.382912 0.920673 0.0757675 255 0 0 255
-0.110733 0.580459 2.025 -0.185708 -0.982295 0.0247007 255 0 0 255
-0.105008 0.579321 2.021 -0.111319 -0.993784 0.00119366 255 0 0 255
-0.099452 0.579043 2.02 -0.0239838 -0.999479 0.0216079 255 0 0 255
-0.093994 0.579337 2.021 -0.0925135 0.99522 0.0312767 255 0 0 255
-0.088662 0.580491 2.025 -0.216948 0.976015 0.0181417 255 0 0 255
-0.08339 0.582218 2.031 -0.277868 0.958047 0.0702525 255 0 0 255
-0.078124 0.584232 2.038 -0.295118 0.886369 0.356729 255 0 0 255
-0.072676 0.585098 2.041 -0.287987 0.78306 0.551254 255 0 0 255
-0.067212 0.585963 2.044 -0.415841 0.753988 0.508506 255 0 0 255
-0.061732 0.586829 2.047 -0.594041 0.58702 0.550021 255 0 0 255
-0.05629 0.588267 2.052 -0.703664 0.373099 0.604693 255 0 0 255
-0.050846 0.589991 2.058 -0.844638 0.282413 0.454785 255 0 0 255
-0.045478 0.593149 2.069 -0.91358 0.138904 0.382202 255 0 0 255
-0.040147 0.597739 2.085 -0.920687 -0.0480949 0.387327 255 0 0 255
-0.034695 0.601756 2.099 0.172078 -0.166849 0.970851 255 0 0 255
-0.029015 0.602619 2.102 0.172078 -0.166849 0.97085 255 0 0 255
-0.023219 0.600901 2.096 0.637572 -0.101392 0.763689 255 0 0 255
-0.017413 0.597749 2.085 0.458188 -0.44348 0.770317 255 0 0 255
-0.011708 0.596603 2.081 0.204737 -0.569253 0.796262 255 0 0 255
-0.206161 0.595514 2.098 0.272728 -0.706846 0.652678 255 0 0 255
-0.200067 0.594394 2.094 0.233195 -0.675735 0.699287 255 0 0 255
-0.194181 0.593842 2.092 0.252607 -0.652736 0.714231 255 0 0 255
-0.188034 0.592437 2.087 0.387453 -0.552042 0.738329 255 0 0 255
-0.181915 0.591032 2.082 0.568414 -0.333558 0.752093 255 0 0 255
-0.175483 0.588491 2.073 0.706385 0.220676 0.672549 255 0 0 255
-0.169265 0.586517 2.066 0.51734 0.658838 0.546161 255 0 0 255
-0.163321 0.585394 2.062 -0.00919726 0.515786 0.856668 255 0 0 255
-0.157935 0.586258 2.065 -0.546262 0.182947 0.817391 255 0 0 255
-0.152532 0.587122 2.068 -0.418485 -0.101233 0.902564 255 0 0 255
-0.14697 0.587418 2.069 0.211497 -0.0174736 0.977223 255 0 0 255
-0.14106 0.586294 2.065 0.683837 0.235839 0.690468 255 0 0 255
-0.13491 0.584033 2.057 0.701253 0.495247 0.512811 255 0 0 255
-0.129117 0.583192 2.054 0.481678 0.594351 0.643998 255 0 0 255
-0.123281 0.582066 2.05 0.474732 0.735874 0.482825 255 0 0 255
-0.11758 0.581508 2.048 0.463134 0.734425 0.496112 255 0 0 255
-0.111781 0.580381 2.044 0.177215 0.872132 0.456049 255 0 0 255
-0.106108 0.579822 2.042 0.200499 0.682877 0.702481 255 0 0 255
-0.100494 0.579547 2.041 0.0348032 0.770377 0.636638 255 0 0 255
-0.094932 0.579554 2.041 -0.0699585 0.734786 0.674682 255 0 0 255
-0.089414 0.579846 2.042 -0.119126 0.696761 0.707343 255 0 0 255
-0.083931 0.580421 2.044 -0.156145 0.730946 0.664332 255 0 0 255
-0.078398 0.580711 2.045 -0.176866 0.667421 0.723372 255 0 0 255
-0.07286 0.581002 2.046 -0.228935 0.675293 0.701119 255 0 0 255
-0.067284 0.581007 2.046 -0.351577 0.629197 0.693185 255 0 0 255
-0.061828 0.582149 2.05 -0.480986 0.531989 0.696879 255 0 0 255
-0.056322 0.583005 2.053 -0.653755 0.439127 0.616257 255 0 0 255
-0.050874 0.584714 2.059 -0.826819 0.316913 0.46469 255 0 0 255
-0.045526 0.588125 2.071 -0.909132 0.193669 0.368743 255 0 0 255
-0.040111 0.591537 2.083 -0.863285 -0.0979283 0.495126 255 0 0 255
-0.034615 0.594664 2.094 -0.672973 -0.37581 0.637083 255 0 0 255
-0.028962 0.595802 2.098 0.289782 -0.416884 0.86153 255 0 0 255
-0.023198 0.594668 2.094 0.652561 -0.333711 0.680295 255 0 0 255
-0.017382 0.590978 2.081 0.45059 -0.570398 0.686742 255 0 0 255
-0.011669 0.588991 2.074 -0.319644 -0.579435 0.749722 255 0 0 255
-0.00605 0.5924 2.086 -0.68428 -0.547842 0.48128 255 0 0 255
-0.223628 0.590637 2.101 0.339898 -0.722646 0.601874 255 0 0 255
-0.217287 0.588967 2.095 0.284367 -0.654835 0.700233 255 0 0 255
-0.21108 0.587578 2.09 0.245922 -0.630191 0.736466 255 0 0 255
-0.205292 0.587312 2.089 0.209013 -0.622703 0.754026 255 0 0 255
-0.199413 0.586765 2.087 0.160649 -0.596055 0.786709 255 0 0 255
-0.193731 0.58678 2.087 0.207249 -0.550519 0.808688 255 0 0 255
-0.187688 0.58567 2.083 0.319722 -0.440915 0.838672 255 0 0 255
-0.181579 0.584279 2.078 0.496753 -0.218434 0.839954 255 0 0 255
-0.175582 0.583168 2.074 0.5375 0.163726 0.827217 255 0 0 255
-0.169851 0.5829 2.073 0.554825 0.174324 0.813499 255 0 0 255
-0.163651 0.580945 2.066 0.396069 0.236307 0.887293 255 0 0 255
-0.157794 0.580114 2.063 0.000161967 -0.316352 0.948642 255 0 0 255
-0.152396 0.58097 2.066 -0.191876 -0.418005 0.88795 255 0 0 255
-0.146981 0.581825 2.069 -0.0135938 -0.0383433 0.999172 255 0 0 255
-0.141276 0.581555 2.068 0.469307 0.18916 0.862536 255 0 0 255
-0.135183 0.579598 2.061 0.644932 0.404787 0.648236 255 0 0 255
-0.129316 0.578483 2.057 0.476598 0.55312 0.68331 255 0 0 255
-0.123591 0.577931 2.055 0.448711 0.575263 0.683909 255 0 0 255
-0.117762 0.576816 2.051 0.492272 0.555031 0.670529 255 0 0 255
-0.112009 0.575981 2.048 0.332177 0.66543 0.668477 255 0 0 255
-0.106324 0.575428 2.046 0.096075 0.758677 0.644344 255 0 0 255
-0.100748 0.575436 2.046 -0.0203782 0.774573 0.632156 255 0 0 255
-0.095219 0.575725 2.047 -0.0294835 0.774362 0.632055 255 0 0 255
-0.08964 0.575733 2.047 -0.0940901 0.728567 0.678482 255 0 0 255
-0.084061 0.57574 2.047 -0.0641191 0.659169 0.749256 255 0 0 255
-0.078481 0.575747 2.047 -0.130374 0.612827 0.779388 255 0 0 255
-0.072973 0.576315 2.049 -0.210442 0.603607 0.769008 255 0 0 255
-0.067454 0.576884 2.051 -0.420988 0.610778 0.670611 255 0 0 255
-0.061984 0.578014 2.055 -0.51102 0.59123 0.623944 255 0 0 255
-0.056437 0.578582 2.057 -0.598449 0.5519 0.580746 255 0 0 255
-0.050977 0.580274 2.063 -0.808501 0.400631 0.43107 255 0 0 255
-0.045595 0.583372 2.074 -0.870001 0.142101 0.472128 255 0 0 255
-0.040153 0.586469 2.085 -0.784668 -0.0935407 0.612818 255 0 0 255
-0.034585 0.588441 2.092 -0.403256 -0.462544 0.789581 255 0 0 255
-0.028909 0.589007 2.094 -0.0647956 -0.469478 0.880563 255 0 0 255
-0.023134 0.587321 2.088 0.599036 -0.411249 0.687045 255 0 0 255
-0.017341 0.583947 2.076 0.406048 -0.602322 0.687265 255 0 0 255
-0.011642 0.58198 2.069 -0.0676083 -0.529537 0.845588 255 0 0 255
-0.00603 0.584793 2.079 -0.719369 -0.437683 0.53939 255 0 0 255
-0.000365 0.589575 2.096 -0.697946 -0.487443 0.524662 255 0 0 255
0.005377 0.592669 2.107 -0.548694 -0.621086 0.559632 255 0 0 255
-0.241716 0.587132 2.109 0.269579 -0.772498 0.574956 255 0 0 255
-0.234858 0.584366 2.099 0.244976 -0.767095 0.592918 255 0 0 255
-0.228599 0.582991 2.094 0.261186 -0.672502 0.692476 255 0 0 255
-0.22258 0.582172 2.091 0.246163 -0.580881 0.775874 255 0 0 255
-0.216681 0.581632 2.089 0.252984 -0.552804 0.793982 255 0 0 255
-0.210792 0.581091 2.087 0.256099 -0.527967 0.809731 255 0 0 255
-0.204816 0.580272 2.084 0.189411 -0.521565 0.831921 255 0 0 255
-0.198951 0.57973 2.082 0.100122 -0.532643 0.840397 255 0 0 255
-0.193282 0.579745 2.082 0.132668 -0.467978 0.873725 255 0 0 255
-0.187522 0.579481 2.081 0.316391 -0.397962 0.861117 255 0 0 255
-0.181506 0.578382 2.077 0.401391 -0.251471 0.880709 255 0 0 255
-0.17568 0.577839 2.075 0.312838 -0.0721135 0.947065 255 0 0 255
-0.169865 0.577295 2.073 0.614772 0.143976 0.775452 255 0 0 255
-0.163585 0.575081 2.065 0.735399 -0.13232 0.664589 255 0 0 255
-0.157348 0.572865 2.057 0.090632 -0.547214 0.832071 255 0 0 255
-0.151965 0.573713 2.06 -0.311472 -0.584685 0.749085 255 0 0 255
-0.14678 0.575396 2.066 -0.300525 -0.180789 0.936483 255 0 0 255
-0.141356 0.576243 2.069 0.174372 -0.0271172 0.984306 255 0 0 255
-0.135522 0.575418 2.066 0.414364 0.229223 0.880772 255 0 0 255
-0.129641 0.574315 2.062 0.485411 0.39957 0.777637 255 0 0 255
-0.123902 0.573768 2.06 0.473815 0.463093 0.749029 255 0 0 255
-0.118059 0.572664 2.056 0.484049 0.504586 0.714905 255 0 0 255
-0.112292 0.571838 2.053 0.225387 0.644674 0.730477 255 0 0 255
-0.106593 0.571289 2.051 0.0769292 0.710047 0.69994 255 0 0 255
-0.101052 0.571576 2.052 -0.0213359 0.710223 0.703653 255 0 0 255
-0.095413 0.571306 2.051 0.02033 0.673669 0.738754 255 0 0 255
-0.089823 0.571314 2.051 -0.0593692 0.603906 0.794841 255 0 0 255
-0.084273 0.571599 2.052 -0.0416639 0.693355 0.719391 255 0 0 255
-0.078641 0.571327 2.051 -0.138841 0.687766 0.712531 255 0 0 255
-0.073122 0.571891 2.053 -0.20059 0.701619 0.683735 255 0 0 255
-0.067558 0.572175 2.054 -0.395387 0.565697 0.723641 255 0 0 255
-0.062109 0.573573 2.059 -0.540873 0.608569 0.580603 255 0 0 255
-0.056578 0.574414 2.062 -0.536279 0.613886 0.579265 255 0 0 255
-0.051105 0.57609 2.068 -0.756642 0.401384 0.516124 255 0 0 255
-0.045665 0.578601 2.077 -0.784427 0.0775833 0.615349 255 0 0 255
-0.040137 0.580555 2.084 -0.776574 -0.0775617 0.625234 255 0 0 255
-0.034538 0.581951 2.089 -0.557328 -0.246194 0.792952 255 0 0 255
-0.028856 0.582232 2.09 -0.0107771 -0.543104 0.839596 255 0 0 255
-0.023058 0.579727 2.081 0.708378 -0.439036 0.552673 255 0 0 255
-0.017284 0.576385 2.069 0.197699 -0.634076 0.747571 255 0 0 255
-0.011626 0.575551 2.066 -0.610816 -0.476821 0.632096 255 0 0 255
-0.006022 0.578338 2.076 -0.794575 -0.337073 0.505007 255 0 0 255
-0.000364 0.582238 2.09 -0.711067 -0.374949 0.594809 255 0 0 255
0.005352 0.584188 2.097 -0.361643 -0.665995 0.65243 255 0 0 255
0.011096 0.58558 2.102 -0.323823 -0.706699 0.629059 255 0 0 255
0.016851 0.586415 2.105 -0.339202 -0.740434 0.580258 255 0 0 255
-0.251651 0.577808 2.096 0.279236 -0.67793 0.680028 255 0 0 255
-0.245595 0.577 2.093 0.193547 -0.659773 0.726112 255 0 0 255
-0.239785 0.576742 2.092 0.196872 -0.680667 0.705644 255 0 0 255
-0.233868 0.576208 2.09 0.219397 -0.671272 0.707996 255 0 0 255
-0.227852 0.575398 2.087 0.179203 -0.619424 0.76433 255 0 0 255
-0.221958 0.574863 2.085 0.159619 -0.551052 0.819063 255 0 0 255
-0.216179 0.574604 2.084 0.161563 -0.515108 0.841761 255 0 0 255
-0.210303 0.574069 2.082 0.232408 -0.467749 0.852759 255 0 0 255
-0.20434 0.573258 2.079 0.211213 -0.447957 0.868749 255 0 0 255
-0.198679 0.573273 2.079 0.0855302 -0.510612 0.855547 255 0 0 255
-0.193018 0.573288 2.079 0.0779364 -0.510965 0.856061 255 0 0 255
-0.187267 0.573027 2.078 0.205389 -0.478916 0.853495 255 0 0 255
-0.181258 0.571938 2.074 0.245705 -0.370969 0.895551 255 0 0 255
-0.175524 0.571677 2.073 0.123351 -0.130432 0.983754 255 0 0 255
-0.169796 0.571414 2.072 0.662776 -0.021575 0.748507 255 0 0 255
-0.163439 0.568946 2.063 0.784935 -0.129461 0.605901 255 0 0 255
-0.157054 0.5662 2.053 0.39339 -0.230476 0.890014 255 0 0 255
-0.151609 0.566764 2.055 -0.376568 -0.233762 0.896411 255 0 0 255
-0.146507 0.568707 2.062 -0.597566 -0.314954 0.737373 255 0 0 255
-0.141367 0.570649 2.069 -0.205237 -0.212983 0.955257 255 0 0 255
-0.135598 0.570108 2.067 0.404702 0.069438 0.911808 255 0 0 255
-0.129714 0.569016 2.063 0.417124 0.231686 0.878823 255 0 0 255
-0.123972 0.568474 2.061 0.419648 0.3415 0.840995 255 0 0 255
-0.118126 0.567381 2.057 0.427072 0.507802 0.748162 255 0 0 255
-0.112465 0.567115 2.056 0.25886 0.556824 0.789265 255 0 0 255
-0.106809 0.566848 2.055 0.0725054 0.648279 0.757942 255 0 0 255
-0.101208 0.566856 2.055 0.0542914 0.668536 0.741695 255 0 0 255
-0.095607 0.566864 2.055 0.101206 0.584411 0.805122 255 0 0 255
-0.089961 0.566596 2.054 -0.0614511 0.526483 0.847962 255 0 0 255
-0.084444 0.567155 2.056 -0.121817 0.53379 0.836797 255 0 0 255
-0.078839 0.567162 2.056 -0.123591 0.536838 0.834584 255 0 0 255
-0.073306 0.56772 2.058 -0.255234 0.602329 0.756344 255 0 0 255
-0.067728 0.568001 2.059 -0.513463 0.506527 0.692666 255 0 0 255
-0.062296 0.569662 2.065 -0.585203 0.499294 0.638939 255 0 0 255
-0.056748 0.570495 2.068 -0.55863 0.483533 0.673891 255 0 0 255
-0.051159 0.571051 2.07 -0.573654 0.487496 0.658232 255 0 0 255
-0.045647 0.57271 2.076 -0.702895 0.160388 0.692975 255 0 0 255
-0.040102 0.574369 2.082 -0.629943 -0.191053 0.752776 255 0 0 255
-0.034508 0.575751 2.087 -0.347972 -0.389051 0.852968 255 0 0 255
-0.028804 0.575478 2.086 0.0861275 -0.414998 0.905737 255 0 0 255
-0.022983 0.57217 2.074 0.722004 -0.45308 0.522905 255 0 0 255
-0.017227 0.568861 2.062 0.472784 -0.458981 0.752205 255 0 0 255
-0.01161 0.569138 2.063 -0.696865 -0.361343 0.619524 255 0 0 255
-0.006017 0.572173 2.074 -0.787873 -0.256436 0.559908 255 0 0 255
-0.000363 0.575484 2.086 -0.674891 -0.376966 0.634365 255 0 0 255
0.005337 0.576863 2.091 -0.251734 -0.586324 0.76997 255 0 0 255
0.01105 0.577415 2.093 -0.239458 -0.642888 0.727568 255 0 0 255
0.016765 0.577689 2.094 -0.152275 -0.690217 0.707398 255 0 0 255
0.022496 0.578239 2.096 -0.233145 -0.739355 0.631663 255 0 0 255
0.028292 0.579892 2.102 -0.31707 -0.768989 0.555088 255 0 0 255
0.034169 0.582373 2.111 -0.341286 -0.768722 0.540917 255 0 0 255
-0.263326 0.572647 2.098 0.331994 -0.668198 0.665802 255 0 0 255
-0.256881 0.571029 2.092 0.301293 -0.615295 0.728447 255 0 0 255
-0.250828 0.570228 2.089 0.262934 -0.600792 0.754927 255 0 0 255
-0.244792 0.569428 2.086 0.250582 -0.613381 0.748981 255 0 0 255
-0.239 0.569173 2.085 0.208785 -0.637776 0.741384 255 0 0 255
-0.23299 0.568371 2.082 0.142007 -0.605206 0.783301 255 0 0 255
-0.227214 0.568116 2.081 0.0910323 -0.542538 0.835085 255 0 0 255
-0.221549 0.568132 2.081 0.0777933 -0.484596 0.871272 255 0 0 255
-0.215884 0.568149 2.081 0.082536 -0.421744 0.902951 255 0 0 255
-0.210117 0.567892 2.08 0.26478 -0.392221 0.880939 255 0 0 255
-0.204061 0.566816 2.076 0.278146 -0.403679 0.871595 255 0 0 255
-0.198312 0.566558 2.075 0.141793 -0.495378 0.857027 255 0 0 255
-0.192476 0.566028 2.073 0.140859 -0.555606 0.819427 255 0 0 255
-0.186831 0.566042 2.073 0.0803548 -0.558786 0.82541 255 0 0 255
-0.181097 0.565784 2.072 -0.00667235 -0.504154 0.863588 255 0 0 255
-0.175538 0.566071 2.073 -0.0494686 -0.28805 0.956337 255 0 0 255
-0.169973 0.566357 2.074 0.283392 -0.224018 0.932473 255 0 0 255
-0.163531 0.56364 2.064 0.79554 -0.0679236 0.602082 255 0 0 255
-0.15722 0.561195 2.055 0.557613 -0.26068 0.788108 255 0 0 255
-0.151473 0.560661 2.053 -0.355974 -0.163851 0.920019 255 0 0 255
-0.146306 0.562311 2.059 -0.609927 -0.327775 0.721493 255 0 0 255
-0.141174 0.564235 2.066 -0.428777 -0.121024 0.895267 255 0 0 255
-0.135609 0.564519 2.067 0.117082 -0.048761 0.991925 255 0 0 255
-0.129851 0.563984 2.065 0.345333 0.262129 0.901129 255 0 0 255
-0.124163 0.563721 2.064 0.348399 0.364728 0.863477 255 0 0 255
-0.118423 0.563184 2.062 0.338834 0.460724 0.82032 255 0 0 255
-0.112693 0.562648 2.06 0.153358 0.525053 0.837139 255 0 0 255
-0.107078 0.562657 2.06 0.060097 0.551072 0.83229 255 0 0 255
-0.101414 0.562392 2.059 0.0915196 0.532049 0.841753 255 0 0 255
-0.095801 0.5624 2.059 0.2053 0.499268 0.841774 255 0 0 255
-0.090056 0.561588 2.056 0.00179866 0.516096 0.856529 255 0 0 255
-0.084575 0.562415 2.059 -0.154347 0.402513 0.902308 255 0 0 255
-0.078923 0.562149 2.058 -0.219552 0.371167 0.902237 255 0 0 255
-0.073383 0.562701 2.06 -0.325798 0.42174 0.846162 255 0 0 255
-0.067799 0.56298 2.061 -0.515936 0.334547 0.788599 255 0 0 255
-0.062331 0.564352 2.066 -0.643155 0.261907 0.719553 255 0 0 255
-0.056835 0.565722 2.071 -0.554501 0.226387 0.800798 255 0 0 255
-0.051262 0.566546 2.074 -0.57384 0.289269 0.766179 255 0 0 255
-0.045673 0.56737 2.077 -0.58031 0.17931 0.794411 255 0 0 255
-0.040048 0.56792 2.079 -0.254869 -0.0278147 0.966575 255 0 0 255
-0.034445 0.569016 2.083 -0.273359 -0.339011 0.900192 255 0 0 255
-0.028737 0.568472 2.081 0.465233 -0.545958 0.696769 255 0 0 255
-0.022929 0.565196 2.069 0.649024 -0.487608 0.583958 255 0 0 255
-0.017195 0.562193 2.058 0.193543 -0.488991 0.850546 255 0 0 255
-0.0116 0.563014 2.061 -0.615858 -0.301761 0.727777 255 0 0 255
-0.006011 0.566019 2.072 -0.838109 -0.184729 0.513272 255 0 0 255
-0.000363 0.569025 2.083 -0.537513 -0.517362 0.665895 255 0 0 255
0.005325 0.569844 2.086 -0.216499 -0.567545 0.794369 255 0 0 255
0.011019 0.570116 2.087 -0.0675815 -0.603103 0.794796 255 0 0 255
0.01671 0.570115 2.087 -0.106458 -0.607982 0.786781 255 0 0 255
0.022401 0.570113 2.087 -0.162406 -0.613159 0.773085 255 0 0 255
0.028146 0.571204 2.091 -0.233919 -0.653014 0.720315 255 0 0 255
0.033929 0.572567 2.096 -0.30035 -0.7162 0.629958 255 0 0 255
0.039758 0.574203 2.102 -0.350895 -0.772845 0.528756 255 0 0 255
0.045641 0.576112 2.109 -0.369166 -0.773898 0.514586 255 0 0 255
-0.274891 0.567204 2.099 0.387886 -0.741993 0.5468 255 0 0 255
-0.268155 0.565061 2.091 0.286679 -0.709097 0.644202 255 0 0 255
-0.262341 0.56481 2.09 0.251298 -0.685173 0.683658 255 0 0 255
-0.256286 0.564018 2.087 0.257522 -0.59523 0.761172 255 0 0 255
-0.250246 0.563226 2.084 0.264081 -0.578888 0.771459 255 0 0 255
-0.244106 0.562163 2.08 0.227094 -0.56677 0.79196 255 0 0 255
-0.23833 0.561911 2.079 0.124879 -0.566594 0.814479 255 0 0 255
-0.232448 0.561388 2.077 0.0621833 -0.478216 0.876038 255 0 0 255
-0.226903 0.561676 2.078 -0.0153069 -0.45879 0.888413 255 0 0 255
-0.221247 0.561693 2.078 -0.0431463 -0.408207 0.911869 255 0 0 255
-0.215589 0.561709 2.078 0.0169448 -0.372545 0.927859 255 0 0 255
-0.20983 0.561455 2.077 0.253026 -0.332584 0.908497 255 0 0 255
-0.203782 0.56039 2.073 0.37243 -0.284347 0.883426 255 0 0 255
-0.198041 0.560135 2.072 0.306591 -0.266289 0.913834 255 0 0 255
-0.19212 0.559339 2.069 0.213511 -0.419057 0.882499 255 0 0 255
-0.186304 0.558813 2.067 0.0453134 -0.44903 0.892367 255 0 0 255
-0.180762 0.559098 2.068 -0.0233567 -0.465866 0.884547 255 0 0 255
-0.175213 0.559383 2.069 -0.201891 -0.445599 0.872171 255 0 0 255
-0.169905 0.560478 2.073 0.309915 -0.419784 0.853073 255 0 0 255
-0.163544 0.558058 2.064 0.647088 -0.175282 0.741993 255 0 0 255
-0.157309 0.555907 2.056 0.541801 0.0402008 0.839545 255 0 0 255
-0.151338 0.554568 2.051 0.0662284 -0.406078 0.911435 255 0 0 255
-0.146104 0.555932 2.056 -0.558453 -0.314287 0.767694 255 0 0 255
-0.14098 0.557836 2.063 -0.61987 -0.149601 0.770312 255 0 0 255
-0.135686 0.559199 2.068 -0.0576299 0.127118 0.990212 255 0 0 255
-0.129987 0.55894 2.067 0.160492 0.36772 0.915983 255 0 0 255
-0.124233 0.558409 2.065 0.258739 0.46914 0.844371 255 0 0 255
-0.118547 0.558149 2.064 0.347761 0.353954 0.868204 255 0 0 255
-0.112812 0.557617 2.062 0.227568 0.295367 0.927885 255 0 0 255
-0.107243 0.557897 2.063 0.0651318 0.269505 0.960794 255 0 0 255
-0.10157 0.557635 2.062 0.123305 0.312869 0.941758 255 0 0 255
-0.095902 0.557373 2.061 0.209162 0.411591 0.887043 255 0 0 255
-0.090195 0.55684 2.059 0.0646354 0.459597 0.885772 255 0 0 255
-0.084623 0.557117 2.06 -0.0930981 0.382333 0.919322 255 0 0 255
-0.079006 0.557124 2.06 -0.218695 0.381987 0.897919 255 0 0 255
-0.073532 0.558212 2.064 -0.330375 0.415434 0.847507 255 0 0 255
-0.067937 0.558489 2.065 -0.445041 0.315661 0.838031 255 0 0 255
-0.062427 0.559576 2.069 -0.585988 0.147798 0.796727 255 0 0 255
-0.056867 0.560392 2.072 -0.597495 0.139623 0.789624 255 0 0 255
-0.051316 0.561479 2.076 -0.60631 0.186182 0.773126 255 0 0 255
-0.045743 0.562565 2.08 -0.356469 0.12591 0.925784 255 0 0 255
-0.04007 0.562568 2.08 -0.0893558 -0.205864 0.974492 255 0 0 255
-0.034398 0.562571 2.08 0.0922451 -0.387143 0.917394 255 0 0 255
-0.028615 0.56041 2.072 0.674685 -0.493175 0.549162 255 0 0 255
-0.022831 0.557167 2.06 0.396431 -0.451593 0.799316 255 0 0 255
-0.017163 0.555546 2.054 -0.324202 -0.413117 0.851016 255 0 0 255
-0.01159 0.556899 2.059 -0.673213 -0.33024 0.661609 255 0 0 255
-0.006006 0.559875 2.07 -0.823074 -0.145823 0.548895 255 0 0 255
-0.000362 0.562039 2.078 -0.60417 -0.338865 0.721214 255 0 0 255
0.005313 0.56285 2.081 -0.177197 -0.511274 0.840952 255 0 0 255
0.010993 0.56312 2.082 -0.0908762 -0.523854 0.846947 255 0 0 255
0.016679 0.56339 2.083 -0.0999201 -0.510838 0.85385 255 0 0 255
0.022371 0.563658 2.084 -0.202405 -0.492623 0.846378 255 0 0 255
0.028081 0.564197 2.086 -0.212078 -0.483336 0.849358 255 0 0 255
0.033786 0.564465 2.087 -0.237327 -0.576518 0.781859 255 0 0 255
0.039516 0.565003 2.089 -0.173146 -0.656628 0.734071 255 0 0 255
0.045299 0.566081 2.093 -0.269709 -0.751414 0.602192 255 0 0 255
0.051201 0.568241 2.101 -0.320466 -0.803563 0.501586 255 0 0 255
0.057229 0.571211 2.112 -0.35542 -0.803253 0.477977 255 0 0 255
-0.088955 0.6562 2.03205 0.825181 -0.453804 -0.33636 0 255 0 255
-0.287148 0.563089 2.105 0.401337 -0.740766 0.538697 255 0 0 255
-0.279417 0.559097 2.09 0.366503 -0.727055 0.580575 255 0 0 255
-0.273339 0.558314 2.087 0.295973 -0.697474 0.652633 255 0 0 255
-0.266892 0.556729 2.081 0.241056 -0.657488 0.713864 255 0 0 255
-0.26123 0.556748 2.081 0.179008 -0.665938 0.724212 255 0 0 255
-0.255445 0.556499 2.08 0.166849 -0.627141 0.760826 255 0 0 255
-0.249665 0.55625 2.079 0.199594 -0.600986 0.773937 255 0 0 255
-0.243537 0.555198 2.075 0.117437 -0.536515 0.835679 255 0 0 255
-0.23789 0.555216 2.075 0.034026 -0.465496 0.884396 255 0 0 255
-0.23213 0.554967 2.074 -0.0186065 -0.367502 0.929837 255 0 0 255
-0.226593 0.555251 2.075 -0.0635014 -0.297667 0.952555 255 0 0 255
-0.220944 0.555269 2.075 -0.0535534 -0.297601 0.953187 255 0 0 255
-0.215398 0.555553 2.076 -0.0214812 -0.291354 0.956374 255 0 0 255
-0.209746 0.555569 2.076 0.212407 -0.256244 0.942986 255 0 0 255
-0.203699 0.554515 2.072 0.359611 -0.154227 0.920268 255 0 0 255
-0.197865 0.553995 2.07 0.325715 -0.0821095 0.941896 255 0 0 255
-0.191949 0.553207 2.067 0.385531 -0.105834 0.916605 255 0 0 255
-0.186229 0.552954 2.066 0.1501 -0.26106 0.953582 255 0 0 255
-0.180601 0.552969 2.066 -0.0327914 -0.418598 0.907579 255 0 0 255
-0.174973 0.552983 2.066 -0.10923 -0.5311 0.840239 255 0 0 255
-0.169509 0.553532 2.068 0.292622 -0.448354 0.844601 255 0 0 255
-0.163478 0.552207 2.063 0.511708 -0.360624 0.779811 255 0 0 255
-0.157168 0.549811 2.054 0.610271 -0.169857 0.773769 255 0 0 255
-0.151055 0.547949 2.047 0.274426 -0.481275 0.832505 255 0 0 255
-0.145761 0.549032 2.051 -0.524977 -0.487906 0.697385 255 0 0 255
-0.140786 0.551453 2.06 -0.757862 -0.280531 0.589023 255 0 0 255
-0.135697 0.553606 2.068 -0.509355 -0.0354891 0.859824 255 0 0 255
-0.130249 0.55442 2.071 -0.0252267 0.224051 0.974251 255 0 0 255
-0.124484 0.553895 2.069 0.305819 0.266595 0.914003 255 0 0 255
-0.118787 0.553637 2.068 0.380143 0.225532 0.89701 255 0 0 255
-0.11293 0.552576 2.064 0.279394 0.140073 0.949905 255 0 0 255
-0.107304 0.552585 2.064 0.0324491 0.187165 0.981792 255 0 0 255
-0.101627 0.552326 2.063 0.032612 0.21478 0.976118 255 0 0 255
-0.096003 0.552334 2.063 0.0936569 0.356245 0.929687 255 0 0 255
-0.090334 0.552074 2.062 0.0615687 0.408045 0.910883 255 0 0 255
-0.084712 0.552081 2.062 -0.0306448 0.417949 0.907954 255 0 0 255
-0.079089 0.552088 2.062 -0.272816 0.439568 0.855775 255 0 0 255
-0.073538 0.55263 2.064 -0.356387 0.390314 0.848907 255 0 0 255
-0.067942 0.552904 2.065 -0.34275 0.363234 0.866362 255 0 0 255
-0.062402 0.553712 2.068 -0.417816 0.15605 0.89503 255 0 0 255
-0.056817 0.554253 2.07 -0.492605 -0.118626 0.86213 255 0 0 255
-0.05132 0.555864 2.076 -0.58629 -0.0489396 0.808622 255 0 0 255
-0.045724 0.556671 2.079 -0.263704 -0.139743 0.954428 255 0 0 255
-0.040054 0.556675 2.079 0.0131814 -0.212165 0.977145 255 0 0 255
-0.034335 0.555875 2.076 0.506562 -0.476795 0.718374 255 0 0 255
-0.028521 0.552932 2.065 0.715079 -0.486619 0.501861 255 0 0 255
-0.022767 0.549989 2.054 0.134014 -0.722905 0.677827 255 0 0 255
-0.01714 0.549187 2.051 -0.656598 -0.236964 0.71605 255 0 0 255
-0.011585 0.551063 2.058 -0.722355 -0.108726 0.682922 255 0 0 255
-0.006004 0.554009 2.069 -0.799469 -0.204201 0.564935 255 0 0 255
-0.000362 0.555884 2.076 -0.466304 -0.328988 0.821175 255 0 0 255
0.005305 0.556419 2.078 -0.159339 -0.458135 0.874485 255 0 0 255
0.010973 0.556418 2.078 -0.11598 -0.471191 0.874373 255 0 0 255
0.016649 0.556685 2.079 -0.161839 -0.456522 0.874869 255 0 0 255
0.02233 0.556951 2.08 -0.274832 -0.380159 0.883146 255 0 0 255
0.028043 0.557752 2.083 -0.195555 -0.337368 0.920837 255 0 0 255
0.033741 0.558017 2.084 0.00225331 -0.425866 0.904783 255 0 0 255
0.039424 0.558014 2.084 -0.0144302 -0.531892 0.846689 255 0 0 255
0.045086 0.557743 2.083 -0.00568956 -0.560673 0.828017 255 0 0 255
0.05084 0.558542 2.086 -0.216361 -0.689688 0.691027 255 0 0 255
0.056665 0.559876 2.091 -0.274738 -0.753508 0.597281 255 0 0 255
0.062516 0.56121 2.096 -0.326352 -0.766021 0.55381 255 0 0 255
0.068427 0.562811 2.102 -0.354868 -0.798291 0.486621 255 0 0 255
-0.09463 0.646193 2.03756 0.949054 -0.183855 -0.255919 0 255 0 255
-0.096914 0.648829 2.05187 0.800196 -0.529071 -0.282436 0 255 0 255
-0.087722 0.650365 2.05753 -0.842392 0.536149 -0.0540361 0 255 0 255
-0.084709 0.652495 2.06785 0.409492 -0.906278 -0.10477 0 255 0 255
-0.066285 0.655603 2.07929 0.471006 -0.881735 -0.0263905 0 255 0 255
-0.055983 0.664341 2.12191 0.635707 -0.7453 -0.201008 0 255 0 255
-0.290806 0.553401 2.09 0.457967 -0.716765 0.525847 255 0 0 255
-0.284576 0.552362 2.086 0.298889 -0.679284 0.670253 255 0 0 255
-0.278501 0.551588 2.083 0.271687 -0.66948 0.691363 255 0 0 255
-0.272573 0.551078 2.081 0.284128 -0.657374 0.697947 255 0 0 255
-0.26627 0.549774 2.076 0.221989 -0.633188 0.741481 255 0 0 255
-0.260496 0.549528 2.075 0.105005 -0.639703 0.761416 255 0 0 255
-0.254604 0.549018 2.073 0.1128 -0.630767 0.76773 255 0 0 255
-0.248842 0.548771 2.072 0.0979134 -0.568802 0.816626 255 0 0 255
-0.243086 0.548525 2.071 -0.0272303 -0.439062 0.898044 255 0 0 255
-0.237563 0.548808 2.072 -0.086364 -0.348556 0.933301 255 0 0 255
-0.232035 0.54909 2.073 -0.104523 -0.226486 0.96839 255 0 0 255
-0.22661 0.549637 2.075 -0.085104 -0.201386 0.975808 255 0 0 255
-0.220854 0.54939 2.074 -0.0325663 -0.224311 0.973973 255 0 0 255
-0.215207 0.549406 2.074 -0.00536103 -0.246282 0.969183 255 0 0 255
-0.20956 0.549423 2.074 0.175049 -0.204304 0.963129 255 0 0 255
-0.203617 0.548644 2.071 0.322321 -0.100944 0.941233 255 0 0 255
-0.197976 0.54866 2.071 0.324982 -0.0921014 0.941225 255 0 0 255
-0.192057 0.54788 2.068 0.390507 -0.0582041 0.918758 255 0 0 255
-0.186153 0.5471 2.065 0.32041 -0.157245 0.934137 255 0 0 255
-0.180266 0.54632 2.062 0.158153 -0.286166 0.945038 255 0 0 255
-0.174564 0.546069 2.061 -0.0468743 -0.365251 0.929728 255 0 0 255
-0.169112 0.546613 2.063 0.118639 -0.446044 0.887113 255 0 0 255
-0.163174 0.545566 2.059 0.536844 -0.169542 0.826471 255 0 0 255
-0.156951 0.543459 2.051 0.626041 -0.246032 0.73996 255 0 0 255
-0.150919 0.541882 2.045 0.364787 -0.34453 0.865003 255 0 0 255
-0.145488 0.542424 2.047 -0.463553 -0.51184 0.723283 255 0 0 255
-0.140593 0.545085 2.057 -0.7804 -0.345701 0.521024 255 0 0 255
-0.135577 0.547481 2.066 -0.641885 -0.263534 0.720093 255 0 0 255
-0.13026 0.548817 2.071 -0.161845 0.0540504 0.985335 255 0 0 255
-0.124494 0.548298 2.069 0.277828 0.131921 0.95153 255 0 0 255
-0.118739 0.547778 2.067 0.394569 0.149005 0.906705 255 0 0 255
-0.11294 0.546992 2.064 0.328943 0.160598 0.930594 255 0 0 255
-0.107261 0.546737 2.063 0.0320886 0.206805 0.977856 255 0 0 255
-0.101685 0.54701 2.064 -0.0932663 0.239231 0.966473 255 0 0 255
-0.096104 0.547283 2.065 0.000289901 0.297169 0.954825 255 0 0 255
-0.090473 0.547291 2.065 0.062108 0.314801 0.947124 255 0 0 255
-0.084842 0.547298 2.065 0.000253125 0.323972 0.946067 255 0 0 255
-0.079211 0.547305 2.065 -0.247977 0.340735 0.906866 255 0 0 255
-0.073687 0.548107 2.068 -0.307184 0.32096 0.895892 255 0 0 255
-0.06808 0.548378 2.069 -0.190234 0.298322 0.935315 255 0 0 255
-0.062467 0.548648 2.07 -0.219174 0.0620501 0.973711 255 0 0 255
-0.056849 0.548918 2.071 -0.304054 -0.171225 0.937141 255 0 0 255
-0.051275 0.549718 2.074 -0.390396 -0.299009 0.870738 255 0 0 255
-0.045706 0.550783 2.078 -0.295025 -0.292943 0.909475 255 0 0 255
-0.04 0.550256 2.076 0.143369 -0.488836 0.860515 255 0 0 255
-0.034222 0.548404 2.069 0.596775 -0.472513 0.64853 255 0 0 255
-0.028399 0.544961 2.056 0.6694 -0.445022 0.594861 255 0 0 255
-0.022691 0.542577 2.047 0.310726 -0.450464 0.836977 255 0 0 255
-0.017116 0.542844 2.048 -0.445482 -0.456181 0.770354 255 0 0 255
-0.011586 0.545496 2.058 -0.809994 -0.124708 0.573025 255 0 0 255
-0.006004 0.548412 2.069 -0.685342 -0.323364 0.652489 255 0 0 255
-0.000361 0.549208 2.072 -0.33838 -0.425588 0.83927 255 0 0 255
0.005298 0.550003 2.075 -0.152077 -0.487708 0.859659 255 0 0 255
0.010953 0.549737 2.074 -0.1705 -0.430181 0.886496 255 0 0 255
0.016626 0.550266 2.076 -0.261211 -0.338374 0.904031 255 0 0 255
0.022321 0.551059 2.079 -0.359275 -0.207992 0.909759 255 0 0 255
0.028032 0.551853 2.082 -0.169603 -0.198095 0.965398 255 0 0 255
0.033727 0.552115 2.083 -0.0627998 -0.247167 0.966936 255 0 0 255
0.039352 0.551317 2.08 0.235693 -0.319611 0.917768 255 0 0 255
0.044982 0.550783 2.078 0.0472385 -0.374355 0.926082 255 0 0 255
0.050674 0.551044 2.079 -0.108381 -0.441249 0.890816 255 0 0 255
0.056425 0.551835 2.082 -0.25138 -0.619359 0.743776 255 0 0 255
0.062163 0.55236 2.084 -0.239738 -0.664981 0.707337 255 0 0 255
0.067977 0.553414 2.088 -0.321019 -0.734315 0.598104 255 0 0 255
0.074024 0.556059 2.098 -0.375092 -0.759687 0.531207 255 0 0 255
-0.089724 0.635152 2.03505 0.949054 -0.183855 -0.255919 0 255 0 255
-0.089352 0.637547 2.04738 0.80554 -0.562779 -0.185432 0 255 0 255
-0.094283 0.640462 2.06367 -0.933718 0.345531 -0.0937006 0 255 0 255
-0.097461 0.643195 2.07859 -0.786567 0.612989 -0.0745394 0 255 0 255
-0.092689 0.64515 2.08755 0.676399 -0.727947 -0.112145 0 255 0 255
-0.082604 0.646597 2.0926 0.678055 -0.638157 -0.364688 0 255 0 255
-0.070917 0.652755 2.12153 0.605468 -0.738468 -0.296773 0 255 0 255
-0.296227 0.5472 2.088 0.535751 -0.628912 0.56342 255 0 0 255
-0.289296 0.544862 2.079 0.35424 -0.645113 0.67701 255 0 0 255
-0.283369 0.544358 2.077 0.271479 -0.669136 0.691778 255 0 0 255
-0.277451 0.543854 2.075 0.193219 -0.662092 0.724086 255 0 0 255
-0.271414 0.543088 2.072 0.232379 -0.604281 0.762131 255 0 0 255
-0.265391 0.542321 2.069 0.154374 -0.533863 0.83136 255 0 0 255
-0.259636 0.542078 2.068 0.0915746 -0.444437 0.891117 255 0 0 255
-0.254009 0.542097 2.068 0.0340256 -0.434308 0.900122 255 0 0 255
-0.24838 0.542116 2.068 -0.00310688 -0.417813 0.908528 255 0 0 255
-0.242752 0.542134 2.068 -0.153275 -0.327709 0.932263 255 0 0 255
-0.237467 0.542939 2.071 -0.22708 -0.248132 0.941735 255 0 0 255
-0.231941 0.543219 2.072 -0.118375 -0.227616 0.966529 255 0 0 255
-0.226409 0.543498 2.073 -0.0976836 -0.227564 0.968851 255 0 0 255
-0.220658 0.543253 2.072 0.00490636 -0.173224 0.98487 255 0 0 255
-0.21512 0.543532 2.073 -0.0166923 -0.144876 0.989309 255 0 0 255
-0.209475 0.543549 2.073 0.113631 -0.0971077 0.988766 255 0 0 255
-0.203633 0.54304 2.071 0.244979 -0.110777 0.963179 255 0 0 255
-0.197896 0.542794 2.07 0.344841 -0.10976 0.932222 255 0 0 255
-0.191979 0.542022 2.067 0.425947 -0.113048 0.897658 255 0 0 255
-0.186168 0.541513 2.065 0.377992 -0.147282 0.914019 255 0 0 255
-0.18028 0.540741 2.062 0.229419 -0.120069 0.965894 255 0 0 255
-0.174577 0.540493 2.061 0.0301582 -0.162571 0.986236 255 0 0 255
-0.168962 0.540506 2.061 0.201219 -0.180067 0.962853 255 0 0 255
-0.163108 0.539733 2.058 0.616216 -0.0973851 0.781533 255 0 0 255
-0.156734 0.537123 2.048 0.731045 -0.145553 0.666624 255 0 0 255
-0.150784 0.535824 2.043 0.12992 -0.304687 0.94355 255 0 0 255
-0.145216 0.535836 2.043 -0.302875 -0.457764 0.835894 255 0 0 255
-0.140331 0.538471 2.053 -0.72394 -0.415251 0.550887 255 0 0 255
-0.135325 0.540843 2.062 -0.708601 -0.394633 0.584936 255 0 0 255
-0.130208 0.542952 2.07 -0.300758 -0.330471 0.894613 255 0 0 255
-0.124565 0.542962 2.07 0.125945 -0.164613 0.978284 255 0 0 255
-0.118806 0.542448 2.068 0.270384 0.027771 0.962352 255 0 0 255
-0.113058 0.541933 2.066 0.214934 0.218374 0.951901 255 0 0 255
-0.107373 0.54168 2.065 -0.0306293 0.361742 0.931775 255 0 0 255
-0.101792 0.541951 2.066 -0.124261 0.312296 0.941823 255 0 0 255
-0.096205 0.542221 2.067 0.031793 0.284965 0.958011 255 0 0 255
-0.090524 0.541967 2.066 0.0315256 0.257767 0.965693 255 0 0 255
-0.08489 0.541974 2.066 -0.030838 0.277909 0.960112 255 0 0 255
-0.079256 0.541981 2.066 -0.24892 0.283733 0.926032 255 0 0 255
-0.073728 0.542774 2.069 -0.302613 0.252783 0.918981 255 0 0 255
-0.068085 0.54278 2.069 -0.0948151 0.205653 0.974021 255 0 0 255
-0.062442 0.542786 2.069 -0.0301213 0.075401 0.996698 255 0 0 255
-0.056799 0.542791 2.069 -0.107415 -0.217755 0.970074 255 0 0 255
-0.051205 0.54332 2.071 -0.107714 -0.316876 0.942331 255 0 0 255
-0.045622 0.544111 2.074 -0.0544735 -0.552738 0.831573 255 0 0 255
-0.039888 0.543065 2.07 0.338614 -0.582641 0.73883 255 0 0 255
-0.034125 0.541232 2.063 0.699651 -0.445779 0.558363 255 0 0 255
-0.028318 0.537824 2.05 0.638446 -0.403939 0.655149 255 0 0 255
-0.02266 0.536252 2.044 0.116316 -0.381203 0.917145 255 0 0 255
-0.017109 0.537041 2.047 -0.62997 -0.308898 0.712544 255 0 0 255
-0.011587 0.539928 2.058 -0.820324 -0.128635 0.557244 255 0 0 255
-0.005996 0.542028 2.066 -0.57689 -0.365114 0.730678 255 0 0 255
-0.000361 0.542553 2.068 -0.273605 -0.488177 0.828749 255 0 0 255
0.005289 0.54334 2.071 -0.254398 -0.467649 0.846514 255 0 0 255
0.010938 0.543339 2.071 -0.274722 -0.391289 0.878305 255 0 0 255
0.01662 0.544387 2.075 -0.382749 -0.274607 0.882097 255 0 0 255
0.022312 0.545173 2.078 -0.435265 -0.201446 0.877476 255 0 0 255
0.028021 0.545957 2.081 -0.183688 -0.280248 0.942189 255 0 0 255
0.033714 0.546217 2.082 0.106977 -0.262433 0.959002 255 0 0 255
0.039355 0.545689 2.08 0.251835 -0.199616 0.94696 255 0 0 255
0.044964 0.544899 2.077 0.125002 -0.12819 0.98384 255 0 0 255
0.050605 0.544632 2.076 -0.117243 -0.195311 0.973708 255 0 0 255
0.056295 0.54489 2.077 -0.1008 -0.258346 0.960779 255 0 0 255
0.062019 0.54541 2.079 -0.178984 -0.442606 0.878672 255 0 0 255
0.06769 0.545404 2.079 -0.173723 -0.574253 0.800034 255 0 0 255
0.073501 0.546448 2.083 -0.28062 -0.641815 0.713671 255 0 0 255
0.07941 0.548015 2.089 -0.36065 -0.730891 0.579423 255 0 0 255
0.085392 0.549845 2.096 -0.398634 -0.732983 0.551204 255 0 0 255
0.091456 0.551936 2.104 -0.486579 -0.73167 0.47739 255 0 0 255
-0.095027 0.627559 2.05287 0.979197 -0.200365 -0.0320601 0 255 0 255
-0.098192 0.630317 2.06782 -0.920212 0.255078 -0.296893 0 255 0 255
-0.108434 0.633781 2.088 -0.644849 0.74973 -0.148578 0 255 0 255
-0.100135 0.635373 2.09431 0.608377 -0.789826 -0.0777979 0 255 0 255
-0.095367 0.637324 2.10326 0.3815 -0.879595 -0.284202 0 255 0 255
-0.095024 0.639716 2.11548 0.464289 0.884972 -0.0355043 0 255 0 255
-0.092028 0.641845 2.12573 0.262808 -0.90404 -0.337111 0 255 0 255
-0.08371 0.643458 2.1321 0.603377 -0.704919 -0.372861 0 255 0 255
-0.302794 0.543084 2.094 0.654493 -0.58961 0.473285 255 0 0 255
-0.294971 0.539214 2.079 0.514337 -0.543239 0.663588 255 0 0 255
-0.288482 0.537679 2.073 0.348076 -0.564544 0.748421 255 0 0 255
-0.282161 0.536402 2.068 0.213681 -0.660966 0.71935 255 0 0 255
-0.276669 0.536682 2.069 0.112028 -0.668454 0.735268 255 0 0 255
-0.270909 0.536442 2.068 0.0400548 -0.558819 0.828322 255 0 0 255
-0.265154 0.536203 2.067 0.0578464 -0.444854 0.893733 255 0 0 255
-0.25953 0.536222 2.067 0.058643 -0.333986 0.940752 255 0 0 255
-0.253782 0.535981 2.066 -0.00440414 -0.296776 0.954937 255 0 0 255
-0.248159 0.536 2.066 -0.0444123 -0.277101 0.959814 255 0 0 255
-0.242653 0.536278 2.067 -0.220939 -0.22642 0.948641 255 0 0 255
-0.23737 0.537075 2.07 -0.243735 -0.248815 0.937382 255 0 0 255
-0.231735 0.537093 2.07 -0.130125 -0.293115 0.947181 255 0 0 255
-0.226317 0.537629 2.072 -0.113321 -0.298996 0.947502 255 0 0 255
-0.220675 0.537646 2.072 -0.0535084 -0.3016 0.951932 255 0 0 255
-0.215137 0.537922 2.073 -0.0142606 -0.277388 0.960652 255 0 0 255
-0.20939 0.537679 2.072 0.0735732 -0.227699 0.970948 255 0 0 255
-0.203648 0.537436 2.071 0.196108 -0.103518 0.975103 255 0 0 255
-0.197816 0.536933 2.069 0.405371 -0.123732 0.90574 255 0 0 255
-0.191809 0.53591 2.065 0.435196 -0.162982 0.885461 255 0 0 255
-0.186003 0.535406 2.063 0.347862 -0.200882 0.915772 255 0 0 255
-0.180207 0.534901 2.061 0.206244 -0.219995 0.953449 255 0 0 255
-0.174507 0.534656 2.06 0.112851 -0.190309 0.975216 255 0 0 255
-0.168893 0.53467 2.06 0.215163 -0.217849 0.95197 255 0 0 255
-0.163042 0.533904 2.057 0.691461 -0.125151 0.711491 255 0 0 255
-0.156747 0.531581 2.048 0.739981 -0.0709933 0.66887 255 0 0 255
-0.150796 0.530296 2.043 0.529195 -0.168256 0.831651 255 0 0 255
-0.145085 0.529789 2.041 -0.173381 -0.294876 0.939674 255 0 0 255
-0.139932 0.531358 2.047 -0.614656 -0.390734 0.685219 255 0 0 255
-0.134943 0.533705 2.056 -0.713013 -0.432619 0.551772 255 0 0 255
-0.129904 0.536053 2.065 -0.44836 -0.495573 0.743895 255 0 0 255
-0.124454 0.536842 2.068 -0.11058 -0.41985 0.900832 255 0 0 255
-0.118759 0.536592 2.067 0.036186 -0.097083 0.994618 255 0 0 255
-0.113177 0.536862 2.068 0.00360927 0.18106 0.983465 255 0 0 255
-0.107486 0.536611 2.067 -0.0618651 0.32816 0.942594 255 0 0 255
-0.101948 0.537139 2.069 0.0357954 0.225255 0.973642 255 0 0 255
-0.096213 0.536628 2.067 0.219743 0.049278 0.974312 255 0 0 255
-0.090576 0.536636 2.067 0.0933177 -0.0687466 0.99326 255 0 0 255
-0.084939 0.536643 2.067 -0.0590039 -0.0766478 0.995311 255 0 0 255
-0.079339 0.53691 2.068 -0.214548 -0.0712925 0.974108 255 0 0 255
-0.073735 0.537176 2.069 -0.263744 -0.104057 0.958964 255 0 0 255
-0.068157 0.537701 2.071 -0.0579512 -0.13284 0.989442 255 0 0 255
-0.062478 0.537447 2.07 0.0313335 -0.114469 0.992933 255 0 0 255
-0.056831 0.537452 2.07 -0.0375798 -0.209891 0.977002 255 0 0 255
-0.051135 0.536937 2.068 0.0469902 -0.379431 0.924026 255 0 0 255
-0.045538 0.537461 2.07 0.0376944 -0.395079 0.917874 255 0 0 255
-0.039814 0.536426 2.066 0.430035 -0.506626 0.747262 255 0 0 255
-0.034062 0.534611 2.059 0.714199 -0.404985 0.570884 255 0 0 255
-0.028252 0.530979 2.045 0.564183 -0.494947 0.660852 255 0 0 255
-0.022617 0.529683 2.04 -0.0942754 -0.324856 0.941053 255 0 0 255
-0.017085 0.530723 2.044 -0.650367 -0.262997 0.71264 255 0 0 255
-0.011577 0.53384 2.056 -0.804878 -0.126272 0.579851 255 0 0 255
-0.005985 0.535399 2.062 -0.583946 -0.234404 0.777215 255 0 0 255
-0.00036 0.535918 2.064 -0.378344 -0.325494 0.86655 255 0 0 255
0.005279 0.536697 2.067 -0.360746 -0.242834 0.900496 255 0 0 255
0.010928 0.537216 2.069 -0.347986 -0.276821 0.895698 255 0 0 255
0.016605 0.538253 2.073 -0.404326 -0.2884 0.867955 255 0 0 255
0.022293 0.539031 2.076 -0.313759 -0.408672 0.857054 255 0 0 255
0.027997 0.539807 2.079 -0.157406 -0.462866 0.872341 255 0 0 255
0.033668 0.539805 2.079 0.0317653 -0.434419 0.90015 255 0 0 255
0.039321 0.539542 2.078 0.0897911 -0.331739 0.939088 255 0 0 255
0.044968 0.539279 2.077 0.0742278 -0.157626 0.984705 255 0 0 255
0.050658 0.539534 2.078 0.0857316 -0.127203 0.988165 255 0 0 255
0.056299 0.53927 2.077 -0.00463905 -0.244965 0.969521 255 0 0 255
0.061995 0.539525 2.078 0.0087986 -0.345302 0.93845 255 0 0 255
0.06763 0.53926 2.077 -0.0871837 -0.421847 0.902466 255 0 0 255
0.073296 0.539254 2.077 -0.15924 -0.361963 0.918491 255 0 0 255
0.079037 0.539767 2.079 -0.284875 -0.359835 0.888462 255 0 0 255
0.08487 0.540798 2.083 -0.373727 -0.590591 0.715213 255 0 0 255
0.090855 0.542608 2.09 -0.437901 -0.66525 0.604718 255 0 0 255
0.096832 0.544158 2.096 -0.535055 -0.670078 0.514502 255 0 0 255
-0.108272 0.620828 2.07659 -0.809211 -0.398903 -0.431339 0 255 0 255
-0.118513 0.624327 2.09673 -0.758993 0.619371 -0.20077 0 255 0 255
-0.116408 0.626536 2.10761 0.662712 -0.748487 -0.024078 0 255 0 255
-0.112538 0.628565 2.11717 0.54085 -0.821124 -0.182309 0 255 0 255
-0.102138 0.632363 2.13436 -0.423816 -0.333765 -0.84201 0 255 0 255
-0.086738 0.633245 2.13554 0.569184 -0.320945 -0.756984 0 255 0 255
-0.079304 0.634939 2.14258 0.544932 -0.333201 -0.769432 0 255 0 255
-0.30851 0.537394 2.094 0.724875 -0.477525 0.496514 255 0 0 255
-0.30108 0.534335 2.082 0.624195 -0.534471 0.569844 255 0 0 255
-0.294141 0.532047 2.073 0.570145 -0.408981 0.712509 255 0 0 255
-0.287807 0.530784 2.068 0.455331 -0.413081 0.788694 255 0 0 255
-0.281226 0.529008 2.061 0.275409 -0.497767 0.822422 255 0 0 255
-0.275619 0.529028 2.061 -0.0713336 -0.586218 0.807007 255 0 0 255
-0.270143 0.529305 2.062 -0.192697 -0.433227 0.880444 255 0 0 255
-0.264789 0.529838 2.064 -0.228205 -0.323689 0.918231 255 0 0 255
-0.259298 0.530114 2.065 0.043454 -0.187273 0.981346 255 0 0 255
-0.253432 0.529619 2.063 0.0904544 -0.161661 0.982692 255 0 0 255
-0.248057 0.530151 2.065 -0.0678125 -0.203273 0.976771 255 0 0 255
-0.242554 0.530427 2.066 -0.204764 -0.249751 0.946412 255 0 0 255
-0.237159 0.530958 2.068 -0.181985 -0.273226 0.944579 255 0 0 255
-0.231528 0.530976 2.068 -0.0906767 -0.29557 0.951008 255 0 0 255
-0.226007 0.53125 2.069 -0.0584499 -0.342883 0.937558 255 0 0 255
-0.220373 0.531268 2.069 0.0355817 -0.477186 0.878082 255 0 0 255
-0.214738 0.531284 2.069 -0.00465649 -0.544505 0.838745 255 0 0 255
-0.209204 0.531558 2.07 -0.0122478 -0.535356 0.844538 255 0 0 255
-0.203566 0.531574 2.07 0.0176165 -0.423559 0.905697 255 0 0 255
-0.197832 0.531333 2.069 0.307924 -0.22536 0.924335 255 0 0 255
-0.191731 0.530064 2.064 0.468395 -0.0771814 0.880141 255 0 0 255
-0.185927 0.529565 2.062 0.339097 -0.129456 0.931802 255 0 0 255
-0.180047 0.52881 2.059 0.220616 -0.146827 0.964246 255 0 0 255
-0.174436 0.528824 2.059 0.143778 -0.145304 0.978885 255 0 0 255
-0.168661 0.528324 2.057 0.275062 -0.116356 0.95436 255 0 0 255
-0.162976 0.52808 2.056 0.65862 -0.112514 0.744016 255 0 0 255
-0.15676 0.526038 2.048 0.752134 -0.00623071 0.65898 255 0 0 255
-0.150587 0.523996 2.04 0.507974 -0.208437 0.835773 255 0 0 255
-0.144884 0.523494 2.038 0.200623 -0.259753 0.944605 255 0 0 255
-0.13967 0.52479 2.043 -0.514314 -0.402393 0.757338 255 0 0 255
-0.134626 0.526857 2.051 -0.709917 -0.473905 0.520992 255 0 0 255
-0.129663 0.529436 2.061 -0.593396 -0.446262 0.669874 255 0 0 255
-0.124284 0.530474 2.065 -0.311813 -0.303412 0.900397 255 0 0 255
-0.118711 0.530741 2.066 -0.216458 -0.232453 0.948215 255 0 0 255
-0.113187 0.531265 2.068 -0.150871 0.0222805 0.988302 255 0 0 255
-0.107599 0.531531 2.069 -0.0925848 0.0812944 0.992381 255 0 0 255
-0.101957 0.53154 2.069 0.219303 -0.0209296 0.975432 255 0 0 255
-0.096174 0.530777 2.066 0.301719 -0.141315 0.942866 255 0 0 255
-0.090452 0.530271 2.064 0.053708 -0.271979 0.960803 255 0 0 255
-0.084822 0.530279 2.064 -0.0583573 -0.297387 0.952972 255 0 0 255
-0.079231 0.530542 2.065 -0.143876 -0.313352 0.938675 255 0 0 255
-0.073634 0.530806 2.066 -0.144309 -0.3232 0.935263 255 0 0 255
-0.068064 0.531326 2.068 -0.0715593 -0.303151 0.950252 255 0 0 255
-0.062393 0.531074 2.067 0.0568407 -0.272784 0.960395 255 0 0 255
-0.056781 0.531336 2.068 0.0967658 -0.2765 0.95613 255 0 0 255
-0.051115 0.531084 2.067 0.159649 -0.459721 0.873595 255 0 0 255
-0.045454 0.530831 2.066 0.310007 -0.481842 0.819588 255 0 0 255
-0.039721 0.52955 2.061 0.494362 -0.509889 0.704002 255 0 0 255
-0.033982 0.527754 2.054 0.700133 -0.453819 0.551237 255 0 0 255
-0.028213 0.524674 2.042 0.266675 -0.3895 0.881575 255 0 0 255
-0.022586 0.523391 2.037 -0.15865 -0.302381 0.939892 255 0 0 255
-0.01707 0.524678 2.042 -0.687587 -0.250941 0.681361 255 0 0 255
-0.011572 0.528019 2.055 -0.811622 -0.127313 0.570141 255 0 0 255
-0.00598 0.529305 2.06 -0.589652 -0.118561 0.798908 255 0 0 255
-0.00036 0.530076 2.063 -0.431872 -0.147881 0.889729 255 0 0 255
0.005277 0.530846 2.066 -0.382407 -0.135369 0.914024 255 0 0 255
0.010929 0.531617 2.069 -0.317769 -0.190548 0.928824 255 0 0 255
0.016582 0.531872 2.07 -0.329158 -0.266156 0.905989 255 0 0 255
0.022252 0.532385 2.072 -0.283074 -0.398041 0.872601 255 0 0 255
0.027932 0.532896 2.074 -0.154697 -0.459041 0.874843 255 0 0 255
0.033606 0.533151 2.075 -0.0590302 -0.431618 0.900123 255 0 0 255
0.039286 0.533404 2.076 -0.0254905 -0.3603 0.932488 255 0 0 255
0.04495 0.533401 2.076 -0.0463606 -0.267873 0.962338 255 0 0 255
0.050614 0.533397 2.076 0.111881 -0.217959 0.969524 255 0 0 255
0.056223 0.532878 2.074 0.108575 -0.361241 0.92613 255 0 0 255
0.061881 0.532873 2.074 0.024089 -0.378644 0.925229 255 0 0 255
0.067538 0.532868 2.074 -0.0969021 -0.319224 0.942712 255 0 0 255
0.073267 0.533376 2.076 -0.230226 -0.21588 0.94889 255 0 0 255
0.079005 0.533883 2.078 -0.281476 -0.287603 0.915454 255 0 0 255
0.084755 0.53439 2.08 -0.299 -0.357719 0.884667 255 0 0 255
0.090559 0.535154 2.083 -0.332197 -0.573001 0.74921 255 0 0 255
0.096378 0.535917 2.086 -0.452671 -0.626014 0.634977 255 0 0 255
0.102606 0.538734 2.097 -0.646381 -0.595091 0.477554 255 0 0 255
-0.1277 0.614826 2.10479 -0.827885 0.560829 -0.00879829 0 255 0 255
-0.124719 0.616941 2.11499 0.781986 -0.617925 -0.081648 0 255 0 255
-0.120855 0.618966 2.12453 0.600401 -0.729873 -0.326809 0 255 0 255
-0.116105 0.620899 2.13343 0.654078 -0.678576 -0.334241 0 255 0 255
-0.100731 0.621733 2.13456 0.00160696 -0.110216 -0.993906 0 255 0 255
-0.087109 0.622766 2.13705 0.172311 -0.540307 -0.823637 0 255 0 255
-0.080562 0.624539 2.14474 0.85588 -0.251571 -0.451864 0 255 0 255
-0.306321 0.527916 2.079 0.651228 -0.320733 0.687773 255 0 0 255
-0.300089 0.526921 2.075 0.610596 -0.281628 0.740175 255 0 0 255
-0.293452 0.525165 2.068 0.556127 -0.0624522 0.828748 255 0 0 255
-0.287271 0.52417 2.064 0.609389 0.0625415 0.790401 255 0 0 255
-0.280837 0.522666 2.058 0.333757 -0.0483494 0.941418 255 0 0 255
-0.275238 0.522687 2.058 -0.048076 -0.168845 0.984469 255 0 0 255
-0.270032 0.523468 2.061 -0.312961 -0.274953 0.909097 255 0 0 255
-0.264808 0.52425 2.064 -0.27697 -0.21766 0.935902 255 0 0 255
-0.259443 0.524777 2.066 0.00805866 -0.165995 0.986094 255 0 0 255
-0.253574 0.524289 2.064 0.0538974 -0.0977987 0.993746 255 0 0 255
-0.247956 0.524307 2.064 -0.104173 -0.181499 0.977858 255 0 0 255
-0.242337 0.524326 2.064 -0.118867 -0.276819 0.953542 255 0 0 255
-0.236947 0.524852 2.066 -0.238214 -0.224039 0.945019 255 0 0 255
-0.231434 0.525124 2.067 -0.165684 -0.270228 0.948433 255 0 0 255
-0.225915 0.525396 2.068 0.0129716 -0.326034 0.945269 255 0 0 255
-0.22007 0.524905 2.066 0.189998 -0.432681 0.881299 255 0 0 255
-0.214132 0.524159 2.063 0.0406962 -0.547762 0.835644 255 0 0 255
-0.208513 0.524176 2.063 -0.162962 -0.538015 0.827033 255 0 0 255
-0.203189 0.524954 2.066 -0.235501 -0.443172 0.86495 255 0 0 255
-0.197656 0.525224 2.067 0.0499709 -0.249487 0.967088 255 0 0 255
-0.191746 0.524477 2.064 0.484383 -0.0847811 0.870738 255 0 0 255
-0.185852 0.52373 2.061 0.346891 -0.0662578 0.935562 255 0 0 255
-0.180148 0.52349 2.06 0.221454 -0.137021 0.965496 255 0 0 255
-0.17445 0.52325 2.059 0.144732 -0.114098 0.982871 255 0 0 255
-0.168757 0.52301 2.058 0.286155 -0.0408447 0.957312 255 0 0 255
