ply
format ascii 1.0
comment VCGLIB generated
element vertex 723
property float x
property float y
property float z
property float nx
property float ny
property float nz
property uchar red
property uchar green
property uchar blue
property uchar alpha
element face 0
property list uchar int vertex_indices
end_header
-0.228655 0.10595 2.252 0.360837 -0.0845512 0.928788 255 0 0 255
-0.222496 0.105955 2.252 0.203787 -0.107246 0.973123 255 0 0 255
-0.216337 0.10596 2.252 0.328932 -0.255301 0.909189 255 0 0 255
-0.209804 0.105777 2.248 0.581518 -0.0155274 0.813385 255 0 0 255
-0.203382 0.105641 2.245 0.512612 0.0816918 0.854725 255 0 0 255
-0.196976 0.105504 2.242 0.332533 0.121284 0.93526 255 0 0 255
-0.190756 0.105462 2.241 0.479365 0.135128 0.86715 255 0 0 255
-0.183964 0.105089 2.233 0.585917 0.22008 0.779914 255 0 0 255
-0.177534 0.104906 2.229 0.495634 0.424502 0.757723 255 0 0 255
-0.171048 0.104674 2.224 0.433911 0.517157 0.737746 255 0 0 255
-0.164885 0.104631 2.223 0.37266 0.579112 0.725089 255 0 0 255
-0.158512 0.104447 2.219 0.316337 0.622657 0.715702 255 0 0 255
-0.152299 0.104356 2.217 0.209254 0.664489 0.717403 255 0 0 255
-0.146161 0.104313 2.216 0.132726 0.727522 0.673123 255 0 0 255
-0.140092 0.104316 2.216 0.131881 0.718577 0.682828 255 0 0 255
-0.134022 0.10432 2.216 0.213999 0.646867 0.731961 255 0 0 255
-0.127779 0.104182 2.213 0.241118 0.689988 0.68248 255 0 0 255
-0.121606 0.10409 2.211 0.152195 0.714161 0.683236 255 0 0 255
-0.115391 0.103952 2.208 0.041367 0.682679 0.729547 255 0 0 255
-0.109341 0.103955 2.208 0.000155995 0.604312 0.796748 255 0 0 255
-0.103244 0.10391 2.207 -0.0453247 0.538576 0.841357 255 0 0 255
-0.097196 0.103913 2.207 -0.0669898 0.440282 0.895357 255 0 0 255
-0.09123 0.104009 2.209 -0.290548 0.41044 0.864362 255 0 0 255
-0.08533 0.1042 2.213 -0.28831 0.434635 0.853212 255 0 0 255
-0.079264 0.104202 2.213 -0.161441 0.519825 0.838879 255 0 0 255
-0.073264 0.104298 2.215 -0.241517 0.517565 0.820851 255 0 0 255
-0.067283 0.104441 2.218 -0.343684 0.425115 0.837352 255 0 0 255
-0.061258 0.104536 2.22 -0.305456 0.205212 0.92983 255 0 0 255
-0.055172 0.104538 2.22 -0.146541 0.0260749 0.988861 255 0 0 255
-0.049085 0.104539 2.22 -0.109166 -0.1977 0.974165 255 0 0 255
-0.043038 0.104635 2.222 -0.0558862 -0.239436 0.969302 255 0 0 255
-0.036945 0.104636 2.222 0.0635367 -0.271916 0.960221 255 0 0 255
-0.030853 0.104636 2.222 0.0396089 -0.439863 0.897191 255 0 0 255
-0.02476 0.104637 2.222 -0.0278913 -0.291001 0.956316 255 0 0 255
-0.018668 0.104638 2.222 -0.247928 -0.239763 0.93864 255 0 0 255
-0.012581 0.104685 2.223 -0.299126 -0.272761 0.914399 255 0 0 255
-0.006488 0.104732 2.224 -0.352302 -0.0338433 0.935274 255 0 0 255
-0.00039 0.104827 2.226 -0.311974 0.168747 0.934985 255 0 0 255
0.005719 0.104921 2.228 -0.310138 0.31495 0.897007 255 0 0 255
0.011844 0.105062 2.231 -0.524666 0.219639 0.822487 255 0 0 255
0.018002 0.105297 2.236 -0.640068 0.256851 0.724113 255 0 0 255
0.024198 0.105579 2.242 -0.614972 0.350226 0.706506 255 0 0 255
0.030413 0.105814 2.247 -0.458887 0.346497 0.818146 255 0 0 255
0.036622 0.105954 2.25 -0.386403 0.341586 0.856745 255 0 0 255
0.04283 0.106047 2.252 -0.529414 0.213323 0.821105 255 0 0 255
0.049113 0.106282 2.257 -0.568745 0.021144 0.822242 255 0 0 255
0.055374 0.106422 2.26 -0.472427 -0.0532493 0.87976 255 0 0 255
0.061652 0.106562 2.263 -0.350239 -0.158471 0.923158 255 0 0 255
0.067885 0.106607 2.264 -0.310629 -0.376052 0.87298 255 0 0 255
0.074157 0.106699 2.266 -0.536774 -0.456638 0.709476 255 0 0 255
0.080759 0.107216 2.277 -0.742344 -0.386157 0.547547 255 0 0 255
0.144786 0.108412 2.303 0.958458 0.204897 0.19843 255 0 0 255
0.15011 0.107703 2.288 0.775319 0.137543 0.616411 255 0 0 255
0.155829 0.107322 2.28 0.799865 0.0535031 0.597791 255 0 0 255
0.161432 0.106895 2.271 0.710971 0.110219 0.69453 255 0 0 255
0.167429 0.10675 2.268 0.509127 0.0879162 0.856189 255 0 0 255
0.173408 0.106605 2.265 0.580717 0.130306 0.80361 255 0 0 255
0.179291 0.106412 2.261 0.602479 0.2126 0.769299 255 0 0 255
0.182855 0.104902 2.229 0.98284 0.116909 0.142679 255 0 0 255
-0.216927 -0.122266 2.45641 -0.781086 0.409786 -0.471148 255 255 0 255
-0.154394 -0.120258 2.43083 -0.549581 0.022457 -0.835139 255 255 0 255
-0.084762 -0.11595 2.41167 -0.159293 -0.223646 -0.961565 255 255 0 255
-0.057454 -0.111378 2.41715 0.25135 -0.407169 -0.878087 255 255 0 255
-0.020121 -0.104017 2.42963 0.0983179 -0.501688 -0.859443 255 255 0 255
0.002881 -0.100543 2.43254 -0.246671 -0.484572 -0.839252 255 255 0 255
-0.005158 -0.105601 2.4142 -0.835814 0.541979 -0.0876062 255 255 0 255
-0.006478 -0.108819 2.40043 -0.210491 0.569434 -0.794631 255 255 0 255
0.017294 -0.10508 2.40411 -0.0884263 -0.19915 -0.975972 255 255 0 255
0.037682 -0.102249 2.40557 -0.270301 -0.252507 -0.929074 255 255 0 255
0.061682 -0.101201 2.39699 -0.1161 -0.707966 -0.696639 255 255 0 255
0.071157 -0.101365 2.391 0.755113 -0.27468 -0.595277 255 255 0 255
0.047359 -0.110894 2.36125 0.94533 -0.100237 -0.310328 255 255 0 255
0.038571 -0.116227 2.34209 0.862922 0.0711215 -0.500307 255 255 0 255
-0.229069 -0.162298 2.39592 -0.650981 0.277975 -0.706367 0 255 0 255
-0.206552 -0.166737 2.39286 0.548934 -0.239477 -0.800826 0 255 0 255
-0.207796 -0.163151 2.40598 0.653906 -0.524417 -0.545339 0 255 0 255
-0.199693 -0.162707 2.41279 0.773991 -0.03829 -0.632038 0 255 0 255
-0.180513 -0.165957 2.41224 0.503118 0.279102 -0.817909 0 255 0 255
-0.168974 -0.16663 2.41688 0.708194 0.43195 -0.558462 0 255 0 255
-0.174475 -0.16162 2.43284 0.809016 0.365438 -0.460378 0 255 0 255
-0.173163 -0.158885 2.44426 0.97702 0.0833362 -0.19618 0 255 0 255
-0.153914 -0.162085 2.44394 0.254702 -0.00891851 -0.966978 0 255 0 255
-0.138057 -0.164137 2.44594 0.0829601 -0.0493776 -0.995329 0 255 0 255
-0.1179 -0.16758 2.44526 -0.0692457 0.032038 -0.997085 0 255 0 255
-0.03923 -0.183656 2.43234 0.138159 -0.363994 -0.921098 0 255 0 255
-0.015501 -0.188119 2.42994 -0.448534 -0.375999 -0.810828 0 255 0 255
-0.342508 0.100605 2.273 0.268224 0.0856728 0.959539 255 0 0 255
-0.336607 0.100701 2.275 -0.190125 0.166836 0.96748 255 0 0 255
-0.330403 0.100707 2.275 -0.0211214 0.217123 0.975916 255 0 0 255
-0.324055 0.10067 2.274 -0.0201076 0.00199517 0.999796 255 0 0 255
-0.317991 0.100721 2.275 -0.278872 -0.029956 0.959861 255 0 0 255
-0.312332 0.100904 2.279 -0.788254 0.0064166 0.615317 255 0 0 255
-0.30759 0.101398 2.29 -0.774973 0.149546 0.614046 255 0 0 255
-0.262894 0.101085 2.282 0.426958 -0.183401 0.885478 255 0 0 255
-0.256546 0.101047 2.281 0.500314 -0.116172 0.858015 255 0 0 255
-0.249873 0.100875 2.277 0.663154 0.0287916 0.747929 255 0 0 255
-0.242686 0.100482 2.268 0.758422 0.0802075 0.64681 255 0 0 255
-0.235651 0.100132 2.26 0.703944 0.135491 0.697212 255 0 0 255
-0.228863 0.099871 2.254 0.508578 0.110521 0.853893 255 0 0 255
-0.222403 0.099743 2.251 0.245072 0.132837 0.960361 255 0 0 255
-0.216054 0.09966 2.249 0.385373 0.001382 0.92276 255 0 0 255
-0.209529 0.099487 2.245 0.473639 -0.0359549 0.879985 255 0 0 255
-0.203206 0.099403 2.243 0.468392 -0.104445 0.877326 255 0 0 255
-0.196805 0.099274 2.24 0.351087 -0.157489 0.923003 255 0 0 255
-0.190676 0.099279 2.24 0.464221 -0.0396098 0.884833 255 0 0 255
-0.184216 0.099106 2.236 0.515013 0.0686021 0.854433 255 0 0 255
-0.178016 0.099065 2.235 0.240529 0.231776 0.942563 255 0 0 255
-0.171667 0.098936 2.232 0.339768 0.436936 0.832853 255 0 0 255
-0.165408 0.098851 2.23 0.148557 0.500377 0.852968 255 0 0 255
-0.159088 0.098722 2.227 0.199072 0.601175 0.773924 255 0 0 255
-0.152921 0.098681 2.226 0.283591 0.648195 0.706696 255 0 0 255
-0.146627 0.098552 2.223 0.274098 0.670387 0.68953 255 0 0 255
-0.140348 0.098422 2.22 0.28395 0.520383 0.805341 255 0 0 255
-0.134086 0.098292 2.217 0.234581 0.46848 0.851762 255 0 0 255
-0.127897 0.098206 2.215 0.269974 0.606305 0.748003 255 0 0 255
-0.121719 0.09812 2.213 0.186651 0.679896 0.709157 255 0 0 255
-0.115551 0.098035 2.211 0.134621 0.682637 0.718251 255 0 0 255
-0.109542 0.098081 2.212 0.087351 0.704493 0.704315 255 0 0 255
-0.103387 0.097995 2.21 0.0453801 0.641984 0.765374 255 0 0 255
-0.097375 0.098042 2.211 0.0478168 0.594905 0.802372 255 0 0 255
-0.091274 0.098 2.21 -0.242272 0.465376 0.85131 255 0 0 255
-0.085409 0.098223 2.215 -0.308967 0.383436 0.870354 255 0 0 255
-0.079338 0.098225 2.215 -0.208683 0.406703 0.889407 255 0 0 255
-0.073332 0.098316 2.217 -0.247489 0.383289 0.889853 255 0 0 255
-0.067315 0.098406 2.219 -0.161983 0.273612 0.948102 255 0 0 255
-0.061259 0.098452 2.22 0.00746532 0.0833395 0.996493 255 0 0 255
-0.055173 0.098453 2.22 0.0554099 0.00315647 0.998459 255 0 0 255
-0.049065 0.09841 2.219 -0.00272948 -0.0323828 0.999472 255 0 0 255
-0.042981 0.098411 2.219 -0.0898216 0.0255642 0.99563 255 0 0 255
-0.03688 0.098368 2.218 0.147806 -0.00825658 0.988982 255 0 0 255
-0.030784 0.098324 2.217 0.10972 -0.0103259 0.993909 255 0 0 255
-0.024716 0.098369 2.218 -0.11974 -0.0411526 0.991952 255 0 0 255
-0.018635 0.09837 2.218 -0.293166 0.0966566 0.951163 255 0 0 255
-0.012581 0.098592 2.223 -0.591798 0.186606 0.784189 255 0 0 255
-0.006497 0.098769 2.227 -0.364416 0.349761 0.863058 255 0 0 255
-0.000391 0.098947 2.231 -0.327611 0.518786 0.789641 255 0 0 255
0.005729 0.098991 2.232 -0.216323 0.553381 0.804347 255 0 0 255
0.01186 0.09908 2.234 -0.409581 0.395277 0.822192 255 0 0 255
0.018034 0.099345 2.24 -0.618361 0.316269 0.719447 255 0 0 255
0.024231 0.099567 2.245 -0.580769 0.242356 0.777156 255 0 0 255
0.030454 0.099788 2.25 -0.42052 0.17583 0.890082 255 0 0 255
0.036656 0.099876 2.252 -0.346291 0.0765636 0.934998 255 0 0 255
0.04285 0.099919 2.253 -0.422349 -0.0621189 0.904302 255 0 0 255
0.049092 0.100051 2.256 -0.457672 -0.00358526 0.889114 255 0 0 255
0.055351 0.100183 2.259 -0.38962 -0.118676 0.913297 255 0 0 255
0.061626 0.100315 2.262 -0.163757 -0.213268 0.963172 255 0 0 255
0.067827 0.100313 2.262 -0.108247 -0.205656 0.972619 255 0 0 255
0.073995 0.100267 2.261 -0.402247 -0.16013 0.901419 255 0 0 255
0.080548 0.100709 2.271 -0.796432 -0.192584 0.573242 255 0 0 255
0.145229 0.102412 2.31 0.990439 0.0131401 0.137327 255 0 0 255
0.150047 0.101389 2.287 0.774026 -0.0122926 0.633035 255 0 0 255
0.155832 0.101076 2.28 0.810194 0.0258143 0.585593 255 0 0 255
0.161507 0.100717 2.272 0.698115 0.0831427 0.711142 255 0 0 255
0.167507 0.100581 2.269 0.469644 0.0987366 0.877317 255 0 0 255
0.173412 0.1004 2.265 0.530323 0.134777 0.837014 255 0 0 255
0.179216 0.100174 2.26 0.557948 0.165424 0.813221 255 0 0 255
0.183597 0.099195 2.238 0.986765 0.0680456 0.14719 255 0 0 255
-0.216707 -0.133957 2.45798 -0.463583 0.515092 -0.720951 255 255 0 255
-0.170327 -0.13032 2.44815 -0.0282711 -0.525697 -0.850202 255 255 0 255
-0.163099 -0.131299 2.43968 -0.474676 0.163993 -0.864748 255 255 0 255
-0.149961 -0.130666 2.43511 -0.234137 -0.102077 -0.96683 255 255 0 255
-0.145289 -0.132325 2.42504 -0.172126 -0.12314 -0.977348 255 255 0 255
-0.093402 -0.126876 2.42023 -0.145844 -0.295769 -0.944061 255 255 0 255
-0.073642 -0.124334 2.42049 -0.0746699 -0.263005 -0.961901 255 255 0 255
-0.045517 -0.119451 2.42654 0.134738 -0.682679 -0.718189 255 255 0 255
-0.012408 -0.113144 2.43617 -0.10831 -0.260835 -0.959288 255 255 0 255
-0.006189 -0.114272 2.4276 0.905091 -0.399857 -0.144657 255 255 0 255
-0.01756 -0.120307 2.40693 -0.872547 0.166796 -0.459175 255 255 0 255
-0.019698 -0.123782 2.39255 -0.773635 0.0392181 -0.632416 255 255 0 255
-0.005112 -0.122568 2.38976 0.953087 -0.302097 -0.0190322 255 255 0 255
0.027813 -0.116171 2.3999 -0.389399 0.107397 -0.914787 255 255 0 255
0.060674 -0.109741 2.41021 -0.441513 0.192173 -0.876433 255 255 0 255
0.04933 -0.11579 2.38947 -0.373563 0.126859 -0.918889 255 255 0 255
0.061313 -0.115232 2.38521 0.860499 -0.390393 -0.327315 255 255 0 255
0.050009 -0.1213 2.36436 0.94533 -0.100237 -0.310328 255 255 0 255
0.040396 -0.126908 2.34461 0.958974 -0.160489 -0.233691 255 255 0 255
-0.223144 -0.172217 2.40544 0.477825 -0.781133 -0.401888 0 255 0 255
-0.228645 -0.167185 2.42138 0.445582 -0.734318 -0.512088 0 255 0 255
-0.20951 -0.170511 2.42072 0.041434 -0.204306 -0.97803 0 255 0 255
-0.175034 -0.178986 2.40994 0.475136 -0.768391 -0.428744 0 255 0 255
-0.16179 -0.180254 2.41348 0.867863 -0.486283 -0.101701 0 255 0 255
-0.170687 -0.174068 2.43171 0.790672 -0.280645 -0.544129 0 255 0 255
-0.164251 -0.173038 2.43979 0.798566 0.293904 -0.525275 0 255 0 255
-0.146711 -0.175711 2.44063 0.171554 0.287754 -0.942214 0 255 0 255
-0.132563 -0.177227 2.44378 0.227512 0.00068762 -0.973775 0 255 0 255
-0.061411 -0.194393 2.42278 0.411873 -0.0227581 -0.910957 0 255 0 255
-0.048025 -0.195557 2.4268 0.392117 -0.234694 -0.889473 0 255 0 255
-0.030638 -0.194745 2.441 0.27014 -0.227446 -0.935571 0 255 0 255
-0.342515 0.094387 2.273 -0.558952 -0.0704561 0.826201 255 0 0 255
-0.336909 0.09456 2.277 -0.139035 0.0263439 0.989937 255 0 0 255
-0.3307 0.094566 2.277 0.0422514 -0.00338533 0.999101 255 0 0 255
-0.324204 0.094489 2.275 -0.0711773 -0.0319172 0.996953 255 0 0 255
-0.318137 0.094537 2.276 -0.321612 -0.0569972 0.945154 255 0 0 255
-0.312201 0.094626 2.278 -0.681097 -0.0264831 0.731714 255 0 0 255
-0.307597 0.09513 2.29 -0.862619 0.013864 0.505664 255 0 0 255
-0.271847 0.095788 2.305 0.909044 -0.11564 0.400333 255 0 0 255
-0.262554 0.094713 2.279 0.278046 -0.209668 0.937406 255 0 0 255
-0.256214 0.094676 2.278 0.273645 -0.202053 0.940369 255 0 0 255
-0.249878 0.09464 2.277 0.493866 -0.153213 0.855934 255 0 0 255
-0.242691 0.094271 2.268 0.724025 0.0418671 0.688501 255 0 0 255
-0.235761 0.093985 2.261 0.683379 0.0930511 0.724109 255 0 0 255
-0.228969 0.09374 2.255 0.527973 0.252828 0.810754 255 0 0 255
-0.222605 0.093662 2.253 0.410131 0.156251 0.898542 255 0 0 255
-0.216251 0.093583 2.251 0.445804 0.155554 0.881511 255 0 0 255
-0.209813 0.093463 2.248 0.488897 -0.00980639 0.872287 255 0 0 255
-0.203301 0.093301 2.244 0.488473 -0.0354524 0.871858 255 0 0 255
-0.196722 0.093097 2.239 0.375373 -0.0684838 0.92434 255 0 0 255
-0.190424 0.093018 2.237 0.317447 -0.0269619 0.947893 255 0 0 255
-0.184055 0.092897 2.234 0.260016 0.0788215 0.962382 255 0 0 255
-0.17794 0.092901 2.234 0.245938 0.0519345 0.967893 255 0 0 255
-0.171671 0.092821 2.232 0.214254 0.133071 0.967671 255 0 0 255
-0.16556 0.092825 2.232 0.133153 0.244509 0.960461 255 0 0 255
-0.159448 0.092828 2.232 0.150264 0.320289 0.935327 255 0 0 255
-0.153267 0.09279 2.231 0.268757 0.331804 0.904254 255 0 0 255
-0.14696 0.092668 2.228 0.40726 0.412244 0.814981 255 0 0 255
-0.140604 0.092505 2.224 0.320157 0.447749 0.834878 255 0 0 255
-0.134391 0.092425 2.222 0.158394 0.465674 0.870666 255 0 0 255
-0.128362 0.092469 2.223 0.162336 0.441051 0.882678 255 0 0 255
-0.122217 0.09243 2.222 0.159185 0.506122 0.847644 255 0 0 255
-0.116024 0.09235 2.22 0.0541287 0.64454 0.762652 255 0 0 255
-0.109891 0.092311 2.219 0.0663309 0.666692 0.742376 255 0 0 255
-0.103764 0.092271 2.218 0.155324 0.636333 0.755616 255 0 0 255
-0.097597 0.09219 2.216 0.0565644 0.637399 0.768455 255 0 0 255
-0.091441 0.092109 2.214 -0.0760772 0.501615 0.86174 255 0 0 255
-0.085488 0.092236 2.217 -0.216152 0.443223 0.869961 255 0 0 255
-0.079483 0.092321 2.219 -0.257363 0.405571 0.877084 255 0 0 255
-0.073466 0.092406 2.221 -0.154887 0.43412 0.88744 255 0 0 255
-0.067377 0.092407 2.221 -0.0546455 0.27084 0.961072 255 0 0 255
-0.061288 0.092409 2.221 0.113334 0.140775 0.983533 255 0 0 255
-0.05515 0.092327 2.219 0.117422 0.0125373 0.993003 255 0 0 255
-0.049088 0.092369 2.22 -0.0836139 0.0722741 0.993874 255 0 0 255
-0.04304 0.092454 2.222 -0.148066 0.137685 0.979346 255 0 0 255
-0.036964 0.092496 2.223 0.03406 0.217725 0.975416 255 0 0 255
-0.03084 0.092414 2.221 -0.00935902 0.459099 0.888336 255 0 0 255
-0.024762 0.092456 2.222 -0.0893828 0.287366 0.953641 255 0 0 255
-0.018669 0.092456 2.222 -0.348957 0.329883 0.877158 255 0 0 255
-0.012615 0.092748 2.229 -0.628687 0.304516 0.715558 255 0 0 255
-0.006515 0.092915 2.233 -0.483189 0.319576 0.815107 255 0 0 255
-0.000392 0.093123 2.238 -0.255106 0.30139 0.918741 255 0 0 255
0.005742 0.093081 2.237 -0.126321 0.273649 0.953498 255 0 0 255
0.011887 0.093164 2.239 -0.518361 0.201405 0.831106 255 0 0 255
0.018067 0.093372 2.244 -0.607775 0.103745 0.787303 255 0 0 255
0.024253 0.093496 2.247 -0.493709 -0.0162877 0.869475 255 0 0 255
0.030441 0.093579 2.249 -0.324077 -0.0641575 0.943853 255 0 0 255
0.036624 0.09362 2.25 -0.28859 -0.136709 0.947643 255 0 0 255
0.042851 0.093744 2.253 -0.400505 -0.109012 0.909787 255 0 0 255
0.049093 0.093867 2.256 -0.388248 -0.157499 0.907997 255 0 0 255
0.055328 0.093949 2.258 -0.342339 -0.201339 0.917751 255 0 0 255
0.061573 0.094031 2.26 -0.241207 -0.204895 0.948598 255 0 0 255
0.067799 0.094072 2.261 -0.194853 -0.0419962 0.979933 255 0 0 255
0.07403 0.094112 2.262 -0.551788 -0.0340996 0.833287 255 0 0 255
0.080585 0.094526 2.272 -0.883484 0.0101516 0.468352 255 0 0 255
0.145924 0.09654 2.321 0.976635 -0.210809 0.0417506 255 0 0 255
0.150116 0.095164 2.288 0.868626 -0.0744783 0.489838 255 0 0 255
0.155767 0.094787 2.279 0.765941 -0.10211 0.63475 255 0 0 255
0.161582 0.094534 2.273 0.653718 -0.0594066 0.754403 255 0 0 255
0.16751 0.094364 2.269 0.45407 0.0468231 0.889735 255 0 0 255
0.173569 0.094277 2.267 0.480357 0.0995841 0.871401 255 0 0 255
0.179458 0.094107 2.263 0.485782 0.190424 0.853086 255 0 0 255
-0.188749 -0.147007 2.43761 0.371998 -0.0525766 -0.926743 255 255 0 255
-0.168813 -0.144506 2.43735 0.511058 -0.593741 -0.621524 255 255 0 255
-0.159051 -0.144778 2.43054 0.137042 -0.346977 -0.927808 255 255 0 255
-0.108789 -0.139708 2.42435 -0.241366 -0.427575 -0.871161 255 255 0 255
-0.088164 -0.136898 2.42507 -0.0238028 -0.258535 -0.965709 255 255 0 255
-0.063373 -0.132896 2.42873 0.132842 -0.0750369 -0.988293 255 255 0 255
-0.032751 -0.127226 2.43649 0.336055 0.153621 -0.92923 255 255 0 255
-0.013929 -0.124825 2.43642 -0.25467 0.157859 -0.954056 255 255 0 255
-0.008545 -0.126182 2.42726 -0.981232 0.192039 -0.0174666 255 255 0 255
-0.024925 -0.133684 2.40314 -0.796861 -0.50917 -0.325205 255 255 0 255
-0.024542 -0.13647 2.39047 -0.773635 0.0392181 -0.632416 255 255 0 255
-0.006614 -0.134277 2.38998 -0.364313 -0.171526 -0.915344 255 255 0 255
0.032138 -0.126124 2.40417 -0.566476 0.18408 -0.803255 255 255 0 255
0.039981 -0.126747 2.39688 -0.573893 0.535144 -0.619893 255 255 0 255
0.051144 -0.12641 2.39198 -0.489133 0.741157 -0.45982 255 255 0 255
0.040672 -0.132281 2.37175 -0.896847 0.441569 -0.0261321 255 255 0 255
0.041028 -0.135053 2.35915 -0.95262 0.303566 -0.0190381 255 255 0 255
0.038902 -0.138548 2.34475 0.963158 -0.195132 -0.185066 255 255 0 255
-0.227899 -0.188028 2.38549 -0.559941 0.295942 -0.773876 0 255 0 255
-0.236766 -0.181791 2.4038 0.812352 -0.581438 -0.0448827 0 255 0 255
-0.227845 -0.181689 2.40996 0.606636 -0.646577 -0.462527 0 255 0 255
-0.225704 -0.179252 2.42073 0.201375 -0.631916 -0.748419 0 255 0 255
-0.19978 -0.184947 2.41554 0.192433 -0.286337 -0.938606 0 255 0 255
-0.18997 -0.185106 2.42127 0.126368 -0.742059 -0.658316 0 255 0 255
-0.178446 -0.185834 2.42591 0.677508 -0.574744 -0.458969 0 255 0 255
-0.167759 -0.186263 2.43116 0.779464 -0.306216 -0.546505 0 255 0 255
-0.163879 -0.184377 2.44093 -0.144811 -0.378569 -0.914175 0 255 0 255
-0.145492 -0.18738 2.44124 0.23076 0.102175 -0.967631 0 255 0 255
-0.136472 -0.187205 2.44774 0.435855 0.0975469 -0.894715 0 255 0 255
-0.104365 -0.194762 2.43937 -0.559192 -0.216029 -0.800398 0 255 0 255
-0.045993 -0.207766 2.42697 0.439168 -0.102358 -0.892555 0 255 0 255
-0.009738 -0.213243 2.42928 -0.788691 -0.333582 -0.51642 0 255 0 255
-0.34749 0.087852 2.265 -0.863892 -0.154507 0.479393 255 0 0 255
-0.342521 0.088168 2.273 -0.510346 -0.156002 0.845701 255 0 0 255
-0.336767 0.088291 2.276 -0.242038 -0.173291 0.954666 255 0 0 255
-0.330415 0.088258 2.275 0.0145004 -0.218526 0.975723 255 0 0 255
-0.323925 0.088186 2.273 -0.102655 -0.0613703 0.992822 255 0 0 255
-0.318004 0.088269 2.275 -0.260705 0.0837438 0.961779 255 0 0 255
-0.31207 0.088353 2.277 -0.662718 0.0941053 0.742932 255 0 0 255
-0.307468 0.088824 2.289 -0.857622 0.0648011 0.510181 255 0 0 255
-0.271262 0.089283 2.3 0.930583 -0.119508 0.346025 255 0 0 255
-0.262559 0.088473 2.279 0.283956 -0.26947 0.920193 255 0 0 255
-0.255994 0.088361 2.276 0.244424 -0.291274 0.924887 255 0 0 255
-0.249664 0.088327 2.275 0.511327 -0.233548 0.827043 255 0 0 255
-0.242803 0.088099 2.269 0.692192 -0.0384075 0.720691 255 0 0 255
-0.235974 0.08787 2.263 0.638984 0.0849707 0.764513 255 0 0 255
-0.229278 0.087681 2.258 0.49379 0.192219 0.84807 255 0 0 255
-0.222807 0.087569 2.255 0.444347 0.0432885 0.894808 255 0 0 255
-0.216159 0.087379 2.25 0.49805 0.0914511 0.862313 255 0 0 255
-0.209724 0.087266 2.247 0.557018 -0.0615234 0.828219 255 0 0 255
-0.203124 0.087076 2.242 0.517334 -0.0397493 0.85486 255 0 0 255
-0.196813 0.087002 2.24 0.374006 -0.0222956 0.927158 255 0 0 255
-0.190428 0.08689 2.237 0.244108 0.10471 0.964078 255 0 0 255
-0.184306 0.086893 2.237 0.217894 0.0456263 0.974905 255 0 0 255
-0.178103 0.086858 2.236 0.274641 -0.00811358 0.961513 255 0 0 255
-0.171828 0.086784 2.234 0.271628 -0.0276033 0.962006 255 0 0 255
-0.165563 0.086709 2.232 0.0611666 -0.015345 0.99801 255 0 0 255
-0.159452 0.086712 2.232 0.0583224 -0.0823024 0.9949 255 0 0 255
-0.153271 0.086677 2.231 0.102353 0.110846 0.988553 255 0 0 255
-0.147095 0.086641 2.23 0.341018 0.183289 0.922015 255 0 0 255
-0.140734 0.086488 2.226 0.463148 0.285886 0.838906 255 0 0 255
-0.134394 0.086336 2.222 0.219546 0.224753 0.949361 255 0 0 255
-0.128249 0.086299 2.221 0.141906 0.333258 0.932095 255 0 0 255
-0.122164 0.086302 2.221 0.107366 0.331849 0.937203 255 0 0 255
-0.116079 0.086304 2.221 0.0347363 0.377016 0.925555 255 0 0 255
-0.109993 0.086307 2.221 0.0480661 0.433538 0.899853 255 0 0 255
-0.103906 0.086309 2.221 0.0872667 0.44914 0.88919 255 0 0 255
-0.097775 0.086272 2.22 0.240491 0.377533 0.894222 255 0 0 255
-0.091608 0.086196 2.218 -0.0149315 0.487326 0.873092 255 0 0 255
-0.085528 0.086198 2.218 -0.210097 0.364243 0.907296 255 0 0 255
-0.079556 0.086316 2.221 -0.32758 0.130239 0.935804 255 0 0 255
-0.073567 0.086434 2.224 -0.106844 0.167683 0.980034 255 0 0 255
-0.067439 0.086397 2.223 0.0185165 0.0841388 0.996282 255 0 0 255
-0.061345 0.086398 2.223 0.246928 -0.00160457 0.969033 255 0 0 255
-0.055176 0.086283 2.22 0.116802 -0.00852814 0.993119 255 0 0 255
-0.049111 0.086323 2.221 -0.218924 0.0233225 0.975463 255 0 0 255
-0.043021 0.086324 2.221 -0.266606 0.0809478 0.9604 255 0 0 255
-0.036981 0.086441 2.224 -0.17325 0.181126 0.968079 255 0 0 255
-0.030869 0.086403 2.223 0.00332109 0.367012 0.93021 255 0 0 255
-0.024784 0.086442 2.224 -0.0160082 0.387522 0.921722 255 0 0 255
-0.018686 0.086443 2.224 -0.372671 0.272029 0.887196 255 0 0 255
-0.012627 0.086715 2.231 -0.629408 0.0267369 0.776615 255 0 0 255
-0.006521 0.086871 2.235 -0.426345 -0.0566302 0.902786 255 0 0 255
-0.000392 0.086988 2.238 -0.226336 -0.116246 0.967088 255 0 0 255
0.00574 0.08691 2.236 -0.165376 -0.0582068 0.984511 255 0 0 255
0.011882 0.086987 2.238 -0.462094 -0.0667657 0.884314 255 0 0 255
0.018051 0.087142 2.242 -0.508838 0.0227672 0.860561 255 0 0 255
0.024242 0.087297 2.246 -0.337874 -0.122558 0.933178 255 0 0 255
0.030415 0.087336 2.247 -0.131306 -0.234886 0.963113 255 0 0 255
0.036592 0.087374 2.248 -0.286836 -0.237093 0.928177 255 0 0 255
0.042813 0.08749 2.251 -0.43048 -0.239285 0.870305 255 0 0 255
0.049051 0.087605 2.254 -0.412788 -0.210186 0.886244 255 0 0 255
0.05528 0.087682 2.256 -0.382067 -0.135131 0.914202 255 0 0 255
0.06152 0.087759 2.258 -0.358747 -0.0417501 0.932501 255 0 0 255
0.0678 0.087874 2.261 -0.356352 0.0278027 0.933938 255 0 0 255
0.074097 0.087989 2.264 -0.552587 0.0257765 0.833057 255 0 0 255
0.080764 0.088493 2.277 -0.876362 -0.0270861 0.480891 255 0 0 255
0.145424 0.089869 2.313 0.946541 -0.268378 0.178978 255 0 0 255
0.149791 0.0887 2.283 0.781776 -0.111625 0.613486 255 0 0 255
0.155634 0.088464 2.277 0.706656 -0.0663052 0.704444 255 0 0 255
0.161514 0.088267 2.272 0.59931 0.0140323 0.800394 255 0 0 255
0.16744 0.088108 2.268 0.370225 0.0910949 0.924465 255 0 0 255
0.173573 0.088066 2.267 0.34222 0.195441 0.919069 255 0 0 255
0.179541 0.087946 2.264 0.389396 0.260234 0.883543 255 0 0 255
-0.168216 -0.153051 2.45231 0.107976 -0.699687 -0.706243 255 255 0 255
-0.163527 -0.154712 2.44218 -0.206641 -0.752049 -0.625877 255 255 0 255
-0.153773 -0.154962 2.43538 0.383606 -0.563998 -0.731268 255 255 0 255
-0.098909 -0.151398 2.41922 -0.439522 -0.00260634 -0.898228 255 255 0 255
-0.062795 -0.147055 2.41746 0.113321 0.139616 -0.9837 255 255 0 255
-0.030535 -0.140813 2.42641 -0.0826302 0.460153 -0.883986 255 255 0 255
-0.012571 -0.138596 2.42579 0.00771101 0.505518 -0.862781 255 255 0 255
-0.013878 -0.14186 2.41202 -0.496597 -0.686176 -0.531558 255 255 0 255
-0.007654 -0.142975 2.40343 -0.378417 -0.887071 -0.264395 255 255 0 255
0.024787 -0.139427 2.40028 -0.856858 0.493629 -0.148746 255 255 0 255
0.032159 -0.143062 2.37979 -0.763469 0.515645 -0.388877 255 255 0 255
0.033352 -0.145604 2.36778 -0.849207 0.445106 -0.284125 255 255 0 255
0.03953 -0.146696 2.3593 -0.972002 0.225136 -0.0672707 255 255 0 255
0.033265 -0.151423 2.34192 0.554635 -0.655741 -0.512234 255 255 0 255
-0.248669 -0.191893 2.40103 -0.760947 0.24988 -0.598765 0 255 0 255
-0.259239 -0.185042 2.42042 0.475768 -0.870706 -0.124562 0 255 0 255
-0.244408 -0.18703 2.42251 0.238546 -0.892996 -0.381647 0 255 0 255
-0.224467 -0.190763 2.42123 -0.0397634 -0.585794 -0.809484 0 255 0 255
-0.208741 -0.19301 2.4229 -0.00288334 -0.17967 -0.983723 0 255 0 255
-0.194694 -0.194657 2.42578 0.229813 -0.264364 -0.936642 0 255 0 255
-0.178925 -0.196873 2.4276 0.573415 -0.49766 -0.650792 0 255 0 255
-0.178456 -0.193828 2.4396 0.905488 0.224619 -0.360052 0 255 0 255
-0.154137 -0.19893 2.43593 -0.394996 0.220758 -0.891765 0 255 0 255
-0.14513 -0.19878 2.44241 0.0826764 0.1443 -0.986074 0 255 0 255
-0.127577 -0.201519 2.44338 -0.000102071 -0.00160407 -0.999999 0 255 0 255
-0.111708 -0.203662 2.44554 -0.0146223 -0.0337841 -0.999322 0 255 0 255
-0.013153 -0.220437 2.44564 -0.723485 -0.185148 -0.665049 0 255 0 255
-0.004002 -0.220183 2.4526 -0.22034 -0.26789 -0.937915 0 255 0 255
-0.345808 0.081259 2.254 -0.879591 -0.0538828 0.47267 255 0 0 255
-0.342225 0.081877 2.271 -0.491754 -0.107178 0.864113 255 0 0 255
-0.336329 0.081955 2.273 -0.170298 -0.168956 0.9708 255 0 0 255
-0.330276 0.081996 2.274 -0.0996554 -0.00276587 0.995018 255 0 0 255
-0.324073 0.082002 2.274 -0.224321 0.16769 0.959979 255 0 0 255
-0.318428 0.082151 2.278 -0.329733 0.286103 0.899678 255 0 0 255
-0.312487 0.082229 2.28 -0.643439 0.0973578 0.759282 255 0 0 255
-0.270324 0.082697 2.292 0.919806 -0.0787543 0.384387 255 0 0 255
-0.262333 0.08216 2.277 0.473698 -0.149583 0.867891 255 0 0 255
-0.255661 0.08202 2.273 0.330283 -0.311587 0.89097 255 0 0 255
-0.249449 0.082025 2.273 0.397107 -0.366439 0.841444 255 0 0 255
-0.242593 0.081813 2.267 0.614074 -0.176229 0.769322 255 0 0 255
-0.235874 0.081636 2.262 0.615928 -0.118223 0.778881 255 0 0 255
-0.229283 0.081496 2.258 0.523318 -0.0785445 0.84851 255 0 0 255
-0.22291 0.081428 2.256 0.463609 -0.0983383 0.880566 255 0 0 255
-0.216355 0.081288 2.252 0.516135 -0.0836392 0.852414 255 0 0 255
-0.209728 0.081111 2.247 0.581159 -0.0983882 0.80782 255 0 0 255
-0.203037 0.080898 2.241 0.473765 -0.058838 0.878684 255 0 0 255
-0.196817 0.080866 2.24 0.216777 0.0389581 0.975443 255 0 0 255
-0.190517 0.080797 2.238 0.26157 0.0867635 0.961277 255 0 0 255
-0.184227 0.080728 2.236 0.290879 0.0282998 0.956341 255 0 0 255
-0.177947 0.080659 2.234 0.356216 -0.0664782 0.932036 255 0 0 255
-0.1716 0.080554 2.231 0.247759 -0.208097 0.946209 255 0 0 255
-0.165418 0.080521 2.23 0.0797009 -0.264802 0.961003 255 0 0 255
-0.159383 0.08056 2.231 0.0592561 -0.287635 0.955905 255 0 0 255
-0.153274 0.080563 2.231 -0.0209616 -0.254403 0.966871 255 0 0 255
-0.147295 0.080638 2.233 0.12829 -0.100867 0.986594 255 0 0 255
-0.141052 0.080569 2.231 0.384241 0.109148 0.916758 255 0 0 255
-0.13476 0.080463 2.228 0.275074 0.236258 0.931942 255 0 0 255
-0.12854 0.080393 2.226 0.0308464 0.272958 0.961531 255 0 0 255
-0.122386 0.080359 2.225 -0.0252567 0.285626 0.958008 255 0 0 255
-0.116342 0.080398 2.226 0.0981178 0.279001 0.955265 255 0 0 255
-0.110143 0.080327 2.224 0.0922232 0.2255 0.969868 255 0 0 255
-0.104048 0.080329 2.224 0.0958004 0.140568 0.985425 255 0 0 255
-0.097909 0.080295 2.223 0.187572 0.138763 0.9724 255 0 0 255
-0.091775 0.080261 2.222 0.0264104 0.200211 0.979397 255 0 0 255
-0.085646 0.080226 2.221 -0.115459 0.143282 0.982924 255 0 0 255
-0.079593 0.080264 2.222 -0.0738908 -0.0965275 0.992584 255 0 0 255
-0.073535 0.080302 2.223 0.0336094 -0.208733 0.977395 255 0 0 255
-0.06741 0.080267 2.222 0.116191 -0.27181 0.955311 255 0 0 255
-0.061291 0.080232 2.221 0.167049 -0.249585 0.953835 255 0 0 255
-0.055127 0.080125 2.218 0.0819831 -0.247768 0.965344 255 0 0 255
-0.04909 0.080198 2.22 -0.190795 -0.108902 0.97557 255 0 0 255
-0.043041 0.080271 2.222 -0.392797 -0.0719199 0.916809 255 0 0 255
-0.037015 0.080416 2.226 -0.428481 0.138257 0.89291 255 0 0 255
-0.030925 0.080453 2.227 -0.105397 0.306941 0.945875 255 0 0 255
-0.024818 0.080454 2.227 0.0261832 0.366699 0.929971 255 0 0 255
-0.018703 0.080418 2.226 -0.175996 0.150643 0.972796 255 0 0 255
-0.012621 0.080563 2.23 -0.5042 -0.0720792 0.860574 255 0 0 255
-0.006512 0.080635 2.232 -0.4706 -0.207953 0.857491 255 0 0 255
-0.000392 0.08078 2.236 -0.267005 -0.242589 0.932662 255 0 0 255
0.00574 0.08078 2.236 -0.196198 -0.0732736 0.977823 255 0 0 255
0.011893 0.080924 2.24 -0.404487 -0.0788074 0.911142 255 0 0 255
0.018052 0.080996 2.242 -0.423529 -0.145041 0.894196 255 0 0 255
0.024232 0.081104 2.245 -0.264173 -0.237602 0.93475 255 0 0 255
0.030388 0.081103 2.245 -0.226671 -0.0632612 0.971915 255 0 0 255
0.036544 0.081103 2.245 -0.273803 -0.0838039 0.958128 255 0 0 255
0.042757 0.08121 2.248 -0.433536 -0.0260441 0.90076 255 0 0 255
0.048986 0.081318 2.251 -0.466634 -0.00984898 0.884396 255 0 0 255
0.055256 0.081461 2.255 -0.443864 0.063224 0.893861 255 0 0 255
0.061521 0.081569 2.258 -0.400277 0.024111 0.916077 255 0 0 255
0.067801 0.081676 2.261 -0.374728 0.0368887 0.9264 255 0 0 255
0.074098 0.081783 2.264 -0.743083 0.0173483 0.668974 255 0 0 255
0.08073 0.082215 2.276 -0.871987 0.00621893 0.48949 255 0 0 255
0.144484 0.082988 2.298 0.881585 -0.352817 0.313573 255 0 0 255
0.149925 0.082516 2.285 0.842485 -0.163324 0.513366 255 0 0 255
0.155637 0.082225 2.277 0.679231 -0.0318404 0.733233 255 0 0 255
0.161588 0.082077 2.273 0.49863 0.101178 0.86089 255 0 0 255
0.167591 0.081966 2.27 0.239716 0.238023 0.941213 255 0 0 255
0.173806 0.081963 2.27 0.305445 0.351617 0.884912 255 0 0 255
0.179782 0.081851 2.267 0.50024 0.309795 0.808571 255 0 0 255
-0.166314 -0.164188 2.45495 0.375594 -0.57795 -0.724501 255 255 0 255
-0.161625 -0.165846 2.44481 -0.882478 0.232877 -0.408657 255 255 0 255
-0.166225 -0.170116 2.42862 -0.973791 -0.22435 -0.0373864 255 255 0 255
-0.158159 -0.170824 2.42069 -0.91809 0.396273 -0.00883362 255 255 0 255
-0.09576 -0.164974 2.40959 -0.0206671 0.457801 -0.888815 255 255 0 255
-0.069322 -0.160356 2.41436 0.181242 0.127039 -0.975199 255 255 0 255
-0.046284 -0.156676 2.417 0.154099 -0.0420116 -0.987162 255 255 0 255
-0.019939 -0.152011 2.42204 -0.0959038 0.00980445 -0.995342 255 255 0 255
0.002175 -0.148529 2.42435 -0.165968 -0.608116 -0.776305 255 255 0 255
0.020423 -0.149025 2.41131 -0.846803 0.431394 -0.311166 255 255 0 255
0.013279 -0.154002 2.39349 0.831323 0.23567 -0.503351 255 255 0 255
0.001163 -0.160451 2.37209 -0.682516 -0.593896 -0.42598 255 255 0 255
0.011533 -0.160332 2.36646 -0.712211 -0.0173918 -0.70175 255 255 0 255
0.029363 -0.158007 2.36617 -0.808109 0.574106 -0.131764 255 255 0 255
0.042185 -0.157136 2.36242 -0.97043 0.226771 -0.0827068 255 255 0 255
-0.250817 -0.202192 2.40381 -0.850176 -0.526494 -0.00209474 0 255 0 255
-0.257993 -0.19649 2.42089 -0.850176 -0.526494 -0.00209471 0 255 0 255
-0.243166 -0.198511 2.42299 0.433538 0.53756 -0.723239 0 255 0 255
-0.238492 -0.196966 2.43202 0.0695541 0.18444 -0.98038 0 255 0 255
-0.210059 -0.203692 2.42514 0.118114 -0.239999 -0.963561 0 255 0 255
-0.191772 -0.206847 2.4252 0.254306 -0.260273 -0.931443 0 255 0 255
-0.164108 -0.213221 2.41916 0.795587 0.513801 -0.321014 0 255 0 255
-0.159369 -0.211629 2.4284 0.844106 0.380457 -0.377807 0 255 0 255
-0.152925 -0.210621 2.43654 0.360181 -0.0985728 -0.92766 0 255 0 255
-0.136249 -0.213123 2.43803 0.195046 -0.0991687 -0.975768 0 255 0 255
-0.128078 -0.212685 2.44513 0.0542412 -0.19626 -0.979051 0 255 0 255
-0.107094 -0.216617 2.444 -0.00158286 -0.190717 -0.981644 0 255 0 255
-0.021422 -0.229288 2.45233 0.160833 -0.692664 -0.7031 0 255 0 255
-0.34208 0.07563 2.27 -0.383617 -0.0881909 0.919272 255 0 0 255
-0.336482 0.075768 2.274 -0.303565 -0.000317765 0.952811 255 0 0 255
-0.330281 0.075774 2.274 -0.234585 0.0821665 0.968617 255 0 0 255
-0.324363 0.075845 2.276 -0.245203 0.0547033 0.967927 255 0 0 255
-0.318573 0.07595 2.279 -0.366081 0.0264362 0.930207 255 0 0 255
-0.312629 0.076022 2.281 -0.280941 0.0371804 0.959005 255 0 0 255
-0.269974 0.076321 2.289 0.905818 0.0121429 0.423492 255 0 0 255
-0.262107 0.075858 2.275 0.501415 -0.107437 0.858511 255 0 0 255
-0.255328 0.075696 2.27 0.50875 -0.0675709 0.858259 255 0 0 255
-0.249014 0.075666 2.269 0.4556 -0.15366 0.876822 255 0 0 255
-0.242383 0.075537 2.265 0.574639 -0.194632 0.794927 255 0 0 255
-0.235669 0.075374 2.26 0.606152 -0.1293 0.784768 255 0 0 255
-0.22888 0.075178 2.254 0.495399 -0.257389 0.829657 255 0 0 255
-0.222518 0.075115 2.252 0.373991 -0.279376 0.884353 255 0 0 255
-0.216071 0.075019 2.249 0.456332 -0.20535 0.86579 255 0 0 255
-0.209638 0.074922 2.246 0.567554 -0.0328477 0.822681 255 0 0 255
-0.20295 0.074725 2.24 0.358596 -0.0288662 0.933047 255 0 0 255
-0.19682 0.074729 2.24 0.136534 0.0532889 0.989201 255 0 0 255
-0.19069 0.074732 2.24 0.20687 0.0793348 0.975146 255 0 0 255
-0.184312 0.074635 2.237 0.391603 0.036009 0.91943 255 0 0 255
-0.17795 0.074538 2.234 0.391373 0.00277306 0.920228 255 0 0 255
-0.171603 0.074441 2.231 0.329295 0.0532206 0.942726 255 0 0 255
-0.165347 0.074377 2.229 0.169114 0.0399327 0.984787 255 0 0 255
-0.159172 0.074346 2.228 0.087725 -0.196689 0.976534 255 0 0 255
-0.153001 0.074316 2.227 0.0409305 -0.394218 0.918105 255 0 0 255
-0.147034 0.074385 2.229 -0.00799143 -0.462018 0.886834 255 0 0 255
-0.140865 0.074354 2.228 0.138287 -0.445511 0.884532 255 0 0 255
-0.134581 0.074256 2.225 0.217596 -0.305013 0.927157 255 0 0 255
-0.128427 0.074225 2.224 0.0773088 -0.215212 0.973503 255 0 0 255
-0.122334 0.074227 2.224 0.0271934 -0.214908 0.976256 255 0 0 255
-0.116292 0.074263 2.225 0.0769237 -0.267873 0.960379 255 0 0 255
-0.110145 0.074231 2.224 0.175743 -0.354059 0.918562 255 0 0 255
-0.103957 0.074166 2.222 0.200877 -0.258288 0.944953 255 0 0 255
-0.097823 0.074135 2.221 0.0378696 -0.401854 0.914921 255 0 0 255
-0.091735 0.074136 2.221 0.0230785 -0.338111 0.940823 255 0 0 255
-0.085647 0.074138 2.221 0.0427173 -0.2883 0.956587 255 0 0 255
-0.079523 0.074106 2.22 0.0567958 -0.273217 0.960274 255 0 0 255
-0.073404 0.074074 2.219 0.121187 -0.438552 0.890497 255 0 0 255
-0.06726 0.074008 2.217 0.0603782 -0.46003 0.885848 255 0 0 255
-0.061209 0.074043 2.218 0.0170819 -0.347084 0.937679 255 0 0 255
-0.055128 0.074044 2.218 -0.0961643 -0.171969 0.980398 255 0 0 255
-0.049046 0.074045 2.218 -0.275683 0.0262491 0.96089 255 0 0 255
-0.043003 0.074113 2.22 -0.462053 0.065364 0.88444 255 0 0 255
-0.036983 0.074247 2.224 -0.49561 0.11234 0.86125 255 0 0 255
-0.030953 0.074414 2.229 -0.273177 0.173772 0.946138 255 0 0 255
-0.024841 0.074415 2.229 0.107887 0.204509 0.972901 255 0 0 255
-0.018712 0.074348 2.227 0.0037618 0.141424 0.989942 255 0 0 255
-0.01261 0.074382 2.228 -0.195457 0.0262791 0.98036 255 0 0 255
-0.006506 0.074449 2.23 -0.425815 -0.0935068 0.899966 255 0 0 255
-0.000392 0.074616 2.235 -0.317764 -0.114986 0.941172 255 0 0 255
0.005737 0.074616 2.235 -0.313406 -0.145871 0.938349 255 0 0 255
0.011882 0.074716 2.238 -0.404322 -0.0943746 0.909735 255 0 0 255
0.018028 0.074749 2.239 -0.387502 -0.076995 0.918648 255 0 0 255
0.0242 0.074849 2.242 -0.412161 -0.0230177 0.91082 255 0 0 255
0.030389 0.074948 2.245 -0.301032 0.0654781 0.951364 255 0 0 255
0.036594 0.075048 2.248 -0.293336 0.113972 0.949191 255 0 0 255
0.042796 0.075114 2.25 -0.388966 0.0877933 0.917059 255 0 0 255
0.049031 0.075213 2.253 -0.499439 0.0521253 0.864779 255 0 0 255
0.055306 0.075346 2.257 -0.526285 0.11868 0.841986 255 0 0 255
0.061576 0.075445 2.26 -0.39547 0.152789 0.905681 255 0 0 255
0.067833 0.075511 2.262 -0.264845 0.0843078 0.960599 255 0 0 255
0.074067 0.075543 2.263 -0.628258 -0.0224835 0.77768 255 0 0 255
0.080625 0.075875 2.273 -0.85098 -0.113328 0.512826 255 0 0 255
0.145115 0.077024 2.308 0.774386 -0.489308 0.401129 255 0 0 255
0.149731 0.076154 2.282 0.57387 0.0372851 0.818097 255 0 0 255
0.15564 0.075984 2.277 0.669441 0.103798 0.735578 255 0 0 255
0.161591 0.075848 2.273 0.3516 0.236482 0.905789 255 0 0 255
0.167815 0.075845 2.273 0.106749 0.221357 0.969333 255 0 0 255
0.173962 0.075809 2.272 0.189887 0.386938 0.902342 255 0 0 255
0.179865 0.075673 2.268 0.691602 0.245462 0.679291 255 0 0 255
0.185499 0.075436 2.261 0.776443 0.189898 0.600895 255 0 0 255
-0.182528 -0.183454 2.43262 0.655931 -0.270544 -0.70467 255 255 0 255
-0.176975 -0.184879 2.42298 0.267251 -0.861984 -0.430768 255 255 0 255
-0.091365 -0.175241 2.41388 -0.322305 -0.101415 -0.941188 255 255 0 255
-0.071648 -0.172493 2.41411 0.271963 -0.192285 -0.942901 255 255 0 255
-0.013078 -0.161339 2.42802 0.0937656 -0.126792 -0.987488 255 255 0 255
0.010692 -0.157308 2.43148 -0.074787 -0.892994 -0.443812 255 255 0 255
0.02023 -0.157415 2.42525 -0.969929 -0.0422087 -0.239702 255 255 0 255
0.018081 -0.160948 2.41094 -0.909074 0.3998 -0.117237 255 255 0 255
0.009281 -0.166451 2.39195 0.987561 0.115922 -0.106231 255 255 0 255
0.012539 -0.171336 2.36842 -0.441759 -0.666244 -0.600806 255 255 0 255
0.032023 -0.168472 2.3693 0.129228 -0.571678 -0.810238 255 255 0 255
-0.223393 -0.222999 2.38637 -0.960388 -0.100751 -0.259818 0 255 0 255
-0.238993 -0.214251 2.40928 0.836768 0.498114 -0.227379 0 255 0 255
-0.231773 -0.213603 2.41661 0.357882 0.285839 -0.888942 0 255 0 255
-0.229629 -0.211159 2.42739 0.243421 0.312391 -0.918236 0 255 0 255
-0.209682 -0.214976 2.42624 0.270081 -0.273798 -0.923088 0 255 0 255
-0.156108 -0.227297 2.41524 -0.817955 -0.457115 -0.349277 0 255 0 255
-0.150511 -0.226001 2.42396 -0.963562 -0.240005 -0.118095 0 255 0 255
-0.150866 -0.222629 2.43659 0.924376 0.0879772 -0.3712 0 255 0 255
-0.143563 -0.221921 2.44421 0.055326 -0.616074 -0.785743 0 255 0 255
-0.126876 -0.224451 2.44577 0.041119 -0.282844 -0.958284 0 255 0 255
-0.111019 -0.226669 2.44797 0.00101932 -0.195788 -0.980646 0 255 0 255
-0.34766 0.069291 2.266 -0.425357 -0.0127479 0.904936 255 0 0 255
-0.342085 0.069419 2.27 -0.425357 -0.012748 0.904936 255 0 0 255
-0.336339 0.069515 2.273 -0.326198 0.0812327 0.941805 255 0 0 255
-0.330431 0.069581 2.275 -0.196627 0.0815878 0.977078 255 0 0 255
-0.324368 0.069616 2.276 -0.218035 -0.000873485 0.975941 255 0 0 255
-0.318299 0.069651 2.277 -0.271387 -0.109453 0.956227 255 0 0 255
-0.312497 0.069748 2.28 -0.381398 -0.0360059 0.923709 255 0 0 255
-0.269979 0.070053 2.289 0.854012 0.131473 0.503367 255 0 0 255
-0.262572 0.069751 2.279 0.786884 0.208093 0.580957 255 0 0 255
-0.255444 0.06951 2.271 0.57764 0.129688 0.805924 255 0 0 255
-0.248908 0.069422 2.268 0.528326 -0.114235 0.841321 255 0 0 255
-0.242173 0.069272 2.263 0.553272 -0.082043 0.828951 255 0 0 255
-0.235569 0.069153 2.259 0.617067 -0.0915139 0.781571 255 0 0 255
-0.228782 0.068973 2.253 0.587248 -0.103569 0.802754 255 0 0 255
-0.222324 0.068885 2.25 0.398922 0.0829513 0.913225 255 0 0 255
-0.215978 0.068827 2.248 0.352145 -0.13288 0.926465 255 0 0 255
-0.209548 0.068738 2.245 0.446936 0.0345883 0.893897 255 0 0 255
-0.203134 0.06865 2.242 0.374127 0.194152 0.906827 255 0 0 255
-0.196824 0.068591 2.24 0.137543 0.205877 0.968864 255 0 0 255
-0.190693 0.068594 2.24 0.319705 0.0634329 0.945391 255 0 0 255
-0.184315 0.068505 2.237 0.483763 0.0423882 0.874172 255 0 0 255
-0.177953 0.068416 2.234 0.373436 0.0211312 0.927415 255 0 0 255
-0.171683 0.068358 2.232 0.263422 0.0937654 0.960113 255 0 0 255
-0.165424 0.068299 2.23 0.261209 0.106531 0.959386 255 0 0 255
-0.159246 0.068271 2.229 0.344461 -0.0461323 0.937666 255 0 0 255
-0.152935 0.068182 2.226 0.207072 -0.194413 0.958814 255 0 0 255
-0.146773 0.068153 2.225 0.0809117 -0.335826 0.938442 255 0 0 255
-0.140678 0.068156 2.225 0.190397 -0.268861 0.944173 255 0 0 255
-0.134522 0.068127 2.224 0.164273 -0.213131 0.963115 255 0 0 255
-0.128429 0.068129 2.224 0.0895649 -0.238875 0.966911 255 0 0 255
-0.122281 0.068101 2.223 0.104705 -0.288546 0.951724 255 0 0 255
-0.116137 0.068072 2.222 0.187956 -0.414986 0.890202 255 0 0 255
-0.109949 0.068012 2.22 0.234517 -0.474947 0.84819 255 0 0 255
-0.103771 0.067953 2.218 0.119606 -0.491114 0.862845 255 0 0 255
-0.097648 0.067924 2.217 0.00332612 -0.440859 0.89757 255 0 0 255
-0.091613 0.067956 2.218 0.003465 -0.440881 0.897559 255 0 0 255
-0.085533 0.067957 2.218 0.0248941 -0.4417 0.896817 255 0 0 255
-0.079453 0.067959 2.218 0.0850836 -0.437506 0.895181 255 0 0 255
-0.073306 0.067899 2.216 0.0937808 -0.338554 0.936262 255 0 0 255
-0.0672 0.067869 2.215 -0.0397346 -0.24452 0.96883 255 0 0 255
-0.061155 0.067901 2.216 -0.144491 -0.0848253 0.985864 255 0 0 255
-0.055104 0.067932 2.217 -0.249074 0.0369256 0.96778 255 0 0 255
-0.049091 0.068025 2.22 -0.372256 0.133466 0.918484 255 0 0 255
-0.043082 0.068148 2.224 -0.413496 0.139732 0.89972 255 0 0 255
-0.037016 0.06821 2.226 -0.516676 0.0840079 0.85205 255 0 0 255
-0.030968 0.068334 2.23 -0.373713 0.103981 0.921698 255 0 0 255
-0.024853 0.068334 2.23 0.0477679 0.164003 0.985303 255 0 0 255
-0.018729 0.068304 2.229 0.0560721 0.113393 0.991967 255 0 0 255
-0.012616 0.068304 2.229 -0.137792 0.132752 0.981524 255 0 0 255
-0.006509 0.068365 2.231 -0.36443 0.0415237 0.930305 255 0 0 255
-0.000391 0.068427 2.233 -0.318433 0.012633 0.947861 255 0 0 255
0.005735 0.068457 2.234 -0.340132 -0.0166257 0.940231 255 0 0 255
0.011883 0.06858 2.238 -0.401609 0.043581 0.914774 255 0 0 255
0.018036 0.068641 2.24 -0.384637 -0.000601728 0.923068 255 0 0 255
0.024222 0.068763 2.244 -0.423125 0.104555 0.900019 255 0 0 255
0.030416 0.068855 2.247 -0.421916 0.0644289 0.904343 255 0 0 255
0.036611 0.068915 2.249 -0.409241 0.0213505 0.912176 255 0 0 255
0.042797 0.068945 2.25 -0.441995 0.0586085 0.895101 255 0 0 255
0.049032 0.069036 2.253 -0.484911 0.231657 0.843325 255 0 0 255
0.055307 0.069158 2.257 -0.49368 0.0711125 0.866731 255 0 0 255
0.061632 0.06931 2.262 -0.254874 0.0529341 0.965524 255 0 0 255
0.067834 0.069309 2.262 -0.163227 0.0061882 0.986569 255 0 0 255
0.074068 0.069339 2.263 -0.465515 -0.105929 0.878678 255 0 0 255
0.08052 0.069552 2.27 -0.771083 -0.119969 0.62533 255 0 0 255
0.087393 0.070072 2.287 -0.886184 -0.156216 0.436205 255 0 0 255
0.143609 0.069963 2.284 0.56636 0.135903 0.812876 255 0 0 255
0.149931 0.069992 2.285 0.592179 0.157379 0.790289 255 0 0 255
0.155847 0.069836 2.28 0.601826 0.18309 0.777357 255 0 0 255
0.161736 0.06968 2.275 0.291752 0.193743 0.936667 255 0 0 255
0.167892 0.069647 2.274 0.0799935 0.162134 0.983521 255 0 0 255
0.174195 0.069675 2.275 0.223585 0.167459 0.960191 255 0 0 255
0.180264 0.069611 2.273 0.557795 0.134253 0.819049 255 0 0 255
0.185666 0.069302 2.263 0.796551 0.111803 0.594144 255 0 0 255
0.188808 0.068197 2.227 0.987455 0.127083 0.0937152 255 0 0 255
-0.173495 -0.189609 2.45311 0.679801 0.201117 -0.705282 255 255 0 255
-0.171329 -0.191992 2.4413 0.630222 0.743394 -0.224021 255 255 0 255
-0.172532 -0.195349 2.42728 0.663785 0.37428 -0.647537 255 255 0 255
-0.148456 -0.191411 2.42984 0.368877 0.0774835 -0.926243 255 255 0 255
-0.09536 -0.187944 2.41253 -0.560591 -0.309414 -0.768115 255 255 0 255
-0.049672 -0.177537 2.43029 0.105183 -0.299608 -0.948247 255 255 0 255
0.007991 -0.166446 2.44371 0.698261 -0.495205 -0.516917 255 255 0 255
0.012522 -0.168019 2.43401 -0.937573 0.347194 -0.0203242 255 255 0 255
0.007874 -0.172312 2.41798 -0.760741 0.581174 -0.288983 255 255 0 255
0.012409 -0.173888 2.40827 -0.790578 0.558418 -0.251308 255 255 0 255
0.011949 -0.176951 2.39508 -0.842794 0.318944 -0.433558 255 255 0 255
0.018149 -0.17803 2.38653 -0.485449 -0.778323 -0.398186 255 255 0 255
0.021021 -0.180103 2.37565 -0.350886 -0.723902 -0.594008 255 255 0 255
-0.223399 -0.230932 2.4 -0.980752 -0.158789 -0.113635 0 255 0 255
-0.226317 -0.226666 2.41425 0.954458 0.248988 -0.164365 0 255 0 255
-0.226706 -0.223311 2.42676 0.594817 -0.126919 -0.793779 0 255 0 255
-0.199515 -0.226519 2.43309 0.0046284 -0.406048 -0.91384 0 255 0 255
-0.175282 -0.231847 2.42932 -0.0919261 -0.792132 -0.603388 0 255 0 255
-0.162906 -0.232962 2.43352 0.170929 -0.77972 -0.602346 0 255 0 255
-0.155614 -0.232275 2.4411 0.726764 -0.593268 -0.34619 0 255 0 255
-0.148316 -0.231581 2.44872 0.757059 0.323005 -0.567916 0 255 0 255
-0.134196 -0.233262 2.45194 0.0171876 -0.238461 -0.971 0 255 0 255
-0.106416 -0.23968 2.44645 -0.129155 -0.0275042 -0.991243 0 255 0 255
-0.03965 -0.246291 2.46677 0.100613 -0.790935 -0.603572 0 255 0 255
-0.023969 -0.245033 2.48224 0.0795467 -0.86616 -0.493396 0 255 0 255
0.007212 -0.24901 2.48835 0.0872964 -0.908187 -0.40936 0 255 0 255
-0.348585 0.063258 2.272 0.0911374 0.409475 0.907758 255 0 0 255
-0.34224 0.063235 2.271 -0.41676 0.0434663 0.907977 255 0 0 255
-0.336492 0.063323 2.274 -0.383083 0.0564022 0.921991 255 0 0 255
-0.330581 0.063383 2.276 -0.1658 0.138522 0.976382 255 0 0 255
-0.324515 0.063415 2.277 -0.0903658 0.109782 0.989839 255 0 0 255
-0.318163 0.063391 2.276 -0.224993 0.0550999 0.972801 255 0 0 255
-0.312364 0.063479 2.279 -0.700334 0.0580456 0.711451 255 0 0 255
-0.30789 0.063845 2.292 -0.86764 0.0134292 0.497011 255 0 0 255
-0.280098 0.064672 2.321 0.958741 0.0551643 0.278876 255 0 0 255
-0.270808 0.063979 2.296 0.843798 0.151838 0.514733 255 0 0 255
-0.263382 0.063704 2.286 0.793024 0.205763 0.573389 255 0 0 255
-0.255673 0.063346 2.273 0.577339 0.302618 0.758355 255 0 0 255
-0.249021 0.063238 2.269 0.569172 0.290674 0.769124 255 0 0 255
-0.242177 0.063074 2.263 0.498082 0.209426 0.84146 255 0 0 255
-0.235781 0.063021 2.261 0.617771 0.245914 0.746917 255 0 0 255
-0.228786 0.062801 2.253 0.55045 0.256881 0.794366 255 0 0 255
-0.222328 0.062721 2.25 0.415507 0.261374 0.871228 255 0 0 255
-0.215981 0.062668 2.248 0.38436 0.242544 0.890753 255 0 0 255
-0.209738 0.062643 2.247 0.413654 0.200851 0.888003 255 0 0 255
-0.203409 0.06259 2.245 0.40543 0.103214 0.90828 255 0 0 255
-0.19709 0.062537 2.243 0.30113 0.0348024 0.952948 255 0 0 255
-0.190867 0.062512 2.242 0.384179 -0.0134688 0.92316 255 0 0 255
-0.184318 0.062376 2.237 0.468889 -0.032456 0.882661 255 0 0 255
-0.177876 0.062267 2.233 0.268782 0.0484313 0.961983 255 0 0 255
-0.171763 0.062269 2.233 0.111828 0.198446 0.973711 255 0 0 255
-0.165574 0.062244 2.232 0.15565 0.337385 0.92841 255 0 0 255
-0.159248 0.062162 2.229 0.419779 0.244884 0.873967 255 0 0 255
-0.152869 0.062053 2.225 0.33414 0.0977161 0.937444 255 0 0 255
-0.146643 0.061999 2.223 0.266097 0.108761 0.957791 255 0 0 255
-0.140554 0.062001 2.223 0.182494 -0.00189569 0.983205 255 0 0 255
-0.134343 0.061948 2.221 0.134006 -0.111213 0.98472 255 0 0 255
-0.128316 0.061977 2.222 0.115891 -0.0804565 0.989998 255 0 0 255
-0.122173 0.061951 2.221 0.162123 -0.267384 0.949854 255 0 0 255
-0.115982 0.061897 2.219 0.345238 -0.186757 0.919746 255 0 0 255
-0.109753 0.061815 2.216 0.233902 -0.346146 0.908555 255 0 0 255
-0.103633 0.061789 2.215 0.0817325 -0.31446 0.945746 255 0 0 255
-0.097562 0.06179 2.215 -0.0260355 -0.180611 0.98321 255 0 0 255
-0.091532 0.061819 2.216 0.00379162 -0.315519 0.948912 255 0 0 255
-0.08538 0.061765 2.214 0.0745942 -0.33834 0.938063 255 0 0 255
-0.079311 0.061766 2.214 -0.00895126 -0.253704 0.96724 255 0 0 255
