ply
format ascii 1.0
comment VCGLIB generated
element vertex 729
property float x
property float y
property float z
property float nx
property float ny
property float nz
property uchar red
property uchar green
property uchar blue
property uchar alpha
element face 0
property list uchar int vertex_indices
end_header
-0.021129 -0.433252 2.521 0.552329 -0.269596 0.788828 255 0 0 255
-0.014239 -0.433425 2.522 0.263287 -0.516528 0.814788 255 0 0 255
-0.007337 -0.433254 2.521 0.478142 -0.176542 0.860356 255 0 0 255
-0.000439 -0.431708 2.512 0.723057 -0.13987 0.67648 255 0 0 255
0.006412 -0.430333 2.504 0.582151 -0.224715 0.781411 255 0 0 255
0.013251 -0.429988 2.502 0.363367 -0.22481 0.904116 255 0 0 255
0.020063 -0.4293 2.498 0.342574 0.383142 0.857814 255 0 0 255
0.026874 -0.428954 2.496 -0.168902 0.584208 0.793834 255 0 0 255
0.03381 -0.430327 2.504 -0.579684 0.462541 0.670837 255 0 0 255
0.040935 -0.433246 2.521 -0.801571 0.321379 0.504182 255 0 0 255
0.048191 -0.436507 2.54 -0.806612 0.38578 0.44783 255 0 0 255
-0.21122 -0.407736 2.337 0.679486 0.429878 0.594562 255 0 0 255
-0.204314 -0.406705 2.331 0.447282 -0.0388022 0.893551 255 0 0 255
-0.197779 -0.40637 2.329 0.262829 0.0478043 0.963657 255 0 0 255
-0.191337 -0.40621 2.328 -0.157009 0.246698 0.956289 255 0 0 255
-0.185217 -0.406747 2.331 -0.148887 0.50994 0.847227 255 0 0 255
-0.179157 -0.407458 2.335 -0.0521681 0.667913 0.742409 255 0 0 255
-0.172482 -0.406773 2.331 -0.211218 0.581452 0.785685 255 0 0 255
-0.166328 -0.407309 2.334 -0.33269 0.522467 0.785077 255 0 0 255
-0.160294 -0.408193 2.339 -0.483011 0.527417 0.69895 255 0 0 255
-0.154495 -0.409776 2.348 -0.134121 0.597241 0.790769 255 0 0 255
-0.14789 -0.409263 2.345 -0.121999 0.119604 0.985298 255 0 0 255
-0.141421 -0.4091 2.344 -0.0624386 0.507126 0.859607 255 0 0 255
-0.135015 -0.40911 2.344 -0.392081 0.221426 0.892885 255 0 0 255
-0.128992 -0.410341 2.351 -0.731948 0.280995 0.62072 255 0 0 255
-0.123661 -0.414016 2.372 -0.896943 0.234292 0.374967 255 0 0 255
-0.118807 -0.419785 2.405 -0.977975 0.0217909 0.207583 255 0 0 255
-0.113445 -0.424332 2.431 -0.958374 0.0154105 0.2851 255 0 0 255
-0.077315 -0.446021 2.555 -0.127373 0.244621 0.961216 255 0 0 255
-0.070328 -0.446026 2.555 -0.127373 0.244621 0.961216 255 0 0 255
-0.063489 -0.447079 2.561 -0.295703 0.521168 0.800589 255 0 0 255
-0.056419 -0.44656 2.558 0.343 0.41723 0.841588 255 0 0 255
-0.049327 -0.445691 2.553 0.537828 0.070882 0.840069 255 0 0 255
-0.042261 -0.444821 2.548 0.721846 -0.103686 0.684243 255 0 0 255
-0.035154 -0.443079 2.538 0.7672 -0.093502 0.634556 255 0 0 255
-0.028112 -0.44151 2.529 0.631646 0.017026 0.77507 255 0 0 255
-0.021069 -0.438893 2.514 0.618157 0.00984214 0.785993 255 0 0 255
-0.014209 -0.439418 2.517 0.467573 0.137687 0.873165 255 0 0 255
-0.007307 -0.438371 2.511 0.456599 -0.167245 0.873812 255 0 0 255
-0.000438 -0.437673 2.507 0.736571 -0.0887989 0.670506 255 0 0 255
0.006401 -0.436451 2.5 0.517406 -0.128068 0.846103 255 0 0 255
0.013223 -0.435927 2.497 0.225871 -0.045304 0.973103 255 0 0 255
0.020077 -0.436449 2.5 -0.137292 0.280475 0.949992 255 0 0 255
0.026969 -0.43732 2.505 -0.319553 0.51414 0.795955 255 0 0 255
0.033902 -0.438365 2.511 -0.709258 0.360431 0.60584 255 0 0 255
0.041029 -0.441156 2.527 -0.865803 0.310811 0.39215 255 0 0 255
0.048225 -0.443771 2.542 -0.82334 0.381642 0.420072 255 0 0 255
0.056068 -0.450925 2.583 -0.711524 -0.701523 0.0399838 255 0 0 255
-0.204387 -0.413224 2.332 0.235802 -0.193815 0.952278 255 0 0 255
-0.197765 -0.412707 2.329 0.036002 -0.0390087 0.99859 255 0 0 255
-0.191569 -0.413076 2.331 -0.174974 0.147049 0.97353 255 0 0 255
-0.185601 -0.413976 2.336 -0.540462 0.209035 0.814988 255 0 0 255
-0.179681 -0.415052 2.342 -0.370933 0.35051 0.859972 255 0 0 255
-0.173136 -0.414711 2.34 -0.105736 0.61508 0.781343 255 0 0 255
-0.166672 -0.414546 2.339 -0.304509 0.653784 0.692706 255 0 0 255
-0.160899 -0.416153 2.348 -0.569298 0.597907 0.564276 255 0 0 255
-0.155076 -0.41776 2.357 -0.301431 0.795554 0.525578 255 0 0 255
-0.148635 -0.417772 2.357 0.0296973 0.786821 0.616467 255 0 0 255
-0.141833 -0.416719 2.351 0.0327127 0.697045 0.716281 255 0 0 255
-0.135465 -0.416907 2.352 -0.269274 0.707409 0.653501 255 0 0 255
-0.129586 -0.418689 2.362 -0.759194 0.457306 0.463137 255 0 0 255
-0.124016 -0.421712 2.379 -0.707723 0.444543 0.549099 255 0 0 255
-0.118946 -0.426862 2.408 -0.970455 -0.00461677 0.241237 255 0 0 255
-0.11325 -0.430239 2.427 -0.964066 -0.0837094 0.252129 255 0 0 255
-0.070515 -0.454221 2.562 0.0184912 0.639133 0.768874 255 0 0 255
-0.063757 -0.455999 2.572 0.427739 0.492404 0.758009 255 0 0 255
-0.056591 -0.45494 2.566 0.648052 0.434085 0.625778 255 0 0 255
-0.049303 -0.452462 2.552 0.661418 0.0324344 0.749316 255 0 0 255
-0.042208 -0.451224 2.545 0.77237 -0.100408 0.627186 255 0 0 255
-0.035095 -0.449277 2.534 0.664352 0.0143001 0.747284 255 0 0 255
-0.028143 -0.448925 2.532 0.470538 0.237485 0.849821 255 0 0 255
-0.021168 -0.447863 2.526 0.275563 0.7071 0.65121 255 0 0 255
-0.014259 -0.447864 2.526 0.370407 0.549223 0.749101 255 0 0 255
-0.007333 -0.446801 2.52 0.566834 0.385611 0.728014 255 0 0 255
-0.000439 -0.445206 2.511 0.491677 0.547449 0.677166 255 0 0 255
0.006413 -0.444142 2.505 0.392097 0.586621 0.708616 255 0 0 255
0.013228 -0.4429 2.498 -0.00833053 0.168132 0.985729 255 0 0 255
0.020108 -0.443963 2.504 -0.243537 0.564962 0.788357 255 0 0 255
0.027032 -0.445202 2.511 -0.296989 0.716052 0.631717 255 0 0 255
0.034007 -0.446618 2.519 -0.540486 0.56481 0.62359 255 0 0 255
0.040831 -0.445906 2.515 -0.639882 0.490831 0.591301 255 0 0 255
-0.203934 -0.418668 2.327 -0.104138 -0.208752 0.972408 255 0 0 255
-0.19775 -0.419043 2.329 -0.192682 -0.000385761 0.981261 255 0 0 255
-0.191473 -0.419237 2.33 -0.444076 0.111009 0.889086 255 0 0 255
-0.185349 -0.419791 2.333 -0.573632 0.197505 0.794946 255 0 0 255
-0.179437 -0.420884 2.339 -0.370933 0.35051 0.859972 255 0 0 255
-0.173419 -0.421797 2.344 -0.437993 0.56273 0.701069 255 0 0 255
-0.16723 -0.422349 2.347 -0.490381 0.656116 0.573619 255 0 0 255
-0.161641 -0.424521 2.359 -0.478439 0.704376 0.524357 255 0 0 255
-0.155722 -0.425973 2.367 -0.368486 0.60351 0.707103 255 0 0 255
-0.149381 -0.426344 2.369 -0.173256 0.695319 0.697506 255 0 0 255
-0.142667 -0.425635 2.365 0.0482918 0.701445 0.711086 255 0 0 255
-0.136261 -0.425826 2.366 0.0663031 0.750466 0.657574 255 0 0 255
-0.130015 -0.426556 2.37 -0.742995 0.461254 0.484977 255 0 0 255
-0.124163 -0.428725 2.382 -0.569295 0.393657 0.72176 255 0 0 255
-0.11869 -0.432514 2.403 -0.948571 -0.01744 0.316083 255 0 0 255
-0.113008 -0.435943 2.422 -0.95779 -0.110321 0.265458 255 0 0 255
-0.070785 -0.462993 2.572 -0.342613 0.391183 0.854162 255 0 0 255
-0.063876 -0.463898 2.577 0.663182 -0.0386591 0.747459 255 0 0 255
-0.056609 -0.462102 2.567 0.71494 0.340401 0.610727 255 0 0 255
-0.049338 -0.459766 2.554 0.851271 -0.0644432 0.520754 255 0 0 255
-0.042155 -0.45761 2.542 0.747902 -0.115709 0.653647 255 0 0 255
-0.035148 -0.456892 2.538 0.49961 0.02003 0.866019 255 0 0 255
-0.028185 -0.456535 2.536 -0.0390558 0.138332 0.989616 255 0 0 255
-0.021258 -0.456717 2.537 0.100474 0.415909 0.903839 255 0 0 255
-0.014314 -0.456538 2.536 0.21909 0.578746 0.785527 255 0 0 255
-0.007355 -0.455099 2.528 0.376309 0.690216 0.618057 255 0 0 255
-0.00044 -0.453659 2.52 0.400761 0.687682 0.60538 255 0 0 255
0.006441 -0.452939 2.516 0.279232 0.665483 0.692215 255 0 0 255
0.013311 -0.452578 2.514 0.0277075 0.728655 0.68432 255 0 0 255
0.020227 -0.453477 2.519 -0.320722 0.610434 0.724229 255 0 0 255
0.02717 -0.454375 2.524 -0.394332 0.620499 0.677852 255 0 0 255
0.034126 -0.455093 2.528 -0.44129 0.686922 0.577409 255 0 0 255
0.041072 -0.45545 2.53 -0.687688 0.576992 0.440642 255 0 0 255
-0.204006 -0.42518 2.328 -0.400406 -0.0869841 0.9122 255 0 0 255
-0.197736 -0.425377 2.329 -0.529712 0.0677939 0.845464 255 0 0 255
-0.191705 -0.426122 2.333 -0.437332 0.235637 0.86788 255 0 0 255
-0.185732 -0.42705 2.338 -0.667302 0.322434 0.671376 255 0 0 255
-0.179808 -0.428159 2.344 -0.533012 0.513869 0.672188 255 0 0 255
-0.174072 -0.429816 2.353 -0.576667 0.601154 0.553235 255 0 0 255
-0.168072 -0.430925 2.359 -0.551132 0.612149 0.567034 255 0 0 255
-0.162177 -0.432399 2.367 -0.50917 0.42321 0.749426 255 0 0 255
-0.156039 -0.433325 2.372 -0.484671 0.27209 0.831301 255 0 0 255
-0.149874 -0.434249 2.377 -0.274014 0.499919 0.821582 255 0 0 255
-0.143319 -0.434078 2.376 -0.105605 0.659707 0.744066 255 0 0 255
-0.136769 -0.433906 2.375 -0.0395488 0.704818 0.708285 255 0 0 255
-0.130554 -0.43483 2.38 -0.437187 0.381405 0.814492 255 0 0 255
-0.124258 -0.43557 2.384 -0.520167 0.34855 0.779705 255 0 0 255
-0.11873 -0.439234 2.404 -0.923463 -0.00592379 0.383642 255 0 0 255
-0.112673 -0.441252 2.415 -0.945897 -0.0584169 0.319165 255 0 0 255
-0.07089 -0.470721 2.576 -0.27796 -0.210082 0.937339 255 0 0 255
-0.063896 -0.471092 2.578 0.38868 -0.0847906 0.917463 255 0 0 255
-0.056494 -0.468172 2.562 0.845346 -0.0671867 0.529978 255 0 0 255
-0.049257 -0.465984 2.55 0.838865 0.0299483 0.543515 255 0 0 255
-0.042085 -0.463794 2.538 0.553716 -0.0122998 0.832615 255 0 0 255
-0.035145 -0.463797 2.538 0.22344 0.00979713 0.974668 255 0 0 255
-0.028183 -0.463434 2.536 0.141683 -0.105151 0.984312 255 0 0 255
-0.021282 -0.464167 2.54 -0.133491 -0.137412 0.981478 255 0 0 255
-0.01433 -0.463986 2.539 -0.15598 -0.161444 0.974477 255 0 0 255
-0.00739 -0.46417 2.54 0.385751 0.258642 0.885607 255 0 0 255
-0.000442 -0.462708 2.532 0.602963 0.420288 0.678081 255 0 0 255
0.006469 -0.461794 2.527 0.269871 0.526248 0.80637 255 0 0 255
0.013347 -0.460697 2.521 -0.167861 0.546107 0.820726 255 0 0 255
0.020273 -0.461426 2.525 -0.276724 0.50603 0.816919 255 0 0 255
0.027243 -0.462521 2.531 -0.516842 0.54237 0.662351 255 0 0 255
0.034299 -0.464346 2.541 -0.619077 0.618483 0.483966 255 0 0 255
0.041361 -0.465622 2.548 -0.704202 0.476207 0.526619 255 0 0 255
-0.203553 -0.430583 2.323 -0.596159 0.181711 0.782033 255 0 0 255
-0.197806 -0.431896 2.33 -0.625233 0.249729 0.739405 255 0 0 255
-0.191937 -0.433023 2.336 -0.606458 0.399156 0.687665 255 0 0 255
-0.186274 -0.434705 2.345 -0.692729 0.388593 0.607554 255 0 0 255
-0.180408 -0.436017 2.352 -0.707045 0.331679 0.624561 255 0 0 255
-0.17465 -0.437698 2.361 -0.613454 0.415996 0.671283 255 0 0 255
-0.168629 -0.438824 2.367 -0.483773 0.331718 0.809893 255 0 0 255
-0.162233 -0.439022 2.368 -0.413828 0.319111 0.852593 255 0 0 255
-0.156027 -0.439775 2.372 -0.558316 0.148072 0.816307 255 0 0 255
-0.149863 -0.440714 2.377 -0.33061 0.388264 0.860202 255 0 0 255
-0.143731 -0.441838 2.383 -0.073357 0.57991 0.811371 255 0 0 255
-0.136932 -0.440922 2.378 -0.167199 0.544602 0.821859 255 0 0 255
-0.130653 -0.441674 2.382 -0.25476 0.530321 0.808614 255 0 0 255
-0.124248 -0.442054 2.384 -0.454851 0.419127 0.785775 255 0 0 255
-0.118721 -0.445772 2.404 -0.88127 0.14612 0.449458 255 0 0 255
-0.112758 -0.448192 2.417 -0.90585 0.0281331 0.422664 255 0 0 255
-0.077776 -0.476795 2.571 -0.230543 -0.232987 0.944758 255 0 0 255
-0.070802 -0.477171 2.573 -0.280699 -0.242267 0.928716 255 0 0 255
-0.063792 -0.477362 2.574 0.329852 -0.35444 0.874968 255 0 0 255
-0.05649 -0.475141 2.562 0.796765 -0.041855 0.602838 255 0 0 255
-0.049292 -0.473291 2.552 0.78281 0.0902978 0.615674 255 0 0 255
-0.042149 -0.47144 2.542 0.625511 0.16483 0.762606 255 0 0 255
-0.03517 -0.471072 2.54 0.424985 0.0968869 0.9 255 0 0 255
-0.028147 -0.469776 2.533 0.25072 -0.0224328 0.9678 255 0 0 255
-0.02123 -0.469964 2.534 -0.131466 -0.186324 0.973653 255 0 0 255
-0.014306 -0.47015 2.535 -0.133723 -0.173277 0.975753 255 0 0 255
-0.007383 -0.470708 2.538 0.0964955 -0.107986 0.989458 255 0 0 255
-0.000443 -0.469781 2.533 0.47644 0.0771218 0.875818 255 0 0 255
0.006468 -0.468668 2.527 0.399221 0.304213 0.864915 255 0 0 255
0.013357 -0.467925 2.523 0.0102251 0.424545 0.905349 255 0 0 255
0.020288 -0.468665 2.527 -0.373292 0.401404 0.836378 255 0 0 255
0.027327 -0.470889 2.539 -0.726537 0.393177 0.563521 255 0 0 255
0.034445 -0.473298 2.552 -0.767931 0.197669 0.609269 255 0 0 255
-0.203976 -0.43784 2.328 -0.520057 0.459877 0.719759 255 0 0 255
-0.198385 -0.439547 2.337 -0.567716 0.517211 0.640462 255 0 0 255
-0.19217 -0.439938 2.339 -0.476222 0.511913 0.714953 255 0 0 255
-0.186419 -0.441457 2.347 -0.606243 0.274445 0.746424 255 0 0 255
-0.180624 -0.442976 2.355 -0.819166 0.0765472 0.568425 255 0 0 255
-0.175007 -0.445059 2.366 -0.640749 0.163267 0.750189 255 0 0 255
-0.168688 -0.445448 2.368 -0.385206 0.273867 0.881256 255 0 0 255
-0.162357 -0.445837 2.37 -0.31647 0.470893 0.823472 255 0 0 255
-0.15595 -0.446037 2.371 -0.497825 0.391693 0.773787 255 0 0 255
-0.150103 -0.44793 2.381 -0.556979 0.400273 0.727706 255 0 0 255
-0.144081 -0.449446 2.389 -0.273731 0.398499 0.875368 255 0 0 255
-0.137324 -0.448705 2.385 -0.173987 0.595731 0.784113 255 0 0 255
-0.130972 -0.44928 2.388 -0.19962 0.637805 0.743879 255 0 0 255
-0.124604 -0.449854 2.391 -0.61225 0.548244 0.569718 255 0 0 255
-0.118959 -0.45325 2.409 -0.803412 0.221337 0.552756 255 0 0 255
-0.112796 -0.454953 2.418 -0.75404 0.193638 0.627637 255 0 0 255
-0.109788 -0.47039 2.5 -0.574418 -0.296811 0.762855 255 0 0 255
-0.083379 -0.475689 2.528 -0.796053 0.170964 0.580578 255 0 0 255
-0.077709 -0.48341 2.569 -0.187528 -0.375636 0.907596 255 0 0 255
-0.070714 -0.483604 2.57 -0.187528 -0.375636 0.907596 255 0 0 255
-0.063713 -0.483797 2.571 0.439802 -0.0405133 0.897181 255 0 0 255
-0.056464 -0.48192 2.561 0.74596 -0.00328307 0.665983 255 0 0 255
-0.049327 -0.480607 2.554 0.63729 0.246373 0.730179 255 0 0 255
-0.042162 -0.478541 2.543 0.5132 0.452164 0.729502 255 0 0 255
-0.035168 -0.47798 2.54 0.420894 0.421439 0.803266 255 0 0 255
-0.028167 -0.477041 2.535 0.329657 0.299308 0.8954 255 0 0 255
-0.021236 -0.477043 2.535 0.12255 0.260567 0.957646 255 0 0 255
-0.014305 -0.477044 2.535 -0.122158 0.113433 0.986007 255 0 0 255
-0.007377 -0.477233 2.536 -0.0194132 0.128113 0.99157 255 0 0 255
-0.000443 -0.477046 2.535 0.359473 0.357355 0.862019 255 0 0 255
0.006475 -0.476104 2.53 0.192747 0.514544 0.83552 255 0 0 255
0.013382 -0.475727 2.528 0.0247378 0.578639 0.815209 255 0 0 255
0.020326 -0.476479 2.532 -0.452928 0.519671 0.72443 255 0 0 255
0.0274 -0.479111 2.546 -0.730362 0.0450525 0.681572 255 0 0 255
0.034496 -0.480991 2.556 -0.763791 0.167809 0.623268 255 0 0 255
-0.204924 -0.446266 2.339 -0.49251 0.546971 0.676946 255 0 0 255
-0.198879 -0.447045 2.343 -0.400581 0.52145 0.753409 255 0 0 255
-0.192648 -0.447441 2.345 -0.315506 0.579632 0.75132 255 0 0 255
-0.186484 -0.448028 2.348 -0.477864 0.345651 0.807571 255 0 0 255
-0.180457 -0.448996 2.353 -0.76228 0.0216523 0.646885 255 0 0 255
-0.174772 -0.450918 2.363 -0.836775 -0.0421738 0.54592 255 0 0 255
-0.16896 -0.452649 2.372 -0.859847 0.0332262 0.509469 255 0 0 255
-0.162893 -0.453806 2.378 -0.423022 0.598581 0.68026 255 0 0 255
-0.156464 -0.45401 2.379 -0.239685 0.656698 0.715051 255 0 0 255
-0.150218 -0.454785 2.383 -0.408793 0.451318 0.793221 255 0 0 255
-0.14407 -0.455941 2.389 -0.374779 0.488015 0.788278 255 0 0 255
-0.137601 -0.456143 2.39 -0.318426 0.543717 0.776516 255 0 0 255
-0.131346 -0.457108 2.395 -0.396034 0.641937 0.656563 255 0 0 255
-0.125063 -0.458072 2.4 -0.675932 0.503429 0.538215 255 0 0 255
-0.118999 -0.45999 2.41 -0.73414 0.23225 0.638043 255 0 0 255
-0.112787 -0.461527 2.418 -0.711563 0.141492 0.688228 255 0 0 255
-0.107277 -0.466307 2.443 -0.930323 0.0788249 0.35817 255 0 0 255
-0.085121 -0.492679 2.581 0.740086 0.0680291 0.669062 255 0 0 255
-0.077612 -0.489822 2.566 -0.225376 0.150343 0.962602 255 0 0 255
-0.070653 -0.49021 2.568 -0.0194227 0.230688 0.972834 255 0 0 255
-0.063658 -0.490406 2.569 0.709956 -0.0301634 0.7036 255 0 0 255
-0.056459 -0.488884 2.561 0.689515 0.0644911 0.721394 255 0 0 255
-0.049381 -0.488124 2.557 0.415976 0.185629 0.890228 255 0 0 255
-0.042274 -0.486792 2.55 0.369769 0.584332 0.722376 255 0 0 255
-0.035289 -0.486604 2.549 0.271684 0.635984 0.722296 255 0 0 255
-0.028265 -0.485652 2.544 0.0826212 0.740194 0.667298 255 0 0 255
-0.021344 -0.486417 2.548 0.0345174 0.75236 0.657847 255 0 0 255
-0.014389 -0.486801 2.55 0.11035 0.776324 0.620599 255 0 0 255
-0.007397 -0.485465 2.543 0.320548 0.584261 0.745579 255 0 0 255
-0.000443 -0.48432 2.537 0.310148 0.448639 0.838172 255 0 0 255
0.006483 -0.483556 2.533 0.121009 0.502819 0.855879 255 0 0 255
0.013429 -0.484319 2.537 -0.0792867 0.588778 0.804397 255 0 0 255
0.020365 -0.484318 2.537 -0.410938 0.488652 0.769642 255 0 0 255
0.027365 -0.485461 2.543 -0.483599 0.11571 0.867608 255 0 0 255
0.034399 -0.486604 2.549 -0.748361 0.0247914 0.662828 255 0 0 255
-0.202631 -0.447592 2.313 -0.930354 0.107149 0.350659 255 0 0 255
-0.199543 -0.454961 2.351 -0.298377 0.488716 0.819834 255 0 0 255
-0.193126 -0.454976 2.351 -0.196841 0.50275 0.841722 255 0 0 255
-0.186788 -0.455184 2.352 -0.102367 0.432672 0.895721 255 0 0 255
-0.180213 -0.454811 2.35 -0.443161 0.224125 0.867972 255 0 0 255
-0.17461 -0.456953 2.361 -0.878278 -0.0283657 0.477308 255 0 0 255
-0.168876 -0.458902 2.371 -0.833989 0.073231 0.546899 255 0 0 255
-0.16336 -0.461625 2.385 -0.604346 0.422102 0.675719 255 0 0 255
-0.156846 -0.461637 2.385 -0.313416 0.533723 0.785436 255 0 0 255
-0.150647 -0.462617 2.39 -0.293698 0.465546 0.83487 255 0 0 255
-0.144119 -0.462629 2.39 -0.429147 0.406823 0.806429 255 0 0 255
-0.138051 -0.464188 2.398 -0.497476 0.493732 0.713265 255 0 0 255
-0.131884 -0.465554 2.405 -0.546984 0.38772 0.741944 255 0 0 255
-0.125522 -0.466338 2.409 -0.606399 0.275619 0.745865 255 0 0 255
-0.119187 -0.467316 2.414 -0.648083 0.205755 0.733249 255 0 0 255
-0.112824 -0.468293 2.419 -0.66714 0.169743 0.725335 255 0 0 255
-0.085048 -0.499308 2.579 -0.781399 0.117931 0.612787 255 0 0 255
-0.077908 -0.498734 2.576 0.0489473 0.727129 0.684754 255 0 0 255
-0.070895 -0.498933 2.577 0.119157 0.617692 0.77734 255 0 0 255
-0.063727 -0.49797 2.572 0.593683 0.2169 0.774916 255 0 0 255
-0.056433 -0.495652 2.56 0.550459 0.2058 0.809099 255 0 0 255
-0.049435 -0.495656 2.56 0.246657 0.420773 0.872989 255 0 0 255
-0.042387 -0.495079 2.557 0.144432 0.574123 0.80593 255 0 0 255
-0.035397 -0.495082 2.557 0.114946 0.632117 0.7663 255 0 0 255
-0.028352 -0.494117 2.552 0.0348039 0.648447 0.760464 255 0 0 255
-0.021409 -0.494893 2.556 -0.0208276 0.576401 0.816901 255 0 0 255
-0.01445 -0.495863 2.561 -0.142347 0.626278 0.766494 255 0 0 255
-0.007425 -0.494315 2.553 0.390142 0.70073 0.5973 255 0 0 255
-0.000444 -0.492572 2.544 0.335822 0.653591 0.678264 255 0 0 255
0.006495 -0.49141 2.538 -0.0100175 0.584926 0.811025 255 0 0 255
0.01346 -0.492378 2.543 -0.0267895 0.540444 0.840953 255 0 0 255
0.020403 -0.492183 2.542 -0.166218 0.414786 0.894608 255 0 0 255
0.027374 -0.492568 2.544 -0.35078 0.142127 0.92561 255 0 0 255
0.034369 -0.493146 2.547 -0.685049 0.109653 0.720198 255 0 0 255
-0.199274 -0.46076 2.348 -0.304231 0.48343 0.820816 255 0 0 255
-0.193276 -0.461757 2.353 -0.182259 0.536386 0.824058 255 0 0 255
-0.18717 -0.462556 2.357 -0.133812 0.604038 0.785642 255 0 0 255
-0.180429 -0.461786 2.353 -0.312855 0.461033 0.830404 255 0 0 255
-0.174523 -0.463173 2.36 -0.736689 0.295166 0.608413 255 0 0 255
-0.168934 -0.465542 2.372 -0.888549 0.0760159 0.45244 255 0 0 255
-0.163347 -0.468106 2.385 -0.786993 0.188872 0.587341 255 0 0 255
-0.157097 -0.468904 2.389 -0.386713 0.375763 0.842173 255 0 0 255
-0.150888 -0.469897 2.394 -0.441776 0.502966 0.742872 255 0 0 255
-0.144349 -0.469909 2.394 -0.350149 0.561938 0.749414 255 0 0 255
-0.138271 -0.47149 2.402 -0.35697 0.398934 0.844644 255 0 0 255
-0.131819 -0.471893 2.404 -0.578723 0.142305 0.803012 255 0 0 255
-0.125564 -0.473081 2.41 -0.624463 0.126018 0.770821 255 0 0 255
-0.119128 -0.47368 2.413 -0.648083 0.205755 0.733249 255 0 0 255
-0.112955 -0.475456 2.422 -0.81639 0.257832 0.516749 255 0 0 255
-0.106996 -0.478409 2.437 -0.959349 -0.00377337 0.282197 255 0 0 255
-0.084612 -0.503765 2.566 -0.800699 0.226405 0.554637 255 0 0 255
-0.077932 -0.505931 2.577 -0.453385 0.281032 0.845851 255 0 0 255
-0.071082 -0.507311 2.584 0.116557 0.3558 0.927265 255 0 0 255
-0.063821 -0.505746 2.576 0.527299 0.481853 0.699838 255 0 0 255
-0.056516 -0.503395 2.564 0.53705 0.334631 0.774338 255 0 0 255
-0.049469 -0.503007 2.562 0.0882425 0.391177 0.916075 255 0 0 255
-0.042467 -0.50301 2.562 0.0818996 0.323869 0.942551 255 0 0 255
-0.035491 -0.503406 2.564 0.00752231 0.296053 0.955142 255 0 0 255
-0.028438 -0.502623 2.56 0.0306847 0.325846 0.944925 255 0 0 255
-0.021474 -0.503411 2.564 -0.217907 0.264477 0.939451 255 0 0 255
-0.014482 -0.504001 2.567 -0.169172 0.168847 0.971016 255 0 0 255
-0.007454 -0.503217 2.563 0.194975 0.607143 0.7703 255 0 0 255
-0.000446 -0.501057 2.552 0.400611 0.718684 0.568334 255 0 0 255
0.006517 -0.500075 2.547 0.196508 0.710183 0.676036 255 0 0 255
0.013474 -0.499878 2.546 0.0628536 0.624571 0.778435 255 0 0 255
0.020434 -0.499877 2.546 -0.147572 0.616338 0.77353 255 0 0 255
0.027372 -0.499482 2.544 -0.340707 0.430719 0.835703 255 0 0 255
0.034501 -0.502032 2.557 -0.599839 0.57027 0.561236 255 0 0 255
0.042286 -0.51165 2.606 0.990908 -0.0221917 0.132695 255 0 0 255
-0.199937 -0.468731 2.356 -0.294725 0.517151 0.80355 255 0 0 255
-0.193671 -0.469144 2.358 -0.202474 0.600601 0.773487 255 0 0 255
-0.187632 -0.470154 2.363 -0.215297 0.453735 0.864738 255 0 0 255
-0.181182 -0.470168 2.363 -0.163272 0.415386 0.894872 255 0 0 255
-0.174879 -0.47058 2.365 -0.507613 0.159461 0.8467 255 0 0 255
-0.168921 -0.471986 2.372 -0.830974 0.0906703 0.548873 255 0 0 255
-0.163334 -0.474586 2.385 -0.861556 0.057267 0.504422 255 0 0 255
-0.157413 -0.47639 2.394 -0.550607 0.417411 0.722911 255 0 0 255
-0.15138 -0.477994 2.402 -0.476483 0.451853 0.754183 255 0 0 255
-0.14488 -0.478205 2.403 -0.192609 0.545859 0.815438 255 0 0 255
-0.138317 -0.478216 2.403 -0.184066 0.490751 0.851635 255 0 0 255
-0.131754 -0.478226 2.403 -0.390376 0.238077 0.88934 255 0 0 255
-0.125606 -0.479829 2.411 -0.659396 0.233745 0.714535 255 0 0 255
-0.119316 -0.481033 2.417 -0.695607 0.328161 0.639094 255 0 0 255
-0.113273 -0.48343 2.429 -0.716433 0.336192 0.611309 255 0 0 255
-0.107032 -0.48523 2.438 -0.973039 0.0522355 0.224648 255 0 0 255
-0.100988 -0.488224 2.453 -0.914101 0.113653 0.389233 255 0 0 255
-0.090475 -0.504361 2.534 -0.762595 0.389664 0.516343 255 0 0 255
-0.08477 -0.511733 2.571 -0.703178 0.16616 0.691326 255 0 0 255
-0.078017 -0.513531 2.58 -0.451228 0.20852 0.867706 255 0 0 255
-0.071076 -0.514333 2.584 -0.0469161 0.280956 0.958573 255 0 0 255
-0.063891 -0.513343 2.579 0.307693 0.396781 0.864806 255 0 0 255
-0.0566 -0.511159 2.568 0.55046 0.51084 0.660331 255 0 0 255
-0.049504 -0.510367 2.564 0.254014 0.527495 0.810695 255 0 0 255
-0.04248 -0.510171 2.563 0.196067 0.425215 0.8836 255 0 0 255
-0.035447 -0.509776 2.561 0.155523 0.152408 0.976004 255 0 0 255
-0.028425 -0.509381 2.559 0.0735721 0.082763 0.99385 255 0 0 255
-0.021447 -0.509781 2.561 -0.326383 -0.0194765 0.945037 255 0 0 255
-0.014487 -0.511176 2.568 -0.182434 0.428225 0.885066 255 0 0 255
-0.007465 -0.510978 2.567 0.0972334 0.574019 0.813048 255 0 0 255
-0.000448 -0.51058 2.565 0.284692 0.530778 0.798264 255 0 0 255
0.006553 -0.509783 2.561 0.199428 0.662558 0.721974 255 0 0 255
0.013542 -0.509385 2.559 0.115263 0.760207 0.639375 255 0 0 255
0.020545 -0.509582 2.56 -0.0440173 0.739206 0.67204 255 0 0 255
0.027553 -0.509779 2.561 -0.254282 0.796756 0.548198 255 0 0 255
0.034714 -0.512165 2.573 -0.268515 0.74168 0.614663 255 0 0 255
-0.201619 -0.479164 2.376 0.6383 0.54482 0.543825 255 0 0 255
-0.194395 -0.477364 2.367 0.57866 0.431239 0.692232 255 0 0 255
-0.187618 -0.476573 2.363 -0.0968299 0.136508 0.985895 255 0 0 255
-0.181244 -0.476789 2.364 -0.184345 0.00470199 0.98285 255 0 0 255
-0.174865 -0.477004 2.365 -0.472204 0.0581055 0.879572 255 0 0 255
-0.168907 -0.47843 2.372 -0.782618 0.116023 0.611595 255 0 0 255
-0.163047 -0.480258 2.381 -0.869463 -0.00884421 0.493919 255 0 0 255
-0.157401 -0.482893 2.394 -0.850009 0.142879 0.507021 255 0 0 255
-0.151431 -0.484721 2.403 -0.53675 0.326913 0.777835 255 0 0 255
-0.14505 -0.485338 2.406 -0.140186 0.335615 0.93151 255 0 0 255
-0.138594 -0.485752 2.408 -0.134777 0.394072 0.909144 255 0 0 255
-0.132017 -0.485763 2.408 -0.460067 0.323329 0.82692 255 0 0 255
-0.125857 -0.487387 2.416 -0.588563 0.346967 0.730211 255 0 0 255
-0.119554 -0.488608 2.422 -0.710571 0.342144 0.614839 255 0 0 255
-0.11331 -0.490231 2.43 -0.760108 0.478508 0.43962 255 0 0 255
-0.107155 -0.492459 2.441 -0.907878 0.311136 0.280985 255 0 0 255
-0.099786 -0.489038 2.424 -0.747896 0.373709 0.548628 255 0 0 255
-0.091681 -0.518105 2.568 -0.778015 0.3495 0.522055 255 0 0 255
-0.084994 -0.52013 2.578 -0.58059 0.316326 0.750236 255 0 0 255
-0.07795 -0.520137 2.578 -0.450318 0.293607 0.843213 255 0 0 255
-0.071098 -0.521555 2.585 -0.26483 0.154397 0.951854 255 0 0 255
-0.06396 -0.520955 2.582 0.0849931 0.589995 0.802921 255 0 0 255
-0.056882 -0.520758 2.581 0.248472 0.643022 0.72442 255 0 0 255
-0.049732 -0.519754 2.576 0.354677 0.737883 0.574223 255 0 0 255
-0.042609 -0.518749 2.571 0.327076 0.677249 0.659056 255 0 0 255
-0.035513 -0.517743 2.566 0.323348 0.45 0.832434 255 0 0 255
-0.028445 -0.516737 2.561 -0.112334 0.344798 0.931931 255 0 0 255
-0.021462 -0.517142 2.563 -0.346554 0.394222 0.851169 255 0 0 255
-0.014508 -0.51896 2.572 -0.280992 0.544646 0.790192 255 0 0 255
-0.007485 -0.519364 2.574 0.169846 0.630802 0.757127 255 0 0 255
-0.000449 -0.518558 2.57 0.179975 0.60577 0.775017 255 0 0 255
0.00657 -0.518154 2.568 0.0461948 0.667359 0.743302 255 0 0 255
0.013583 -0.517951 2.567 0.101304 0.686886 0.71967 255 0 0 255
0.020639 -0.518959 2.572 -0.229127 0.775633 0.588128 255 0 0 255
0.02754 -0.516535 2.56 -0.153332 0.764356 0.626299 255 0 0 255
-0.204488 -0.492566 2.41 0.924277 0.227032 0.306869 255 0 0 255
-0.195366 -0.486245 2.379 0.741542 0.331719 0.583162 255 0 0 255
-0.187682 -0.483195 2.364 -0.0404831 -0.0566572 0.997573 255 0 0 255
-0.18123 -0.483209 2.364 -0.260282 0.0648964 0.963349 255 0 0 255
-0.174999 -0.483836 2.367 -0.561466 0.149959 0.813799 255 0 0 255
-0.169179 -0.48569 2.376 -0.74635 0.172804 0.642729 255 0 0 255
-0.163103 -0.486929 2.382 -0.848938 0.0705522 0.523762 255 0 0 255
-0.157652 -0.490213 2.398 -0.801116 0.112827 0.587779 255 0 0 255
-0.151671 -0.492065 2.407 -0.436536 0.341511 0.83235 255 0 0 255
-0.145219 -0.492486 2.409 -0.226928 0.460328 0.858255 255 0 0 255
-0.138468 -0.491884 2.406 -0.151239 0.482012 0.863012 255 0 0 255
-0.132171 -0.492917 2.411 -0.435128 0.471438 0.767078 255 0 0 255
-0.125951 -0.494358 2.418 -0.566306 0.45693 0.685939 255 0 0 255
-0.119741 -0.496004 2.426 -0.726794 0.268411 0.632238 255 0 0 255
-0.113488 -0.497649 2.434 -0.760859 0.308137 0.571092 255 0 0 255
-0.107322 -0.499907 2.445 -0.851542 0.307857 0.424381 255 0 0 255
-0.101342 -0.503391 2.462 -0.818979 0.357375 0.448949 255 0 0 255
-0.091817 -0.525898 2.572 -0.79016 0.160048 0.591636 255 0 0 255
-0.085185 -0.528359 2.584 -0.393748 0.555238 0.73258 255 0 0 255
-0.078034 -0.527753 2.581 -0.351339 0.330691 0.875902 255 0 0 255
-0.071092 -0.528576 2.585 -0.144458 0.462382 0.874834 255 0 0 255
-0.064103 -0.529195 2.588 -0.020501 0.294247 0.955509 255 0 0 255
-0.057097 -0.529814 2.591 -0.250168 0.226741 0.941278 255 0 0 255
-0.049998 -0.529614 2.59 0.0654722 0.380059 0.922642 255 0 0 255
-0.042804 -0.528186 2.583 0.571386 0.530508 0.626162 255 0 0 255
-0.035607 -0.526145 2.573 0.338801 0.705925 0.622001 255 0 0 255
-0.02852 -0.525125 2.568 0.0300565 0.686874 0.726155 255 0 0 255
-0.021519 -0.525536 2.57 -0.293927 0.708821 0.641233 255 0 0 255
-0.014563 -0.527991 2.582 -0.221789 0.655393 0.72199 255 0 0 255
-0.007504 -0.527788 2.581 0.0750439 0.59486 0.800318 255 0 0 255
-0.00045 -0.527174 2.578 0.219086 0.614558 0.757839 255 0 0 255
0.006585 -0.526356 2.574 0.0561938 0.614109 0.787218 255 0 0 255
0.01363 -0.526764 2.576 -0.0957426 0.600662 0.79375 255 0 0 255
0.020702 -0.527581 2.58 -0.227312 0.575571 0.785524 255 0 0 255
-0.205999 -0.502838 2.428 0.895584 0.192045 0.401307 255 0 0 255
-0.195925 -0.494155 2.386 0.770974 0.38406 0.508033 255 0 0 255
-0.187588 -0.489407 2.363 -0.148504 0.224715 0.963042 255 0 0 255
-0.181063 -0.489214 2.362 -0.226087 0.284323 0.931689 255 0 0 255
-0.175059 -0.490471 2.368 -0.628252 0.100518 0.771489 255 0 0 255
-0.169165 -0.492142 2.376 -0.753996 0.110877 0.647453 255 0 0 255
-0.163022 -0.49319 2.381 -0.791288 0.0477409 0.609577 255 0 0 255
-0.15731 -0.495689 2.393 -0.909184 0.0265994 0.415545 255 0 0 255
-0.151659 -0.498601 2.407 -0.798343 0.0924627 0.595062 255 0 0 255
-0.145509 -0.500063 2.414 -0.401677 0.437781 0.804365 255 0 0 255
-0.139032 -0.500489 2.416 -0.281047 0.551935 0.785099 255 0 0 255
-0.132599 -0.501121 2.419 -0.307285 0.439023 0.844295 255 0 0 255
-0.126149 -0.501753 2.422 -0.530665 0.308912 0.789284 255 0 0 255
-0.119929 -0.503421 2.43 -0.703537 0.375341 0.603453 255 0 0 255
-0.113572 -0.504673 2.436 -0.7588 0.391347 0.520644 255 0 0 255
-0.10762 -0.507997 2.452 -0.77705 0.430432 0.459262 255 0 0 255
-0.101334 -0.510077 2.462 -0.84375 0.362661 0.395681 255 0 0 255
-0.098298 -0.529975 2.558 -0.910852 0.132952 0.390734 255 0 0 255
-0.092737 -0.53827 2.598 0.279095 0.641752 0.714325 255 0 0 255
-0.085508 -0.537449 2.594 0.244337 0.733612 0.634124 255 0 0 255
-0.07827 -0.536419 2.589 0.118358 0.504528 0.855244 255 0 0 255
-0.071224 -0.536633 2.59 0.105434 0.476166 0.873012 255 0 0 255
-0.064098 -0.536224 2.588 0.160725 -0.0325835 0.986461 255 0 0 255
-0.057049 -0.536436 2.589 -0.171969 -0.321824 0.931051 255 0 0 255
-0.050052 -0.537269 2.593 0.121389 -0.257582 0.958601 255 0 0 255
-0.042917 -0.536651 2.59 0.299942 -0.0454573 0.952874 255 0 0 255
-0.035798 -0.536033 2.587 0.397693 -0.165058 0.90255 255 0 0 255
-0.028651 -0.534585 2.58 0.248117 0.527763 0.812345 255 0 0 255
-0.021609 -0.534795 2.581 -0.490343 0.340834 0.802119 255 0 0 255
-0.014585 -0.535832 2.586 -0.278311 0.281685 0.918258 255 0 0 255
-0.007521 -0.53604 2.587 -0.10159 0.54322 0.833422 255 0 0 255
-0.000452 -0.535833 2.586 0.168088 0.621278 0.76535 255 0 0 255
0.006595 -0.534175 2.578 0.0138011 0.620098 0.784403 255 0 0 255
0.013655 -0.534796 2.581 0.0138011 0.620098 0.784403 255 0 0 255
0.020716 -0.535002 2.582 -0.143286 0.5799 0.801988 255 0 0 255
-0.206238 -0.510059 2.431 0.895584 0.192046 0.401307 255 0 0 255
-0.196485 -0.502101 2.393 0.897162 0.262993 0.354874 255 0 0 255
-0.188129 -0.497291 2.37 0.0435823 0.462602 0.885494 255 0 0 255
-0.181432 -0.496676 2.367 -0.227902 0.307183 0.923958 255 0 0 255
-0.175267 -0.497529 2.371 -0.465733 0.0514789 0.883427 255 0 0 255
-0.169365 -0.499222 2.379 -0.721782 -0.035295 0.69122 255 0 0 255
-0.163282 -0.500494 2.385 -0.852903 0.00828602 0.522003 255 0 0 255
-0.157561 -0.503025 2.397 -0.888902 -0.040449 0.456307 255 0 0 255
-0.151647 -0.505136 2.407 -0.843911 0.0429801 0.534758 255 0 0 255
-0.145678 -0.507247 2.417 -0.612863 0.275002 0.740792 255 0 0 255
-0.139021 -0.507048 2.416 -0.312773 0.328052 0.891378 255 0 0 255
-0.132698 -0.508109 2.421 -0.370837 0.485906 0.791439 255 0 0 255
-0.126191 -0.508539 2.423 -0.573439 0.476122 0.66669 255 0 0 255
-0.120215 -0.511278 2.436 -0.666147 0.53192 0.52279 255 0 0 255
-0.114075 -0.513596 2.447 -0.713851 0.532489 0.454832 255 0 0 255
-0.107963 -0.516334 2.46 -0.7245 0.463668 0.510012 255 0 0 255
-0.102067 -0.52054 2.48 -0.839122 0.29549 0.456684 255 0 0 255
-0.097982 -0.535241 2.55 -0.969203 0.234146 0.0762969 255 0 0 255
-0.093265 -0.548473 2.613 0.530834 0.54266 0.650949 255 0 0 255
-0.086094 -0.54827 2.612 0.530834 0.54266 0.650949 255 0 0 255
-0.078656 -0.546178 2.602 0.620724 0.557187 0.551583 255 0 0 255
-0.0713 -0.544295 2.593 0.649311 0.241386 0.721198 255 0 0 255
-0.064043 -0.542831 2.586 0.302838 -0.149364 0.941265 255 0 0 255
-0.056912 -0.542206 2.583 -0.0244886 -0.432203 0.901444 255 0 0 255
-0.049932 -0.54305 2.587 0.00176784 -0.566867 0.823808 255 0 0 255
-0.042814 -0.542424 2.584 0.26768 -0.544748 0.794731 255 0 0 255
-0.03574 -0.542218 2.583 0.377887 -0.320335 0.86867 255 0 0 255
-0.028649 -0.541591 2.58 0.206937 -0.293211 0.933383 255 0 0 255
-0.021624 -0.542223 2.583 -0.438362 -0.088725 0.894409 255 0 0 255
-0.014589 -0.543064 2.587 -0.577107 0.0437587 0.815495 255 0 0 255
-0.007532 -0.543904 2.591 -0.382849 0.239449 0.892239 255 0 0 255
-0.000453 -0.544115 2.592 0.0942313 0.353576 0.930647 255 0 0 255
0.006625 -0.543694 2.59 0.230276 0.375364 0.897817 255 0 0 255
0.013691 -0.543274 2.588 -0.135017 0.563032 0.815331 255 0 0 255
0.020867 -0.546001 2.601 -0.492802 0.293277 0.819228 255 0 0 255
-0.205288 -0.514319 2.42 0.895584 0.192045 0.401307 255 0 0 255
-0.196551 -0.508809 2.394 0.873639 0.30813 0.376577 255 0 0 255
-0.18867 -0.505211 2.377 0.69945 0.306564 0.645591 255 0 0 255
-0.181647 -0.503738 2.37 0.019869 0.302083 0.953075 255 0 0 255
-0.175179 -0.503752 2.37 -0.506736 0.133077 0.851768 255 0 0 255
-0.169138 -0.505042 2.376 -0.724367 -0.0855182 0.68409 255 0 0 255
-0.162995 -0.506118 2.381 -0.832948 -0.0225498 0.552892 255 0 0 255
-0.157416 -0.509107 2.395 -0.901357 -0.0900745 0.423607 255 0 0 255
-0.151572 -0.511457 2.406 -0.888027 -0.107827 0.446969 255 0 0 255
-0.145787 -0.514233 2.419 -0.657784 0.143172 0.739474 255 0 0 255
-0.139355 -0.514882 2.422 -0.441919 0.30199 0.844695 255 0 0 255
-0.13318 -0.516594 2.43 -0.663312 0.499644 0.557111 255 0 0 255
-0.126649 -0.51703 2.432 -0.629023 0.55521 0.544124 255 0 0 255
-0.12065 -0.519804 2.445 -0.694851 0.520107 0.49666 255 0 0 255
-0.114346 -0.521514 2.453 -0.696783 0.518151 0.495997 255 0 0 255
-0.108217 -0.524287 2.466 -0.763344 0.40525 0.503069 255 0 0 255
-0.10214 -0.527698 2.482 -0.840224 0.0997703 0.532981 255 0 0 255
-0.098358 -0.54429 2.56 -0.907251 0.0714552 0.414476 255 0 0 255
-0.093329 -0.555991 2.615 0.721844 -0.246814 0.646548 255 0 0 255
-0.086351 -0.557062 2.62 0.721844 -0.246814 0.646548 255 0 0 255
-0.078952 -0.555368 2.612 0.644946 0.0290147 0.763677 255 0 0 255
-0.07146 -0.55261 2.599 0.816261 -0.202749 0.540935 255 0 0 255
-0.064062 -0.550064 2.587 0.661813 -0.0651121 0.746836 255 0 0 255
-0.056863 -0.548793 2.581 0.317502 -0.159334 0.934776 255 0 0 255
-0.049831 -0.54901 2.582 0.105343 -0.277608 0.954902 255 0 0 255
-0.042727 -0.548376 2.579 0.178436 -0.340701 0.923083 255 0 0 255
-0.035695 -0.548592 2.58 0.0864365 -0.0464364 0.995175 255 0 0 255
-0.028624 -0.548169 2.578 0.0280549 0.062488 0.997651 255 0 0 255
-0.021581 -0.548172 2.578 -0.281546 0.0832583 0.955929 255 0 0 255
-0.014571 -0.549449 2.584 -0.609802 -0.00511919 0.792537 255 0 0 255
-0.007534 -0.551151 2.592 -0.504555 0.0442243 0.862246 255 0 0 255
-0.000453 -0.552002 2.596 0.156947 0.145487 0.976832 255 0 0 255
0.006624 -0.550726 2.59 0.433494 -0.207585 0.876921 255 0 0 255
0.013716 -0.551363 2.593 -0.210517 -0.444508 0.870687 255 0 0 255
0.020809 -0.551574 2.594 -0.492802 0.293277 0.819228 255 0 0 255
-0.213099 -0.523883 2.434 0.851873 0.171403 0.494908 255 0 0 255
-0.206544 -0.524115 2.435 0.832184 0.224624 0.506966 255 0 0 255
-0.197603 -0.518104 2.407 0.838607 0.371679 0.398239 255 0 0 255
-0.18929 -0.513384 2.385 0.753064 0.451362 0.478714 255 0 0 255
-0.181786 -0.510601 2.372 0.0567991 0.208613 0.976348 255 0 0 255
-0.175239 -0.5104 2.371 -0.219599 0.261236 0.939964 255 0 0 255
-0.168982 -0.511059 2.374 -0.630014 0.0232539 0.776235 255 0 0 255
-0.163051 -0.512795 2.382 -0.819225 -0.0114297 0.573359 255 0 0 255
-0.157338 -0.515391 2.394 -0.868772 -0.313711 0.383172 255 0 0 255
-0.151496 -0.517772 2.405 -0.891261 -0.26717 0.366434 255 0 0 255
-0.145714 -0.520583 2.418 -0.800941 -0.0594712 0.595783 255 0 0 255
-0.139401 -0.521671 2.423 -0.821437 0.0636778 0.566734 255 0 0 255
-0.133498 -0.524481 2.436 -0.785975 0.265547 0.558326 255 0 0 255
-0.12716 -0.525783 2.442 -0.846101 0.21724 0.486744 255 0 0 255
-0.121232 -0.529023 2.457 -0.760756 0.385588 0.522085 255 0 0 255
-0.114896 -0.530756 2.465 -0.72088 0.347353 0.599731 255 0 0 255
-0.108428 -0.532057 2.471 -0.784082 0.200358 0.587429 255 0 0 255
-0.102214 -0.534865 2.484 -0.793214 0.121396 0.59672 255 0 0 255
-0.097812 -0.548223 2.546 -0.99588 -0.0561832 0.07118 255 0 0 255
-0.092964 -0.560935 2.605 -0.347218 -0.784813 0.513331 255 0 0 255
-0.086146 -0.562881 2.614 0.0406553 -0.674275 0.737361 255 0 0 255
-0.078674 -0.560519 2.603 0.66856 -0.49233 0.55735 255 0 0 255
-0.071344 -0.558802 2.595 0.74455 -0.302364 0.595165 255 0 0 255
-0.064082 -0.557301 2.588 0.692024 -0.260203 0.673348 255 0 0 255
-0.05688 -0.556014 2.582 0.379736 -0.145182 0.913632 255 0 0 255
-0.049788 -0.555588 2.58 0.079984 -0.0762897 0.993873 255 0 0 255
-0.042724 -0.555376 2.579 -0.1317 0.0252621 0.990968 255 0 0 255
-0.035706 -0.55581 2.581 -0.21401 0.260883 0.94135 255 0 0 255
-0.028688 -0.556459 2.584 0.0454596 0.338555 0.939848 255 0 0 255
-0.021612 -0.55603 2.582 -0.212426 0.326741 0.920932 255 0 0 255
-0.014587 -0.557108 2.587 -0.420789 0.118007 0.899451 255 0 0 255
-0.007531 -0.557971 2.591 -0.503299 0.0919698 0.859204 255 0 0 255
-0.000453 -0.558617 2.594 0.366698 -0.0972836 0.92524 255 0 0 255
0.006618 -0.557325 2.588 0.633322 -0.284608 0.719653 255 0 0 255
0.013673 -0.556678 2.585 -0.303474 -0.406294 0.861875 255 0 0 255
0.020791 -0.558184 2.592 -0.378919 -0.556642 0.739304 255 0 0 255
-0.206443 -0.530504 2.434 0.819684 0.169859 0.547053 255 0 0 255
-0.198654 -0.527469 2.42 0.819809 0.341367 0.459764 255 0 0 255
-0.190148 -0.522253 2.396 0.759833 0.423419 0.493326 255 0 0 255
-0.182078 -0.517909 2.376 0.369071 0.519996 0.770319 255 0 0 255
-0.175521 -0.517705 2.375 -0.232068 0.469273 0.852014 255 0 0 255
-0.169182 -0.518155 2.377 -0.280847 0.524592 0.803697 255 0 0 255
-0.162969 -0.51904 2.381 -0.536184 0.213425 0.816674 255 0 0 255
-0.156997 -0.520797 2.389 -0.845509 -0.168175 0.506785 255 0 0 255
-0.151232 -0.523426 2.401 -0.855776 -0.399424 0.328798 255 0 0 255
-0.145462 -0.526272 2.414 -0.828877 -0.409952 0.380659 255 0 0 255
-0.13939 -0.528246 2.423 -0.843785 -0.150807 0.515057 255 0 0 255
-0.133542 -0.531309 2.437 -0.890746 -0.150845 0.428739 255 0 0 255
-0.127305 -0.533064 2.445 -0.83404 -0.0956846 0.543343 255 0 0 255
-0.12137 -0.536345 2.46 -0.866813 -0.0296443 0.49775 255 0 0 255
-0.114933 -0.537663 2.466 -0.765674 0.0902152 0.63687 255 0 0 255
-0.108462 -0.53898 2.472 -0.781017 0.177603 0.598723 255 0 0 255
-0.101918 -0.540079 2.477 -0.780855 0.141334 0.608515 255 0 0 255
-0.096882 -0.549899 2.522 -0.971089 -0.196002 0.136269 255 0 0 255
-0.092457 -0.564952 2.591 -0.517591 -0.750781 0.410401 255 0 0 255
-0.085743 -0.567358 2.602 -0.250517 -0.76515 0.593115 255 0 0 255
-0.078425 -0.565838 2.595 0.406232 -0.449285 0.795688 255 0 0 255
-0.071118 -0.5641 2.587 0.578836 -0.285681 0.763764 255 0 0 255
-0.063928 -0.563015 2.582 0.419849 -0.152243 0.894734 255 0 0 255
-0.056853 -0.562802 2.581 0.395761 -0.10973 0.911775 255 0 0 255
-0.049765 -0.562371 2.579 0.0279685 -0.0667296 0.997379 255 0 0 255
-0.042786 -0.563247 2.583 -0.303613 -0.0916925 0.948373 255 0 0 255
-0.035758 -0.563686 2.585 -0.220877 0.0993454 0.970229 255 0 0 255
-0.02873 -0.564343 2.588 -0.231412 0.124031 0.964917 255 0 0 255
-0.021627 -0.563473 2.584 -0.208814 0.172838 0.962561 255 0 0 255
-0.014608 -0.565001 2.591 -0.36398 0.219521 0.905168 255 0 0 255
-0.00753 -0.565002 2.591 -0.391842 0.0560014 0.918326 255 0 0 255
-0.000453 -0.566093 2.596 0.121569 0.251661 0.96015 255 0 0 255
0.006608 -0.563475 2.584 0.583881 -0.533539 0.611898 255 0 0 255
0.013624 -0.56173 2.576 -0.303474 -0.406294 0.861875 255 0 0 255
-0.206851 -0.538211 2.439 0.803873 0.179803 0.566974 255 0 0 255
-0.199131 -0.535358 2.426 0.851101 0.160046 0.500012 255 0 0 255
-0.191005 -0.531181 2.407 0.853045 0.315017 0.416027 255 0 0 255
-0.182829 -0.526561 2.386 0.529815 0.578169 0.620497 255 0 0 255
-0.176172 -0.526134 2.384 0.0386673 0.629423 0.776101 255 0 0 255
-0.169596 -0.525928 2.383 -0.104853 0.571596 0.813808 255 0 0 255
-0.16323 -0.526383 2.385 -0.285678 0.451388 0.845362 255 0 0 255
-0.156721 -0.526396 2.385 -0.488049 0.0117605 0.872737 255 0 0 255
-0.150464 -0.527291 2.389 -0.640563 -0.0790377 0.763828 255 0 0 255
-0.144787 -0.530393 2.403 -0.858207 -0.396134 0.326434 255 0 0 255
-0.138976 -0.533274 2.416 -0.873509 -0.376316 0.308817 255 0 0 255
-0.133257 -0.536817 2.432 -0.851742 -0.322256 0.413143 255 0 0 255
-0.127139 -0.539035 2.442 -0.876081 -0.322124 0.358773 255 0 0 255
-0.121212 -0.542356 2.457 -0.898574 -0.166476 0.406018 255 0 0 255
-0.11511 -0.545236 2.47 -0.776629 0.123138 0.617806 255 0 0 255
-0.108629 -0.54657 2.476 -0.746553 0.173613 0.642274 255 0 0 255
-0.102197 -0.548344 2.484 -0.824203 0.226364 0.519084 255 0 0 255
-0.096567 -0.554975 2.514 -0.978303 -0.121467 0.167835 255 0 0 255
-0.091914 -0.56867 2.576 0.363014 -0.891137 0.272204 255 0 0 255
-0.085538 -0.573093 2.596 -0.0365694 -0.0294681 0.998897 255 0 0 255
-0.078268 -0.571775 2.59 0.510213 -0.153084 0.846315 255 0 0 255
-0.071139 -0.57134 2.588 0.58861 0.105985 0.80144 255 0 0 255
-0.063947 -0.570241 2.583 0.462038 0.189871 0.866297 255 0 0 255
-0.056849 -0.569805 2.581 0.244479 0.103161 0.964151 255 0 0 255
-0.049722 -0.568926 2.577 -0.0668379 -0.269163 0.960773 255 0 0 255
-0.04275 -0.569813 2.581 -0.0690755 -0.460904 0.884758 255 0 0 255
-0.035714 -0.570037 2.582 -0.143013 -0.682565 0.716695 255 0 0 255
-0.028684 -0.570482 2.584 -0.11069 -0.567203 0.816106 255 0 0 255
-0.021626 -0.570484 2.584 -0.274961 -0.678575 0.681125 255 0 0 255
-0.014601 -0.57181 2.59 -0.655453 -0.184404 0.732378 255 0 0 255
-0.007538 -0.572694 2.594 -0.579788 -0.231694 0.78113 255 0 0 255
-0.000454 -0.574019 2.6 -0.821475 0.00307596 0.570236 255 0 0 255
0.006602 -0.570045 2.582 0.656165 -0.220821 0.721586 255 0 0 255
-0.207004 -0.545273 2.441 0.810479 -0.0288718 0.585055 255 0 0 255
-0.199197 -0.542162 2.427 0.838763 0.154838 0.522017 255 0 0 255
-0.191387 -0.538826 2.412 0.858305 0.228326 0.459543 255 0 0 255
-0.183504 -0.535044 2.395 0.693783 0.40782 0.593589 255 0 0 255
-0.176527 -0.533718 2.389 0.230327 0.483869 0.844287 255 0 0 255
-0.169795 -0.533062 2.386 -0.0998144 0.41858 0.902678 255 0 0 255
-0.163422 -0.533522 2.388 -0.157156 0.465758 0.870845 255 0 0 255
-0.157168 -0.534429 2.392 -0.237973 0.31607 0.918405 255 0 0 255
-0.150577 -0.534218 2.391 -0.535634 0.312642 0.784443 255 0 0 255
-0.144474 -0.535794 2.398 -0.798487 -0.211062 0.563801 255 0 0 255
-0.138619 -0.538487 2.41 -0.90019 -0.198452 0.387652 255 0 0 255
-0.132863 -0.54185 2.425 -0.864939 -0.327224 0.380533 255 0 0 255
-0.126764 -0.544095 2.435 -0.814942 -0.408657 0.410937 255 0 0 255
-0.120758 -0.54701 2.448 -0.85985 -0.42152 0.288061 255 0 0 255
-0.114867 -0.550819 2.465 -0.890913 -0.156872 0.426223 255 0 0 255
-0.108708 -0.553733 2.478 -0.874721 0.016228 0.484356 255 0 0 255
-0.102395 -0.5562 2.489 -0.954683 -0.0554268 0.292419 255 0 0 255
-0.096905 -0.563806 2.523 -0.968405 -0.19813 0.151446 255 0 0 255
-0.091835 -0.575211 2.574 -0.901606 -0.293551 0.317703 255 0 0 255
-0.085432 -0.579464 2.593 -0.0365694 -0.0294681 0.998897 255 0 0 255
-0.078352 -0.579471 2.593 -0.0182079 0.281712 0.959326 255 0 0 255
-0.071353 -0.580148 2.596 0.163993 0.412792 0.89594 255 0 0 255
-0.064115 -0.578812 2.59 0.372434 0.406152 0.834466 255 0 0 255
-0.056954 -0.577924 2.586 0.708503 0.165034 0.68614 255 0 0 255
-0.049737 -0.57614 2.578 0.515671 -0.333563 0.789189 255 0 0 255
-0.04268 -0.575921 2.577 0.0505226 -0.599505 0.798775 255 0 0 255
-0.0356 -0.575253 2.574 -0.0465722 -0.66597 0.744524 255 0 0 255
-0.02857 -0.575256 2.574 -0.0910356 -0.741051 0.665249 255 0 0 255
-0.021565 -0.575929 2.577 -0.297984 -0.590303 0.750165 255 0 0 255
-0.014555 -0.577048 2.582 -0.62787 -0.486626 0.607433 255 0 0 255
-0.007529 -0.57906 2.591 -0.592895 -0.337608 0.731092 255 0 0 255
-0.000456 -0.583754 2.612 -0.914068 -0.150884 0.376449 255 0 0 255
-0.207242 -0.552571 2.444 0.753104 0.0215703 0.657547 255 0 0 255
-0.199263 -0.54897 2.428 0.791421 0.161645 0.589511 255 0 0 255
-0.191768 -0.546498 2.417 0.822873 0.212171 0.527127 255 0 0 255
-0.183872 -0.542669 2.4 0.735794 0.324713 0.59428 255 0 0 255
-0.17666 -0.540649 2.391 0.349469 0.402808 0.845941 255 0 0 255
-0.169995 -0.540211 2.389 -0.0330021 0.517309 0.855162 255 0 0 255
-0.163545 -0.540451 2.39 -0.174182 0.440641 0.880623 255 0 0 255
-0.157352 -0.541594 2.395 -0.222608 0.495092 0.839839 255 0 0 255
-0.150691 -0.541155 2.393 -0.316504 0.453179 0.833339 255 0 0 255
-0.144522 -0.542524 2.399 -0.702114 0.180692 0.688757 255 0 0 255
-0.138435 -0.544344 2.407 -0.825535 -0.00459523 0.564332 255 0 0 255
-0.132852 -0.548427 2.425 -0.685501 -0.400028 0.60833 255 0 0 255
-0.126545 -0.549794 2.431 -0.729807 -0.438405 0.524579 255 0 0 255
-0.120403 -0.552066 2.441 -0.781504 -0.50367 0.368196 255 0 0 255
-0.114531 -0.555921 2.458 -0.881809 -0.398675 0.251934 255 0 0 255
-0.108655 -0.560227 2.477 -0.887873 -0.272635 0.37061 255 0 0 255
-0.102674 -0.564533 2.496 -0.955894 -0.234746 0.176523 255 0 0 255
-0.097012 -0.571327 2.526 -0.983127 -0.144709 0.111899 255 0 0 255
-0.09172 -0.581513 2.571 -0.901606 -0.293551 0.317703 255 0 0 255
-0.085491 -0.586949 2.595 -0.086042 0.411824 0.907192 255 0 0 255
-0.078406 -0.586956 2.595 -0.0449381 0.499044 0.865411 255 0 0 255
-0.071485 -0.588319 2.601 0.131422 0.357694 0.924545 255 0 0 255
-0.064234 -0.586968 2.595 0.583339 0.189626 0.789783 255 0 0 255
-0.056993 -0.585389 2.588 0.810597 -0.246459 0.531216 255 0 0 255
-0.049637 -0.582001 2.573 0.61202 -0.37298 0.697365 255 0 0 255
-0.042544 -0.5811 2.569 0.175695 -0.498577 0.848854 255 0 0 255
-0.035542 -0.58133 2.57 -0.299323 -0.324208 0.897382 255 0 0 255
-0.028534 -0.581559 2.571 -0.294165 -0.0697293 0.953208 255 0 0 255
-0.02153 -0.582013 2.573 -0.394565 0.148666 0.906762 255 0 0 255
-0.01452 -0.582693 2.576 -0.504815 -0.256891 0.824117 255 0 0 255
-0.007505 -0.584278 2.583 -0.529953 -0.538427 0.655169 255 0 0 255
-0.000452 -0.585409 2.588 -0.341203 -0.607374 0.717411 255 0 0 255
-0.213365 -0.557808 2.438 0.753104 0.0215703 0.657547 255 0 0 255
-0.206716 -0.557825 2.438 0.680096 0.0620053 0.730496 255 0 0 255
-0.199247 -0.555553 2.428 0.675519 0.242123 0.696455 255 0 0 255
-0.19199 -0.553738 2.42 0.790971 0.310503 0.527213 255 0 0 255
-0.184241 -0.550321 2.405 0.725343 0.391029 0.566545 255 0 0 255
-0.177163 -0.548734 2.398 0.321285 0.584955 0.744717 255 0 0 255
-0.170266 -0.547604 2.393 -0.0742541 0.567566 0.819973 255 0 0 255
-0.163942 -0.548304 2.396 -0.236328 0.539009 0.808467 255 0 0 255
-0.157668 -0.549233 2.4 -0.163417 0.499863 0.850548 255 0 0 255
-0.151056 -0.549016 2.399 -0.200706 0.416454 0.886726 255 0 0 255
-0.144811 -0.550173 2.404 -0.503228 0.0479084 0.862825 255 0 0 255
-0.138596 -0.551558 2.41 -0.803341 -0.000758376 0.595519 255 0 0 255
-0.132622 -0.554086 2.421 -0.819068 -0.2386 0.521726 255 0 0 255
-0.126326 -0.55547 2.427 -0.743939 -0.271134 0.610771 255 0 0 255
-0.119899 -0.556396 2.431 -0.793801 -0.363925 0.487277 255 0 0 255
-0.11387 -0.559381 2.444 -0.878612 -0.352257 0.322423 255 0 0 255
-0.108163 -0.564426 2.466 -0.789452 -0.559062 0.253408 255 0 0 255
-0.102295 -0.569241 2.487 -0.844043 -0.481378 0.236362 255 0 0 255
-0.096504 -0.575201 2.513 -0.969188 -0.210702 0.12759 255 0 0 255
-0.09132 -0.585967 2.56 -0.722631 -0.651462 0.23109 255 0 0 255
-0.085715 -0.595588 2.602 -0.013172 0.427455 0.90394 255 0 0 255
-0.078641 -0.595824 2.603 0.172248 0.37071 0.912636 255 0 0 255
-0.071506 -0.595601 2.602 0.30128 0.262324 0.916742 255 0 0 255
-0.064179 -0.593547 2.593 0.764406 -0.0424758 0.643335 255 0 0 255
-0.056878 -0.591263 2.583 0.823049 -0.329012 0.46297 255 0 0 255
-0.049575 -0.588291 2.57 0.406878 -0.400115 0.821194 255 0 0 255
-0.042491 -0.58738 2.566 0.0293854 -0.346543 0.937574 255 0 0 255
-0.035539 -0.588299 2.57 -0.459375 -0.171253 0.871577 255 0 0 255
-0.028599 -0.589904 2.577 -0.480514 0.0632738 0.874701 255 0 0 255
-0.021595 -0.590821 2.581 -0.402886 0.240347 0.883129 255 0 0 255
-0.014536 -0.590365 2.579 -0.375245 -0.0694582 0.92432 255 0 0 255
-0.007507 -0.591511 2.584 -0.334531 -0.51105 0.791781 255 0 0 255
-0.00045 -0.590366 2.579 -0.0912785 -0.627979 0.772859 255 0 0 255
