ply
format ascii 1.0
comment VCGLIB generated
element vertex 728
property float x
property float y
property float z
property float nx
property float ny
property float nz
property uchar red
property uchar green
property uchar blue
property uchar alpha
element face 0
property list uchar int vertex_indices
end_header
-0.264668 0.454217 2.26368 -0.0724554 -0.259879 -0.962919 0 255 0 255
-0.240773 0.452965 2.25828 -0.152088 -0.27753 -0.948602 0 255 0 255
-0.222977 0.452703 2.25743 0.246627 -0.242029 -0.938401 0 255 0 255
-0.212171 0.453557 2.2617 0.502702 -0.294511 -0.812745 0 255 0 255
-0.202231 0.45456 2.26664 0.440657 -0.321848 -0.837995 0 255 0 255
-0.1914 0.455435 2.27099 0.323687 -0.225277 -0.918954 0 255 0 255
-0.179677 0.456185 2.27477 0.573424 -0.270799 -0.773209 0 255 0 255
-0.174098 0.457892 2.28293 0.703807 -0.309825 -0.639268 0 255 0 255
-0.167636 0.459469 2.29049 0.746258 -0.256103 -0.614419 0 255 0 255
-0.158523 0.460649 2.29623 0.481139 -0.170553 -0.859894 0 255 0 255
-0.146753 0.461437 2.30016 0.0762438 -0.191265 -0.978573 0 255 0 255
-0.128787 0.461307 2.29987 0.259555 -0.0376836 -0.964993 0 255 0 255
-0.114331 0.461725 2.30209 0.144985 0.00892669 -0.989394 0 255 0 255
-0.099856 0.462158 2.30439 0.330721 -0.644983 -0.688927 0 255 0 255
-0.090673 0.463393 2.31035 0.460424 -0.182773 -0.868679 0 255 0 255
-0.073506 0.46346 2.31096 -0.452011 -0.0269481 -0.891605 0 255 0 255
-0.058976 0.463936 2.31344 0.0962043 -0.618955 -0.779512 0 255 0 255
0.139681 0.459487 2.29562 -0.260805 -0.874981 -0.407908 0 255 0 255
0.151779 0.460526 2.30066 0.420234 0.907413 -0.00207603 0 255 0 255
-0.369116 0.454408 2.216 0.666804 0.0448092 0.743884 255 0 0 255
-0.360469 0.451151 2.2 0.470645 0.36956 0.801198 255 0 0 255
-0.354003 0.45056 2.197 0.442941 0.415583 0.794414 255 0 0 255
-0.347553 0.449968 2.194 0.22983 0.361694 0.903524 255 0 0 255
-0.341585 0.449992 2.194 0.551945 0.265936 0.790338 255 0 0 255
-0.334545 0.448579 2.187 0.731559 0.320063 0.601982 255 0 0 255
-0.327393 0.446961 2.179 0.659799 0.411364 0.628844 255 0 0 255
-0.320873 0.446163 2.175 0.0820366 0.495086 0.864963 255 0 0 255
-0.314953 0.446185 2.175 -0.264743 0.334463 0.904459 255 0 0 255
-0.309459 0.446822 2.178 -0.416718 0.33906 0.843436 255 0 0 255
-0.30367 0.447049 2.179 -0.419985 0.359971 0.833087 255 0 0 255
-0.298147 0.447686 2.182 -0.126989 0.358239 0.924953 255 0 0 255
-0.291536 0.446681 2.177 0.540711 0.546783 0.639265 255 0 0 255
-0.284426 0.444855 2.168 0.76469 0.493768 0.414057 255 0 0 255
-0.277108 0.442618 2.157 0.722167 0.406239 0.559861 255 0 0 255
-0.270478 0.441407 2.151 0.536758 0.206231 0.818144 255 0 0 255
-0.264126 0.440605 2.147 0.509103 0.18801 0.83992 255 0 0 255
-0.257915 0.440009 2.144 0.517838 0.110364 0.84833 255 0 0 255
-0.251602 0.439207 2.14 0.545399 0.0706438 0.835194 255 0 0 255
-0.245311 0.438404 2.136 0.479493 0.114262 0.870075 255 0 0 255
-0.239265 0.438012 2.134 0.302105 -0.0459626 0.952166 255 0 0 255
-0.233119 0.437414 2.131 0.412231 -0.0726459 0.908178 255 0 0 255
-0.22699 0.436815 2.128 0.546567 -0.0467288 0.836111 255 0 0 255
-0.220876 0.436216 2.125 0.468275 0.00550487 0.883566 255 0 0 255
-0.214879 0.435822 2.123 0.176788 -0.0124949 0.98417 255 0 0 255
-0.209089 0.435839 2.123 -0.0849368 -0.0645421 0.994294 255 0 0 255
-0.203298 0.435854 2.123 -0.0851298 -0.0601171 0.994555 255 0 0 255
-0.197601 0.436075 2.124 0.0029908 0.0179854 0.999834 255 0 0 255
-0.191716 0.435885 2.123 0.000535476 0.0283049 0.999599 255 0 0 255
-0.186011 0.436105 2.124 -0.0286996 0.0285326 0.999181 255 0 0 255
-0.180216 0.436119 2.124 -0.0265532 0.00229129 0.999645 255 0 0 255
-0.17442 0.436133 2.124 0.151736 -0.0692746 0.98599 255 0 0 255
-0.168465 0.435736 2.122 0.228028 -0.0891593 0.969564 255 0 0 255
-0.162673 0.435749 2.122 0.0334183 -0.00948582 0.999396 255 0 0 255
-0.156881 0.435761 2.122 0.0329859 0.164524 0.985821 255 0 0 255
-0.151089 0.435774 2.122 0.145281 0.198493 0.969275 255 0 0 255
-0.145228 0.43558 2.121 0.0617741 0.134119 0.989038 255 0 0 255
-0.139503 0.435797 2.122 0.0627567 0.133784 0.989021 255 0 0 255
-0.133583 0.435397 2.12 0.148392 0.235523 0.960473 255 0 0 255
-0.127673 0.434997 2.118 0.288457 0.180009 0.94042 255 0 0 255
-0.121717 0.43439 2.115 0.406213 0.156957 0.900197 255 0 0 255
-0.115886 0.434195 2.114 0.462586 0.0446775 0.885448 255 0 0 255
-0.109957 0.433587 2.111 0.316477 0.0786705 0.945332 255 0 0 255
-0.104191 0.433596 2.111 -0.0290854 0.105743 0.993968 255 0 0 255
-0.098425 0.433604 2.111 -0.149668 0.180891 0.972048 255 0 0 255
-0.092746 0.434023 2.113 0.0333484 0.142049 0.989298 255 0 0 255
-0.086892 0.433619 2.111 0.285675 0.121213 0.95063 255 0 0 255
-0.081048 0.433215 2.109 0.147401 0.0930267 0.984692 255 0 0 255
-0.075286 0.433222 2.109 0.000515452 0.189166 0.981945 255 0 0 255
-0.069491 0.433022 2.108 -0.208943 0.282323 0.936289 255 0 0 255
-0.063823 0.433644 2.111 -0.259593 0.31282 0.913649 255 0 0 255
-0.058082 0.433854 2.112 -0.0596097 0.233938 0.970423 255 0 0 255
-0.052311 0.433859 2.112 0.14928 0.178661 0.97252 255 0 0 255
-0.046496 0.433452 2.11 0.230788 0.0439986 0.972009 255 0 0 255
-0.040711 0.43325 2.109 0.000416264 -0.0175688 0.999846 255 0 0 255
-0.034965 0.433459 2.11 -0.200578 -0.0159166 0.979549 255 0 0 255
-0.029213 0.433667 2.111 -0.413575 0.0476114 0.909225 255 0 0 255
-0.023489 0.434491 2.115 -0.391925 0.135917 0.909902 255 0 0 255
-0.017709 0.434492 2.115 -0.342068 0.199005 0.918361 255 0 0 255
-0.011952 0.435315 2.119 -0.29156 0.281023 0.914341 255 0 0 255
-0.006161 0.435316 2.119 -0.359917 0.410616 0.837767 255 0 0 255
-0.000371 0.436138 2.123 -0.516091 0.400485 0.757141 255 0 0 255
0.005439 0.436754 2.126 -0.585345 0.439869 0.681092 255 0 0 255
0.01128 0.437986 2.132 -0.690175 0.397208 0.604884 255 0 0 255
0.017155 0.439218 2.138 -0.616123 0.490805 0.616039 255 0 0 255
0.023051 0.440243 2.143 -0.499695 0.534964 0.681263 255 0 0 255
0.028948 0.440857 2.146 -0.381786 0.507067 0.772737 255 0 0 255
0.034828 0.44106 2.147 -0.480928 0.484926 0.730448 255 0 0 255
0.04079 0.442084 2.152 -0.715469 0.38908 0.580277 255 0 0 255
0.046844 0.443724 2.16 -0.817475 0.352128 0.455786 255 0 0 255
0.053015 0.44598 2.171 -0.823402 0.398616 0.403874 255 0 0 255
0.059191 0.447824 2.18 -0.751729 0.504609 0.424587 255 0 0 255
0.065386 0.449462 2.188 -0.554726 0.654679 0.513492 255 0 0 255
0.071593 0.450894 2.195 -0.316873 0.751086 0.579191 255 0 0 255
0.07766 0.451299 2.197 0.0232716 0.834114 0.551101 255 0 0 255
0.083548 0.450676 2.194 0.00838174 0.854836 0.518831 255 0 0 255
0.089583 0.450875 2.195 -0.200371 0.834683 0.512987 255 0 0 255
0.095753 0.451689 2.199 -0.164288 0.794241 0.58497 255 0 0 255
0.101806 0.451886 2.2 0.0141603 0.727898 0.685539 255 0 0 255
0.107668 0.451261 2.197 0.409945 0.516141 0.752026 255 0 0 255
0.113462 0.450431 2.193 0.15097 0.439431 0.885499 255 0 0 255
0.11956 0.450832 2.195 -0.115769 0.357611 0.926667 255 0 0 255
0.125498 0.450617 2.194 -0.0666824 0.502645 0.861917 255 0 0 255
0.131549 0.450812 2.195 -0.160423 0.687949 0.707807 255 0 0 255
0.137731 0.451418 2.198 -0.485172 0.592331 0.643235 255 0 0 255
0.14419 0.452844 2.205 -0.702838 0.417119 0.576221 255 0 0 255
0.150755 0.454475 2.213 -0.67516 0.295634 0.67584 255 0 0 255
0.157221 0.455695 2.219 -0.412898 0.0650828 0.908449 255 0 0 255
0.163426 0.456093 2.221 -0.168778 0.191566 0.966859 255 0 0 255
0.169488 0.45608 2.221 -0.0319624 0.250916 0.967481 255 0 0 255
0.17555 0.456066 2.221 0.178063 0.296322 0.938343 255 0 0 255
0.181202 0.455026 2.216 0.214686 0.342468 0.914672 255 0 0 255
-0.138665 0.522191 2.3012 0.470984 -0.0886091 -0.87768 255 255 0 255
-0.124541 0.521267 2.29813 0.0738466 -0.0869588 -0.993471 255 255 0 255
-0.107842 0.520591 2.29694 -0.279568 -0.277901 -0.919028 255 255 0 255
-0.099817 0.519136 2.28973 -0.557889 -0.284792 -0.779521 255 255 0 255
-0.093529 0.517527 2.28131 -0.672805 -0.0221502 -0.739488 255 255 0 255
-0.080342 0.516563 2.27783 -0.407528 0.112153 -0.90628 255 255 0 255
-0.058557 0.516416 2.28059 0.0230465 -0.0225604 -0.99948 255 255 0 255
-0.041115 0.515882 2.28035 -0.378136 0.113444 -0.918773 255 255 0 255
-0.031444 0.514631 2.27458 -0.808364 0.201281 -0.553203 255 255 0 255
-0.030378 0.512566 2.2626 -0.84903 0.271678 -0.453144 255 255 0 255
-0.023298 0.511077 2.25499 -0.691191 0.288997 -0.662371 255 255 0 255
-0.011938 0.510006 2.25056 -0.462206 0.178 -0.868724 255 255 0 255
-0.001451 0.508861 2.24554 -0.418322 0.189187 -0.888378 255 255 0 255
0.00731 0.507556 2.23928 -0.104782 -0.0540787 -0.993024 255 255 0 255
0.024608 0.507099 2.23944 0.0503496 -0.109182 -0.992746 255 255 0 255
0.058953 0.508351 2.25249 0.116572 -0.36592 -0.923317 255 255 0 255
0.096776 0.507875 2.25588 -0.246451 -0.70443 -0.665613 255 255 0 255
0.102021 0.506285 2.24734 -0.259409 -0.755081 -0.602129 255 255 0 255
0.121715 0.506168 2.24987 -0.0916747 -0.693282 -0.714812 255 255 0 255
-0.309515 0.433648 2.21442 -0.916571 -0.120821 -0.381183 0 255 0 255
-0.311867 0.436561 2.22813 -0.986513 -0.163656 -0.00306916 0 255 0 255
-0.312488 0.439181 2.2405 0.981411 0.158164 -0.108703 0 255 0 255
-0.312244 0.441654 2.2522 0.792947 -0.225059 -0.5662 0 255 0 255
-0.303285 0.442695 2.25744 0.69214 -0.330537 -0.641629 0 255 0 255
-0.293443 0.443602 2.26207 0.550761 -0.443191 -0.707279 0 255 0 255
-0.28621 0.444944 2.26866 0.269722 -0.514975 -0.813665 0 255 0 255
-0.269354 0.444737 2.26826 -0.0851694 -0.297177 -0.951016 0 255 0 255
-0.24635 0.443562 2.26351 -0.171625 -0.32717 -0.929249 0 255 0 255
-0.225063 0.442694 2.26013 0.127451 -0.296655 -0.946442 0 255 0 255
-0.214263 0.443526 2.26441 0.43889 -0.273675 -0.855849 0 255 0 255
-0.210467 0.445482 2.27374 0.499093 -0.158545 -0.851921 0 255 0 255
-0.197891 0.446054 2.27683 0.369185 -0.327023 -0.869919 0 255 0 255
-0.18442 0.4465 2.27936 0.584439 -0.370332 -0.722001 0 255 0 255
-0.175328 0.447647 2.28504 0.688436 -0.462391 -0.558794 0 255 0 255
-0.171507 0.449626 2.29445 0.649936 -0.423213 -0.631248 0 255 0 255
-0.160638 0.450514 2.29895 0.385752 -0.372107 -0.844234 0 255 0 255
-0.14711 0.451005 2.30167 0.0706247 -0.219613 -0.973027 0 255 0 255
-0.129152 0.450832 2.30139 0.276164 -0.079326 -0.957831 0 255 0 255
-0.118235 0.451757 2.30606 0.542842 -0.39921 -0.738887 0 255 0 255
-0.103769 0.452156 2.30835 0.42098 -0.544039 -0.725808 0 255 0 255
-0.092822 0.453105 2.31311 -0.164896 -0.640769 -0.749817 0 255 0 255
-0.076549 0.453264 2.31433 -0.228645 -0.197925 -0.953178 0 255 0 255
-0.06114 0.453574 2.31622 0.393204 -0.424288 -0.815702 0 255 0 255
0.151698 0.446586 2.28936 0.656151 0.53235 -0.534855 0 255 0 255
0.162016 0.447863 2.29558 0.832145 0.398937 -0.385206 0 255 0 255
0.160717 0.450798 2.30922 -0.685414 -0.577863 -0.443036 0 255 0 255
-0.368141 0.447179 2.21 0.673563 0.11404 0.730279 255 0 0 255
-0.361312 0.446191 2.205 0.419005 0.288718 0.860858 255 0 0 255
-0.355155 0.446013 2.204 0.37544 0.400634 0.835786 255 0 0 255
-0.348526 0.445227 2.2 0.431838 0.458725 0.776587 255 0 0 255
-0.342075 0.444643 2.197 0.525079 0.301963 0.795682 255 0 0 255
-0.33518 0.443452 2.191 0.657502 0.355641 0.664236 255 0 0 255
-0.328166 0.442057 2.184 0.651747 0.404757 0.641403 255 0 0 255
-0.321338 0.440865 2.178 0.251595 0.380153 0.890047 255 0 0 255
-0.31541 0.440887 2.178 -0.113112 0.278828 0.953656 255 0 0 255
-0.309623 0.441112 2.179 -0.411797 0.39645 0.820518 255 0 0 255
-0.304249 0.441943 2.183 -0.50537 0.40672 0.761038 255 0 0 255
-0.298715 0.442572 2.186 -0.164627 0.655111 0.737379 255 0 0 255
-0.292628 0.44239 2.185 0.339776 0.665903 0.664173 255 0 0 255
-0.285628 0.440791 2.177 0.657354 0.653303 0.375607 255 0 0 255
-0.278156 0.438382 2.165 0.707691 0.577111 0.407574 255 0 0 255
-0.271001 0.436377 2.155 0.640703 0.542311 0.543505 255 0 0 255
-0.264514 0.435384 2.15 0.516558 0.5199 0.680347 255 0 0 255
-0.258175 0.434593 2.146 0.570422 0.431968 0.698586 255 0 0 255
-0.251856 0.433801 2.142 0.569444 0.373608 0.732223 255 0 0 255
-0.245444 0.432807 2.137 0.476287 0.158619 0.864865 255 0 0 255
-0.239282 0.432217 2.134 0.459146 0.167374 0.872451 255 0 0 255
-0.233356 0.432033 2.133 0.430896 0.11102 0.895546 255 0 0 255
-0.227113 0.43124 2.129 0.467769 0.0928885 0.878956 255 0 0 255
-0.220892 0.430446 2.125 0.41465 0.138811 0.899332 255 0 0 255
-0.214794 0.429855 2.122 0.180302 0.139124 0.973723 255 0 0 255
-0.209006 0.429871 2.122 0.00225166 0.131218 0.991351 255 0 0 255
-0.203314 0.430089 2.123 0.00573293 0.0376693 0.999274 255 0 0 255
-0.197616 0.430307 2.124 0.00340885 -0.0660467 0.997811 255 0 0 255
-0.191821 0.430322 2.124 -0.0847035 -0.0755088 0.993541 255 0 0 255
-0.186026 0.430337 2.124 -0.117354 0.0687831 0.990705 255 0 0 255
-0.18023 0.430351 2.124 0.00166614 0.112486 0.993652 255 0 0 255
-0.174352 0.430162 2.123 0.206921 0.194371 0.958855 255 0 0 255
-0.168399 0.42977 2.121 0.106207 0.111277 0.988098 255 0 0 255
-0.16261 0.429783 2.121 -0.0361297 0.176456 0.983645 255 0 0 255
-0.156968 0.430201 2.123 -0.0587673 0.165849 0.984399 255 0 0 255
-0.151101 0.430011 2.122 0.17365 0.186132 0.967058 255 0 0 255
-0.145239 0.42982 2.121 0.0914804 0.14833 0.984698 255 0 0 255
-0.139448 0.429831 2.121 0.00115882 0.154157 0.988046 255 0 0 255
-0.133656 0.429842 2.121 0.121088 0.229407 0.965769 255 0 0 255
-0.127864 0.429852 2.121 0.334743 0.238383 0.911658 255 0 0 255
-0.121899 0.429254 2.118 0.466111 0.180055 0.866211 255 0 0 255
-0.115896 0.428453 2.114 0.505718 0.156653 0.848357 255 0 0 255
-0.109913 0.427651 2.11 0.287087 0.011968 0.95783 255 0 0 255
-0.104199 0.427863 2.111 -0.0886807 0.0874486 0.992214 255 0 0 255
-0.098479 0.428074 2.112 -0.207079 0.134605 0.96902 255 0 0 255
-0.092754 0.428284 2.113 0.0640579 0.118441 0.990893 255 0 0 255
-0.086858 0.427683 2.11 0.30803 0.0886015 0.947242 255 0 0 255
-0.081055 0.427487 2.109 0.119687 0.160554 0.979744 255 0 0 255
-0.075292 0.427494 2.109 -0.0902523 0.233981 0.968043 255 0 0 255
-0.069596 0.427905 2.111 -0.263597 0.245922 0.932759 255 0 0 255
-0.063888 0.428316 2.113 -0.179633 0.264986 0.947372 255 0 0 255
-0.058114 0.428321 2.113 0.000203184 0.181399 0.98341 255 0 0 255
-0.05234 0.428325 2.113 0.23269 0.0908666 0.968297 255 0 0 255
-0.0465 0.427721 2.11 0.307466 0.061325 0.949581 255 0 0 255
-0.040715 0.427522 2.109 0.0593011 0.0309499 0.99776 255 0 0 255
-0.034951 0.427525 2.109 -0.202844 0.0159629 0.979081 255 0 0 255
-0.029229 0.428136 2.112 -0.476857 0.0400507 0.878068 255 0 0 255
-0.023502 0.428949 2.116 -0.459253 0.0629766 0.88607 255 0 0 255
-0.017735 0.429356 2.118 -0.438136 0.180207 0.88066 255 0 0 255
-0.011964 0.429965 2.121 -0.389567 0.273263 0.879525 255 0 0 255
-0.00617 0.430169 2.122 -0.44944 0.398343 0.799579 255 0 0 255
-0.000371 0.431183 2.127 -0.582014 0.451606 0.676248 255 0 0 255
0.005449 0.431791 2.13 -0.603163 0.483009 0.634741 255 0 0 255
0.011302 0.433006 2.136 -0.674757 0.468442 0.570321 255 0 0 255
0.017188 0.434221 2.142 -0.601426 0.503937 0.619947 255 0 0 255
0.023085 0.435031 2.146 -0.4482 0.470498 0.760098 255 0 0 255
0.028977 0.435434 2.148 -0.311319 0.494356 0.811599 255 0 0 255
0.03488 0.435837 2.15 -0.513212 0.482166 0.710021 255 0 0 255
0.04085 0.436847 2.155 -0.724274 0.427976 0.540614 255 0 0 255
0.046956 0.438871 2.165 -0.838117 0.376967 0.394277 255 0 0 255
0.053165 0.441299 2.177 -0.82259 0.443104 0.356377 255 0 0 255
0.05944 0.443727 2.189 -0.731425 0.574225 0.367809 255 0 0 255
0.065571 0.444736 2.194 -0.508542 0.691317 0.513288 255 0 0 255
0.071762 0.445946 2.2 -0.333098 0.739026 0.585565 255 0 0 255
0.077844 0.446346 2.202 -0.0539445 0.789034 0.611977 255 0 0 255
0.08386 0.446339 2.202 -0.0285648 0.800971 0.598021 255 0 0 255
0.089917 0.446535 2.203 -0.176273 0.802652 0.569805 255 0 0 255
0.096109 0.447338 2.207 -0.0538216 0.814589 0.577536 255 0 0 255
0.102046 0.446925 2.205 0.176273 0.784945 0.59396 255 0 0 255
0.107873 0.446105 2.201 0.476943 0.612565 0.630309 255 0 0 255
0.113627 0.445083 2.196 0.378376 0.516891 0.76789 255 0 0 255
0.119679 0.445276 2.197 -0.0880428 0.369642 0.924994 255 0 0 255
0.125737 0.445469 2.198 -0.222569 0.414892 0.882229 255 0 0 255
0.131859 0.445864 2.2 -0.443153 0.46366 0.767225 255 0 0 255
0.138118 0.446664 2.204 -0.572138 0.423973 0.702072 255 0 0 255
0.144528 0.447869 2.21 -0.606734 0.225857 0.762143 255 0 0 255
0.150903 0.44887 2.215 -0.643067 0.0348075 0.765019 255 0 0 255
0.157234 0.449669 2.219 -0.438024 -0.0249308 0.898618 255 0 0 255
0.163365 0.449859 2.22 -0.1367 -0.150763 0.979073 255 0 0 255
0.169425 0.449846 2.22 -0.208296 -0.00443336 0.978056 255 0 0 255
0.175643 0.450237 2.222 -0.170779 0.315564 0.93341 255 0 0 255
0.181543 0.449818 2.22 -0.353439 0.389965 0.850299 255 0 0 255
-0.141158 0.511058 2.30069 0.441682 0.0878821 -0.892857 255 255 0 255
-0.123571 0.510487 2.30002 -0.0492595 -0.217769 -0.974756 255 255 0 255
-0.108608 0.509686 2.29761 0.0721743 -0.246654 -0.966412 255 255 0 255
-0.097125 0.508571 2.29282 -0.598701 -0.206261 -0.773959 255 255 0 255
-0.086284 0.505207 2.27478 -0.404369 -0.368966 -0.836869 255 255 0 255
-0.064499 0.50511 2.2775 -0.0898939 -0.250406 -0.963958 255 255 0 255
-0.045336 0.504782 2.27847 -0.334052 0.00839413 -0.942517 255 255 0 255
-0.033942 0.503714 2.27393 -0.882581 0.0508065 -0.467407 255 255 0 255
-0.034587 0.50147 2.26068 -0.879603 0.113343 -0.462009 255 255 0 255
-0.025788 0.500158 2.25431 -0.750848 0.143416 -0.644717 255 255 0 255
-0.020427 0.49851 2.24545 -0.644591 0.182108 -0.742522 255 255 0 255
-0.00822 0.497552 2.24166 -0.448227 0.482845 -0.752298 255 255 0 255
0.001402 0.496344 2.23602 -0.155142 0.289506 -0.944519 255 255 0 255
0.026389 0.496707 2.24188 0.0381219 0.0638048 -0.997234 255 255 0 255
0.065839 0.498576 2.25874 0.242693 -0.338113 -0.909274 255 255 0 255
0.095835 0.499519 2.26875 -0.126798 -0.563461 -0.816354 255 255 0 255
0.10704 0.498551 2.26472 -0.193317 -0.617377 -0.762544 255 255 0 255
0.124184 0.498212 2.26528 -0.276864 -0.542758 -0.792944 255 255 0 255
-0.303748 0.422478 2.2112 -0.756791 -0.304898 -0.578191 0 255 0 255
-0.307829 0.425707 2.22623 -0.967621 -0.252097 -0.0125404 0 255 0 255
-0.304092 0.427608 2.23537 0.978807 0.162879 -0.124126 0 255 0 255
-0.305579 0.430388 2.24839 0.922671 0.27667 -0.268574 0 255 0 255
-0.302717 0.432435 2.25817 0.85611 0.110161 -0.504916 0 255 0 255
-0.298111 0.434194 2.26666 0.778615 -0.273219 -0.564898 0 255 0 255
-0.290883 0.435522 2.27324 0.514637 -0.293618 -0.805566 0 255 0 255
-0.273164 0.435129 2.27221 -0.0909526 -0.294944 -0.951176 0 255 0 255
-0.251923 0.434181 2.26873 -0.159207 -0.23614 -0.958588 0 255 0 255
-0.230651 0.433257 2.26535 -0.0877437 -0.281206 -0.955628 0 255 0 255
-0.211099 0.432641 2.26334 0.35673 -0.19105 -0.914464 0 255 0 255
-0.20467 0.434173 2.27081 0.517185 -0.117542 -0.847764 0 255 0 255
-0.193847 0.435003 2.27518 0.449918 -0.133878 -0.882978 0 255 0 255
-0.187403 0.436548 2.2827 0.639966 -0.272529 -0.71845 0 255 0 255
-0.178316 0.437678 2.28837 0.672454 -0.348976 -0.652703 0 255 0 255
-0.176257 0.439933 2.29902 0.62067 -0.23556 -0.74785 0 255 0 255
-0.163634 0.440518 2.30229 0.329856 -0.185535 -0.92562 0 255 0 255
-0.148351 0.440701 2.30379 0.0883195 -0.158558 -0.983392 0 255 0 255
-0.130402 0.440485 2.30353 0.152916 -0.232574 -0.960482 0 255 0 255
-0.120371 0.441525 2.3088 0.464309 -0.479438 -0.744685 0 255 0 255
-0.107679 0.442165 2.31231 0.426295 -0.390788 -0.815817 0 255 0 255
-0.098507 0.443362 2.31827 0.28664 -0.286923 -0.914064 0 255 0 255
-0.078706 0.442938 2.3171 -0.888892 0.090381 -0.449113 0 255 0 255
0.155667 0.434777 2.28826 0.914891 0.283312 -0.287592 0 255 0 255
0.163306 0.436427 2.29622 0.874517 0.18503 -0.448312 0 255 0 255
0.162907 0.439247 2.3093 0.922431 0.378761 -0.0752355 0 255 0 255
-0.367499 0.440381 2.206 0.112777 0.0704533 0.99112 255 0 0 255
-0.361664 0.440604 2.207 0.112777 0.0704533 0.99112 255 0 0 255
-0.355662 0.440628 2.207 0.236258 0.184254 0.954061 255 0 0 255
-0.349025 0.439853 2.203 0.47402 0.158425 0.866145 255 0 0 255
-0.342409 0.439077 2.199 0.53254 0.261519 0.80499 255 0 0 255
-0.335662 0.438102 2.194 0.610081 0.356672 0.707522 255 0 0 255
-0.32879 0.436926 2.188 0.678596 0.34387 0.649046 255 0 0 255
-0.32195 0.43575 2.182 0.406963 0.182959 0.894934 255 0 0 255
-0.315721 0.435373 2.18 0.0855269 0.270654 0.95887 255 0 0 255
-0.310071 0.435794 2.182 -0.531791 0.167205 0.830205 255 0 0 255
-0.304688 0.436615 2.186 -0.67658 0.154431 0.719994 255 0 0 255
-0.299282 0.437435 2.19 -0.484838 0.488721 0.725317 255 0 0 255
-0.293586 0.437855 2.192 -0.0922835 0.716787 0.691158 255 0 0 255
-0.28696 0.436877 2.187 0.460535 0.765916 0.448643 255 0 0 255
-0.27959 0.4347 2.176 0.648657 0.688422 0.324529 255 0 0 255
-0.272278 0.432522 2.165 0.540818 0.766166 0.34714 255 0 0 255
-0.265518 0.431143 2.158 0.516138 0.758705 0.397452 255 0 0 255
-0.259276 0.430563 2.155 0.51136 0.723797 0.463281 255 0 0 255
-0.25258 0.429183 2.148 0.655369 0.515463 0.552078 255 0 0 255
-0.245922 0.427803 2.141 0.656719 0.363608 0.660688 255 0 0 255
-0.239412 0.426622 2.135 0.518763 0.249499 0.817701 255 0 0 255
-0.233264 0.42604 2.132 0.450997 0.118525 0.88462 255 0 0 255
-0.22713 0.425458 2.129 0.469708 0.120361 0.874578 255 0 0 255
-0.221117 0.425075 2.127 0.37447 0.201903 0.90499 255 0 0 255
-0.215114 0.424691 2.125 0.253559 0.252672 0.933737 255 0 0 255
-0.209219 0.424508 2.124 0.0601319 0.277433 0.958862 255 0 0 255
-0.203425 0.424523 2.124 0.0666116 0.204558 0.976585 255 0 0 255
-0.197352 0.423939 2.121 0.036115 0.113835 0.992843 255 0 0 255
-0.191746 0.424354 2.123 -0.119597 0.126551 0.984724 255 0 0 255
-0.18604 0.424568 2.124 -0.148191 0.139553 0.979063 255 0 0 255
-0.180414 0.424982 2.126 -0.0584817 0.158154 0.985681 255 0 0 255
-0.174529 0.424796 2.125 0.098111 0.267667 0.958503 255 0 0 255
-0.16865 0.424609 2.124 0.148891 0.358446 0.921601 255 0 0 255
-0.162776 0.424422 2.123 -0.0270192 0.348659 0.93686 255 0 0 255
-0.157128 0.424834 2.125 0.00264399 0.244133 0.969738 255 0 0 255
-0.151255 0.424647 2.124 0.226717 0.165223 0.959844 255 0 0 255
-0.145319 0.424258 2.122 0.116792 0.155577 0.980895 255 0 0 255
-0.139525 0.42427 2.122 -0.029314 0.240018 0.970326 255 0 0 255
-0.133793 0.42448 2.123 -3.95551e-05 0.18057 0.983562 255 0 0 255
-0.127935 0.424291 2.122 0.256986 0.224351 0.940013 255 0 0 255
-0.121967 0.423701 2.119 0.496513 0.231428 0.83661 255 0 0 255
-0.11596 0.422911 2.115 0.578869 0.161535 0.79926 255 0 0 255
-0.109974 0.42212 2.111 0.369563 0.0970799 0.924121 255 0 0 255
-0.104208 0.422128 2.111 -0.0878718 0.046838 0.99503 255 0 0 255
-0.098487 0.422336 2.112 -0.230732 0.0575234 0.971316 255 0 0 255
-0.092805 0.422744 2.114 0.0638748 0.0263108 0.997611 255 0 0 255
-0.086947 0.422351 2.112 0.233556 0.188615 0.953874 255 0 0 255
-0.081138 0.422158 2.111 0.0595845 0.23261 0.970743 255 0 0 255
-0.07537 0.422164 2.111 -0.119392 0.244333 0.962313 255 0 0 255
-0.069667 0.42257 2.113 -0.208682 0.103423 0.9725 255 0 0 255
-0.063924 0.422776 2.114 -0.0593696 0.0748113 0.995429 255 0 0 255
-0.058119 0.422581 2.113 0.0297833 -0.00952383 0.999511 255 0 0 255
-0.052345 0.422585 2.113 0.202581 0.0186635 0.979088 255 0 0 255
-0.046504 0.421989 2.11 0.259217 0.0502984 0.964508 255 0 0 255
-0.040718 0.421793 2.109 0.0894078 0.142904 0.98569 255 0 0 255
-0.034954 0.421796 2.109 -0.23841 0.18787 0.95282 255 0 0 255
-0.029218 0.422198 2.111 -0.499651 0.148531 0.853398 255 0 0 255
-0.023492 0.423 2.115 -0.541143 0.169352 0.823702 255 0 0 255
-0.017737 0.423602 2.118 -0.537794 0.28179 0.794589 255 0 0 255
-0.01197 0.424403 2.122 -0.45433 0.362341 0.813814 255 0 0 255
-0.006176 0.424804 2.124 -0.491733 0.462322 0.737874 255 0 0 255
-0.000372 0.425804 2.129 -0.605933 0.446626 0.658309 255 0 0 255
0.005463 0.427004 2.135 -0.66572 0.39211 0.634875 255 0 0 255
0.011335 0.428403 2.142 -0.676148 0.38385 0.628874 255 0 0 255
0.01723 0.429402 2.147 -0.508203 0.342265 0.790307 255 0 0 255
0.02313 0.430001 2.15 -0.408068 0.449318 0.794729 255 0 0 255
0.02902 0.430198 2.151 -0.403875 0.484782 0.775804 255 0 0 255
0.034947 0.430796 2.154 -0.537878 0.532618 0.653456 255 0 0 255
0.040948 0.431993 2.16 -0.728156 0.456135 0.511594 255 0 0 255
0.047112 0.434389 2.172 -0.85227 0.405141 0.330904 255 0 0 255
0.053365 0.436985 2.185 -0.823737 0.488477 0.287832 255 0 0 255
0.059717 0.43978 2.199 -0.597479 0.743689 0.299907 255 0 0 255
0.065845 0.440575 2.203 -0.313778 0.833068 0.455567 255 0 0 255
0.071996 0.44137 2.207 -0.17033 0.877503 0.448303 255 0 0 255
0.078062 0.441564 2.208 -0.0176017 0.887553 0.460369 255 0 0 255
0.084057 0.441357 2.207 -0.141087 0.863824 0.483635 255 0 0 255
0.090128 0.44155 2.208 -0.148801 0.858195 0.491284 255 0 0 255
0.096378 0.442542 2.213 0.119192 0.857762 0.500037 255 0 0 255
0.102332 0.442134 2.211 0.234446 0.838666 0.491604 255 0 0 255
0.108127 0.441126 2.206 0.532176 0.61516 0.581693 255 0 0 255
0.113843 0.439917 2.2 0.314544 0.602401 0.733604 255 0 0 255
0.119743 0.439508 2.198 0.026768 0.482147 0.875682 255 0 0 255
0.125861 0.439898 2.2 -0.24803 0.340583 0.906909 255 0 0 255
0.132049 0.440488 2.203 -0.507078 0.241732 0.827307 255 0 0 255
0.138379 0.441477 2.208 -0.527824 0.225791 0.818792 255 0 0 255
0.144474 0.441666 2.209 -0.52886 0.0434844 0.847594 255 0 0 255
0.150847 0.442654 2.214 -0.480061 -0.0829299 0.873307 255 0 0 255
0.157033 0.443042 2.216 -0.218843 -0.253561 0.942239 255 0 0 255
0.163231 0.443429 2.218 -0.179367 -0.224014 0.957938 255 0 0 255
0.169286 0.443416 2.218 -0.417756 -0.0572779 0.906752 255 0 0 255
0.175735 0.444402 2.223 -0.572684 0.207216 0.793155 255 0 0 255
0.18213 0.445188 2.227 -0.611201 0.427147 0.666317 255 0 0 255
0.188546 0.445973 2.231 -0.470636 0.599044 0.647803 255 0 0 255
-0.122599 0.4997 2.30192 0.0199452 0.604362 -0.79646 255 255 0 255
-0.107641 0.498934 2.2995 -0.123753 -0.623214 -0.772198 255 255 0 255
-0.095298 0.497925 2.29531 -0.47913 -0.572191 -0.665606 255 255 0 255
-0.089877 0.496248 2.28628 -0.563964 -0.573555 -0.594121 255 255 0 255
-0.078425 0.49517 2.28157 -0.297929 -0.697243 -0.651989 255 255 0 255
-0.058379 0.49496 2.28306 -0.0571763 -0.328526 -0.942763 255 255 0 255
-0.039228 0.49468 2.28403 -0.663644 0.183546 -0.725181 255 255 0 255
-0.036435 0.49277 2.27328 -0.842203 0.17055 -0.511476 255 255 0 255
-0.031924 0.491034 2.26377 -0.724425 0.144787 -0.673978 255 255 0 255
-0.024843 0.489563 2.25615 -0.785863 -0.109844 -0.608566 255 255 0 255
-0.018626 0.488007 2.24791 -0.820076 0.120654 -0.559391 255 255 0 255
-0.016692 0.486013 2.23654 -0.666162 0.385682 -0.638339 255 255 0 255
-0.006207 0.484907 2.23149 -0.300796 0.274772 -0.913248 255 255 0 255
0.02134 0.485598 2.23922 0.00269715 0.120048 -0.992764 255 255 0 255
0.062483 0.487753 2.25732 0.359864 -0.239986 -0.901612 255 255 0 255
0.095879 0.489136 2.26986 -0.423006 -0.515419 -0.745257 255 255 0 255
0.106231 0.488099 2.26518 -0.194387 -0.34583 -0.917941 255 255 0 255
0.116568 0.48707 2.26054 -0.330032 -0.324431 -0.886467 255 255 0 255
-0.303198 0.412164 2.21192 -0.717863 -0.0231435 -0.695799 0 255 0 255
-0.30814 0.415565 2.22759 0.959441 -0.280531 -0.0278411 0 255 0 255
-0.300056 0.41672 2.2335 -0.492682 -0.674269 -0.550114 0 255 0 255
-0.300665 0.419368 2.24589 0.993196 0.0206484 -0.114613 0 255 0 255
-0.302152 0.422161 2.2589 0.932307 0.109455 -0.344707 0 255 0 255
-0.30016 0.424359 2.26932 0.635032 0.0269526 -0.772015 0 255 0 255
-0.290318 0.425233 2.27399 0.219124 0.0733608 -0.972935 0 255 0 255
-0.269987 0.424359 2.27107 -0.0882935 0.101176 -0.990943 0 255 0 255
-0.253996 0.424236 2.27141 -0.0540801 -0.0106821 -0.998479 0 255 0 255
-0.234485 0.423549 2.26931 -0.0990642 -0.172118 -0.980083 0 255 0 255
-0.214945 0.422884 2.2673 0.163127 -0.242882 -0.956241 0 255 0 255
-0.207644 0.42426 2.27414 0.577925 -0.445107 -0.684019 0 255 0 255
-0.19595 0.424924 2.27789 0.553855 -0.544155 -0.630191 0 255 0 255
-0.191264 0.426745 2.28665 0.522803 -0.562691 -0.640356 0 255 0 255
-0.179547 0.427428 2.29048 0.652707 -0.291103 -0.699452 0 255 0 255
-0.173969 0.429117 2.29866 0.494957 -0.12097 -0.860456 0 255 0 255
-0.161349 0.429677 2.30195 0.238784 -0.0879429 -0.967082 0 255 0 255
-0.148712 0.43025 2.3053 0.101843 -0.142998 -0.984469 0 255 0 255
-0.131653 0.430132 2.30567 0.187684 -0.2588 -0.947522 0 255 0 255
-0.120744 0.431013 2.31034 0.598698 -0.367326 -0.711781 0 255 0 255
-0.111588 0.432184 2.31627 0.522776 -0.587296 -0.61789 0 255 0 255
-0.104188 0.43364 2.32343 -0.267313 -0.504713 -0.820859 0 255 0 255
-0.084401 0.433165 2.32226 -0.624239 -0.0702667 -0.778067 0 255 0 255
0.166376 0.424705 2.29572 0.942222 0.239718 -0.233993 0 255 0 255
0.164197 0.427803 2.30995 0.970373 0.237943 -0.0419469 0 255 0 255
0.168268 0.429975 2.3202 -0.219597 -0.146474 -0.964532 0 255 0 255
-0.366856 0.433603 2.202 -0.230634 -0.367686 0.900897 255 0 0 255
-0.361524 0.434414 2.206 -0.227335 -0.333882 0.914791 255 0 0 255
-0.355524 0.434438 2.206 0.154509 -0.166404 0.973877 255 0 0 255
-0.349207 0.434068 2.204 0.385259 0.0224673 0.922535 255 0 0 255
-0.342744 0.4335 2.201 0.445231 0.159596 0.881078 255 0 0 255
-0.336296 0.432932 2.198 0.548512 0.309247 0.776853 255 0 0 255
-0.329413 0.431773 2.192 0.715162 0.303086 0.629827 255 0 0 255
-0.32212 0.430022 2.183 0.699461 0.164136 0.695567 255 0 0 255
-0.315453 0.429059 2.178 0.334267 -0.0145553 0.942366 255 0 0 255
-0.309809 0.429475 2.18 -0.58472 -0.0698845 0.808219 255 0 0 255
-0.304709 0.430678 2.186 -0.745151 0.118877 0.656216 255 0 0 255
-0.299577 0.431881 2.192 -0.627642 0.295479 0.720248 255 0 0 255
-0.294143 0.43269 2.196 -0.18497 0.685706 0.703984 255 0 0 255
-0.28803 0.432514 2.195 0.183406 0.818528 0.544402 255 0 0 255
-0.281152 0.431155 2.188 0.502534 0.809628 0.303252 255 0 0 255
-0.273933 0.429204 2.178 0.551792 0.799625 0.23691 255 0 0 255
-0.267137 0.427844 2.171 0.596782 0.751919 0.280121 255 0 0 255
-0.260498 0.426681 2.165 0.586481 0.74485 0.318181 255 0 0 255
-0.253422 0.424729 2.155 0.694751 0.580576 0.424562 255 0 0 255
-0.246514 0.422973 2.146 0.73123 0.436465 0.524214 255 0 0 255
-0.239654 0.421217 2.137 0.623943 0.337977 0.704605 255 0 0 255
-0.2335 0.420643 2.134 0.51438 0.304098 0.801834 255 0 0 255
-0.227254 0.419872 2.13 0.454098 0.297849 0.839691 255 0 0 255
-0.221237 0.419494 2.128 0.296905 0.354451 0.886686 255 0 0 255
-0.215332 0.419313 2.127 0.273312 0.322633 0.906206 255 0 0 255
-0.209333 0.418935 2.125 0.172507 0.322147 0.93084 255 0 0 255
-0.203537 0.418951 2.125 0.14797 0.254858 0.95559 255 0 0 255
-0.197646 0.418769 2.124 0.0671337 0.238537 0.96881 255 0 0 255
-0.191851 0.418784 2.124 -0.150029 0.241165 0.958817 255 0 0 255
-0.186142 0.418995 2.125 -0.207469 0.23913 0.948564 255 0 0 255
-0.180428 0.419206 2.126 -0.207557 0.308277 0.928378 255 0 0 255
-0.174707 0.419417 2.127 -0.0863376 0.454819 0.886389 255 0 0 255
-0.168981 0.419628 2.128 0.0274133 0.576143 0.816889 255 0 0 255
-0.163018 0.419246 2.126 0.11278 0.513776 0.85048 255 0 0 255
-0.157214 0.419259 2.126 0.0921506 0.37351 0.923038 255 0 0 255
-0.151267 0.418876 2.124 0.228575 0.332739 0.914898 255 0 0 255
-0.145399 0.418691 2.123 0.147261 0.340855 0.928511 255 0 0 255
-0.139601 0.418702 2.123 0.0937317 0.248912 0.96398 255 0 0 255
-0.133804 0.418712 2.123 0.12137 0.136131 0.983228 255 0 0 255
-0.128005 0.418723 2.123 0.280521 0.0172672 0.959693 255 0 0 255
-0.122092 0.418338 2.121 0.462733 0.0701277 0.88372 255 0 0 255
-0.116079 0.417559 2.117 0.552862 0.110979 0.825849 255 0 0 255
-0.110035 0.416581 2.112 0.454263 0.132757 0.88092 255 0 0 255
-0.104216 0.416393 2.111 0.0314371 0.0145363 0.9994 255 0 0 255
-0.098495 0.416598 2.112 -0.25634 -0.0228904 0.966316 255 0 0 255
-0.092813 0.417 2.114 -0.0882238 -0.0164768 0.995964 255 0 0 255
-0.086954 0.416613 2.112 0.0924033 0.171809 0.980787 255 0 0 255
-0.081221 0.416817 2.113 0.0295989 0.228879 0.973005 255 0 0 255
-0.075412 0.416626 2.112 -0.0295529 0.233828 0.971829 255 0 0 255
-0.069673 0.416829 2.113 -0.0291182 0.0698861 0.99713 255 0 0 255
-0.063868 0.416637 2.112 0.0585492 -0.0639589 0.996234 255 0 0 255
-0.058124 0.416839 2.113 0.0566555 -0.128118 0.990139 255 0 0 255
-0.052324 0.416646 2.112 0.117327 -0.0509312 0.991787 255 0 0 255
-0.046552 0.41665 2.112 0.149421 0.0509416 0.987461 255 0 0 255
-0.04076 0.416457 2.111 0.000449238 0.188793 0.982017 255 0 0 255
-0.03499 0.41646 2.111 -0.261368 0.262351 0.928902 255 0 0 255
-0.029262 0.417054 2.114 -0.454564 0.232394 0.859863 255 0 0 255
-0.023517 0.417648 2.117 -0.556769 0.195187 0.80741 255 0 0 255
-0.017772 0.418636 2.122 -0.56804 0.273921 0.776078 255 0 0 255
-0.011994 0.419427 2.126 -0.553485 0.315583 0.770754 255 0 0 255
-0.006191 0.420019 2.129 -0.568518 0.410407 0.712989 255 0 0 255
-0.000373 0.420808 2.133 -0.631443 0.375079 0.678672 255 0 0 255
0.005471 0.421795 2.138 -0.67885 0.274758 0.680934 255 0 0 255
0.011341 0.42278 2.143 -0.682599 0.167207 0.711408 255 0 0 255
0.017247 0.423963 2.149 -0.604806 0.227358 0.763229 255 0 0 255
0.023143 0.424356 2.151 -0.481331 0.35864 0.799811 255 0 0 255
0.029076 0.425143 2.155 -0.512682 0.486258 0.707609 255 0 0 255
0.035031 0.425929 2.159 -0.580148 0.536637 0.61274 255 0 0 255
0.041027 0.426913 2.164 -0.758773 0.484064 0.435828 255 0 0 255
0.047267 0.429868 2.179 -0.863775 0.408458 0.295051 255 0 0 255
0.053614 0.433021 2.195 -0.784863 0.549905 0.285648 255 0 0 255
0.060074 0.43637 2.212 -0.579974 0.765633 0.278273 255 0 0 255
0.06615 0.436562 2.213 -0.213476 0.923287 0.319327 255 0 0 255
0.072328 0.437346 2.217 -0.155506 0.923464 0.350759 255 0 0 255
0.078422 0.437537 2.218 -0.0768114 0.938181 0.337514 255 0 0 255
0.084483 0.43753 2.218 -0.0757063 0.916064 0.393823 255 0 0 255
0.090584 0.437721 2.219 -0.0902699 0.907918 0.409312 255 0 0 255
0.096778 0.438305 2.222 -0.0668384 0.894314 0.442419 255 0 0 255
0.102664 0.437508 2.218 0.334481 0.851596 0.403618 255 0 0 255
0.10843 0.436316 2.212 0.574512 0.662567 0.480563 255 0 0 255
0.11411 0.434926 2.205 0.462407 0.630548 0.623369 255 0 0 255
0.120025 0.434523 2.203 0.141978 0.639391 0.75566 255 0 0 255
0.125985 0.434316 2.202 -0.12011 0.415748 0.901514 255 0 0 255
0.13212 0.4347 2.204 -0.504719 0.170569 0.846265 255 0 0 255
0.138453 0.435675 2.209 -0.436165 0.143645 0.888328 255 0 0 255
0.144551 0.435861 2.21 -0.366991 0.0505411 0.92885 255 0 0 255
0.150859 0.436639 2.214 -0.364542 -0.0407858 0.930293 255 0 0 255
0.156904 0.436627 2.214 -0.233975 -0.125019 0.964171 255 0 0 255
0.163096 0.437009 2.216 -0.344847 -0.0126515 0.938574 255 0 0 255
0.169299 0.43739 2.218 -0.57919 0.12216 0.805988 255 0 0 255
0.175907 0.438757 2.225 -0.675601 0.227027 0.701443 255 0 0 255
0.182471 0.439926 2.231 -0.63764 0.394704 0.661532 255 0 0 255
0.189068 0.441095 2.237 -0.550283 0.477738 0.684804 255 0 0 255
0.195085 0.440883 2.236 -0.497215 0.535209 0.682882 255 0 0 255
-0.101488 0.488695 2.30502 -0.166663 -0.711597 -0.682534 255 255 0 255
-0.08829 0.487802 2.30145 -0.277088 -0.600305 -0.750238 255 255 0 255
-0.081151 0.486307 2.29366 -0.317723 -0.713532 -0.624439 255 255 0 255
-0.069711 0.485257 2.28896 -0.257007 -0.687533 -0.679151 255 255 0 255
-0.053123 0.484745 2.288 -0.469891 -0.0375194 -0.881927 255 255 0 255
-0.04344 0.483537 2.28216 -0.81933 0.122142 -0.56016 255 255 0 255
-0.044936 0.481175 2.26829 -0.841385 0.241055 -0.483698 255 255 0 255
-0.035267 0.479975 2.26249 -0.568889 -0.0878405 -0.81771 255 255 0 255
-0.023897 0.478962 2.25798 -0.607073 -0.341787 -0.717387 255 255 0 255
-0.019393 0.477233 2.24849 -0.868508 -0.410769 -0.277422 255 255 0 255
-0.019166 0.475049 2.23584 -0.88342 -0.0204871 -0.468134 255 255 0 255
-0.011244 0.473687 2.22888 -0.795141 -0.174207 -0.580863 255 255 0 255
0.014591 0.474263 2.2353 0.257167 -0.233351 -0.93777 255 255 0 255
0.059134 0.476898 2.2559 0.356175 -0.179313 -0.917053 255 255 0 255
0.097628 0.478927 2.27225 -0.00240636 -0.28123 -0.959637 255 255 0 255
0.113081 0.478472 2.27143 -0.0406383 -0.565145 -0.82399 255 255 0 255
0.12001 0.477091 2.26422 0.0258599 -0.568046 -0.82259 255 255 0 255
-0.309589 0.403058 2.21785 -0.823411 0.0688697 -0.563251 0 255 0 255
-0.312795 0.406175 2.23221 0.867114 -0.467831 -0.171018 0 255 0 255
-0.307324 0.407768 2.24006 0.822903 -0.509066 -0.252353 0 255 0 255
-0.301848 0.409365 2.24791 0.846595 -0.513726 -0.139151 0 255 0 255
-0.30159 0.411871 2.25963 0.941617 -0.0224433 -0.335937 0 255 0 255
-0.296112 0.413473 2.2675 0.751746 0.0465889 -0.657805 0 255 0 255
-0.28191 0.413582 2.269 0.12712 0.18035 -0.975353 0 255 0 255
-0.264199 0.413111 2.26803 -0.0179588 0.116185 -0.993065 0 255 0 255
-0.248209 0.412955 2.26841 -0.00107425 0.101376 -0.994848 0 255 0 255
-0.233946 0.413112 2.27012 0.0162125 -0.00367437 -0.999862 0 255 0 255
-0.217914 0.412989 2.27064 0.380646 -0.217551 -0.898766 0 255 0 255
-0.208865 0.414059 2.27623 0.678801 -0.526874 -0.5115 0 255 0 255
-0.202434 0.415576 2.28372 0.626152 -0.610311 -0.485236 0 255 0 255
-0.199507 0.417682 2.2937 0.533449 -0.588667 -0.607374 0 255 0 255
-0.18429 0.417754 2.29505 0.396213 -0.508186 -0.764697 0 255 0 255
-0.172567 0.41842 2.29892 0.395864 -0.290041 -0.871302 0 255 0 255
-0.161708 0.419243 2.30346 0.254184 -0.276387 -0.926823 0 255 0 255
-0.149076 0.419789 2.30681 0.0808207 -0.25032 -0.964784 0 255 0 255
-0.133785 0.419918 2.30841 0.322455 -0.274889 -0.905792 0 255 0 255
-0.123763 0.420918 2.3137 0.663661 -0.331736 -0.670452 0 255 0 255
-0.116376 0.422354 2.32083 0.606203 -0.452309 -0.654167 0 255 0 255
-0.108982 0.423797 2.32798 0.10611 -0.451191 -0.886097 0 255 0 255
-0.089207 0.423271 2.32681 -0.575224 -0.352783 -0.738012 0 255 0 255
0.113614 0.413135 2.29266 0.913864 0.226519 -0.336958 0 255 0 255
0.17581 0.417571 2.31692 -0.246884 -0.248868 -0.936543 0 255 0 255
-0.366214 0.426846 2.198 0.273802 0.025857 0.961439 255 0 0 255
-0.360892 0.427647 2.202 -0.216403 -0.248286 0.944205 255 0 0 255
-0.354903 0.42767 2.202 -0.106022 -0.396271 0.911991 255 0 0 255
-0.349072 0.427888 2.203 0.0544496 -0.259519 0.964202 255 0 0 255
-0.342767 0.427522 2.201 0.234338 0.0982649 0.967176 255 0 0 255
-0.336625 0.427351 2.2 0.497416 0.227358 0.837189 255 0 0 255
-0.329736 0.426208 2.194 0.731946 0.251945 0.633071 255 0 0 255
-0.322437 0.424481 2.185 0.764774 0.181975 0.618066 255 0 0 255
-0.31533 0.422949 2.177 0.488022 0.0610428 0.870694 255 0 0 255
-0.309546 0.423165 2.178 -0.66954 0.108609 0.734792 255 0 0 255
-0.304591 0.424546 2.185 -0.839995 0.127792 0.527331 255 0 0 255
-0.299871 0.426316 2.194 -0.803835 0.266254 0.531938 255 0 0 255
-0.294699 0.427502 2.2 -0.343325 0.582987 0.736379 255 0 0 255
-0.288838 0.427717 2.201 -0.332835 0.646208 0.686758 255 0 0 255
-0.282842 0.427738 2.201 0.0905097 0.881012 0.464355 255 0 0 255
-0.276216 0.426786 2.196 0.201181 0.921151 0.333178 255 0 0 255
-0.269494 0.425639 2.19 0.6269 0.719542 0.298758 255 0 0 255
-0.262082 0.423326 2.178 0.694999 0.683201 0.224082 255 0 0 255
-0.254381 0.420429 2.163 0.748401 0.51856 0.413511 255 0 0 255
-0.247106 0.418115 2.151 0.766208 0.372999 0.523257 255 0 0 255
-0.240233 0.416383 2.142 0.690113 0.363103 0.62602 255 0 0 255
-0.233955 0.415623 2.138 0.515358 0.409167 0.752986 255 0 0 255
-0.227698 0.414863 2.134 0.493776 0.3555 0.793602 255 0 0 255
-0.221566 0.414296 2.131 0.322942 0.350353 0.879182 255 0 0 255
-0.215652 0.414118 2.13 0.272043 0.35757 0.893385 255 0 0 255
-0.209546 0.41355 2.127 0.146948 0.376023 0.914884 255 0 0 255
-0.203743 0.413566 2.127 0.0604943 0.368853 0.927517 255 0 0 255
-0.197847 0.413387 2.126 0.0345539 0.478906 0.877186 255 0 0 255
-0.192136 0.413596 2.127 -0.0867522 0.414119 0.906079 255 0 0 255
-0.186332 0.41361 2.127 -0.144442 0.40718 0.901854 255 0 0 255
-0.180696 0.414013 2.129 -0.232627 0.357769 0.904371 255 0 0 255
-0.175049 0.414416 2.131 -0.19975 0.429718 0.880592 255 0 0 255
-0.169311 0.414623 2.132 0.0597206 0.441362 0.895339 255 0 0 255
-0.163338 0.414247 2.13 0.254076 0.351405 0.901088 255 0 0 255
-0.157448 0.414065 2.129 0.20387 0.338304 0.918688 255 0 0 255
-0.151564 0.413883 2.128 0.173765 0.35739 0.917648 255 0 0 255
-0.145684 0.4137 2.127 0.115615 0.388079 0.914346 255 0 0 255
-0.13981 0.413516 2.126 0.233648 0.319969 0.918166 255 0 0 255
-0.133814 0.412943 2.123 0.264021 0.137382 0.954683 255 0 0 255
-0.127955 0.412759 2.122 0.285021 0.0586057 0.956728 255 0 0 255
-0.121986 0.412185 2.119 0.416905 0.0268692 0.908553 255 0 0 255
-0.116088 0.411806 2.117 0.519122 0.0767297 0.851249 255 0 0 255
-0.110096 0.411037 2.113 0.485715 0.139896 0.86285 255 0 0 255
-0.104175 0.410461 2.11 0.0940036 0.171419 0.980703 255 0 0 255
-0.098456 0.410664 2.111 -0.237369 0.125878 0.963229 255 0 0 255
-0.092776 0.411061 2.113 -0.180824 0.183174 0.966307 255 0 0 255
-0.087043 0.411262 2.114 -0.0293035 0.173546 0.98439 255 0 0 255
-0.081266 0.411269 2.114 0.0594451 0.220742 0.973519 255 0 0 255
-0.075489 0.411275 2.114 0.0592664 0.176556 0.982505 255 0 0 255
-0.069679 0.411086 2.113 0.0886532 0.138799 0.986345 255 0 0 255
-0.063873 0.410897 2.112 0.0905006 0.111947 0.989585 255 0 0 255
-0.058073 0.410708 2.111 0.0605921 0.078473 0.995073 255 0 0 255
-0.052304 0.410712 2.111 0.0599985 0.0338508 0.997624 255 0 0 255
-0.046533 0.410716 2.111 0.0592343 0.0497174 0.997005 255 0 0 255
-0.040763 0.410719 2.111 -0.0601894 0.123838 0.990475 255 0 0 255
-0.035026 0.411112 2.113 -0.393406 0.164157 0.90459 255 0 0 255
-0.029278 0.411503 2.115 -0.491926 0.293033 0.819842 255 0 0 255
-0.02353 0.412089 2.118 -0.545867 0.28419 0.788204 255 0 0 255
-0.017773 0.412869 2.122 -0.567735 0.264673 0.779503 255 0 0 255
-0.011989 0.413454 2.125 -0.571516 0.251562 0.781081 255 0 0 255
-0.006198 0.414622 2.131 -0.621464 0.309507 0.719714 255 0 0 255
-0.000373 0.415401 2.135 -0.575092 0.387767 0.720351 255 0 0 255
0.005476 0.416373 2.14 -0.600403 0.28235 0.748195 255 0 0 255
0.011347 0.417151 2.144 -0.658298 0.18809 0.72888 255 0 0 255
0.017249 0.418123 2.149 -0.657361 0.247397 0.711808 255 0 0 255
0.023177 0.419094 2.154 -0.543896 0.399945 0.737714 255 0 0 255
0.029119 0.41987 2.158 -0.550938 0.559958 0.618801 255 0 0 255
0.035115 0.421035 2.164 -0.595925 0.568915 0.566753 255 0 0 255
0.041125 0.422004 2.169 -0.787661 0.479514 0.386854 255 0 0 255
0.047401 0.425114 2.185 -0.870841 0.415166 0.263198 255 0 0 255
0.053838 0.428806 2.204 -0.797417 0.556278 0.233839 255 0 0 255
0.060378 0.432498 2.223 -0.571173 0.766842 0.29277 255 0 0 255
0.066514 0.432882 2.225 -0.200532 0.909198 0.364891 255 0 0 255
0.072693 0.433461 2.228 -0.10397 0.911367 0.398247 255 0 0 255
0.078852 0.433844 2.23 -0.0156797 0.905259 0.42457 255 0 0 255
0.084794 0.433059 2.226 -0.0317784 0.911726 0.409568 255 0 0 255
0.090918 0.433246 2.227 -0.0571447 0.901117 0.429794 255 0 0 255
0.097178 0.434017 2.231 -0.131654 0.906784 0.400512 255 0 0 255
0.103135 0.433426 2.228 0.457792 0.827636 0.324723 255 0 0 255
0.108781 0.431666 2.219 0.670315 0.62918 0.393459 255 0 0 255
0.11443 0.430101 2.211 0.66646 0.522468 0.531845 255 0 0 255
0.120252 0.429314 2.207 0.285993 0.465383 0.837632 255 0 0 255
0.12611 0.428721 2.204 0.139661 0.469265 0.871943 255 0 0 255
0.13219 0.428905 2.205 -0.399448 0.260446 0.878982 255 0 0 255
0.138526 0.429867 2.21 -0.372777 0.0693104 0.925329 255 0 0 255
0.144562 0.429856 2.21 -0.298478 0.055584 0.952797 255 0 0 255
0.150802 0.430428 2.213 -0.296799 0.028825 0.954505 255 0 0 255
0.156845 0.430416 2.213 -0.270642 -0.00436433 0.96267 255 0 0 255
0.163109 0.430987 2.216 -0.48817 0.10347 0.866594 255 0 0 255
0.169465 0.431752 2.22 -0.621384 0.171737 0.764453 255 0 0 255
0.176079 0.4331 2.227 -0.737129 0.248291 0.628484 255 0 0 255
0.182894 0.434837 2.236 -0.671501 0.355104 0.650374 255 0 0 255
0.189336 0.4356 2.24 -0.592802 0.367484 0.716618 255 0 0 255
0.195973 0.436752 2.246 -0.625977 0.283409 0.72652 255 0 0 255
-0.113735 0.47882 2.31054 0.668852 -0.383476 -0.636854 255 255 0 255
-0.095339 0.478481 2.31054 -0.169125 -0.522591 -0.835641 255 255 0 255
-0.083877 0.47744 2.30576 -0.0169459 -0.623392 -0.781726 255 255 0 255
-0.075018 0.476137 2.2992 -0.571279 -0.494204 -0.655289 255 255 0 255
-0.064448 0.475022 2.29389 -0.635692 0.209618 -0.742937 255 255 0 255
-0.050451 0.474279 2.29108 -0.518448 0.23105 -0.823303 255 255 0 255
-0.04507 0.472632 2.28216 -0.732386 0.257951 -0.630136 255 255 0 255
-0.044842 0.470436 2.26952 -0.708687 0.0196063 -0.705251 255 255 0 255
-0.03003 0.469807 2.26745 -0.469102 -0.202657 -0.859578 255 255 0 255
-0.017812 0.468913 2.26357 -0.52435 -0.262188 -0.810132 255 255 0 255
-0.009889 0.467561 2.2566 -0.927751 -0.184567 -0.324365 255 255 0 255
-0.017362 0.464528 2.23831 -0.910682 -0.368079 -0.187554 255 255 0 255
-0.008588 0.463273 2.23198 -0.820194 -0.159903 -0.549285 255 255 0 255
0.071978 0.467819 2.26661 0.365361 -0.238441 -0.899809 255 255 0 255
0.10874 0.469769 2.28169 -0.013836 -0.664245 -0.747387 255 255 0 255
0.128427 0.469835 2.28411 -0.116249 -0.861218 -0.494762 255 255 0 255
0.139586 0.468954 2.28016 -0.351904 -0.88381 -0.308293 255 255 0 255
-0.304707 0.391957 2.21531 0.723312 -0.157069 -0.67242 0 255 0 255
-0.31658 0.396646 2.23617 -0.91878 0.394011 -0.0244572 0 255 0 255
-0.315453 0.399002 2.24725 0.741311 -0.646744 -0.179387 0 255 0 255
-0.309985 0.400589 2.25509 0.714434 -0.658768 -0.235816 0 255 0 255
-0.303642 0.402025 2.26229 0.619644 -0.543022 -0.566718 0 255 0 255
-0.292071 0.402551 2.26569 0.0741058 -0.0453262 -0.99622 0 255 0 255
-0.276129 0.402327 2.26594 0.0787178 0.214012 -0.973654 0 255 0 255
-0.260164 0.40212 2.26627 0.0172469 0.285086 -0.958347 0 255 0 255
-0.239813 0.401174 2.26352 0.0403058 0.183788 -0.982139 0 255 0 255
-0.229043 0.401907 2.26778 0.300131 0.381848 -0.874136 0 255 0 255
-0.218259 0.40265 2.27209 0.58551 0.327325 -0.741645 0 255 0 255
-0.216213 0.404899 2.28268 0.725722 -0.244024 -0.643257 0 255 0 255
-0.208038 0.406105 2.28891 0.838275 -0.249146 -0.484996 0 255 0 255
-0.201608 0.407615 2.29641 0.528455 -0.417748 -0.739068 0 255 0 255
-0.188153 0.407947 2.299 0.280276 -0.354576 -0.892032 0 255 0 255
-0.179071 0.409029 2.30471 0.381457 -0.458006 -0.802945 0 255 0 255
-0.168221 0.409826 2.30924 0.238777 -0.402067 -0.883927 0 255 0 255
-0.154719 0.410195 2.31198 0.0675322 -0.362981 -0.929346 0 255 0 255
-0.134157 0.409411 2.30994 0.265922 -0.443876 -0.855722 0 255 0 255
-0.125019 0.410538 2.31584 0.624259 -0.498432 -0.601553 0 255 0 255
-0.118517 0.412107 2.32358 0.509776 -0.291045 -0.809581 0 255 0 255
-0.108478 0.413104 2.32894 0.242228 -0.302884 -0.921731 0 255 0 255
-0.091361 0.412962 2.32958 -0.0303366 -0.470062 -0.882112 0 255 0 255
-0.075104 0.412981 2.33088 -0.520639 -0.528409 -0.670612 0 255 0 255
0.18602 0.4047 2.31197 -0.0112262 -0.271471 -0.962381 0 255 0 255
-0.366404 0.421068 2.199 0.432216 0.166951 0.886181 255 0 0 255
-0.360752 0.421474 2.201 0.264368 0.140542 0.954127 255 0 0 255
-0.354443 0.421115 2.199 0.0387249 -0.0706066 0.996752 255 0 0 255
-0.348778 0.421521 2.201 -0.109539 -0.0336259 0.993414 255 0 0 255
-0.342945 0.421735 2.202 0.0352857 0.0921269 0.995122 255 0 0 255
-0.336954 0.421758 2.202 0.374381 0.250916 0.892681 255 0 0 255
-0.330209 0.420822 2.197 0.693221 0.260667 0.671936 255 0 0 255
-0.322754 0.418929 2.187 0.752326 0.335526 0.566946 255 0 0 255
-0.315497 0.417227 2.178 0.44458 0.268288 0.854617 255 0 0 255
-0.309851 0.417631 2.18 -0.632105 0.392976 0.667842 255 0 0 255
-0.305031 0.419185 2.188 -0.861725 0.281114 0.42238 255 0 0 255
-0.300439 0.421122 2.198 -0.817808 0.294342 0.494523 255 0 0 255
-0.295122 0.4221 2.203 -0.300952 0.778048 0.551425 255 0 0 255
-0.289252 0.422312 2.204 -0.387231 0.585344 0.712337 255 0 0 255
-0.28389 0.423291 2.209 -0.269969 0.760068 0.591112 255 0 0 255
-0.278249 0.423885 2.212 -0.162561 0.931827 0.324457 255 0 0 255
-0.271482 0.422755 2.206 0.526021 0.829731 0.186676 255 0 0 255
-0.263304 0.419325 2.188 0.792392 0.521734 0.316085 255 0 0 255
-0.254988 0.41551 2.168 0.862685 0.305679 0.402908 255 0 0 255
-0.247469 0.412845 2.154 0.814619 0.29518 0.499264 255 0 0 255
-0.240475 0.410946 2.144 0.714951 0.332856 0.61486 255 0 0 255
-0.234191 0.410197 2.14 0.559602 0.385114 0.733848 255 0 0 255
-0.227928 0.409447 2.136 0.504555 0.381926 0.774311 255 0 0 255
-0.221686 0.408697 2.132 0.362546 0.386555 0.848018 255 0 0 255
-0.215769 0.408522 2.131 0.271492 0.385865 0.881703 255 0 0 255
-0.209759 0.408154 2.129 0.115151 0.454324 0.883363 255 0 0 255
