ply
format ascii 1.0
comment VCGLIB generated
element vertex 724
property float x
property float y
property float z
property float nx
property float ny
property float nz
property uchar red
property uchar green
property uchar blue
property uchar alpha
element face 0
property list uchar int vertex_indices
end_header
-0.163565 0.484764 2.135 -0.0859643 -0.0139961 0.9962 255 0 0 255
-0.157815 0.485004 2.136 -0.0293346 -0.174256 0.984263 255 0 0 255
-0.151988 0.485017 2.136 0.0178866 -0.219863 0.975367 255 0 0 255
-0.14616 0.485029 2.136 0.178275 -0.220358 0.958989 255 0 0 255
-0.140069 0.484133 2.132 0.244026 -0.134848 0.960347 255 0 0 255
-0.134252 0.484144 2.132 0.270315 -0.121367 0.955092 255 0 0 255
-0.128253 0.483473 2.129 0.412608 0.0633583 0.908703 255 0 0 255
-0.122443 0.483484 2.129 0.47107 0.0914722 0.87734 255 0 0 255
-0.116358 0.482358 2.124 0.535463 0.0596645 0.842448 255 0 0 255
-0.110405 0.481686 2.121 0.238763 -0.045439 0.970014 255 0 0 255
-0.104566 0.481468 2.12 -0.161569 -0.306625 0.938017 255 0 0 255
-0.098872 0.481931 2.122 -0.142918 -0.461156 0.875733 255 0 0 255
-0.093167 0.482393 2.124 -0.0393662 -0.443636 0.895342 255 0 0 255
-0.087287 0.481946 2.122 0.192797 -0.373546 0.907355 255 0 0 255
-0.081378 0.481272 2.119 0.26753 -0.317929 0.909587 255 0 0 255
-0.075522 0.480824 2.117 0.171307 -0.181917 0.968277 255 0 0 255
-0.069742 0.48083 2.117 -0.115682 -0.0938551 0.988842 255 0 0 255
-0.064022 0.48129 2.119 -0.281418 0.0171759 0.959432 255 0 0 255
-0.058263 0.481523 2.12 -0.283042 0.0233605 0.958823 255 0 0 255
-0.052524 0.481982 2.122 -0.156635 -0.0317086 0.987148 255 0 0 255
-0.046752 0.482213 2.123 -0.014202 -0.03151 0.999403 255 0 0 255
-0.040954 0.482217 2.123 0.00736879 0.0271629 0.999604 255 0 0 255
-0.035157 0.48222 2.123 -0.0578231 0.00628253 0.998307 255 0 0 255
-0.029359 0.482222 2.123 -0.228461 0.00856807 0.973515 255 0 0 255
-0.023584 0.482679 2.125 -0.277237 -0.068638 0.958347 255 0 0 255
-0.017789 0.482908 2.126 -0.192427 -0.136582 0.97176 255 0 0 255
-0.011994 0.483363 2.128 -0.102947 -0.216394 0.970863 255 0 0 255
-0.006183 0.483364 2.128 -0.0546963 -0.169787 0.983962 255 0 0 255
-0.000371 0.483364 2.128 0.0696557 -0.0104478 0.997516 255 0 0 255
0.005435 0.48291 2.126 -0.218745 0.0931052 0.97133 255 0 0 255
0.011262 0.483818 2.13 -0.429851 0.2499 0.867628 255 0 0 255
0.017103 0.484498 2.133 -0.338855 0.284731 0.896719 255 0 0 255
0.02295 0.484951 2.135 -0.179195 0.24346 0.953214 255 0 0 255
0.02878 0.484948 2.135 -0.237489 0.199547 0.950674 255 0 0 255
0.034643 0.4854 2.137 -0.432025 0.197751 0.879914 255 0 0 255
0.040554 0.486305 2.141 -0.468051 0.163618 0.868423 255 0 0 255
0.046444 0.486756 2.143 -0.288134 0.224005 0.931021 255 0 0 255
0.052296 0.486752 2.143 0.119457 0.249466 0.960987 255 0 0 255
0.058066 0.486066 2.14 0.316665 0.13913 0.938278 255 0 0 255
0.06385 0.485606 2.138 0.126073 0.200397 0.971569 255 0 0 255
0.069687 0.485601 2.138 -0.268781 0.144409 0.952314 255 0 0 255
0.075737 0.486957 2.144 -0.630513 0.280879 0.723575 255 0 0 255
0.081743 0.487859 2.148 -0.553467 0.33325 0.763295 255 0 0 255
0.087811 0.488988 2.153 -0.373586 0.289898 0.881131 255 0 0 255
0.093688 0.48898 2.153 -0.382916 0.275864 0.881631 255 0 0 255
0.099797 0.490108 2.158 -0.479621 0.205738 0.853015 255 0 0 255
0.105737 0.490326 2.159 -0.53127 0.191023 0.825386 255 0 0 255
0.11194 0.49168 2.165 -0.723844 0.105467 0.681856 255 0 0 255
0.11823 0.49326 2.172 -0.762176 0.134587 0.633225 255 0 0 255
0.124615 0.495067 2.18 -0.760989 0.0608843 0.645902 255 0 0 255
-0.123981 0.603649 2.26305 0.6901 -0.455305 -0.562547 255 255 0 255
-0.106395 0.602739 2.26264 -0.0264672 0.122289 -0.992142 255 255 0 255
-0.092304 0.601607 2.25984 -0.232895 -0.443843 -0.865311 255 255 0 255
-0.080831 0.600307 2.25522 -0.0269631 -0.474466 -0.879861 255 255 0 255
-0.061593 0.599558 2.25628 0.163052 -0.488812 -0.857016 255 255 0 255
-0.026665 0.597866 2.25615 -0.435741 -0.417487 -0.797392 255 255 0 255
-0.018727 0.596366 2.24925 -0.619406 -0.704309 -0.346822 255 255 0 255
-0.016824 0.594437 2.23792 -0.572554 -0.753557 -0.323008 255 255 0 255
-0.008037 0.593006 2.23168 -0.504262 -0.790991 -0.346488 255 255 0 255
0.008473 0.592149 2.23123 -0.173185 -0.76919 -0.615105 255 255 0 255
0.029246 0.591622 2.23408 -0.186782 -0.533403 -0.824981 255 255 0 255
0.038838 0.590285 2.22863 -0.454216 -0.528747 -0.717018 255 255 0 255
0.045847 0.588761 2.22127 -0.657072 -0.714777 -0.239478 255 255 0 255
-0.275407 0.512317 2.19166 -0.886428 0.452532 -0.0972649 0 255 0 255
-0.274275 0.514615 2.20282 -0.876083 0.470322 -0.106184 0 255 0 255
-0.27665 0.517404 2.21657 0.858804 -0.495284 -0.130957 0 255 0 255
-0.273776 0.519453 2.2264 0.802814 -0.187956 -0.565829 0 255 0 255
-0.263887 0.520528 2.23103 0.589211 -0.293849 -0.752651 0 255 0 255
-0.253108 0.521492 2.23507 0.545393 -0.392214 -0.740753 0 255 0 255
-0.244952 0.522828 2.24107 0.787457 -0.383368 -0.482639 0 255 0 255
-0.242943 0.525014 2.25157 0.83384 -0.275712 -0.47822 0 255 0 255
-0.238295 0.52684 2.26016 0.704041 -0.135958 -0.697023 0 255 0 255
-0.232764 0.52855 2.26812 0.573104 -0.053416 -0.81774 0 255 0 255
-0.22194 0.529553 2.2723 0.329571 -0.155158 -0.931294 0 255 0 255
-0.206691 0.529976 2.27338 0.113986 -0.154245 -0.981436 0 255 0 255
-0.192305 0.530532 2.27515 -0.0480654 -0.239362 -0.96974 0 255 0 255
-0.155515 0.530641 2.27328 0.265049 -0.421772 -0.867097 0 255 0 255
-0.141065 0.531247 2.27527 0.304215 -0.441957 -0.843876 0 255 0 255
-0.131912 0.53256 2.28102 0.352997 -0.499452 -0.791164 0 255 0 255
-0.115654 0.532963 2.28189 0.142274 -0.689342 -0.710328 0 255 0 255
-0.1047 0.534069 2.2865 0.150061 -0.593495 -0.790725 0 255 0 255
-0.087514 0.534388 2.2869 0.222275 -0.202274 -0.953771 0 255 0 255
-0.074749 0.535293 2.2904 0.139863 -0.0790724 -0.987009 0 255 0 255
-0.058409 0.535759 2.29155 -0.110054 -0.0910941 -0.989742 0 255 0 255
-0.048281 0.537028 2.29698 -0.897661 -0.437751 -0.0507757 0 255 0 255
-0.34002 0.48964 2.185 0.771081 -0.0682702 0.633067 255 0 0 255
-0.332701 0.487647 2.176 0.673571 0.00807405 0.739078 255 0 0 255
-0.326182 0.486774 2.172 0.659903 0.0222429 0.751022 255 0 0 255
-0.318946 0.484779 2.163 0.586875 0.0757983 0.806122 255 0 0 255
-0.312771 0.484353 2.161 0.465592 0.0249391 0.884648 255 0 0 255
-0.306323 0.483479 2.157 0.186776 -0.00319899 0.982397 255 0 0 255
-0.300732 0.483949 2.159 0.0759195 0.0423955 0.996212 255 0 0 255
-0.294582 0.483522 2.157 0.239414 0.143303 0.960284 255 0 0 255
-0.288711 0.483543 2.157 0.359831 0.308116 0.880674 255 0 0 255
-0.282183 0.482444 2.152 0.479189 0.349373 0.805181 255 0 0 255
-0.276067 0.482016 2.15 0.348237 0.334954 0.875521 255 0 0 255
-0.269961 0.481588 2.148 0.0321778 0.353089 0.935036 255 0 0 255
-0.264358 0.482056 2.15 -0.11781 0.342997 0.931919 255 0 0 255
-0.258502 0.482076 2.15 0.255682 0.345196 0.903032 255 0 0 255
-0.25241 0.481646 2.148 0.434338 0.245497 0.86665 255 0 0 255
-0.2461 0.480768 2.144 0.405075 0.159819 0.900207 255 0 0 255
-0.240034 0.480339 2.142 0.219275 -0.0104715 0.975607 255 0 0 255
-0.234198 0.480357 2.142 0.193908 -0.196102 0.96122 255 0 0 255
-0.228147 0.479926 2.14 0.205102 -0.297512 0.932427 255 0 0 255
-0.222211 0.479719 2.139 0.194844 -0.167458 0.966434 255 0 0 255
-0.216179 0.479288 2.137 0.23139 0.0362506 0.972186 255 0 0 255
-0.210255 0.47908 2.136 0.254105 0.0798964 0.963871 255 0 0 255
-0.204145 0.478423 2.133 0.120705 0.138809 0.982936 255 0 0 255
-0.198422 0.478664 2.134 -0.0274001 0.0853806 0.995972 255 0 0 255
-0.192603 0.478679 2.134 0.0316242 0.0665753 0.99728 255 0 0 255
-0.186784 0.478694 2.134 0.0467574 -0.0889658 0.994937 255 0 0 255
-0.18088 0.478484 2.133 -0.00233164 -0.0625157 0.998041 255 0 0 255
-0.175144 0.478723 2.134 -0.122469 -0.00608965 0.992454 255 0 0 255
-0.169482 0.479186 2.136 -0.0580035 0.0682351 0.995982 255 0 0 255
-0.163579 0.478975 2.135 0.0881973 -0.0359033 0.995456 255 0 0 255
-0.157754 0.478988 2.135 0.0823916 -0.197352 0.976864 255 0 0 255
-0.151787 0.478552 2.133 0.0822941 -0.266875 0.960211 255 0 0 255
-0.146035 0.478788 2.134 0.118972 -0.180615 0.976332 255 0 0 255
-0.140081 0.478351 2.132 0.226674 -0.0325872 0.973425 255 0 0 255
-0.1342 0.478138 2.131 0.28117 0.0768748 0.956574 255 0 0 255
-0.128264 0.4777 2.129 0.373516 -0.0481259 0.926374 255 0 0 255
-0.122338 0.477261 2.127 0.368617 -0.0761942 0.926453 255 0 0 255
-0.116423 0.476823 2.125 0.491108 0.0592821 0.869079 255 0 0 255
-0.110362 0.47571 2.12 0.403779 0.0555424 0.913169 255 0 0 255
-0.104476 0.47527 2.118 0.123435 -0.065215 0.990207 255 0 0 255
-0.098741 0.475503 2.119 -0.0679413 -0.28846 0.955078 255 0 0 255
-0.093 0.475735 2.12 -0.0936043 -0.338315 0.936366 255 0 0 255
-0.087212 0.475743 2.12 0.131752 -0.308311 0.942118 255 0 0 255
-0.081308 0.475077 2.117 0.299606 -0.09527 0.949295 255 0 0 255
-0.075492 0.474859 2.116 0.0300527 -0.0470417 0.998441 255 0 0 255
-0.06978 0.475314 2.118 -0.201577 0.0204521 0.979259 255 0 0 255
-0.064027 0.475544 2.119 -0.309615 0.0377088 0.950114 255 0 0 255
-0.058296 0.475998 2.121 -0.229245 0.00129558 0.973368 255 0 0 255
-0.052528 0.476227 2.122 -0.116738 -0.0110146 0.993102 255 0 0 255
-0.046756 0.476455 2.123 -0.027737 -0.12076 0.992294 255 0 0 255
-0.040938 0.476235 2.122 -0.0282399 -0.0815146 0.996272 255 0 0 255
-0.03516 0.476462 2.123 -0.11576 -0.0170176 0.993131 255 0 0 255
-0.029362 0.476465 2.123 -0.20187 0.0415521 0.97853 255 0 0 255
-0.023586 0.476916 2.125 -0.201809 0.0600291 0.977583 255 0 0 255
-0.017782 0.476918 2.125 -0.117412 -0.0157181 0.992959 255 0 0 255
-0.011984 0.477144 2.126 -0.0850762 -0.117134 0.989465 255 0 0 255
-0.00618 0.477369 2.127 -0.0625256 -0.240608 0.968606 255 0 0 255
-0.000371 0.477369 2.127 -0.0854686 -0.13011 0.987809 255 0 0 255
0.005443 0.477818 2.129 -0.404652 0.0879355 0.910233 255 0 0 255
0.011274 0.47849 2.132 -0.424746 0.105284 0.89917 255 0 0 255
0.017113 0.478938 2.134 -0.214717 0.0173535 0.976522 255 0 0 255
0.022941 0.478936 2.134 -0.171193 -0.0900948 0.98111 255 0 0 255
0.028782 0.479158 2.135 -0.314759 0.0101359 0.949117 255 0 0 255
0.034646 0.479605 2.137 -0.485115 0.0612905 0.8723 255 0 0 255
0.040539 0.480275 2.14 -0.504706 0.140302 0.851814 255 0 0 255
0.04647 0.481169 2.144 -0.286348 0.170295 0.94287 255 0 0 255
0.052325 0.481165 2.144 0.119336 0.238218 0.963852 255 0 0 255
0.058152 0.480936 2.143 0.341591 0.272971 0.899334 255 0 0 255
0.063915 0.480257 2.14 -0.00392481 0.421196 0.906961 255 0 0 255
0.069856 0.480925 2.143 -0.560408 0.436837 0.703645 255 0 0 255
0.07592 0.482265 2.149 -0.585617 0.436237 0.683191 255 0 0 255
0.08194 0.483156 2.153 -0.483111 0.462553 0.743403 255 0 0 255
0.0879 0.483598 2.155 -0.258894 0.396091 0.880957 255 0 0 255
0.093783 0.48359 2.155 -0.378992 0.353372 0.855274 255 0 0 255
0.099852 0.48448 2.159 -0.442761 0.284117 0.850435 255 0 0 255
0.105843 0.48492 2.161 -0.526985 0.243667 0.814195 255 0 0 255
0.112104 0.486482 2.168 -0.679358 0.146827 0.718967 255 0 0 255
0.118294 0.487594 2.173 -0.732247 0.0602111 0.678372 255 0 0 255
0.124683 0.489379 2.181 -0.729937 -0.0140016 0.683371 255 0 0 255
-0.101104 0.592355 2.2676 -0.000296808 -0.0979634 -0.99519 255 255 0 255
-0.087021 0.591256 2.2648 -0.176192 -0.221888 -0.959022 255 255 0 255
-0.072961 0.590168 2.26205 -0.0145289 -0.365295 -0.930779 255 255 0 255
-0.034547 0.588786 2.26428 -0.344971 -0.116823 -0.931315 255 255 0 255
-0.022288 0.587611 2.26049 -0.258339 -0.0080983 -0.96602 255 255 0 255
-0.008323 0.586574 2.25801 -0.41268 -0.504528 -0.758385 255 255 0 255
-0.001266 0.585032 2.25052 -0.449284 -0.70511 -0.548602 255 255 0 255
0.005785 0.583494 2.24305 -0.451251 -0.732155 -0.510218 255 255 0 255
0.013687 0.582026 2.23623 -0.387623 -0.660199 -0.643339 255 255 0 255
0.028443 0.581091 2.23458 -0.32019 -0.224137 -0.920457 255 255 0 255
0.044032 0.580235 2.23363 -0.485215 -0.458544 -0.744516 255 255 0 255
0.047611 0.578457 2.2237 -0.425975 -0.432482 -0.794673 255 255 0 255
0.055467 0.577015 2.21701 -0.718034 -0.688682 -0.10072 255 255 0 255
0.049646 0.574495 2.19991 -0.831588 -0.555356 -0.00639818 255 255 0 255
-0.287071 0.503823 2.20157 0.761053 -0.648403 -0.0192833 0 255 0 255
-0.285948 0.506121 2.2127 0.696199 -0.674575 -0.24547 0 255 0 255
-0.281327 0.507916 2.22121 0.691704 -0.651417 -0.311772 0 255 0 255
-0.274078 0.509339 2.22777 0.717788 -0.432808 -0.545396 0 255 0 255
-0.268574 0.511018 2.23565 0.577598 -0.395076 -0.71435 0 255 0 255
-0.259557 0.512204 2.24097 0.49915 -0.435575 -0.749082 0 255 0 255
-0.251408 0.513523 2.24696 0.673624 -0.239724 -0.699116 0 255 0 255
-0.245009 0.515095 2.25426 0.670506 0.0249832 -0.741483 0 255 0 255
-0.236844 0.516428 2.2603 0.655223 0.212213 -0.725016 0 255 0 255
-0.226911 0.517524 2.2651 0.571036 0.0582169 -0.818858 0 255 0 255
-0.216966 0.518631 2.26994 0.216118 -0.028912 -0.975939 0 255 0 255
-0.20172 0.519022 2.27104 0.103359 -0.0886328 -0.990687 0 255 0 255
-0.188217 0.51967 2.27347 -0.0408648 -0.167665 -0.984997 0 255 0 255
-0.169398 0.519614 2.27221 0.0825026 -0.303867 -0.949136 0 255 0 255
-0.157624 0.520531 2.27601 0.318241 -0.383949 -0.866779 0 255 0 255
-0.145835 0.521459 2.27986 0.323716 -0.365688 -0.872628 0 255 0 255
-0.134032 0.522399 2.28375 0.501656 -0.337175 -0.796652 0 255 0 255
-0.118669 0.522881 2.28525 0.137991 -0.371085 -0.918289 0 255 0 255
-0.104172 0.523496 2.28742 0.174535 -0.364085 -0.914866 0 255 0 255
-0.087881 0.523894 2.28844 0.195521 -0.405107 -0.893118 0 255 0 255
-0.075121 0.524771 2.29196 0.0977 -0.363304 -0.926534 0 255 0 255
-0.058788 0.5252 2.29312 -0.282461 -0.0766055 -0.956215 0 255 0 255
-0.350261 0.489669 2.212 0.93962 -0.13287 0.315372 255 0 0 255
-0.339888 0.483494 2.184 0.679787 0.00902447 0.733354 255 0 0 255
-0.332724 0.481746 2.176 0.59975 0.128649 0.789778 255 0 0 255
-0.326205 0.480884 2.172 0.658266 0.142215 0.73923 255 0 0 255
-0.319116 0.479135 2.164 0.587512 0.226293 0.776931 255 0 0 255
-0.312938 0.478715 2.162 0.458572 0.296609 0.837696 255 0 0 255
-0.306487 0.477851 2.158 0.225818 0.249364 0.941713 255 0 0 255
-0.300753 0.478094 2.159 -0.0571612 0.279335 0.958491 255 0 0 255
-0.294877 0.478116 2.159 0.0316436 0.286879 0.957444 255 0 0 255
-0.289 0.478137 2.159 0.280408 0.36179 0.889089 255 0 0 255
-0.28286 0.477715 2.157 0.511099 0.338703 0.789973 255 0 0 255
-0.276344 0.476628 2.152 0.435833 0.316847 0.842412 255 0 0 255
-0.270359 0.476427 2.151 0.0630458 0.242828 0.968019 255 0 0 255
-0.264623 0.476668 2.152 -0.148405 0.25161 0.956383 255 0 0 255
-0.258882 0.476909 2.153 0.172524 0.132993 0.975986 255 0 0 255
-0.25243 0.475821 2.148 0.486408 0.183998 0.854138 255 0 0 255
-0.246348 0.475397 2.146 0.501428 0.0795134 0.861538 255 0 0 255
-0.239941 0.474308 2.141 0.35485 0.00559883 0.934906 255 0 0 255
-0.233997 0.474104 2.14 0.259907 -0.0223754 0.965374 255 0 0 255
-0.227845 0.473458 2.137 0.27939 -0.0613556 0.958216 255 0 0 255
-0.222021 0.473475 2.137 0.0875404 -0.0985147 0.991278 255 0 0 255
-0.216297 0.473713 2.138 0.115434 -0.0347638 0.992707 255 0 0 255
-0.21037 0.473509 2.137 0.2033 0.0882844 0.975128 255 0 0 255
-0.204448 0.473303 2.136 0.121506 0.116128 0.985774 255 0 0 255
-0.198624 0.473319 2.136 0.126857 0.0461941 0.990845 255 0 0 255
-0.192709 0.473113 2.135 0.145412 -0.0899283 0.985276 255 0 0 255
-0.186799 0.472906 2.134 0.0277422 -0.211679 0.976945 255 0 0 255
-0.180894 0.472699 2.133 -0.122623 -0.186228 0.974824 255 0 0 255
-0.17524 0.473157 2.135 -0.250621 -0.137564 0.958261 255 0 0 255
-0.169496 0.473392 2.136 -0.0255039 -0.12878 0.991345 255 0 0 255
-0.163592 0.473184 2.135 0.163765 -0.181417 0.969675 255 0 0 255
-0.157619 0.472754 2.133 0.120223 -0.218858 0.968322 255 0 0 255
-0.151728 0.472545 2.132 -0.00896477 -0.220079 0.975441 255 0 0 255
-0.145979 0.472778 2.133 -0.0564059 -0.0434125 0.997464 255 0 0 255
-0.140158 0.47279 2.133 0.089076 0.0330557 0.995476 255 0 0 255
-0.134274 0.47258 2.132 0.279533 0.120029 0.952604 255 0 0 255
-0.128274 0.471925 2.129 0.440605 0.0974155 0.8924 255 0 0 255
-0.122233 0.471049 2.125 0.38064 0.0799624 0.92126 255 0 0 255
-0.116378 0.470837 2.124 0.383869 0.100239 0.917931 255 0 0 255
-0.110475 0.470403 2.122 0.423923 0.142679 0.894389 255 0 0 255
-0.104584 0.469969 2.12 0.286345 0.105621 0.952287 255 0 0 255
-0.098703 0.469534 2.118 0.0906934 -0.0315922 0.995378 255 0 0 255
-0.09292 0.469542 2.118 0.000944529 -0.149348 0.988784 255 0 0 255
-0.087178 0.469771 2.119 0.0445683 -0.0997634 0.994013 255 0 0 255
-0.081315 0.469334 2.117 0.169563 0.0238057 0.985232 255 0 0 255
-0.075534 0.469341 2.117 0.00047732 0.0200851 0.999798 255 0 0 255
-0.069753 0.469347 2.117 -0.20155 0.020478 0.979264 255 0 0 255
-0.064033 0.469796 2.119 -0.330838 -0.0110539 0.943623 255 0 0 255
-0.058328 0.470466 2.122 -0.229982 0.0194099 0.973001 255 0 0 255
-0.052508 0.470249 2.121 -0.0579421 -0.0096459 0.998273 255 0 0 255
-0.046715 0.470253 2.121 0.0311078 0.0352017 0.998896 255 0 0 255
-0.040923 0.470257 2.121 -0.059493 0.0237354 0.997947 255 0 0 255
-0.035146 0.470482 2.122 -0.233937 0.0914002 0.967946 255 0 0 255
-0.029378 0.470928 2.124 -0.229863 0.0854133 0.969468 255 0 0 255
-0.023588 0.471152 2.125 -0.174432 0.152957 0.972717 255 0 0 255
-0.017792 0.471376 2.126 -0.0293011 0.0418153 0.998696 255 0 0 255
-0.011979 0.471155 2.125 0.0294914 -0.0295507 0.999128 255 0 0 255
-0.006175 0.471156 2.125 0.0313007 -0.144797 0.988966 255 0 0 255
-0.000371 0.471156 2.125 -0.158335 -0.197775 0.967375 255 0 0 255
0.005441 0.471821 2.128 -0.491715 -0.034834 0.870059 255 0 0 255
0.011275 0.472707 2.132 -0.307759 -0.114851 0.944507 255 0 0 255
0.01709 0.472484 2.131 -0.0546116 -0.196439 0.978994 255 0 0 255
0.022921 0.472704 2.132 -0.194671 -0.149821 0.969359 255 0 0 255
0.028771 0.473146 2.134 -0.419451 -0.0596232 0.905818 255 0 0 255
0.034665 0.47403 2.138 -0.549569 0.10405 0.828944 255 0 0 255
0.04058 0.474914 2.142 -0.557122 0.186555 0.809205 255 0 0 255
0.046495 0.475575 2.145 -0.41254 0.205124 0.887544 255 0 0 255
0.052378 0.475793 2.146 0.0294117 0.304874 0.951939 255 0 0 255
0.058212 0.475566 2.145 0.286078 0.335708 0.897474 255 0 0 255
0.06401 0.475118 2.143 -0.169884 0.351327 0.920711 255 0 0 255
0.069992 0.475999 2.147 -0.609622 0.334061 0.718863 255 0 0 255
0.076032 0.477101 2.152 -0.599059 0.36229 0.714055 255 0 0 255
0.082061 0.477982 2.156 -0.41294 0.372268 0.831202 255 0 0 255
0.087989 0.478196 2.157 -0.194975 0.404126 0.893682 255 0 0 255
0.093922 0.47841 2.158 -0.343204 0.438521 0.830608 255 0 0 255
0.099999 0.479289 2.162 -0.415947 0.34358 0.841986 255 0 0 255
0.10595 0.479502 2.163 -0.501813 0.331592 0.798893 255 0 0 255
0.112062 0.48038 2.167 -0.646598 0.197846 0.736728 255 0 0 255
0.11825 0.481479 2.172 -0.66554 0.121176 0.736459 255 0 0 255
0.124579 0.48302 2.179 -0.692355 -0.0168899 0.721359 255 0 0 255
0.130886 0.48434 2.185 -0.712676 -0.00140839 0.701492 255 0 0 255
-0.115982 0.582624 2.27111 0.383688 -0.61236 -0.69123 255 255 0 255
-0.102748 0.581479 2.26762 -0.284045 -0.208078 -0.93596 255 255 0 255
-0.090398 0.58028 2.26356 -0.214207 -0.337635 -0.916579 255 255 0 255
-0.074609 0.57935 2.26204 0.152227 -0.313307 -0.937372 255 255 0 255
-0.052799 0.578892 2.26496 -0.180767 -0.0373368 -0.982817 255 255 0 255
-0.039655 0.577795 2.26172 -0.237966 0.0354309 -0.970627 255 255 0 255
-0.030841 0.576377 2.25539 -0.237852 -0.00979839 -0.971252 255 255 0 255
-0.014289 0.575566 2.25477 -0.064339 0.00295367 -0.997924 255 255 0 255
0.004817 0.574971 2.25613 -0.267536 -0.338415 -0.902164 255 255 0 255
0.018735 0.573987 2.25376 -0.487297 -0.449687 -0.748547 255 255 0 255
0.021473 0.572129 2.24314 -0.596601 -0.542422 -0.591478 255 255 0 255
0.031072 0.570819 2.23764 -0.439587 -0.308156 -0.843684 255 255 0 255
0.044084 0.569793 2.23476 -0.206459 -0.249659 -0.946068 255 255 0 255
0.057932 0.568847 2.23258 -0.351734 -0.375808 -0.857351 255 255 0 255
0.065776 0.567423 2.22592 -0.713281 -0.538749 -0.448308 255 255 0 255
0.061658 0.565018 2.21015 0.737827 0.663132 -0.125964 255 255 0 255
0.059262 0.562749 2.19565 0.93595 0.348137 -0.0528975 255 255 0 255
-0.293487 0.494611 2.20753 0.734915 -0.66982 -0.106024 0 255 0 255
-0.294114 0.497169 2.21995 0.647936 -0.712992 -0.267997 0 255 0 255
-0.286002 0.498443 2.22584 0.636911 -0.595936 -0.489086 0 255 0 255
-0.276132 0.49947 2.23045 0.498523 -0.404399 -0.76677 0 255 0 255
-0.27063 0.501142 2.23833 0.558955 -0.162036 -0.813212 0 255 0 255
-0.259864 0.502058 2.24236 0.54528 -0.0958558 -0.832755 0 255 0 255
-0.249962 0.503111 2.24708 0.50317 0.00582461 -0.864168 0 255 0 255
-0.238293 0.503923 2.25056 0.588566 0.0881575 -0.803628 0 255 0 255
-0.23364 0.505746 2.25917 0.665061 0.159854 -0.729479 0 255 0 255
-0.227226 0.507323 2.26652 0.694156 0.00953103 -0.719761 0 255 0 255
-0.220806 0.508905 2.27389 0.456501 0.0834986 -0.885796 0 255 0 255
-0.205569 0.50926 2.275 0.070723 -0.103752 -0.992086 0 255 0 255
-0.190311 0.509631 2.27617 0.0301028 -0.0124665 -0.999469 0 255 0 255
-0.171501 0.509529 2.27493 0.0997783 -0.141232 -0.984935 0 255 0 255
-0.159733 0.510421 2.27873 0.379257 -0.285349 -0.880193 0 255 0 255
-0.148834 0.511445 2.2832 0.31001 -0.362734 -0.878816 0 255 0 255
-0.137036 0.512359 2.2871 0.506915 -0.314732 -0.802484 0 255 0 255
-0.124339 0.513165 2.29044 0.36427 -0.320689 -0.874338 0 255 0 255
-0.109852 0.513745 2.29261 0.155282 -0.614058 -0.773835 0 255 0 255
-0.095346 0.51434 2.29485 0.0756131 -0.575613 -0.814219 0 255 0 255
-0.080821 0.514949 2.29714 0.175543 -0.559116 -0.810292 0 255 0 255
-0.068054 0.51581 2.30071 0.0781321 -0.670645 -0.737652 0 255 0 255
-0.349018 0.48192 2.204 0.927683 -0.00846214 0.373274 255 0 0 255
-0.339444 0.476915 2.181 0.700985 0.0950798 0.706809 255 0 0 255
-0.3329 0.476063 2.177 0.568989 0.206179 0.796079 255 0 0 255
-0.326528 0.47543 2.174 0.5733 0.286022 0.767801 255 0 0 255
-0.319728 0.474141 2.168 0.609605 0.35613 0.708204 255 0 0 255
-0.313395 0.473507 2.165 0.488959 0.326887 0.808743 255 0 0 255
-0.306935 0.472654 2.161 0.323167 0.335628 0.884826 255 0 0 255
-0.300914 0.472457 2.16 -0.116889 0.324732 0.938556 255 0 0 255
-0.295308 0.472916 2.162 -0.056629 0.395347 0.916784 255 0 0 255
-0.289289 0.472719 2.161 0.244423 0.347572 0.905236 255 0 0 255
-0.283143 0.472302 2.159 0.53231 0.311216 0.787268 255 0 0 255
-0.276493 0.47101 2.153 0.492011 0.276554 0.825495 255 0 0 255
-0.270504 0.470811 2.152 0.146074 0.187068 0.971426 255 0 0 255
-0.26452 0.470612 2.151 -0.0254162 0.106475 0.99399 255 0 0 255
-0.258902 0.47107 2.153 0.264592 0.0213369 0.964124 255 0 0 255
-0.252566 0.470214 2.149 0.480463 0.0476379 0.87572 255 0 0 255
-0.246367 0.469576 2.146 0.499174 0.0800346 0.862797 255 0 0 255
-0.239959 0.4685 2.141 0.39875 0.121508 0.908974 255 0 0 255
-0.234124 0.468519 2.141 0.277419 0.169614 0.945659 255 0 0 255
-0.227969 0.46788 2.138 0.325593 0.0873424 0.941467 255 0 0 255
-0.222038 0.467678 2.137 0.150308 -0.0176589 0.988481 255 0 0 255
-0.216212 0.467695 2.137 0.113267 -0.123994 0.985797 255 0 0 255
-0.210288 0.467493 2.136 0.060331 -0.106888 0.992439 255 0 0 255
-0.204464 0.467509 2.136 0.00614697 0.0288172 0.999566 255 0 0 255
-0.198547 0.467306 2.135 0.203276 0.0121901 0.979046 255 0 0 255
-0.192453 0.466665 2.132 0.251159 -0.0564071 0.966301 255 0 0 255
-0.186639 0.46668 2.132 0.202082 -0.0801166 0.976086 255 0 0 255
-0.180654 0.466257 2.13 -0.0825253 -0.13357 0.987597 255 0 0 255
-0.17509 0.466927 2.133 -0.143234 -0.22995 0.962604 255 0 0 255
-0.169271 0.466941 2.133 -0.0877864 -0.258009 0.962146 255 0 0 255
-0.163452 0.466955 2.133 0.120871 -0.266128 0.956329 255 0 0 255
-0.157484 0.46653 2.131 0.164885 -0.152326 0.974479 255 0 0 255
-0.151669 0.466542 2.131 -0.113767 -0.0683683 0.991152 255 0 0 255
-0.145922 0.466773 2.132 -0.145646 0.0343218 0.988741 255 0 0 255
-0.140169 0.467004 2.133 0.000419892 0.0427267 0.999087 255 0 0 255
-0.134348 0.467015 2.133 0.254269 0.0779344 0.963988 255 0 0 255
-0.128345 0.466369 2.13 0.439764 0.172866 0.88132 255 0 0 255
-0.122358 0.465722 2.127 0.397962 0.240658 0.885274 255 0 0 255
-0.116442 0.465294 2.125 0.329754 0.259669 0.907653 255 0 0 255
-0.110536 0.464865 2.123 0.376103 0.167201 0.911367 255 0 0 255
-0.104592 0.464217 2.12 0.37688 0.143634 0.915058 255 0 0 255
-0.098711 0.463788 2.118 0.286363 0.0733022 0.955313 255 0 0 255
-0.092884 0.463577 2.117 0.00188436 -0.056837 0.998382 255 0 0 255
-0.087185 0.464022 2.119 0.0393322 -0.178165 0.983214 255 0 0 255
-0.08136 0.46381 2.118 0.118177 -0.0670193 0.990728 255 0 0 255
-0.075541 0.463598 2.117 0.0308748 -0.0562926 0.997937 255 0 0 255
-0.069759 0.463604 2.117 -0.176062 -0.0237573 0.984092 255 0 0 255
-0.064038 0.464047 2.119 -0.382898 -0.0335633 0.923181 255 0 0 255
-0.058306 0.46449 2.121 -0.231759 0.025782 0.972432 255 0 0 255
-0.052537 0.464714 2.122 -0.11953 0.077394 0.989809 255 0 0 255
-0.046741 0.464718 2.122 -0.0297611 0.196074 0.980137 255 0 0 255
-0.040926 0.464503 2.121 -0.0898982 0.214316 0.972619 255 0 0 255
-0.035166 0.464944 2.123 -0.233304 0.213322 0.948716 255 0 0 255
-0.029394 0.465385 2.125 -0.230863 0.162255 0.959362 255 0 0 255
-0.023601 0.465606 2.126 -0.145815 0.0752016 0.98645 255 0 0 255
-0.017802 0.465827 2.127 0.0591684 0.0638682 0.996203 255 0 0 255
-0.011986 0.465609 2.126 0.142058 -0.0369108 0.98917 255 0 0 255
-0.006176 0.465391 2.125 0.0873237 0.00133099 0.996179 255 0 0 255
-0.000371 0.465172 2.124 -0.197679 -0.0845288 0.976616 255 0 0 255
0.005439 0.465829 2.127 -0.495529 -0.063721 0.866251 255 0 0 255
0.01127 0.466704 2.131 -0.220639 -0.154821 0.96299 255 0 0 255
0.017083 0.466484 2.13 -0.0890562 -0.0128679 0.995943 255 0 0 255
0.022912 0.466701 2.131 -0.315243 0.104991 0.943185 255 0 0 255
0.02876 0.467137 2.133 -0.53947 0.187545 0.820852 255 0 0 255
0.034668 0.46823 2.138 -0.622072 0.141206 0.770122 255 0 0 255
0.040583 0.469102 2.142 -0.571744 0.228258 0.78804 255 0 0 255
0.046543 0.470194 2.147 -0.409909 0.225385 0.883842 255 0 0 255
0.052456 0.470628 2.149 0.0595189 0.260523 0.963631 255 0 0 255
0.058271 0.470185 2.147 0.259606 0.253554 0.931834 255 0 0 255
0.064105 0.469961 2.146 -0.248933 0.177311 0.952152 255 0 0 255
0.070096 0.470831 2.15 -0.626862 0.202233 0.752427 255 0 0 255
0.076144 0.47192 2.155 -0.596349 0.252866 0.761858 255 0 0 255
0.082144 0.47257 2.158 -0.414589 0.332023 0.847276 255 0 0 255
0.088118 0.473001 2.16 -0.273832 0.375495 0.885449 255 0 0 255
0.09406 0.473213 2.161 -0.360793 0.449822 0.816999 255 0 0 255
0.100099 0.473862 2.164 -0.383852 0.409634 0.827561 255 0 0 255
0.106106 0.474291 2.166 -0.422709 0.425222 0.800315 255 0 0 255
0.112226 0.475158 2.17 -0.576428 0.280692 0.767426 255 0 0 255
0.118423 0.476243 2.175 -0.624982 0.171875 0.761483 255 0 0 255
0.124646 0.477328 2.18 -0.663726 0.105736 0.740464 255 0 0 255
0.130897 0.478413 2.185 -0.665545 0.0477252 0.74483 255 0 0 255
-0.123931 0.573355 2.2796 0.25059 -0.285926 -0.924906 255 255 0 255
-0.113286 0.572031 2.27421 -0.32608 -0.449266 -0.831764 255 255 0 255
-0.097459 0.571115 2.27257 -0.266792 -0.457013 -0.848505 255 255 0 255
-0.085984 0.569876 2.2679 -0.172792 -0.653272 -0.737142 255 255 0 255
-0.070203 0.568985 2.26638 -0.102282 -0.294009 -0.950314 255 255 0 255
-0.054448 0.568106 2.26493 -0.198592 0.0364966 -0.979402 255 255 0 255
-0.039581 0.567173 2.26292 -0.289961 -0.230636 -0.928833 255 255 0 255
-0.029907 0.565838 2.25721 -0.289512 -0.218891 -0.93181 255 255 0 255
-0.0125 0.565135 2.25721 -0.0466492 -0.134713 -0.989786 255 255 0 255
0.004018 0.564377 2.25666 -0.0681806 -0.0611453 -0.995798 255 255 0 255
0.017933 0.563423 2.25428 -0.585704 -0.0754565 -0.807005 255 255 0 255
0.024963 0.561914 2.24684 -0.749364 -0.0563587 -0.659756 255 255 0 255
0.028558 0.560125 2.23687 -0.629299 -0.0107146 -0.77709 255 255 0 255
0.042426 0.559196 2.23461 -0.166032 0.0191201 -0.985935 255 255 0 255
0.057983 0.558423 2.23371 -0.413135 -0.275997 -0.867839 255 255 0 255
0.070097 0.557374 2.23028 -0.578888 -0.309985 -0.754187 255 255 0 255
0.069393 0.555239 2.21713 -0.807231 -0.521217 -0.276968 255 255 0 255
0.069551 0.553174 2.20461 0.884023 0.329107 -0.331951 255 255 0 255
-0.304018 0.488516 2.2285 0.582584 -0.217531 -0.783119 0 255 0 255
-0.293296 0.489379 2.23241 0.336235 -0.36673 -0.867442 0 255 0 255
-0.278186 0.489602 2.23312 0.430077 -0.288159 -0.855569 0 255 0 255
-0.268309 0.490618 2.23778 0.54813 -0.196752 -0.812922 0 255 0 255
-0.259297 0.491773 2.24311 0.502804 -0.244789 -0.829015 0 255 0 255
-0.252028 0.493193 2.24976 0.448416 -0.295217 -0.843665 0 255 0 255
-0.239487 0.493852 2.25261 0.476788 -0.265861 -0.837849 0 255 0 255
-0.233078 0.495416 2.25995 0.708905 -0.100407 -0.69812 0 255 0 255
-0.224027 0.496604 2.26542 0.685851 0.0537676 -0.725753 0 255 0 255
-0.219364 0.498432 2.27406 0.43559 0.00567479 -0.900127 0 255 0 255
-0.203251 0.498628 2.27456 0.13725 0.0209631 -0.990315 0 255 0 255
-0.187997 0.498966 2.27576 0.0500332 0.00887837 -0.998708 0 255 0 255
-0.170076 0.498946 2.27516 0.265393 -0.101945 -0.958736 0 255 0 255
-0.161841 0.500311 2.28146 0.469608 -0.281884 -0.836666 0 255 0 255
-0.150947 0.501313 2.28593 0.298778 -0.361602 -0.883162 0 255 0 255
-0.137387 0.501955 2.28861 0.521111 -0.430683 -0.736856 0 255 0 255
-0.125579 0.502857 2.29257 0.159887 -0.626436 -0.762899 0 255 0 255
-0.114643 0.503893 2.29719 0.291667 -0.599091 -0.745667 0 255 0 255
-0.101919 0.504696 2.30064 0.0848051 -0.643327 -0.76088 0 255 0 255
-0.086518 0.505149 2.30233 0.0355185 -0.551976 -0.833103 0 255 0 255
-0.072872 0.505858 2.30529 0.241685 -0.521966 -0.81801 0 255 0 255
-0.064541 0.507301 2.31191 -0.0660504 -0.504346 -0.860972 0 255 0 255
-0.346666 0.472703 2.189 0.51964 0.481971 0.705463 255 0 0 255
-0.339935 0.471646 2.184 0.496319 0.471343 0.729042 255 0 0 255
-0.333535 0.471022 2.181 0.429155 0.569784 0.700837 255 0 0 255
-0.327151 0.470397 2.178 0.589584 0.460608 0.663499 255 0 0 255
-0.320193 0.468908 2.171 0.635307 0.395467 0.663318 255 0 0 255
-0.313562 0.46785 2.166 0.498464 0.322584 0.804657 255 0 0 255
-0.307241 0.467224 2.163 0.18746 0.341709 0.92092 255 0 0 255
-0.301215 0.46703 2.162 -0.116256 0.375102 0.919665 255 0 0 255
-0.295739 0.467699 2.165 -0.0563273 0.391498 0.918453 255 0 0 255
-0.289577 0.467288 2.163 0.242879 0.337106 0.909599 255 0 0 255
-0.283426 0.466877 2.161 0.520004 0.290279 0.803327 255 0 0 255
-0.27677 0.465601 2.155 0.530733 0.319995 0.78481 255 0 0 255
-0.270776 0.465406 2.154 0.328179 0.243667 0.912647 255 0 0 255
-0.264663 0.464993 2.152 0.123762 0.128699 0.983931 255 0 0 255
-0.258801 0.465013 2.152 0.182805 0.118601 0.975969 255 0 0 255
-0.252585 0.464384 2.149 0.431314 0.112373 0.895176 255 0 0 255
-0.246385 0.463754 2.146 0.484799 0.160316 0.859807 255 0 0 255
-0.240201 0.463124 2.143 0.394456 0.191225 0.898798 255 0 0 255
-0.234252 0.462926 2.142 0.328392 0.134336 0.93494 255 0 0 255
-0.2282 0.462512 2.14 0.368952 0.0954178 0.924538 255 0 0 255
-0.222055 0.461881 2.137 0.29865 -0.0345765 0.953736 255 0 0 255
-0.216027 0.461465 2.135 0.243237 -0.133677 0.960711 255 0 0 255
-0.210107 0.461266 2.134 0.0319369 -0.200669 0.979138 255 0 0 255
-0.20448 0.461714 2.136 -0.0518289 -0.204084 0.97758 255 0 0 255
-0.198655 0.46173 2.136 0.148755 -0.113714 0.982314 255 0 0 255
-0.192649 0.461313 2.134 0.215101 0.126077 0.968419 255 0 0 255
-0.186654 0.460895 2.132 0.20201 0.208555 0.956921 255 0 0 255
-0.180753 0.460694 2.131 -0.00138923 0.0202992 0.999793 255 0 0 255
-0.175104 0.46114 2.133 -0.0871325 0.0295008 0.99576 255 0 0 255
-0.169205 0.460938 2.132 0.0309824 -0.0821022 0.996142 255 0 0 255
-0.163388 0.460951 2.132 0.115434 -0.0598718 0.991509 255 0 0 255
-0.157423 0.460532 2.13 0.0599094 -0.0324384 0.997677 255 0 0 255
-0.151681 0.46076 2.131 -0.203474 0.0644248 0.976958 255 0 0 255
-0.146002 0.461205 2.133 -0.174933 0.0567336 0.982945 255 0 0 255
-0.140181 0.461216 2.133 0.000321728 0.0833852 0.996517 255 0 0 255
-0.134359 0.461227 2.133 0.199512 0.0654032 0.97771 255 0 0 255
-0.128416 0.460806 2.131 0.331299 0.162339 0.929455 255 0 0 255
-0.122483 0.460383 2.129 0.353644 0.232528 0.906017 255 0 0 255
-0.116506 0.459744 2.126 0.374546 0.263716 0.888915 255 0 0 255
-0.110598 0.459321 2.124 0.442284 0.203098 0.873576 255 0 0 255
-0.10465 0.458681 2.121 0.400989 0.175196 0.899174 255 0 0 255
-0.098765 0.458257 2.119 0.332739 0.136155 0.933138 255 0 0 255
-0.092847 0.457616 2.116 0.126842 0.112025 0.985577 255 0 0 255
-0.08711 0.45784 2.117 0.0656233 0.0156547 0.997722 255 0 0 255
-0.081252 0.457414 2.115 0.0617445 -0.0512748 0.996774 255 0 0 255
-0.075547 0.457853 2.117 -0.028622 0.0330437 0.999044 255 0 0 255
-0.069699 0.457427 2.115 -0.18063 0.056722 0.981914 255 0 0 255
-0.064043 0.458298 2.119 -0.367418 0.0812534 0.9265 255 0 0 255
-0.058283 0.458519 2.12 -0.258119 0.0889752 0.962007 255 0 0 255
-0.052542 0.458956 2.122 -0.20413 0.111652 0.972556 255 0 0 255
-0.046789 0.459393 2.124 -0.0597286 0.173221 0.98307 255 0 0 255
-0.040987 0.459397 2.124 -0.119506 0.236038 0.964367 255 0 0 255
-0.035202 0.459616 2.125 -0.178598 0.182035 0.966937 255 0 0 255
-0.029397 0.459619 2.125 -0.147564 0.0966899 0.984315 255 0 0 255
-0.023614 0.460054 2.127 -0.0873009 -0.0140015 0.996084 255 0 0 255
-0.017795 0.459839 2.126 0.0577025 -0.0379979 0.99761 255 0 0 255
-0.011981 0.459624 2.125 0.0879608 -0.00341482 0.996118 255 0 0 255
-0.006173 0.459408 2.124 0.117061 0.0677069 0.990814 255 0 0 255
-0.000371 0.459409 2.124 -0.179333 0.0680008 0.981435 255 0 0 255
0.005437 0.459841 2.126 -0.451584 0.0529368 0.890657 255 0 0 255
0.011266 0.460706 2.13 -0.314426 0.0367549 0.94857 255 0 0 255
0.017085 0.460704 2.13 -0.269427 0.157231 0.950099 255 0 0 255
0.022936 0.461351 2.133 -0.414983 0.234163 0.879179 255 0 0 255
0.02879 0.461782 2.135 -0.561073 0.291317 0.774811 255 0 0 255
0.034719 0.463077 2.141 -0.617153 0.285696 0.733144 255 0 0 255
0.040644 0.463939 2.145 -0.55694 0.24883 0.792402 255 0 0 255
0.04659 0.464801 2.149 -0.387384 0.241179 0.889813 255 0 0 255
0.05246 0.464796 2.149 0.119309 0.124745 0.98499 255 0 0 255
0.058276 0.464359 2.147 0.232562 0.138325 0.962695 255 0 0 255
0.06411 0.464138 2.146 -0.330438 0.226616 0.916219 255 0 0 255
0.070102 0.464997 2.15 -0.639051 0.198951 0.742988 255 0 0 255
0.076186 0.466289 2.156 -0.61128 0.215494 0.761511 255 0 0 255
0.082189 0.466931 2.159 -0.476204 0.301796 0.825923 255 0 0 255
0.088207 0.467573 2.162 -0.364584 0.426958 0.827518 255 0 0 255
0.094198 0.467998 2.164 -0.33041 0.494233 0.804092 255 0 0 255
0.100246 0.468639 2.167 -0.358051 0.441958 0.82248 255 0 0 255
0.106262 0.469063 2.169 -0.435477 0.454418 0.777087 255 0 0 255
0.112391 0.469919 2.173 -0.528807 0.382434 0.757699 255 0 0 255
0.118487 0.470558 2.176 -0.526827 0.30035 0.795137 255 0 0 255
0.124599 0.471197 2.179 -0.61798 0.169645 0.767672 255 0 0 255
0.130907 0.472484 2.185 -0.712022 0.129937 0.690029 255 0 0 255
-0.108858 0.561581 2.27854 0.271179 -0.606964 -0.747032 255 255 0 255
-0.092174 0.560771 2.27751 -0.00280724 -0.633422 -0.773802 255 255 0 255
-0.082436 0.559418 2.27161 -0.14087 -0.604796 -0.783822 255 255 0 255
-0.066664 0.558564 2.27009 -0.219662 -0.424953 -0.878159 255 255 0 255
-0.054369 0.55744 2.26615 -0.183319 -0.286257 -0.940453 255 255 0 255
-0.038645 0.55661 2.26475 -0.221767 -0.267136 -0.937794 255 255 0 255
-0.02725 0.555436 2.26029 -0.257769 -0.338931 -0.90481 255 255 0 255
-0.015872 0.554271 2.25588 -0.155844 -0.211891 -0.964787 255 255 0 255
-0.001933 0.553332 2.2534 -0.145086 -0.0266188 -0.989061 255 255 0 255
0.012842 0.552478 2.25162 -0.386281 0.0297171 -0.921902 255 255 0 255
0.02588 0.551489 2.24864 -0.699085 -0.063424 -0.71222 255 255 0 255
0.030332 0.549773 2.2393 -0.613696 -0.165578 -0.771985 255 255 0 255
0.037349 0.548281 2.23189 -0.440412 -0.150395 -0.885109 255 255 0 255
0.054616 0.547691 2.23225 -0.0552129 -0.161138 -0.985386 255 255 0 255
0.071 0.54704 2.23204 -0.593442 -0.319621 -0.738694 255 255 0 255
0.07627 0.545421 2.22345 -0.966655 -0.150371 -0.207285 255 255 0 255
0.076423 0.543348 2.21095 0.993238 0.0882654 -0.0754105 255 255 0 255
0.060414 0.539819 2.18597 0.795669 0.0641427 -0.602326 255 255 0 255
-0.300824 0.477903 2.22725 0.47971 0.27916 -0.831834 0 255 0 255
-0.289229 0.478614 2.23053 0.366928 0.373461 -0.851992 0 255 0 255
-0.277619 0.479336 2.23386 0.486816 0.13422 -0.863131 0 255 0 255
-0.272993 0.481126 2.24239 0.581173 -0.253687 -0.773227 0 255 0 255
-0.26136 0.481867 2.2458 0.638512 -0.451896 -0.62297 0 255 0 255
-0.255847 0.483537 2.25373 0.385898 -0.467712 -0.795191 0 255 0 255
-0.241559 0.483906 2.2553 0.438448 -0.329388 -0.836222 0 255 0 255
-0.233397 0.4852 2.26137 0.543095 -0.175124 -0.821206 0 255 0 255
-0.225226 0.486501 2.26748 0.554761 -0.0283874 -0.831526 0 255 0 255
-0.216168 0.487681 2.27298 0.33828 -0.0559995 -0.939378 0 255 0 255
-0.198298 0.487585 2.27225 0.0089155 0.125143 -0.992099 0 255 0 255
-0.183046 0.487892 2.27347 0.201252 0.277559 -0.939393 0 255 0 255
-0.172181 0.488851 2.27787 0.41893 0.0576008 -0.90619 0 255 0 255
-0.165715 0.490455 2.28542 0.662531 -0.198761 -0.722182 0 255 0 255
-0.155711 0.491559 2.29051 0.395341 -0.364877 -0.842953 0 255 0 255
-0.141275 0.492044 2.29257 0.448105 -0.476687 -0.756288 0 255 0 255
-0.131244 0.49317 2.29776 0.637538 -0.54721 -0.542316 0 255 0 255
-0.122086 0.494429 2.30359 0.218912 -0.714615 -0.664381 0 255 0 255
-0.111146 0.495449 2.30824 0.0881096 -0.569451 -0.81729 0 255 0 255
-0.091324 0.495245 2.3069 0.0204483 -0.55617 -0.830817 0 255 0 255
-0.0768 0.495799 2.30926 0.150527 -0.466481 -0.871629 0 255 0 255
-0.06492 0.496736 2.31348 0.00977537 -0.35889 -0.933329 0 255 0 255
-0.347799 0.468257 2.196 0.622062 0.514956 0.589796 255 0 0 255
-0.340892 0.467001 2.19 0.497935 0.48967 0.71574 255 0 0 255
-0.334782 0.466811 2.189 0.419133 0.551059 0.721569 255 0 0 255
-0.328076 0.465767 2.184 0.608534 0.510425 0.60758 255 0 0 255
-0.320953 0.464084 2.176 0.699095 0.445905 0.558959 255 0 0 255
-0.313874 0.4624 2.168 0.515044 0.412694 0.751275 255 0 0 255
-0.307547 0.461782 2.165 0.177434 0.421141 0.88947 255 0 0 255
-0.301654 0.461804 2.165 -0.0520006 0.273059 0.960591 255 0 0 255
-0.295897 0.462039 2.166 -0.116042 0.353021 0.928391 255 0 0 255
-0.289866 0.461847 2.165 0.120921 0.478852 0.869528 255 0 0 255
-0.28384 0.461654 2.164 0.461555 0.489928 0.739553 255 0 0 255
-0.277305 0.460608 2.159 0.528655 0.474855 0.703589 255 0 0 255
-0.270921 0.459775 2.155 0.359537 0.32413 0.875027 255 0 0 255
-0.264682 0.459154 2.152 0.28386 0.256352 0.923963 255 0 0 255
-0.25882 0.459174 2.152 0.199731 0.22971 0.952544 255 0 0 255
-0.252839 0.458979 2.151 0.408583 0.143421 0.901382 255 0 0 255
-0.246634 0.458358 2.148 0.446536 0.165099 0.879402 255 0 0 255
-0.240444 0.457736 2.145 0.413666 0.182226 0.892005 255 0 0 255
-0.234269 0.457114 2.142 0.409837 0.056874 0.910384 255 0 0 255
-0.228111 0.456492 2.139 0.384445 0.0232351 0.922856 255 0 0 255
-0.222072 0.456082 2.137 0.359443 -0.0177857 0.932998 255 0 0 255
-0.215942 0.455458 2.134 0.297375 -0.00294542 0.954756 255 0 0 255
-0.209927 0.455048 2.132 0.0348542 -0.0471237 0.998281 255 0 0 255
-0.204209 0.455278 2.133 -0.0828257 -0.110895 0.990375 255 0 0 255
-0.198392 0.455293 2.133 -0.0530487 -0.0813527 0.995273 255 0 0 255
-0.192664 0.455522 2.134 0.0717766 0.164848 0.983704 255 0 0 255
-0.186756 0.455323 2.133 0.177553 0.28178 0.942908 255 0 0 255
-0.180852 0.455124 2.132 0.0951327 0.285186 0.953739 255 0 0 255
-0.174954 0.454925 2.131 0.111729 0.202308 0.972928 255 0 0 255
-0.169139 0.454939 2.131 0.092554 0.0945961 0.991204 255 0 0 255
-0.163325 0.454952 2.131 0.116548 0.0519986 0.991823 255 0 0 255
-0.157509 0.454965 2.131 0.00114188 0.0565406 0.9984 255 0 0 255
-0.151765 0.455191 2.132 -0.230801 0.0646565 0.97085 255 0 0 255
-0.146083 0.45563 2.134 -0.174531 0.0646352 0.982528 255 0 0 255
-0.140258 0.455641 2.134 0.000438882 0.0500458 0.998747 255 0 0 255
-0.134369 0.455439 2.133 0.17115 0.0482186 0.984064 255 0 0 255
-0.128486 0.455236 2.132 0.252214 0.125079 0.959554 255 0 0 255
-0.122608 0.455033 2.131 0.333991 0.172601 0.926638 255 0 0 255
-0.11668 0.454615 2.129 0.40145 0.180657 0.897887 255 0 0 255
-0.110711 0.453984 2.126 0.443219 0.153748 0.88313 255 0 0 255
-0.104708 0.453139 2.122 0.358096 0.220036 0.907387 255 0 0 255
-0.098867 0.452933 2.121 0.333409 0.243615 0.910763 255 0 0 255
-0.092943 0.452301 2.118 0.262045 0.24056 0.934593 255 0 0 255
-0.087158 0.452308 2.118 0.176301 0.264343 0.948178 255 0 0 255
-0.081297 0.451888 2.116 0.032684 0.218537 0.975281 255 0 0 255
-0.075589 0.452322 2.118 -0.0903525 0.214971 0.972432 255 0 0 255
-0.069804 0.452328 2.118 -0.182283 0.186371 0.965422 255 0 0 255
-0.064079 0.45276 2.12 -0.366746 0.188443 0.911036 255 0 0 255
-0.058343 0.453192 2.122 -0.230933 0.0559977 0.971357 255 0 0 255
-0.052571 0.453411 2.123 -0.202641 0.0302236 0.978787 255 0 0 255
-0.046793 0.453628 2.124 -0.145264 0.0234074 0.989116 255 0 0 255
-0.040991 0.453632 2.124 -0.150649 0.0872971 0.984725 255 0 0 255
-0.035221 0.454062 2.126 -0.0589381 0.0332596 0.997707 255 0 0 255
-0.029399 0.453851 2.125 -0.0286321 -0.0690976 0.997199 255 0 0 255
-0.023605 0.454067 2.126 -0.0278176 -0.135426 0.990397 255 0 0 255
-0.017788 0.453855 2.125 0.0276097 -0.170169 0.985028 255 0 0 255
-0.011988 0.45407 2.126 -0.0291399 -0.0518122 0.998232 255 0 0 255
-0.00618 0.454071 2.126 0.000155795 0.149661 0.988737 255 0 0 255
-0.000371 0.453858 2.125 -0.20678 0.191235 0.959516 255 0 0 255
0.005442 0.454498 2.128 -0.383691 0.0969119 0.918362 255 0 0 255
0.011262 0.454711 2.129 -0.36341 0.156756 0.918347 255 0 0 255
0.017102 0.455351 2.132 -0.432004 0.198471 0.879762 255 0 0 255
0.022959 0.45599 2.135 -0.4991 0.351575 0.792019 255 0 0 255
0.028846 0.456842 2.139 -0.577424 0.360529 0.73253 255 0 0 255
0.034755 0.457693 2.143 -0.593396 0.341486 0.728882 255 0 0 255
0.040685 0.458545 2.147 -0.485256 0.280738 0.828078 255 0 0 255
0.046594 0.458968 2.149 -0.232176 0.222921 0.946784 255 0 0 255
0.052489 0.459178 2.15 0.177472 0.235231 0.955599 255 0 0 255
0.058281 0.458532 2.147 0.149488 0.240213 0.959141 255 0 0 255
0.064175 0.458741 2.148 -0.409902 0.319552 0.854322 255 0 0 255
0.070173 0.45959 2.152 -0.656652 0.29954 0.692159 255 0 0 255
0.076263 0.460865 2.158 -0.63387 0.324999 0.701844 255 0 0 255
0.08231 0.461713 2.162 -0.485075 0.398111 0.778595 255 0 0 255
0.088378 0.46256 2.166 -0.381238 0.443323 0.811247 255 0 0 255
0.09438 0.462979 2.168 -0.3542 0.468787 0.809186 255 0 0 255
0.100393 0.463398 2.17 -0.394984 0.475411 0.786112 255 0 0 255
0.106417 0.463817 2.172 -0.46248 0.503028 0.73012 255 0 0 255
0.112555 0.464662 2.176 -0.449405 0.486113 0.749486 255 0 0 255
0.11866 0.465293 2.179 -0.366068 0.405267 0.837707 255 0 0 255
0.124781 0.465924 2.182 -0.592221 0.274033 0.757747 255 0 0 255
0.131098 0.467195 2.188 -0.778927 0.187 0.598585 255 0 0 255
0.137697 0.469319 2.198 -0.833591 0.164809 0.527223 255 0 0 255
-0.11333 0.552567 2.28947 0.50359 -0.356348 -0.787028 255 255 0 255
-0.1027 0.551288 2.2841 -0.226804 -0.602757 -0.765013 255 255 0 255
-0.081702 0.550879 2.28614 0.0345309 -0.622464 -0.781886 255 255 0 255
-0.071977 0.549549 2.28026 -0.168211 -0.779382 -0.603547 255 255 0 255
-0.059673 0.548444 2.27628 -0.562477 -0.615164 -0.552443 255 255 0 255
-0.049975 0.547129 2.27048 -0.279418 -0.374155 -0.88427 255 255 0 255
-0.035121 0.546264 2.26846 -0.200919 -0.345911 -0.916502 255 255 0 255
-0.022013 0.545262 2.26525 -0.16135 -0.411288 -0.897111 255 255 0 255
-0.008923 0.544271 2.2621 -0.27326 -0.504947 -0.818753 255 255 0 255
0.00157 0.543066 2.25711 -0.223711 -0.448131 -0.865524 255 255 0 255
0.014622 0.542095 2.25406 -0.40637 -0.560089 -0.721917 255 255 0 255
0.024227 0.540831 2.24851 -0.408625 -0.373871 -0.832614 255 255 0 255
0.032106 0.539421 2.24172 -0.494011 -0.537799 -0.683174 255 255 0 255
0.044253 0.538401 2.23817 -0.234438 -0.57423 -0.78441 255 255 0 255
0.061507 0.537854 2.23854 -0.376935 -0.35592 -0.855126 255 255 0 255
0.073611 0.536856 2.2351 -0.881087 -0.0241884 -0.472336 255 255 0 255
0.076321 0.535008 2.22456 -0.979497 0.0582727 -0.192847 255 255 0 255
0.068814 0.532215 2.20618 0.929223 -0.0732477 -0.362186 255 255 0 255
0.054526 0.528779 2.18251 0.814168 -0.0485354 -0.578597 255 255 0 255
-0.292662 0.463983 2.21032 0.88195 0.319701 -0.346345 0 255 0 255
-0.29066 0.46617 2.22079 0.659153 0.363066 -0.65856 0 255 0 255
-0.282551 0.467405 2.22671 0.752599 0.249588 -0.609344 0 255 0 255
-0.275307 0.468784 2.2333 0.822823 0.0860322 -0.561748 0 255 0 255
-0.271554 0.470707 2.24249 0.810648 -0.252185 -0.528444 0 255 0 255
-0.266924 0.472499 2.25104 0.659697 -0.21971 -0.718698 0 255 0 255
-0.26054 0.474026 2.25832 0.432421 -0.25432 -0.865063 0 255 0 255
-0.244508 0.474094 2.25862 0.217335 -0.0924613 -0.971708 0 255 0 255
-0.235473 0.47524 2.26406 0.610578 -0.0531859 -0.790168 0 255 0 255
-0.223794 0.475998 2.26765 0.496694 -0.103768 -0.8617 0 255 0 255
-0.213857 0.47703 2.27253 0.0396125 -0.087308 -0.995393 0 255 0 255
-0.193355 0.476501 2.26995 -0.0787456 0.0711087 -0.994355 0 255 0 255
-0.176343 0.476516 2.26995 0.298675 0.128729 -0.945633 0 255 0 255
-0.166357 0.477587 2.27501 0.699438 0.242951 -0.672132 0 255 0 255
-0.163414 0.479704 2.28504 0.8471 -0.0621211 -0.527791 0 255 0 255
-0.156941 0.481305 2.29262 0.587144 -0.395658 -0.706199 0 255 0 255
-0.145162 0.482143 2.29653 0.483048 -0.496089 -0.721498 0 255 0 255
-0.136021 0.483375 2.30232 0.674048 -0.394213 -0.624704 0 255 0 255
-0.129523 0.484997 2.30997 0.503313 -0.648008 -0.57163 0 255 0 255
-0.116821 0.485738 2.31341 0.282846 -0.394234 -0.874401 0 255 0 255
-0.096127 0.485356 2.31146 -0.0319793 -0.327494 -0.944312 0 255 0 255
-0.07895 0.485499 2.31202 0.123054 -0.434304 -0.892322 0 255 0 255
-0.066189 0.486285 2.31565 -0.142797 -0.553183 -0.82073 0 255 0 255
-0.349406 0.464403 2.206 0.832128 0.105145 0.544524 255 0 0 255
-0.341538 0.461901 2.194 0.283787 0.219244 0.933486 255 0 0 255
-0.335417 0.461713 2.193 0.411663 0.222292 0.88381 255 0 0 255
-0.328849 0.460894 2.189 0.534438 0.180035 0.82581 255 0 0 255
-0.321861 0.459443 2.182 0.679099 0.413298 0.606638 255 0 0 255
-0.314764 0.457781 2.174 0.662592 0.403184 0.631201 255 0 0 255
-0.308137 0.45675 2.169 0.314341 0.233778 0.920075 255 0 0 255
-0.301954 0.45635 2.167 0.0749749 0.134672 0.98805 255 0 0 255
-0.296192 0.456582 2.168 -0.302434 0.285726 0.909337 255 0 0 255
-0.290557 0.457025 2.17 -0.19262 0.623858 0.757429 255 0 0 255
-0.284648 0.457045 2.17 0.139764 0.716926 0.682996 255 0 0 255
-0.278096 0.456013 2.165 0.610078 0.523458 0.594808 255 0 0 255
-0.271444 0.454769 2.159 0.540035 0.467669 0.699748 255 0 0 255
-0.265071 0.453946 2.155 0.345089 0.332472 0.877711 255 0 0 255
-0.25908 0.453755 2.154 0.255366 0.235211 0.937797 255 0 0 255
-0.252976 0.453353 2.152 0.408435 0.159343 0.898772 255 0 0 255
-0.246652 0.452529 2.148 0.482757 0.111457 0.868633 255 0 0 255
-0.240574 0.452126 2.146 0.464361 0.0733347 0.882605 255 0 0 255
-0.234287 0.451301 2.142 0.496025 0.0882614 0.863811 255 0 0 255
-0.228128 0.450686 2.139 0.416037 0.0460143 0.908183 255 0 0 255
-0.222089 0.450282 2.137 0.320969 0.0205906 0.946866 255 0 0 255
-0.21606 0.449878 2.135 0.276328 0.0657518 0.958812 255 0 0 255
-0.21014 0.449683 2.134 0.117671 0.0437873 0.992087 255 0 0 255
-0.20432 0.449699 2.134 0.00149857 0.0565117 0.998401 255 0 0 255
-0.1985 0.449715 2.134 -0.175807 0.0137432 0.984329 255 0 0 255
-0.19295 0.450362 2.137 -0.149375 0.0872444 0.984924 255 0 0 255
-0.187033 0.450167 2.136 0.00510325 0.292864 0.956141 255 0 0 255
-0.181206 0.450181 2.136 0.119196 0.370156 0.921291 255 0 0 255
-0.175214 0.449774 2.134 0.23842 0.274138 0.931668 255 0 0 255
-0.169312 0.449576 2.133 0.179272 0.180912 0.967022 255 0 0 255
-0.163414 0.449379 2.132 0.116756 0.125474 0.985203 255 0 0 255
-0.157522 0.449181 2.131 -0.028932 0.0909179 0.995438 255 0 0 255
-0.151777 0.449404 2.132 -0.145055 0.016083 0.989293 255 0 0 255
-0.146026 0.449627 2.133 -0.112834 -0.0799856 0.990389 255 0 0 255
-0.140269 0.449849 2.134 0.00158382 -0.08841 0.996083 255 0 0 255
-0.134443 0.44986 2.134 0.168016 -0.103503 0.980335 255 0 0 255
-0.128497 0.449449 2.132 0.223853 -0.0731078 0.971877 255 0 0 255
-0.122618 0.449248 2.131 0.299947 -0.0992441 0.94878 255 0 0 255
