ply
format ascii 1.0
comment VCGLIB generated
element vertex 729
property float x
property float y
property float z
property float nx
property float ny
property float nz
property uchar red
property uchar green
property uchar blue
property uchar alpha
element face 0
property list uchar int vertex_indices
end_header
-0.191017 -0.419485 2.404 -0.749069 0.217527 0.625761 255 0 0 255
-0.185218 -0.421244 2.414 -0.68443 0.38193 0.621035 255 0 0 255
-0.179364 -0.423002 2.424 -0.491629 0.50542 0.70912 255 0 0 255
-0.172671 -0.42284 2.423 0.0101397 0.680194 0.732962 255 0 0 255
-0.166119 -0.423027 2.424 0.0100573 0.704764 0.709371 255 0 0 255
-0.159298 -0.422516 2.421 -0.29257 0.568161 0.769153 255 0 0 255
-0.153124 -0.423749 2.428 -0.489531 0.585879 0.645836 255 0 0 255
-0.14673 -0.424458 2.432 -0.534405 0.522481 0.664398 255 0 0 255
-0.140544 -0.425865 2.44 -0.640691 0.436087 0.631936 255 0 0 255
-0.134424 -0.427621 2.45 -0.806983 0.129258 0.576255 255 0 0 255
-0.128405 -0.4299 2.463 -0.905478 -0.18169 0.383533 255 0 0 255
-0.122413 -0.432527 2.478 -0.894975 -0.31515 0.315755 255 0 0 255
-0.074652 -0.430659 2.467 0.522894 -0.106109 0.845768 255 0 0 255
-0.067961 -0.431013 2.469 0.350571 0.073257 0.933667 255 0 0 255
-0.061035 -0.429796 2.462 0.52859 0.321113 0.785798 255 0 0 255
-0.054125 -0.428404 2.454 0.802302 0.215137 0.556801 255 0 0 255
-0.047201 -0.426488 2.443 0.759055 0.284753 0.585449 255 0 0 255
-0.04037 -0.42492 2.434 0.547331 0.366778 0.752265 255 0 0 255
-0.033671 -0.424399 2.431 0.517823 0.321449 0.792799 255 0 0 255
-0.026978 -0.423703 2.427 0.542215 0.50944 0.668186 255 0 0 255
-0.020247 -0.421784 2.416 0.523924 0.617229 0.586969 255 0 0 255
-0.013588 -0.420214 2.407 0.255822 0.710679 0.655355 255 0 0 255
-0.007007 -0.42039 2.408 0.0659638 0.755027 0.652367 255 0 0 255
-0.000422 -0.421088 2.412 -7.71696e-05 0.779003 0.627021 255 0 0 255
0.006173 -0.420913 2.411 0.252672 0.704144 0.66358 255 0 0 255
0.012752 -0.420389 2.408 0.339641 0.650385 0.679444 255 0 0 255
0.01929 -0.41934 2.402 0.404955 0.629229 0.663387 255 0 0 255
0.025785 -0.418116 2.395 0.594429 0.434864 0.676422 255 0 0 255
0.032255 -0.417067 2.389 0.473132 0.315431 0.822587 255 0 0 255
-0.222985 -0.424356 2.395 0.180727 0.029329 0.983096 255 0 0 255
-0.216266 -0.424017 2.393 0.180727 0.0293291 0.983096 255 0 0 255
-0.209733 -0.424033 2.393 -0.397827 -0.0224471 0.917186 255 0 0 255
-0.203624 -0.424934 2.398 -0.458145 0.170042 0.872461 255 0 0 255
-0.197075 -0.424949 2.398 -0.526933 0.313432 0.790001 255 0 0 255
-0.191242 -0.426558 2.407 -0.751428 0.274127 0.600175 255 0 0 255
-0.185358 -0.428167 2.416 -0.832775 0.223655 0.506423 255 0 0 255
-0.179721 -0.430484 2.429 -0.631229 0.32763 0.703 255 0 0 255
-0.173085 -0.430497 2.429 -0.255236 0.392921 0.883441 255 0 0 255
-0.166792 -0.431396 2.434 -0.313516 0.2393 0.918936 255 0 0 255
-0.16001 -0.431053 2.432 -0.282781 0.426939 0.858928 255 0 0 255
-0.153807 -0.432306 2.439 -0.316861 0.519712 0.793409 255 0 0 255
-0.147202 -0.432494 2.44 -0.507606 0.480035 0.715474 255 0 0 255
-0.140937 -0.433746 2.447 -0.635448 0.271376 0.722884 255 0 0 255
-0.134414 -0.434288 2.45 -0.734523 0.122691 0.6674 255 0 0 255
-0.128239 -0.436071 2.46 -0.874412 -0.148528 0.46189 255 0 0 255
-0.122009 -0.437853 2.47 -0.870846 -0.155757 0.466227 255 0 0 255
-0.11577 -0.439812 2.481 -0.953681 -0.147456 0.262202 255 0 0 255
-0.074647 -0.437373 2.467 0.296064 0.444081 0.845659 255 0 0 255
-0.068121 -0.438797 2.475 0.308301 0.580123 0.753928 255 0 0 255
-0.061254 -0.438093 2.471 0.376047 0.608994 0.698366 255 0 0 255
-0.054386 -0.437211 2.466 0.561392 0.480619 0.67368 255 0 0 255
-0.04741 -0.435087 2.454 0.706736 0.46258 0.535298 255 0 0 255
-0.040516 -0.43314 2.443 0.618103 0.446814 0.646765 255 0 0 255
-0.033766 -0.432256 2.438 0.421671 0.551611 0.719666 255 0 0 255
-0.027054 -0.431549 2.434 0.301254 0.565039 0.768099 255 0 0 255
-0.020338 -0.43031 2.427 0.400818 0.717183 0.570082 255 0 0 255
-0.013638 -0.428361 2.416 0.243131 0.799146 0.549775 255 0 0 255
-0.007033 -0.428539 2.417 0.0116727 0.784704 0.61976 255 0 0 255
-0.000423 -0.429603 2.423 0.0977432 0.749727 0.654489 255 0 0 255
0.006191 -0.428717 2.418 0.178175 0.663977 0.726215 255 0 0 255
0.012778 -0.427829 2.413 0.217431 0.74528 0.630303 255 0 0 255
0.019305 -0.426232 2.404 0.279514 0.739386 0.61252 255 0 0 255
0.026031 -0.428713 2.418 0.0174886 0.800134 0.599566 255 0 0 255
-0.223062 -0.431051 2.396 0.235387 0.0739117 0.969087 255 0 0 255
-0.21625 -0.430527 2.393 0.26298 0.0618061 0.96282 255 0 0 255
-0.209542 -0.430183 2.391 -0.48713 0.0939652 0.868259 255 0 0 255
-0.203694 -0.431637 2.399 -0.621121 0.125878 0.773539 255 0 0 255
-0.197554 -0.432552 2.404 -0.684896 0.186921 0.704257 255 0 0 255
-0.191784 -0.434365 2.414 -0.776716 0.127241 0.616865 255 0 0 255
-0.185651 -0.435459 2.42 -0.839619 0.0268175 0.542513 255 0 0 255
-0.179855 -0.437452 2.431 -0.548235 -0.169931 0.818878 255 0 0 255
-0.173358 -0.437825 2.433 -0.249777 -0.422008 0.871505 255 0 0 255
-0.166848 -0.438198 2.435 -0.150539 -0.375747 0.914414 255 0 0 255
-0.160064 -0.43785 2.433 -0.489233 -0.166942 0.856027 255 0 0 255
-0.153858 -0.439122 2.44 -0.583496 0.2368 0.776826 255 0 0 255
-0.147493 -0.440033 2.445 -0.591581 0.235086 0.771211 255 0 0 255
-0.141157 -0.441124 2.451 -0.375293 0.111284 0.920201 255 0 0 255
-0.134459 -0.441134 2.451 -0.622135 0.0968537 0.776896 255 0 0 255
-0.128177 -0.442584 2.459 -0.835912 0.0449882 0.547017 255 0 0 255
-0.121901 -0.444213 2.468 -0.876467 -0.00809589 0.481395 255 0 0 255
-0.116274 -0.448542 2.492 -0.985595 -0.114808 0.124183 255 0 0 255
-0.068253 -0.446432 2.48 -0.190317 0.71394 0.673846 255 0 0 255
-0.061546 -0.446977 2.483 0.280795 0.709828 0.645986 255 0 0 255
-0.054757 -0.446981 2.483 0.433424 0.670405 0.602246 255 0 0 255
-0.047638 -0.443925 2.466 0.697271 0.58395 0.415712 255 0 0 255
-0.040596 -0.440688 2.448 0.554385 0.601031 0.57569 255 0 0 255
-0.033763 -0.43889 2.438 0.351255 0.609691 0.710561 255 0 0 255
-0.027096 -0.438893 2.438 0.324681 0.668098 0.669498 255 0 0 255
-0.02042 -0.438715 2.437 0.222519 0.714463 0.663346 255 0 0 255
-0.013739 -0.438176 2.434 0.199471 0.715104 0.669954 255 0 0 255
-0.007073 -0.437637 2.431 0.22041 0.724044 0.653589 255 0 0 255
-0.000425 -0.437817 2.432 0.210578 0.723562 0.657354 255 0 0 255
0.006206 -0.436376 2.424 0.2616 0.715009 0.648327 255 0 0 255
0.012814 -0.435656 2.42 0.043879 0.723632 0.68879 255 0 0 255
0.01944 -0.435834 2.421 -0.0772377 0.762734 0.642084 255 0 0 255
0.026125 -0.436913 2.427 -0.166223 0.794337 0.584294 255 0 0 255
-0.225466 -0.442315 2.422 0.63372 0.602228 0.48551 255 0 0 255
-0.216235 -0.437035 2.393 0.228241 0.052213 0.972204 255 0 0 255
-0.209615 -0.436868 2.392 -0.428062 0.142852 0.892388 255 0 0 255
-0.203848 -0.438528 2.401 -0.665718 0.170094 0.726559 255 0 0 255
-0.197375 -0.438725 2.402 -0.687797 0.260152 0.677685 255 0 0 255
-0.191452 -0.440201 2.41 -0.768234 0.0821261 0.63488 255 0 0 255
-0.185254 -0.441128 2.415 -0.653109 0.0269481 0.756784 255 0 0 255
-0.179472 -0.443151 2.426 -0.694658 -0.31517 0.646621 255 0 0 255
-0.172775 -0.442982 2.425 -0.212214 -0.484232 0.848813 255 0 0 255
-0.166219 -0.443177 2.426 -0.219895 -0.443831 0.868712 255 0 0 255
-0.159921 -0.444103 2.431 -0.674253 0.0592618 0.736119 255 0 0 255
-0.153909 -0.445942 2.441 -0.696345 0.209365 0.686491 255 0 0 255
-0.147662 -0.447232 2.448 -0.551468 0.108498 0.82711 255 0 0 255
-0.141204 -0.447974 2.452 -0.370259 0.130819 0.919671 255 0 0 255
-0.134503 -0.447984 2.452 -0.56778 0.110133 0.815779 255 0 0 255
-0.128324 -0.449821 2.462 -0.83132 0.134214 0.539346 255 0 0 255
-0.122138 -0.451841 2.473 -0.823343 0.0302783 0.566736 255 0 0 255
-0.116965 -0.458062 2.507 -0.988563 0.0965146 0.115878 255 0 0 255
-0.075331 -0.455 2.49 -0.114423 0.606214 0.787027 255 0 0 255
-0.068496 -0.454823 2.489 0.0828417 0.592014 0.801659 255 0 0 255
-0.061839 -0.455925 2.495 0.125194 0.46137 0.878331 255 0 0 255
-0.054951 -0.455381 2.492 0.437208 0.153527 0.886159 255 0 0 255
-0.047905 -0.453192 2.48 0.752383 0.31841 0.576659 255 0 0 255
-0.040809 -0.449723 2.461 0.609583 0.556076 0.564967 255 0 0 255
-0.033913 -0.447533 2.449 0.390906 0.686177 0.613477 255 0 0 255
-0.027216 -0.447536 2.449 0.158611 0.761856 0.628027 255 0 0 255
-0.020486 -0.446807 2.445 0.14717 0.754712 0.639336 255 0 0 255
-0.013805 -0.446991 2.446 0.14877 0.794472 0.588797 255 0 0 255
-0.007096 -0.445712 2.439 0.196588 0.780443 0.593516 255 0 0 255
-0.000427 -0.446261 2.442 0.181565 0.800443 0.571248 255 0 0 255
0.006223 -0.444251 2.431 0.171806 0.780959 0.600487 255 0 0 255
0.012892 -0.444981 2.435 0.000369589 0.806909 0.590676 255 0 0 255
0.019567 -0.445345 2.437 -0.0579879 0.83894 0.541126 255 0 0 255
0.026285 -0.446257 2.442 -0.151712 0.810033 0.566418 255 0 0 255
-0.216399 -0.443913 2.395 -0.462821 0.00647541 0.886428 255 0 0 255
-0.20995 -0.444114 2.396 -0.618981 0.272851 0.736488 255 0 0 255
-0.204003 -0.445427 2.403 -0.573502 0.28247 0.768965 255 0 0 255
-0.197689 -0.445998 2.406 -0.561366 0.308607 0.767874 255 0 0 255
-0.191676 -0.447311 2.413 -0.662579 0.286104 0.692195 255 0 0 255
-0.18547 -0.448252 2.418 -0.658015 0.179538 0.731289 255 0 0 255
-0.179311 -0.449378 2.424 -0.441981 0.0915195 0.892344 255 0 0 255
-0.172833 -0.449762 2.426 -0.459052 -0.178585 0.870275 255 0 0 255
-0.166343 -0.450146 2.428 -0.606318 0.0221127 0.794915 255 0 0 255
-0.160303 -0.451827 2.437 -0.741334 0.327905 0.585579 255 0 0 255
-0.154087 -0.453137 2.444 -0.416451 0.451108 0.789348 255 0 0 255
-0.147591 -0.453704 2.447 -0.461394 0.310888 0.830941 255 0 0 255
-0.140962 -0.453901 2.448 -0.34689 0.150287 0.925787 255 0 0 255
-0.134493 -0.454653 2.452 -0.637939 0.229657 0.735045 255 0 0 255
-0.128418 -0.456888 2.464 -0.846248 0.140217 0.514008 255 0 0 255
-0.122376 -0.459494 2.478 -0.858706 0.0617808 0.508731 255 0 0 255
-0.116117 -0.461543 2.489 -0.98347 0.0234325 0.17955 255 0 0 255
-0.082891 -0.466032 2.513 0.683484 0.526747 0.505359 255 0 0 255
-0.075477 -0.4627 2.495 0.349196 0.46532 0.813351 255 0 0 255
-0.068463 -0.461408 2.488 0.130786 0.48285 0.865881 255 0 0 255
-0.06171 -0.461784 2.49 0.404339 0.258049 0.877451 255 0 0 255
-0.054792 -0.460861 2.485 0.547603 -0.172183 0.818831 255 0 0 255
-0.047882 -0.459752 2.479 0.692248 0.144292 0.707088 255 0 0 255
-0.040822 -0.456603 2.462 0.530641 0.643429 0.551741 255 0 0 255
-0.034049 -0.456049 2.459 0.199059 0.771184 0.60469 255 0 0 255
-0.027303 -0.455681 2.457 0.152003 0.766978 0.62341 255 0 0 255
-0.02061 -0.456239 2.46 0.100053 0.754211 0.648964 255 0 0 255
-0.013872 -0.45587 2.458 0.150446 0.738266 0.657518 255 0 0 255
-0.007142 -0.455314 2.455 0.205442 0.731555 0.650093 255 0 0 255
-0.000428 -0.454758 2.452 0.202934 0.719003 0.66472 255 0 0 255
0.006266 -0.454016 2.448 0.135616 0.755919 0.640464 255 0 0 255
0.012965 -0.454201 2.449 -0.081769 0.806105 0.586096 255 0 0 255
0.01967 -0.454385 2.45 -0.0742279 0.697821 0.712416 255 0 0 255
0.026466 -0.456052 2.459 -0.082893 0.636957 0.76643 255 0 0 255
-0.216112 -0.44986 2.392 -0.600981 0.380902 0.702663 255 0 0 255
-0.210284 -0.451381 2.4 -0.577056 0.42653 0.696476 255 0 0 255
-0.204327 -0.452713 2.407 -0.506438 0.473002 0.720964 255 0 0 255
-0.198003 -0.453292 2.41 -0.544414 0.445586 0.71068 255 0 0 255
-0.192217 -0.455188 2.42 -0.5503 0.451505 0.702362 255 0 0 255
-0.18584 -0.455767 2.423 -0.183468 0.629244 0.755243 255 0 0 255
-0.179149 -0.455593 2.422 -0.356499 0.212221 0.909874 255 0 0 255
-0.172606 -0.455794 2.423 -0.396388 0.292225 0.870334 255 0 0 255
-0.166673 -0.457688 2.433 -0.766362 0.277158 0.579546 255 0 0 255
-0.160883 -0.460146 2.446 -0.629482 0.368583 0.684031 255 0 0 255
-0.154453 -0.460911 2.45 -0.375828 0.484116 0.79018 255 0 0 255
-0.147821 -0.461111 2.451 -0.309996 0.527618 0.790899 255 0 0 255
-0.141297 -0.461686 2.454 -0.27909 0.588105 0.759106 255 0 0 255
-0.134702 -0.462073 2.456 -0.512592 0.534166 0.672247 255 0 0 255
-0.128408 -0.463589 2.464 -0.724858 0.350951 0.592802 255 0 0 255
-0.121971 -0.464727 2.47 -0.678935 0.255248 0.688401 255 0 0 255
-0.115548 -0.466054 2.477 -0.858267 0.135446 0.495007 255 0 0 255
-0.082687 -0.471737 2.507 0.570511 0.542749 0.616393 255 0 0 255
-0.076015 -0.472872 2.513 0.643715 0.531425 0.550653 255 0 0 255
-0.06876 -0.470244 2.499 0.518366 0.555843 0.649874 255 0 0 255
-0.061854 -0.469684 2.496 0.637957 0.341925 0.689999 255 0 0 255
-0.054766 -0.467431 2.484 0.629195 0.0411327 0.776159 255 0 0 255
-0.047936 -0.467058 2.482 0.324104 0.229221 0.917831 255 0 0 255
-0.041018 -0.465557 2.474 0.491722 0.538872 0.683978 255 0 0 255
-0.034254 -0.46556 2.474 0.274711 0.666961 0.692601 255 0 0 255
-0.027445 -0.464809 2.47 0.13479 0.783262 0.606903 255 0 0 255
-0.020675 -0.464435 2.468 0.167642 0.752089 0.637384 255 0 0 255
-0.01391 -0.463872 2.465 0.189835 0.716187 0.671595 255 0 0 255
-0.007165 -0.463496 2.463 0.225804 0.690075 0.687611 255 0 0 255
-0.00043 -0.462932 2.46 0.200277 0.688186 0.697344 255 0 0 255
0.006294 -0.462743 2.459 0.12556 0.71433 0.688452 255 0 0 255
0.012996 -0.46199 2.455 0.0201743 0.688324 0.725123 255 0 0 255
0.019732 -0.462553 2.458 -0.0274032 0.585208 0.81042 255 0 0 255
0.026464 -0.46274 2.459 -0.13067 0.55685 0.82027 255 0 0 255
-0.210969 -0.459431 2.408 -0.409672 0.504385 0.760109 255 0 0 255
-0.204651 -0.460019 2.411 -0.589709 0.288442 0.75435 255 0 0 255
-0.198316 -0.460607 2.414 -0.632954 0.253441 0.731531 255 0 0 255
-0.1926 -0.462721 2.425 -0.757105 0.222669 0.614175 255 0 0 255
-0.186592 -0.464262 2.433 -0.280989 0.297464 0.912448 255 0 0 255
-0.179653 -0.463512 2.429 -0.0179001 0.60577 0.795439 255 0 0 255
-0.173091 -0.463717 2.43 -0.212532 0.584844 0.782808 255 0 0 255
-0.166934 -0.465066 2.437 -0.679284 0.349775 0.645159 255 0 0 255
-0.161002 -0.467178 2.448 -0.728946 0.223256 0.647144 255 0 0 255
-0.154567 -0.467953 2.452 -0.533826 0.323336 0.781335 255 0 0 255
-0.148111 -0.468728 2.456 -0.379695 0.563393 0.733771 255 0 0 255
-0.141804 -0.470076 2.463 -0.374514 0.682869 0.627239 255 0 0 255
-0.135295 -0.47085 2.467 -0.378586 0.643636 0.665136 255 0 0 255
-0.128711 -0.471433 2.47 -0.525694 0.501639 0.687026 255 0 0 255
-0.122307 -0.472779 2.477 -0.585575 0.395442 0.707621 255 0 0 255
-0.115959 -0.474506 2.486 -0.829845 0.346176 0.437629 255 0 0 255
-0.083472 -0.483135 2.531 0.668248 0.302197 0.679795 255 0 0 255
-0.0761 -0.480278 2.516 0.701174 0.461509 0.543475 255 0 0 255
-0.06892 -0.478184 2.505 0.574766 0.52717 0.625888 255 0 0 255
-0.061824 -0.47628 2.495 0.590183 0.478476 0.650188 255 0 0 255
-0.054784 -0.474376 2.485 0.573322 0.416998 0.705276 255 0 0 255
-0.047932 -0.473807 2.482 0.374462 0.489672 0.7874 255 0 0 255
-0.041131 -0.47362 2.481 0.217936 0.499092 0.838696 255 0 0 255
-0.034376 -0.474004 2.483 0.143931 0.728319 0.669952 255 0 0 255
-0.027565 -0.473625 2.481 0.158538 0.762103 0.627745 255 0 0 255
-0.020766 -0.473245 2.479 0.245105 0.748365 0.616339 255 0 0 255
-0.013966 -0.472483 2.475 0.297705 0.700632 0.64845 255 0 0 255
-0.007196 -0.472293 2.474 0.281902 0.670167 0.686592 255 0 0 255
-0.000431 -0.470575 2.465 0.203442 0.678762 0.705616 255 0 0 255
0.006319 -0.471339 2.469 0.151051 0.707798 0.690076 255 0 0 255
0.013037 -0.470192 2.463 0.096764 0.713158 0.694293 255 0 0 255
0.019771 -0.470191 2.463 0.18606 0.688322 0.701138 255 0 0 255
0.026419 -0.468662 2.455 -0.13067 0.55685 0.82027 255 0 0 255
-0.212793 -0.470039 2.429 -0.289663 0.703924 0.648527 255 0 0 255
-0.20523 -0.467927 2.418 0.574515 0.53925 0.615744 255 0 0 255
-0.19863 -0.467942 2.418 -0.820341 -0.0162648 0.571644 255 0 0 255
-0.192744 -0.469699 2.427 -0.0841712 -0.858123 0.506497 255 0 0 255
-0.186655 -0.471068 2.434 -0.439457 0.0989995 0.892792 255 0 0 255
-0.180009 -0.471082 2.434 -0.297268 0.281867 0.912241 255 0 0 255
-0.17322 -0.470709 2.432 -0.254736 0.436911 0.862681 255 0 0 255
-0.166921 -0.47169 2.437 -0.62741 0.347506 0.696847 255 0 0 255
-0.160858 -0.473444 2.446 -0.733921 0.130969 0.666488 255 0 0 255
-0.154682 -0.475005 2.454 -0.707093 0.242994 0.664058 255 0 0 255
-0.148582 -0.476953 2.464 -0.616239 0.480171 0.624248 255 0 0 255
-0.142311 -0.478513 2.472 -0.473997 0.537761 0.697238 255 0 0 255
-0.135668 -0.478911 2.474 -0.336604 0.594605 0.730167 255 0 0 255
-0.128961 -0.479115 2.475 -0.3422 0.588613 0.732416 255 0 0 255
-0.122545 -0.48048 2.482 -0.507223 0.428025 0.74801 255 0 0 255
-0.117115 -0.486103 2.511 -0.927018 -0.104076 0.360287 255 0 0 255
-0.114118 -0.503148 2.599 0.693721 0.669652 0.265173 255 0 0 255
-0.091204 -0.494461 2.554 0.778943 0.348004 0.521671 255 0 0 255
-0.0833 -0.489047 2.526 0.675585 0.283872 0.680442 255 0 0 255
-0.076215 -0.487892 2.52 0.67671 0.377566 0.632066 255 0 0 255
-0.069107 -0.486348 2.512 0.592191 0.429086 0.682052 255 0 0 255
-0.062018 -0.484611 2.503 0.420412 0.58981 0.689476 255 0 0 255
-0.055066 -0.483648 2.498 0.362986 0.687205 0.629278 255 0 0 255
-0.04816 -0.482878 2.494 0.182922 0.788549 0.587138 255 0 0 255
-0.041343 -0.482881 2.494 -0.0190548 0.791337 0.611083 255 0 0 255
-0.034581 -0.483659 2.498 -0.0741935 0.732346 0.676879 255 0 0 255
-0.027752 -0.483661 2.498 -0.00493805 0.790778 0.612084 255 0 0 255
-0.020873 -0.482501 2.492 0.226546 0.807742 0.544271 255 0 0 255
-0.01401 -0.48076 2.483 0.293891 0.794265 0.531763 255 0 0 255
-0.007204 -0.479599 2.477 0.227213 0.760572 0.608198 255 0 0 255
-0.000432 -0.478631 2.472 0.185947 0.726421 0.661616 255 0 0 255
0.006334 -0.479212 2.475 0.120967 0.77662 0.618246 255 0 0 255
0.0131 -0.479211 2.475 0.0948757 0.803704 0.587417 255 0 0 255
0.019842 -0.478629 2.472 -0.00888655 0.815324 0.578937 255 0 0 255
0.026556 -0.477853 2.468 -0.0819769 0.784097 0.615201 255 0 0 255
0.033519 -0.480948 2.484 -0.0293323 0.846394 0.531749 255 0 0 255
-0.205808 -0.475871 2.425 0.660565 -0.203719 0.722601 255 0 0 255
-0.198204 -0.473531 2.413 0.565394 0.206966 0.798433 255 0 0 255
-0.191856 -0.474135 2.416 -0.643937 -0.305838 0.70129 255 0 0 255
-0.185873 -0.47572 2.424 -0.786218 -0.219563 0.577627 255 0 0 255
-0.180069 -0.477893 2.435 -0.770675 -0.0335252 0.636346 255 0 0 255
-0.173634 -0.478495 2.438 -0.437369 0.372038 0.818716 255 0 0 255
-0.167251 -0.479294 2.442 -0.562331 0.431468 0.705421 255 0 0 255
-0.160977 -0.480484 2.448 -0.734071 0.260613 0.627073 255 0 0 255
-0.154858 -0.482263 2.457 -0.750543 0.362977 0.552207 255 0 0 255
-0.14869 -0.484041 2.466 -0.664275 0.446541 0.59945 255 0 0 255
-0.14253 -0.486016 2.476 -0.561691 0.428006 0.708035 255 0 0 255
-0.136041 -0.487008 2.481 -0.239193 0.468386 0.85053 255 0 0 255
-0.129316 -0.487215 2.482 -0.370445 0.501684 0.781718 255 0 0 255
-0.122979 -0.488992 2.491 -0.510439 0.351436 0.784822 255 0 0 255
-0.11692 -0.492142 2.507 -0.927018 -0.104076 0.360286 255 0 0 255
-0.097945 -0.500217 2.548 0.813983 0.0467453 0.579005 255 0 0 255
-0.090518 -0.497672 2.535 0.54747 0.29943 0.78142 255 0 0 255
-0.083557 -0.497483 2.534 0.440624 0.31483 0.840674 255 0 0 255
-0.07633 -0.495526 2.524 0.576584 0.394119 0.715696 255 0 0 255
-0.069211 -0.493961 2.516 0.477788 0.549046 0.685761 255 0 0 255
-0.062236 -0.493181 2.512 0.371868 0.684278 0.627279 255 0 0 255
-0.055282 -0.492401 2.508 0.342209 0.696629 0.630556 255 0 0 255
-0.048427 -0.492405 2.508 0.196311 0.718701 0.667031 255 0 0 255
-0.041455 -0.491034 2.501 0.0248667 0.705992 0.707783 255 0 0 255
-0.034675 -0.491822 2.505 -0.0979022 0.62206 0.776825 255 0 0 255
-0.02785 -0.492218 2.507 -0.0635999 0.568806 0.820009 255 0 0 255
-0.021022 -0.492809 2.51 -0.0481086 0.461848 0.885653 255 0 0 255
-0.014116 -0.491239 2.502 0.227214 0.783065 0.57895 255 0 0 255
-0.007262 -0.490258 2.497 0.221881 0.831736 0.508905 255 0 0 255
-0.000435 -0.489277 2.492 0.132571 0.850874 0.508369 255 0 0 255
0.006369 -0.488688 2.489 0.0817251 0.842417 0.532592 255 0 0 255
0.013178 -0.488883 2.49 0.0715069 0.839728 0.538278 255 0 0 255
0.019984 -0.488882 2.49 -0.0304551 0.832596 0.553043 255 0 0 255
0.026737 -0.487898 2.485 -0.0584708 0.850963 0.521961 255 0 0 255
0.034137 -0.496731 2.53 -0.837788 0.519803 0.167078 255 0 0 255
-0.206047 -0.483056 2.428 0.715215 0.38186 0.585363 255 0 0 255
-0.198189 -0.480087 2.413 -0.130494 -0.243026 0.961202 255 0 0 255
-0.191841 -0.480699 2.416 -0.585415 -0.190899 0.787938 255 0 0 255
-0.185782 -0.482106 2.423 -0.818519 -0.236475 0.523552 255 0 0 255
-0.180203 -0.484906 2.437 -0.8835 -0.141346 0.446598 255 0 0 255
-0.173834 -0.485716 2.441 -0.772421 -0.0318437 0.634312 255 0 0 255
-0.167717 -0.487321 2.449 -0.897169 -0.131025 0.421807 255 0 0 255
-0.16149 -0.488727 2.456 -0.775146 0.12711 0.618864 255 0 0 255
-0.155413 -0.49073 2.466 -0.773953 0.298653 0.558393 255 0 0 255
-0.149101 -0.492135 2.473 -0.697102 0.332827 0.63504 255 0 0 255
-0.142864 -0.493937 2.482 -0.529687 0.186151 0.827514 255 0 0 255
-0.136195 -0.494346 2.484 -0.369172 0.207288 0.905949 255 0 0 255
-0.129462 -0.494556 2.485 -0.403703 0.227959 0.886035 255 0 0 255
-0.122772 -0.494964 2.487 -0.565698 0.35776 0.742963 255 0 0 255
-0.116537 -0.497362 2.499 -0.918844 -0.0140657 0.394371 255 0 0 255
-0.110588 -0.501352 2.519 -0.938298 -0.0385027 0.343678 255 0 0 255
-0.105599 -0.510516 2.565 0.913268 0.305511 0.269452 255 0 0 255
-0.097514 -0.504951 2.537 0.529448 0.158879 0.833332 255 0 0 255
-0.090796 -0.506153 2.543 0.838526 0.0594666 0.541607 255 0 0 255
-0.083518 -0.504169 2.533 0.432812 0.37046 0.821847 255 0 0 255
-0.076535 -0.503778 2.531 0.472063 0.372704 0.798904 255 0 0 255
-0.069453 -0.502589 2.525 0.411539 0.56583 0.714473 255 0 0 255
-0.062528 -0.502396 2.524 0.464649 0.550363 0.693687 255 0 0 255
-0.055476 -0.501007 2.517 0.317898 0.608791 0.726852 255 0 0 255
-0.048577 -0.500812 2.516 0.287668 0.48808 0.82403 255 0 0 255
-0.041552 -0.499024 2.507 0.153202 0.575973 0.802984 255 0 0 255
-0.034741 -0.499625 2.51 -0.216383 0.453535 0.864572 255 0 0 255
-0.027881 -0.499627 2.51 -0.154194 0.341467 0.927159 255 0 0 255
-0.021054 -0.500425 2.514 -0.321373 0.262001 0.909986 255 0 0 255
-0.014171 -0.500029 2.512 -0.120442 0.5808 0.805088 255 0 0 255
-0.007316 -0.500826 2.516 0.0313793 0.669061 0.742545 255 0 0 255
-0.000438 -0.499632 2.51 0.121452 0.806148 0.579116 255 0 0 255
0.006415 -0.499034 2.507 0.167057 0.849878 0.499799 255 0 0 255
0.01324 -0.498038 2.502 0.019406 0.84622 0.532481 255 0 0 255
0.020095 -0.498435 2.504 0.0200399 0.84092 0.540788 255 0 0 255
0.027004 -0.499628 2.51 -0.262141 0.867029 0.423725 255 0 0 255
-0.198255 -0.486843 2.414 0.238468 0.556374 0.795978 255 0 0 255
-0.191746 -0.48706 2.415 -0.510717 0.223843 0.830098 255 0 0 255
-0.185538 -0.488083 2.42 -0.651775 0.161262 0.741069 255 0 0 255
-0.179671 -0.490114 2.43 -0.816673 -0.192625 0.544004 255 0 0 255
-0.173536 -0.49154 2.437 -0.800851 -0.278224 0.530311 255 0 0 255
-0.16743 -0.493167 2.445 -0.771999 -0.33884 0.537778 255 0 0 255
-0.161412 -0.495197 2.455 -0.838947 0.0637395 0.540467 255 0 0 255
-0.155464 -0.49763 2.467 -0.800932 0.187701 0.568574 255 0 0 255
-0.149149 -0.499055 2.474 -0.71984 0.0996819 0.686945 255 0 0 255
-0.142796 -0.500478 2.481 -0.572842 -0.0221111 0.819368 255 0 0 255
-0.136129 -0.500893 2.483 -0.478638 0.00894542 0.877967 255 0 0 255
-0.129608 -0.501912 2.488 -0.534822 0.207375 0.819122 255 0 0 255
-0.123009 -0.502729 2.492 -0.678792 0.280916 0.678474 255 0 0 255
-0.116574 -0.504353 2.5 -0.803927 0.277087 0.526236 255 0 0 255
-0.110272 -0.506783 2.512 -0.877372 0.0857011 0.472095 255 0 0 255
-0.104891 -0.514054 2.548 0.70851 -0.54536 0.447879 255 0 0 255
-0.09939 -0.521729 2.586 0.834074 0.476522 0.277933 255 0 0 255
-0.091253 -0.515684 2.556 0.759979 0.170681 0.627136 255 0 0 255
-0.083775 -0.512665 2.541 0.438461 0.210415 0.873772 255 0 0 255
-0.07665 -0.511461 2.535 0.557637 0.049103 0.828631 255 0 0 255
-0.069613 -0.51066 2.531 0.344522 0.224326 0.911583 255 0 0 255
-0.062622 -0.51006 2.528 0.480469 0.372031 0.794193 255 0 0 255
-0.055515 -0.508249 2.519 0.479464 0.339165 0.809371 255 0 0 255
-0.048612 -0.508051 2.518 0.253079 0.427497 0.867869 255 0 0 255
-0.041614 -0.506643 2.511 0.242924 0.503879 0.828911 255 0 0 255
-0.034794 -0.507251 2.514 0.0129314 0.507103 0.861788 255 0 0 255
-0.027867 -0.506245 2.509 -0.109775 0.299554 0.947743 255 0 0 255
-0.021044 -0.507054 2.513 -0.19071 0.284895 0.939396 255 0 0 255
-0.014204 -0.508064 2.518 -0.495652 0.432626 0.753103 255 0 0 255
-0.007354 -0.510284 2.529 -0.525218 0.607095 0.596306 255 0 0 255
-0.000442 -0.510688 2.531 -0.0448135 0.785882 0.61675 255 0 0 255
0.006465 -0.509881 2.527 0.113875 0.825178 0.553276 255 0 0 255
0.013324 -0.508064 2.518 0.106518 0.863241 0.493426 255 0 0 255
0.020206 -0.508063 2.518 -0.257191 0.835131 0.48622 255 0 0 255
-0.206864 -0.498289 2.438 0.562496 0.538768 0.627159 255 0 0 255
-0.19939 -0.496261 2.428 0.460321 0.602078 0.652386 255 0 0 255
-0.192525 -0.495663 2.425 -0.0684195 0.610075 0.789384 255 0 0 255
-0.18583 -0.495473 2.424 -0.385026 0.393383 0.834868 255 0 0 255
-0.179657 -0.496714 2.43 -0.65028 -0.295408 0.699908 255 0 0 255
-0.173451 -0.497955 2.436 -0.80039 -0.204086 0.563671 255 0 0 255
-0.167554 -0.500217 2.447 -0.871021 -0.141235 0.470504 255 0 0 255
-0.161596 -0.502478 2.458 -0.893101 0.00316099 0.449845 255 0 0 255
-0.155767 -0.505353 2.472 0.107805 -0.210021 0.971735 255 0 0 255
-0.149378 -0.506592 2.478 -0.530259 -0.0860741 0.843455 255 0 0 255
-0.142784 -0.507217 2.481 -0.516547 -0.139484 0.844822 255 0 0 255
-0.136118 -0.507637 2.483 -0.661987 -0.00180979 0.749513 255 0 0 255
-0.129753 -0.509283 2.491 -0.708851 0.22398 0.668853 255 0 0 255
-0.123344 -0.510929 2.499 -0.708931 0.322804 0.627068 255 0 0 255
-0.116891 -0.512574 2.507 -0.755763 0.270752 0.596251 255 0 0 255
-0.110482 -0.514628 2.517 -0.775798 0.0428574 0.629524 255 0 0 255
-0.09071 -0.51956 2.541 0.371218 -0.00692296 0.92852 255 0 0 255
-0.083603 -0.518545 2.536 0.557104 0.0815324 0.826431 255 0 0 255
-0.076523 -0.517529 2.531 0.382875 -0.0988628 0.918495 255 0 0 255
-0.069635 -0.517739 2.532 0.199085 -0.0179245 0.979818 255 0 0 255
-0.062666 -0.517336 2.53 0.0249998 0.288613 0.957119 255 0 0 255
-0.055621 -0.516114 2.524 0.424861 0.509303 0.748401 255 0 0 255
-0.048647 -0.5153 2.52 0.259032 0.598339 0.758217 255 0 0 255
-0.041711 -0.51469 2.517 0.256644 0.552901 0.792739 255 0 0 255
-0.034874 -0.515307 2.52 0.0976632 0.692345 0.714927 255 0 0 255
-0.027921 -0.514082 2.514 0.0455546 0.563077 0.825148 255 0 0 255
-0.021067 -0.514493 2.516 -0.132281 0.569369 0.81137 255 0 0 255
-0.014197 -0.514699 2.517 -0.523851 0.525165 0.670658 255 0 0 255
-0.007368 -0.518177 2.534 -0.483784 0.559557 0.672941 255 0 0 255
-0.000444 -0.519813 2.542 -0.405033 0.571765 0.713466 255 0 0 255
0.006521 -0.521244 2.549 -0.274795 0.843196 0.46207 255 0 0 255
0.013429 -0.518994 2.538 -0.0832853 0.847383 0.524409 255 0 0 255
0.020349 -0.518583 2.536 -0.285545 0.847144 0.448119 255 0 0 255
-0.208884 -0.509879 2.462 -0.994973 -0.0821779 0.0572254 255 0 0 255
-0.200688 -0.506167 2.444 0.667715 0.601914 0.438014 255 0 0 255
-0.193066 -0.503697 2.432 0.515905 0.477059 0.711517 255 0 0 255
-0.185815 -0.502055 2.424 -0.0112231 0.382503 0.923886 255 0 0 255
-0.179199 -0.50207 2.424 -0.486552 -0.0948914 0.868483 255 0 0 255
-0.173081 -0.503534 2.431 -0.744144 -0.0415839 0.666724 255 0 0 255
-0.166993 -0.505204 2.439 -0.851151 -0.0986292 0.515571 255 0 0 255
-0.161189 -0.50791 2.452 -0.869004 -0.325937 0.372287 255 0 0 255
-0.155313 -0.510616 2.465 -0.881336 -0.0576542 0.468959 255 0 0 255
-0.149125 -0.512492 2.474 -0.686183 -0.122708 0.717004 255 0 0 255
-0.142542 -0.513125 2.477 -0.544806 -0.101733 0.832368 255 0 0 255
-0.136052 -0.514173 2.482 -0.666093 0.183184 0.723024 255 0 0 255
-0.129795 -0.516255 2.492 -0.782226 0.278272 0.557393 255 0 0 255
-0.123581 -0.518751 2.504 -0.69075 0.209251 0.692155 255 0 0 255
-0.116929 -0.51959 2.508 -0.768681 0.109087 0.630262 255 0 0 255
-0.110561 -0.521878 2.519 -0.830573 0.118018 0.544262 255 0 0 255
-0.104586 -0.526444 2.541 0.102835 -0.627056 0.772156 255 0 0 255
-0.083728 -0.52626 2.54 0.652069 0.413947 0.63518 255 0 0 255
-0.076426 -0.523781 2.528 0.29803 0.160407 0.940982 255 0 0 255
-0.069601 -0.524408 2.531 -0.12643 0.225109 0.966096 255 0 0 255
-0.062736 -0.524828 2.533 -0.0612828 0.597542 0.799493 255 0 0 255
-0.055859 -0.525247 2.535 -0.0251908 0.663803 0.747484 255 0 0 255
-0.048874 -0.52463 2.532 0.257526 0.544233 0.79843 255 0 0 255
-0.041889 -0.523805 2.528 0.129873 0.649662 0.749048 255 0 0 255
-0.034982 -0.523808 2.528 0.139551 0.419418 0.897003 255 0 0 255
-0.02804 -0.523189 2.525 0.0128075 0.701022 0.713024 255 0 0 255
-0.021149 -0.523398 2.526 -0.0853833 0.727191 0.681105 255 0 0 255
-0.014258 -0.523814 2.528 -0.500533 0.609527 0.614771 255 0 0 255
-0.007379 -0.525887 2.538 -0.729094 0.275492 0.626519 255 0 0 255
-0.000445 -0.528581 2.551 -0.832571 0.0776874 0.548444 255 0 0 255
0.006561 -0.531482 2.565 -0.914138 0.0453468 0.40286 255 0 0 255
0.01356 -0.531067 2.563 -0.775692 -0.342043 0.530386 255 0 0 255
0.020981 -0.54184 2.615 0.620164 0.782629 0.0537521 255 0 0 255
-0.202068 -0.516369 2.461 0.757162 0.532544 0.378289 255 0 0 255
-0.193924 -0.512608 2.443 0.675728 0.569253 0.46834 255 0 0 255
-0.186107 -0.509476 2.428 -0.023377 0.31992 0.947156 255 0 0 255
-0.179481 -0.50949 2.428 -0.381159 0.272514 0.883433 255 0 0 255
-0.173352 -0.510973 2.435 -0.727028 0.0505935 0.684741 255 0 0 255
-0.167322 -0.512875 2.444 -0.883215 -0.0378228 0.467441 255 0 0 255
-0.161505 -0.515617 2.457 -0.954586 -0.12579 0.270079 255 0 0 255
-0.15549 -0.517938 2.468 -0.830366 -0.0915074 0.549654 255 0 0 255
-0.149234 -0.519629 2.476 -0.801379 0.0692355 0.594137 255 0 0 255
-0.142876 -0.52111 2.483 -0.663413 0.324023 0.674457 255 0 0 255
-0.13637 -0.522171 2.488 -0.726139 0.292976 0.622003 255 0 0 255
-0.130201 -0.5247 2.5 -0.73825 0.251123 0.626039 255 0 0 255
-0.123522 -0.52534 2.503 -0.625576 0.16136 0.763294 255 0 0 255
-0.117012 -0.526819 2.51 -0.747932 0.0644795 0.660636 255 0 0 255
-0.110508 -0.528507 2.518 -0.835751 0.0282871 0.54838 255 0 0 255
-0.104166 -0.531245 2.531 -0.904694 -0.170205 0.390588 255 0 0 255
-0.091945 -0.540706 2.576 0.771536 0.549115 0.321255 255 0 0 255
-0.084117 -0.535676 2.552 0.68831 0.647215 0.327631 255 0 0 255
-0.076631 -0.532114 2.535 0.185816 0.498498 0.846742 255 0 0 255
-0.069706 -0.53212 2.535 -0.00470186 0.637782 0.770203 255 0 0 255
-0.062929 -0.533385 2.541 -0.0523304 0.720082 0.691913 255 0 0 255
-0.056074 -0.53423 2.545 0.519252 0.344125 0.782275 255 0 0 255
-0.048947 -0.532345 2.536 0.538102 0.222577 0.812961 255 0 0 255
-0.041936 -0.531299 2.531 0.252577 0.255084 0.933347 255 0 0 255
-0.035006 -0.531092 2.53 0.00165276 0.159567 0.987186 255 0 0 255
-0.028127 -0.531725 2.533 -0.2307 0.275138 0.933315 255 0 0 255
-0.021231 -0.532356 2.536 -0.424284 0.341194 0.838791 255 0 0 255
-0.014307 -0.532568 2.537 -0.33605 0.26582 0.903554 255 0 0 255
-0.007387 -0.533408 2.541 -0.613891 0.00278063 0.789386 255 0 0 255
-0.000445 -0.534878 2.548 -0.754601 -0.159392 0.636531 255 0 0 255
0.00654 -0.536767 2.557 -0.790128 -0.226374 0.569608 255 0 0 255
0.013665 -0.542224 2.583 -0.867315 -0.48426 0.115142 255 0 0 255
0.020754 -0.543062 2.587 -0.867315 -0.48426 0.115142 255 0 0 255
-0.212753 -0.533022 2.508 0.80997 -0.19337 0.553676 255 0 0 255
-0.203283 -0.526237 2.476 0.77937 0.471487 0.412653 255 0 0 255
-0.194782 -0.521577 2.454 0.759628 0.483676 0.434769 255 0 0 255
-0.186476 -0.517129 2.433 0.391769 0.445531 0.804997 255 0 0 255
-0.17954 -0.516293 2.429 -0.351923 0.323085 0.878502 255 0 0 255
-0.173267 -0.51737 2.434 -0.578022 0.170777 0.797951 255 0 0 255
-0.166898 -0.518234 2.438 -0.69456 0.164247 0.700435 255 0 0 255
-0.161229 -0.521436 2.453 -0.861715 0.112067 0.494862 255 0 0 255
-0.155288 -0.523999 2.465 -0.847066 0.00375418 0.531475 255 0 0 255
-0.149282 -0.526563 2.477 -0.848847 -0.0269391 0.527951 255 0 0 255
-0.143037 -0.528488 2.486 -0.688389 0.224816 0.689621 255 0 0 255
-0.136524 -0.529562 2.491 -0.729857 0.182393 0.658818 255 0 0 255
-0.13019 -0.531486 2.5 -0.706784 0.152939 0.6907 255 0 0 255
-0.123512 -0.532134 2.503 -0.581485 0.161818 0.797302 255 0 0 255
-0.117049 -0.533845 2.511 -0.698734 0.199326 0.687051 255 0 0 255
-0.110455 -0.53513 2.517 -0.790794 0.0595168 0.609182 255 0 0 255
-0.104033 -0.537478 2.528 -0.891913 -0.0940467 0.44232 255 0 0 255
-0.077078 -0.542185 2.55 0.400872 0.656024 0.639479 255 0 0 255
-0.070057 -0.541766 2.548 0.235745 0.244708 0.940501 255 0 0 255
-0.063171 -0.542409 2.551 0.347258 0.103516 0.932039 255 0 0 255
-0.056158 -0.541989 2.549 0.562843 0.0896089 0.821692 255 0 0 255
-0.048982 -0.539654 2.538 0.73901 0.0680839 0.670246 255 0 0 255
-0.041916 -0.537957 2.53 0.360893 0.0485339 0.931343 255 0 0 255
-0.034976 -0.537535 2.528 -0.0747106 0.0867612 0.993424 255 0 0 255
-0.028102 -0.538176 2.531 -0.316853 -0.170443 0.933034 255 0 0 255
-0.021204 -0.538603 2.533 -0.399411 -0.248162 0.882545 255 0 0 255
-0.014306 -0.539455 2.537 -0.495336 -0.130109 0.858903 255 0 0 255
-0.007383 -0.540094 2.54 -0.650663 0.000752652 0.759366 255 0 0 255
-0.000445 -0.542008 2.549 -0.624056 -0.150265 0.766795 255 0 0 255
0.006519 -0.542008 2.549 -0.190876 -0.274617 0.942418 255 0 0 255
0.013574 -0.545622 2.566 -0.767115 -0.548287 0.333042 255 0 0 255
0.020801 -0.551361 2.593 -0.877221 -0.467804 0.107906 255 0 0 255
-0.212567 -0.539397 2.506 0.769022 -0.15816 0.619347 255 0 0 255
-0.204499 -0.536185 2.491 0.890681 0.132263 0.434965 255 0 0 255
-0.19556 -0.530389 2.464 0.785038 0.484135 0.386432 255 0 0 255
-0.187074 -0.525454 2.441 0.64893 0.489115 0.5828 255 0 0 255
-0.179748 -0.523531 2.432 -0.0453854 0.441608 0.896059 255 0 0 255
-0.173467 -0.524622 2.437 -0.502231 0.331738 0.79857 255 0 0 255
-0.167226 -0.525927 2.443 -0.777793 0.0843467 0.622836 255 0 0 255
-0.161478 -0.528954 2.457 -0.82534 -0.253821 0.50437 255 0 0 255
-0.155339 -0.530905 2.466 -0.866086 -0.196034 0.459855 255 0 0 255
-0.14939 -0.533716 2.479 -0.892032 0.0679641 0.446834 255 0 0 255
-0.143256 -0.536096 2.49 -0.693095 0.174096 0.699507 255 0 0 255
-0.136622 -0.536753 2.493 -0.752996 0.116797 0.647577 255 0 0 255
-0.130388 -0.539133 2.504 -0.73202 0.232315 0.64045 255 0 0 255
-0.123699 -0.539789 2.507 -0.644523 0.338529 0.685557 255 0 0 255
-0.117319 -0.541952 2.517 -0.639075 0.381281 0.667988 255 0 0 255
-0.110534 -0.542392 2.519 -0.612589 0.363494 0.701859 255 0 0 255
-0.103984 -0.544124 2.527 -0.642182 0.196311 0.740989 255 0 0 255
-0.097274 -0.545208 2.532 -0.748371 0.131142 0.650186 255 0 0 255
-0.077797 -0.554274 2.574 0.596639 0.359334 0.717566 255 0 0 255
-0.070574 -0.552773 2.567 0.549008 0.670395 0.49916 255 0 0 255
-0.063215 -0.549764 2.553 0.6404 0.247383 0.727111 255 0 0 255
-0.056065 -0.548046 2.545 0.698206 -0.115805 0.706469 255 0 0 255
-0.048939 -0.546112 2.536 0.529217 0.182092 0.828717 255 0 0 255
-0.041945 -0.545255 2.532 0.363444 0.329182 0.87152 255 0 0 255
-0.035001 -0.544827 2.53 -0.000308831 0.0853797 0.996348 255 0 0 255
-0.028111 -0.545261 2.532 -0.026829 -0.124615 0.991842 255 0 0 255
-0.021194 -0.545263 2.532 -0.415358 -0.281102 0.865135 255 0 0 255
-0.014311 -0.546556 2.538 -0.579174 -0.201483 0.789913 255 0 0 255
-0.007388 -0.547419 2.542 -0.708532 -0.0866448 0.700339 255 0 0 255
-0.000445 -0.549142 2.55 -0.156307 -0.044502 0.986705 255 0 0 255
0.006511 -0.54828 2.546 -0.0692145 -0.206989 0.975892 255 0 0 255
0.013483 -0.548925 2.549 -0.0524346 -0.257764 0.964784 255 0 0 255
0.02047 -0.54957 2.552 -0.389469 -0.71147 0.584913 255 0 0 255
-0.212041 -0.544889 2.5 0.769022 -0.15816 0.619347 255 0 0 255
-0.204647 -0.54338 2.493 0.801222 -0.0206519 0.59801 255 0 0 255
-0.196814 -0.540563 2.48 0.744896 0.273156 0.6087 255 0 0 255
-0.187978 -0.534693 2.453 0.730494 0.496841 0.468538 255 0 0 255
-0.180251 -0.531656 2.439 0.115803 0.654276 0.747337 255 0 0 255
-0.173666 -0.531888 2.44 -0.100208 0.467224 0.878442 255 0 0 255
-0.167281 -0.532774 2.444 -0.471047 0.18954 0.861504 255 0 0 255
-0.161005 -0.534095 2.45 -0.748123 -0.24316 0.617403 255 0 0 255
-0.154759 -0.535634 2.457 -0.810048 -0.395185 0.433188 255 0 0 255
-0.148896 -0.538698 2.471 -0.93049 -0.232738 0.28288 255 0 0 255
-0.143129 -0.542417 2.488 -0.822315 0.00202289 0.569029 255 0 0 255
-0.13672 -0.543954 2.495 -0.765803 0.0814847 0.637892 255 0 0 255
-0.130429 -0.546145 2.505 -0.739772 0.222876 0.634873 255 0 0 255
-0.124034 -0.548118 2.514 -0.660188 0.307291 0.685364 255 0 0 255
-0.117589 -0.55009 2.523 -0.519487 0.497506 0.694709 255 0 0 255
-0.110832 -0.550754 2.526 -0.513929 0.431127 0.741624 255 0 0 255
-0.104099 -0.551635 2.53 -0.482542 0.368885 0.794404 255 0 0 255
-0.097612 -0.554042 2.541 -0.245257 0.462757 0.851883 255 0 0 255
-0.070925 -0.562574 2.58 0.80655 -0.00912699 0.591095 255 0 0 255
-0.063061 -0.555383 2.547 0.429375 -0.246686 0.868782 255 0 0 255
-0.05595 -0.553862 2.54 0.452768 -0.196954 0.869603 255 0 0 255
-0.049032 -0.554085 2.541 0.253104 0.18425 0.949732 255 0 0 255
-0.042074 -0.55387 2.54 0.343314 0.376187 0.860592 255 0 0 255
-0.035039 -0.552347 2.533 0.626648 0.0302319 0.778715 255 0 0 255
-0.028064 -0.551259 2.528 0.0751969 -0.0326458 0.996634 255 0 0 255
-0.02115 -0.551043 2.527 -0.371166 -0.0341337 0.927939 255 0 0 255
-0.014281 -0.552353 2.533 -0.632746 -0.0558968 0.77234 255 0 0 255
-0.007373 -0.553226 2.537 -0.691169 0.0318828 0.72199 255 0 0 255
-0.000445 -0.555407 2.547 -0.424476 0.0139271 0.905332 255 0 0 255
0.006505 -0.554753 2.544 0.441175 -0.306696 0.843387 255 0 0 255
0.013444 -0.554316 2.542 0.200681 -0.668268 0.716341 255 0 0 255
0.020284 -0.55148 2.529 -0.851361 -0.508352 0.129471 255 0 0 255
-0.210837 -0.548582 2.486 0.722718 -0.0427806 0.689818 255 0 0 255
-0.204712 -0.550364 2.494 0.562118 -0.138668 0.81535 255 0 0 255
-0.197274 -0.548615 2.486 0.636254 0.0339761 0.770731 255 0 0 255
-0.188959 -0.544216 2.466 0.841373 0.350206 0.41164 255 0 0 255
-0.180753 -0.539818 2.446 0.327804 0.376883 0.866316 255 0 0 255
-0.173866 -0.53917 2.443 -0.22449 0.297393 0.927988 255 0 0 255
-0.167336 -0.539625 2.445 -0.358524 0.0342236 0.932893 255 0 0 255
-0.160927 -0.540521 2.449 -0.525781 -0.346105 0.777024 255 0 0 255
-0.154495 -0.541417 2.453 -0.630713 -0.465998 0.620522 255 0 0 255
-0.148643 -0.544519 2.467 -0.915127 -0.33746 0.2206 255 0 0 255
-0.143117 -0.549167 2.488 -0.911918 -0.195551 0.360786 255 0 0 255
-0.136874 -0.551385 2.498 -0.82175 -0.166485 0.544986 255 0 0 255
-0.130523 -0.553383 2.507 -0.836844 -0.126524 0.532619 255 0 0 255
-0.124172 -0.555601 2.517 -0.839661 0.0416036 0.541515 255 0 0 255
-0.117813 -0.558039 2.528 -0.657119 0.139882 0.740694 255 0 0 255
-0.111086 -0.558931 2.532 -0.626131 0.197513 0.754286 255 0 0 255
-0.104337 -0.559823 2.536 -0.484803 0.298602 0.822073 255 0 0 255
-0.09745 -0.560053 2.537 -0.292765 0.501709 0.813988 255 0 0 255
-0.090665 -0.560943 2.541 -0.255137 0.327868 0.90962 255 0 0 255
-0.05588 -0.560091 2.537 0.222679 -0.394349 0.891573 255 0 0 255
-0.049008 -0.560758 2.54 0.328027 -0.207387 0.921623 255 0 0 255
-0.042104 -0.561203 2.542 0.4538 -0.56477 0.689275 255 0 0 255
-0.035036 -0.559219 2.533 0.360187 -0.651072 0.66811 255 0 0 255
-0.028118 -0.559222 2.533 -0.0334067 -0.172279 0.984482 255 0 0 255
-0.021215 -0.559666 2.535 -0.531402 0.00380632 0.847111 255 0 0 255
-0.014319 -0.560771 2.54 -0.6238 -0.0716658 0.778292 255 0 0 255
-0.007393 -0.561655 2.544 -0.53194 -0.107741 0.8399 255 0 0 255
-0.000445 -0.562759 2.549 0.0070237 -0.359226 0.933224 255 0 0 255
0.006513 -0.562318 2.547 0.360247 -0.263987 0.894725 255 0 0 255
0.013422 -0.56033 2.538 0.67855 -0.0720109 0.731016 255 0 0 255
0.020331 -0.559666 2.535 -0.129784 0.033277 0.990984 255 0 0 255
0.027362 -0.561872 2.545 -0.793589 -0.365041 0.486787 255 0 0 255
-0.204204 -0.555788 2.488 0.386072 -0.144805 0.911032 255 0 0 255
-0.197338 -0.555581 2.487 0.516591 -0.0828522 0.852214 255 0 0 255
-0.189864 -0.553586 2.478 0.789417 0.121027 0.601809 255 0 0 255
-0.181773 -0.54958 2.46 0.773321 0.295674 0.560849 255 0 0 255
-0.174136 -0.54669 2.447 0.0375612 0.106532 0.993599 255 0 0 255
-0.167391 -0.54648 2.446 0.082438 0.0739816 0.993846 255 0 0 255
-0.160585 -0.546047 2.444 -0.275343 -0.299138 0.91362 255 0 0 255
-0.153978 -0.546283 2.445 -0.59878 -0.286841 0.747787 255 0 0 255
-0.148028 -0.548977 2.457 -0.860386 -0.306567 0.407127 255 0 0 255
-0.142703 -0.554351 2.481 -0.891337 -0.352663 0.284862 255 0 0 255
-0.136753 -0.557714 2.496 -0.843657 -0.325694 0.426809 255 0 0 255
-0.130408 -0.559736 2.505 -0.828789 -0.319912 0.459092 255 0 0 255
-0.124112 -0.562205 2.516 -0.870507 -0.236846 0.431418 255 0 0 255
-0.117803 -0.564896 2.528 -0.810812 -0.114068 0.574084 255 0 0 255
-0.111164 -0.566247 2.534 -0.54298 0.150626 0.826126 255 0 0 255
-0.104493 -0.567596 2.54 -0.373742 0.292563 0.880184 255 0 0 255
-0.097865 -0.569393 2.548 -0.0822179 0.177518 0.980677 255 0 0 255
-0.090408 -0.566272 2.534 0.201274 -0.117787 0.972427 255 0 0 255
-0.08138 -0.551977 2.47 0.287861 0.595033 0.750381 255 0 0 255
-0.055985 -0.56809 2.542 0.119158 -0.721318 0.682276 255 0 0 255
-0.04883 -0.565637 2.531 0.290767 -0.853519 0.432389 255 0 0 255
-0.041902 -0.565417 2.53 0.306093 -0.8228 0.47886 255 0 0 255
-0.034923 -0.564303 2.525 -0.214947 -0.759159 0.61439 255 0 0 255
-0.028026 -0.564305 2.525 -0.606495 -0.433652 0.666415 255 0 0 255
-0.021172 -0.565425 2.53 -0.540822 -0.36018 0.76012 255 0 0 255
-0.014267 -0.56565 2.531 -0.58306 -0.262911 0.768712 255 0 0 255
-0.007381 -0.567662 2.54 -0.429461 -0.526755 0.733548 255 0 0 255
-0.000444 -0.568333 2.543 -0.131583 -0.484836 0.86465 255 0 0 255
0.006494 -0.567662 2.54 0.56689 -0.322431 0.758072 255 0 0 255
0.0134 -0.56632 2.534 0.348938 -0.249062 0.903444 255 0 0 255
0.020369 -0.56766 2.54 -0.385484 -0.327928 0.862476 255 0 0 255
0.027467 -0.57101 2.555 -0.812558 -0.208604 0.544274 255 0 0 255
-0.204105 -0.562309 2.487 0.426671 -0.0226178 0.904124 255 0 0 255
-0.197084 -0.561647 2.484 0.605836 -0.105634 0.788546 255 0 0 255
-0.189848 -0.560306 2.478 0.775543 -0.15245 0.612611 255 0 0 255
-0.181906 -0.556703 2.462 0.848511 0.156034 0.50565 255 0 0 255
-0.174336 -0.554004 2.45 0.669171 0.236109 0.704601 255 0 0 255
-0.16724 -0.552662 2.444 0.148228 0.171354 0.973995 255 0 0 255
-0.160572 -0.552675 2.444 -0.0475692 0.0356793 0.998231 255 0 0 255
-0.154092 -0.553366 2.447 -0.646497 -0.11 0.754945 255 0 0 255
-0.147896 -0.555188 2.455 -0.791628 -0.0783342 0.605962 255 0 0 255
-0.142288 -0.559497 2.474 -0.823581 -0.495653 0.275756 255 0 0 255
-0.136084 -0.56177 2.484 -0.731934 -0.608874 0.305852 255 0 0 255
-0.129772 -0.563816 2.493 -0.711637 -0.625624 0.319636 255 0 0 255
-0.123461 -0.566088 2.503 -0.696387 -0.661377 0.278613 255 0 0 255
-0.117187 -0.568812 2.515 -0.712435 -0.64425 0.27817 255 0 0 255
-0.11076 -0.571083 2.525 -0.728663 -0.591623 0.345011 255 0 0 255
-0.104361 -0.573807 2.537 -0.818809 -0.348615 0.456091 255 0 0 255
-0.097703 -0.575398 2.544 -0.200467 0.0543406 0.978192 255 0 0 255
-0.091506 -0.580156 2.565 -0.863299 0.105056 0.493637 255 0 0 255
-0.055628 -0.571365 2.526 0.797362 -0.443087 0.409742 255 0 0 255
-0.048556 -0.569334 2.517 0.430905 -0.725855 0.536148 255 0 0 255
-0.04165 -0.568886 2.515 0.0328203 -0.559167 0.828405 255 0 0 255
-0.034781 -0.568889 2.515 -0.29822 -0.570736 0.765065 255 0 0 255
-0.028002 -0.570701 2.523 -0.673361 -0.256235 0.69349 255 0 0 255
-0.021178 -0.572513 2.531 -0.501818 -0.169779 0.848148 255 0 0 255
-0.014277 -0.572967 2.533 -0.411934 -0.415946 0.81074 255 0 0 255
-0.007371 -0.573872 2.537 -0.481454 -0.561117 0.673312 255 0 0 255
-0.000443 -0.574777 2.541 -0.224214 -0.483181 0.846324 255 0 0 255
0.006491 -0.574325 2.539 0.12716 0.0141452 0.991781 255 0 0 255
0.013404 -0.573419 2.535 0.415265 -0.0501683 0.908316 255 0 0 255
0.020311 -0.572965 2.533 -0.0115059 0.0567102 0.998324 255 0 0 255
0.027347 -0.575451 2.544 -0.847862 -0.117573 0.517018 255 0 0 255
-0.220278 -0.575883 2.517 0.937277 0.0159115 0.348222 255 0 0 255
-0.204253 -0.56951 2.489 0.578173 -0.0725345 0.812684 255 0 0 255
-0.196909 -0.567925 2.482 0.633524 -0.0791292 0.769666 255 0 0 255
-0.189756 -0.566796 2.477 0.756312 -0.00784076 0.654164 255 0 0 255
-0.182039 -0.563837 2.464 0.804976 0.144641 0.575406 255 0 0 255
-0.174677 -0.561792 2.455 0.639401 0.207971 0.740212 255 0 0 255
-0.167432 -0.559975 2.447 0.276685 0.349099 0.895307 255 0 0 255
-0.160821 -0.560217 2.448 -0.152041 0.366418 0.917944 255 0 0 255
-0.154079 -0.560001 2.447 -0.271737 0.335369 0.902046 255 0 0 255
-0.147582 -0.5607 2.45 -0.648552 -0.0241091 0.760789 255 0 0 255
-0.141587 -0.563459 2.462 -0.882973 -0.148409 0.445347 255 0 0 255
-0.13558 -0.566445 2.475 -0.766726 -0.539589 0.347815 255 0 0 255
-0.129241 -0.568287 2.483 -0.801794 -0.493608 0.336865 255 0 0 255
-0.123007 -0.570815 2.494 -0.758189 -0.55434 0.343302 255 0 0 255
-0.116572 -0.572656 2.502 -0.6438 -0.657376 0.391635 255 0 0 255
-0.110269 -0.575412 2.514 -0.524507 -0.796541 0.300691 255 0 0 255
-0.103735 -0.577252 2.522 -0.509453 -0.84144 0.180102 255 0 0 255
-0.097234 -0.57955 2.532 -0.469377 -0.844227 0.258777 255 0 0 255
-0.090678 -0.581847 2.542 -0.968032 0.0823443 0.236923 255 0 0 255
-0.055359 -0.575468 2.514 0.595281 0.054699 0.801653 255 0 0 255
-0.048591 -0.576617 2.519 0.479291 0.0135491 0.877551 255 0 0 255
-0.041629 -0.575476 2.514 0.210093 -0.157311 0.964942 255 0 0 255
-0.034792 -0.575937 2.516 -0.544646 -0.295475 0.784892 255 0 0 255
-0.027955 -0.576627 2.519 -0.763218 -0.15791 0.626548 255 0 0 255
-0.021152 -0.578689 2.528 -0.581341 -0.142764 0.801037 255 0 0 255
-0.014237 -0.578233 2.526 0.257474 -0.260294 0.930567 255 0 0 255
-0.007342 -0.578463 2.527 -0.305488 -0.526273 0.793545 255 0 0 255
-0.000442 -0.580294 2.535 -0.434142 -0.644278 0.629624 255 0 0 255
0.006493 -0.581439 2.54 -0.197716 -0.482007 0.853568 255 0 0 255
0.013429 -0.581438 2.54 0.135795 -0.0590971 0.988973 255 0 0 255
0.020293 -0.579376 2.531 0.380143 -0.162488 0.910543 255 0 0 255
0.027237 -0.580061 2.534 -0.47633 0.0594051 0.877258 255 0 0 255
0.034413 -0.584408 2.553 -0.876054 -0.373906 0.304507 255 0 0 255
-0.222798 -0.58942 2.546 0.941919 0.0377895 0.333706 255 0 0 255
-0.212295 -0.579714 2.504 0.859578 0.0435034 0.50915 255 0 0 255
-0.204236 -0.576258 2.489 0.571573 -0.0781647 0.81682 255 0 0 255
-0.196814 -0.574422 2.481 0.701818 -0.0458059 0.710882 255 0 0 255
-0.189205 -0.571891 2.47 0.753904 0.13906 0.642099 255 0 0 255
-0.181729 -0.56959 2.46 0.704892 0.288154 0.648148 255 0 0 255
-0.174663 -0.568447 2.455 0.538563 0.416301 0.732559 255 0 0 255
-0.167418 -0.566609 2.447 0.256013 0.438968 0.861258 255 0 0 255
-0.161137 -0.568011 2.453 -0.0962487 0.577508 0.810691 255 0 0 255
-0.154318 -0.567561 2.451 -0.142065 0.574193 0.8063 255 0 0 255
-0.147811 -0.568269 2.454 -0.570889 0.252464 0.781248 255 0 0 255
-0.141402 -0.569438 2.459 -0.523311 0.326526 0.7871 255 0 0 255
-0.13513 -0.571302 2.467 -0.821456 -0.309694 0.478852 255 0 0 255
-0.128866 -0.573398 2.476 -0.796767 -0.334509 0.503255 255 0 0 255
-0.122602 -0.575724 2.486 -0.825014 -0.396459 0.402707 255 0 0 255
-0.116236 -0.577818 2.495 -0.576826 -0.446806 0.683839 255 0 0 255
-0.109733 -0.579449 2.502 -0.562867 -0.653748 0.505761 255 0 0 255
-0.103068 -0.580384 2.506 -0.522717 -0.742378 0.419096 255 0 0 255
-0.096496 -0.582014 2.513 -0.395133 -0.860098 0.322648 255 0 0 255
-0.089779 -0.582948 2.517 -0.721321 -0.676196 0.149852 255 0 0 255
-0.055596 -0.584832 2.525 0.712745 0.391608 0.581926 255 0 0 255
-0.048587 -0.583446 2.519 0.678088 0.279754 0.679658 255 0 0 255
-0.041576 -0.581597 2.511 0.432073 -0.149921 0.88929 255 0 0 255
-0.034706 -0.581369 2.51 -0.509151 -0.0468477 0.859402 255 0 0 255
-0.027975 -0.583919 2.521 -0.774952 -0.142781 0.61568 255 0 0 255
-0.021166 -0.586006 2.53 -0.339474 -0.346351 0.874527 255 0 0 255
-0.014241 -0.585313 2.527 0.132845 -0.110838 0.98492 255 0 0 255
-0.007332 -0.584619 2.524 -0.327907 -0.362469 0.872407 255 0 0 255
-0.000441 -0.585546 2.528 -0.0906053 -0.275334 0.957069 255 0 0 255
0.006467 -0.586009 2.53 -0.201525 -0.780074 0.592345 255 0 0 255
0.013402 -0.587166 2.535 0.00215796 -0.653921 0.75656 255 0 0 255
0.02034 -0.587628 2.537 0.284343 0.389854 0.875879 255 0 0 255
0.027342 -0.589247 2.544 -0.67317 -0.484119 0.558991 255 0 0 255
