ply
format ascii 1.0
comment VCGLIB generated
element vertex 725
property float x
property float y
property float z
property float nx
property float ny
property float nz
property uchar red
property uchar green
property uchar blue
property uchar alpha
element face 0
property list uchar int vertex_indices
end_header
-0.207836 0.527655 2.26219 0.496791 -0.287661 -0.81881 0 255 0 255
-0.199634 0.529031 2.26834 0.571908 -0.235392 -0.785819 0 255 0 255
-0.192305 0.530532 2.27515 0.571963 -0.364509 -0.734841 0 255 0 255
-0.18497 0.532039 2.28198 0.552385 -0.41749 -0.721507 0 255 0 255
-0.176744 0.533437 2.28821 0.475293 -0.352885 -0.805959 0 255 0 255
-0.161426 0.533914 2.28951 0.355171 -0.476062 -0.804499 0 255 0 255
-0.154062 0.535446 2.29644 0.434683 -0.625973 -0.647463 0 255 0 255
-0.14403 0.536639 2.30154 0.325699 -0.446337 -0.833489 0 255 0 255
-0.136649 0.538185 2.30852 0.643105 -0.569971 -0.511419 0 255 0 255
-0.121267 0.538713 2.31004 -0.389541 -0.611719 -0.688519 0 255 0 255
-0.111198 0.539937 2.31527 0.339974 -0.504485 -0.793671 0 255 0 255
-0.096668 0.540606 2.31752 0.364541 -0.559537 -0.744331 0 255 0 255
-0.292149 0.499482 2.228 0.868122 0.170436 0.466171 255 0 0 255
-0.284157 0.49614 2.213 0.799206 0.355485 0.484665 255 0 0 255
-0.276623 0.49347 2.201 0.741835 0.360001 0.565756 255 0 0 255
-0.269645 0.491697 2.193 0.609677 0.245184 0.753776 255 0 0 255
-0.263311 0.491044 2.19 0.349913 0.234401 0.906983 255 0 0 255
-0.257346 0.491064 2.19 0.149197 0.208851 0.9665 255 0 0 255
-0.251265 0.490859 2.189 0.342869 0.389833 0.854676 255 0 0 255
-0.244853 0.489981 2.185 0.42719 0.438133 0.790916 255 0 0 255
-0.238571 0.489327 2.182 0.46033 0.362828 0.810217 255 0 0 255
-0.232305 0.488672 2.179 0.368748 0.360718 0.856684 255 0 0 255
-0.226263 0.488466 2.178 0.11312 0.321106 0.940263 255 0 0 255
-0.220326 0.488483 2.178 0.231257 0.309632 0.922306 255 0 0 255
-0.214094 0.487827 2.175 0.546661 0.197685 0.813684 255 0 0 255
-0.207686 0.486722 2.17 0.61717 0.0449691 0.785544 255 0 0 255
-0.201119 0.485168 2.163 0.566719 -0.086106 0.8194 255 0 0 255
-0.19504 0.484735 2.161 0.448405 -0.21775 0.866901 255 0 0 255
-0.188885 0.484078 2.158 0.428976 -0.258453 0.865553 255 0 0 255
-0.182745 0.48342 2.155 0.413713 -0.191461 0.890047 255 0 0 255
-0.176621 0.482761 2.152 0.367864 -0.0805827 0.926381 255 0 0 255
-0.170593 0.482326 2.15 0.222557 -0.0381889 0.974172 255 0 0 255
-0.164728 0.48234 2.15 0.0844589 -0.0853142 0.992768 255 0 0 255
-0.158862 0.482353 2.15 0.112003 -0.0817937 0.990336 255 0 0 255
-0.152925 0.482141 2.149 0.138548 -0.101957 0.985094 255 0 0 255
-0.147062 0.482153 2.149 0.0853537 -0.0936292 0.991942 255 0 0 255
-0.141132 0.481941 2.148 -0.0843585 -0.0835116 0.99293 255 0 0 255
-0.135333 0.482177 2.149 0.0303629 -0.147346 0.988619 255 0 0 255
-0.129348 0.481739 2.147 0.140137 -0.143588 0.979665 255 0 0 255
-0.123546 0.481973 2.148 0.141708 -0.0628375 0.987912 255 0 0 255
-0.117573 0.481535 2.146 0.249208 0.0434631 0.967474 255 0 0 255
-0.111663 0.48132 2.145 0.224601 0.0902613 0.970262 255 0 0 255
-0.105709 0.48088 2.143 0.0901771 0.169884 0.981329 255 0 0 255
-0.099859 0.480888 2.143 -0.0291206 0.257753 0.965772 255 0 0 255
-0.094009 0.480897 2.143 0.147567 0.292723 0.944742 255 0 0 255
-0.088117 0.48068 2.142 0.25402 0.297987 0.920151 255 0 0 255
-0.08223 0.480462 2.141 0.431466 0.208328 0.877745 255 0 0 255
-0.076277 0.479796 2.138 0.614987 0.166118 0.770841 255 0 0 255
-0.070242 0.478456 2.132 0.665037 0.160164 0.729434 255 0 0 255
-0.064239 0.477115 2.126 0.416242 0.155719 0.895821 255 0 0 255
-0.058406 0.476895 2.125 0.0914389 0.228143 0.969324 255 0 0 255
-0.052603 0.4769 2.125 -0.0298051 0.241176 0.970024 255 0 0 255
-0.0468 0.476904 2.125 0.177514 0.206666 0.962174 255 0 0 255
-0.040958 0.476459 2.123 0.286286 0.172194 0.942544 255 0 0 255
-0.035127 0.476013 2.121 0.180345 0.13181 0.974732 255 0 0 255
-0.029348 0.476241 2.122 0.0313806 0.0605789 0.99767 255 0 0 255
-0.023564 0.476467 2.123 -0.233588 -0.0734551 0.969557 255 0 0 255
-0.017782 0.476918 2.125 -0.184302 -0.232936 0.954868 255 0 0 255
-0.011984 0.477144 2.126 0.000509272 -0.152187 0.988352 255 0 0 255
-0.006172 0.476695 2.124 0.116444 -0.217886 0.969003 255 0 0 255
-0.000371 0.476471 2.123 -0.0283298 -0.134402 0.990522 255 0 0 255
0.00543 0.476696 2.124 -0.165437 -0.161539 0.972901 255 0 0 255
0.011237 0.476919 2.125 -0.137721 -0.210108 0.967929 255 0 0 255
0.017048 0.477143 2.126 -0.0315822 -0.332976 0.942406 255 0 0 255
0.022844 0.476916 2.125 -0.0541422 -0.261701 0.963629 255 0 0 255
0.028675 0.477363 2.127 -0.0384365 -0.311923 0.94933 255 0 0 255
0.034467 0.477136 2.126 -0.00979661 -0.313216 0.949631 255 0 0 255
0.040293 0.477357 2.127 0.170158 -0.21128 0.9625 255 0 0 255
0.046036 0.47668 2.124 0.21407 0.0143124 0.976713 255 0 0 255
0.051837 0.476676 2.124 -0.177227 0.188205 0.966007 255 0 0 255
0.057691 0.47712 2.126 -0.385385 0.119381 0.915001 255 0 0 255
0.063586 0.477789 2.129 -0.283514 0.0236016 0.958678 255 0 0 255
0.0694 0.477783 2.129 0.0293254 0.127406 0.991417 255 0 0 255
0.075178 0.477553 2.128 -0.0599395 0.2283 0.971744 255 0 0 255
0.081026 0.47777 2.129 -0.33181 0.20265 0.921323 255 0 0 255
0.086962 0.478437 2.132 -0.462305 0.185267 0.867151 255 0 0 255
0.092913 0.479102 2.135 -0.263826 0.181622 0.947317 255 0 0 255
0.098742 0.479094 2.135 0.23505 0.139989 0.96185 255 0 0 255
0.104472 0.478637 2.133 0.36336 0.118606 0.924068 255 0 0 255
0.110191 0.478179 2.131 0.0594253 0.176034 0.982589 255 0 0 255
0.116117 0.478619 2.133 -0.255989 0.232027 0.938421 255 0 0 255
0.122053 0.479058 2.135 -0.308343 0.258137 0.915582 255 0 0 255
0.128 0.479496 2.137 -0.204121 0.323835 0.923832 255 0 0 255
0.133832 0.479485 2.137 -0.285474 0.277331 0.917383 255 0 0 255
0.13986 0.480147 2.14 -0.375784 0.27488 0.885002 255 0 0 255
0.145836 0.480584 2.142 -0.281943 0.231332 0.931125 255 0 0 255
0.151751 0.480797 2.143 -0.332246 0.160562 0.929426 255 0 0 255
0.157745 0.481233 2.145 -0.476872 0.126321 0.869848 255 0 0 255
0.163978 0.482341 2.15 -0.675511 -0.0327417 0.736623 255 0 0 255
0.170396 0.483898 2.157 -0.749191 -0.073337 0.658281 255 0 0 255
0.177015 0.485903 2.166 -0.835788 -0.0466501 0.547067 255 0 0 255
-0.14111 0.598001 2.29094 0.398432 -0.577592 -0.712488 255 255 0 255
-0.126958 0.596864 2.28794 -0.155898 -0.776507 -0.610519 255 255 0 255
-0.113696 0.595678 2.2844 -0.0795805 -0.719601 -0.689812 255 255 0 255
-0.104794 0.594198 2.27783 0.147128 -0.634906 -0.758451 255 255 0 255
-0.071231 0.590293 2.2633 -0.532296 -0.396777 -0.747816 255 255 0 255
-0.06238 0.58884 2.25688 -0.31109 -0.452656 -0.835659 255 255 0 255
-0.024875 0.58742 2.2586 -0.145665 -0.335618 -0.930668 255 255 0 255
-0.007462 0.586639 2.25865 -0.264393 -0.306921 -0.914274 255 255 0 255
0.002177 0.585291 2.25306 -0.308096 -0.365284 -0.878433 255 255 0 255
0.016101 0.584275 2.25069 -0.0498996 -0.332217 -0.941882 255 255 0 255
0.034297 0.583599 2.25158 -0.2204 -0.117395 -0.968319 255 255 0 255
0.0456 0.582411 2.24742 -0.402368 -0.130466 -0.906134 255 255 0 255
0.054316 0.581033 2.24137 -0.635907 -0.305758 -0.708614 255 255 0 255
0.062164 0.579594 2.2347 -0.518793 -0.513664 -0.683376 255 255 0 255
0.073425 0.578429 2.23065 -0.483995 -0.519627 -0.704086 255 255 0 255
0.082106 0.577071 2.22469 -0.692473 -0.409531 -0.59394 255 255 0 255
0.089924 0.57565 2.21811 -0.791354 -0.232635 -0.565367 255 255 0 255
0.093471 0.573891 2.20826 -0.711457 -0.436864 -0.550436 255 255 0 255
0.094463 0.571926 2.19643 0.683363 0.727616 -0.0599113 255 255 0 255
0.092058 0.569681 2.18194 -0.855825 -0.51039 -0.0840588 255 255 0 255
-0.19495 0.500565 2.18133 0.4233 0.781677 -0.458038 0 255 0 255
-0.213064 0.505638 2.20683 -0.866193 -0.129356 -0.482677 0 255 0 255
-0.224191 0.509699 2.22707 -0.914499 0.0128126 -0.404386 0 255 0 255
-0.230949 0.51313 2.24403 -0.947832 0.300047 -0.107639 0 255 0 255
-0.232447 0.515817 2.25712 0.903631 -0.402606 -0.146147 0 255 0 255
-0.225151 0.517281 2.26383 0.499729 -0.45241 -0.738644 0 255 0 255
-0.211681 0.517903 2.26615 0.509824 -0.563205 -0.650291 0 255 0 255
-0.204365 0.519384 2.27293 0.630462 -0.468572 -0.618836 0 255 0 255
-0.197925 0.520992 2.28035 0.486483 -0.459335 -0.743199 0 255 0 255
-0.186179 0.521886 2.28406 0.415365 -0.147927 -0.897547 0 255 0 255
-0.177955 0.523269 2.29029 0.557051 -0.270808 -0.785084 0 255 0 255
-0.168838 0.524541 2.29594 0.513996 -0.373062 -0.77242 0 255 0 255
-0.160595 0.525939 2.30224 0.372124 -0.434988 -0.819944 0 255 0 255
-0.146141 0.526523 2.30427 0.221028 -0.125137 -0.967206 0 255 0 255
-0.132554 0.527238 2.30697 0.36038 0.0239083 -0.932499 0 255 0 255
-0.119838 0.528083 2.31034 0.13275 -0.377458 -0.916462 0 255 0 255
-0.110658 0.529405 2.31619 0.0480764 -0.34579 -0.937079 0 255 0 255
-0.10058 0.530619 2.32147 0.326031 -0.115213 -0.938312 0 255 0 255
-0.088709 0.531614 2.32559 0.387387 -0.0424669 -0.920938 0 255 0 255
-0.292433 0.493882 2.23 0.857786 0.103382 0.503504 255 0 0 255
-0.28482 0.491246 2.218 0.844777 0.258835 0.468354 255 0 0 255
-0.277271 0.488609 2.206 0.814859 0.303241 0.494014 255 0 0 255
-0.270157 0.486636 2.197 0.70902 0.218833 0.670375 255 0 0 255
-0.263572 0.485548 2.192 0.444035 0.211108 0.870785 255 0 0 255
-0.257483 0.485346 2.191 -0.0264376 0.216206 0.97599 255 0 0 255
-0.251629 0.485587 2.192 0.156884 0.448869 0.879718 255 0 0 255
-0.24532 0.484942 2.189 0.345676 0.519946 0.78113 255 0 0 255
-0.239136 0.484517 2.187 0.496995 0.477768 0.724385 255 0 0 255
-0.232536 0.483206 2.181 0.330746 0.387249 0.860607 255 0 0 255
-0.226592 0.483224 2.181 0.231167 0.271025 0.934402 255 0 0 255
-0.220546 0.483019 2.18 0.284597 0.200576 0.937429 255 0 0 255
-0.214504 0.482815 2.179 0.563776 0.133292 0.815101 255 0 0 255
-0.207798 0.481059 2.171 0.701421 0.145902 0.697654 255 0 0 255
-0.201321 0.479745 2.165 0.643429 0.120982 0.755885 255 0 0 255
-0.194966 0.478653 2.16 0.544673 0.108882 0.83155 255 0 0 255
-0.188725 0.477782 2.156 0.455277 0.0511591 0.888879 255 0 0 255
-0.182675 0.477353 2.154 0.332791 0.106405 0.936978 255 0 0 255
-0.176718 0.477146 2.153 0.300015 0.130815 0.944922 255 0 0 255
-0.170686 0.476717 2.151 0.249802 0.119794 0.960858 255 0 0 255
-0.164741 0.476509 2.15 0.114891 0.0264813 0.993025 255 0 0 255
-0.158801 0.4763 2.149 0.113089 -0.0154383 0.993465 255 0 0 255
-0.152867 0.476091 2.148 0.168865 -0.0885063 0.981658 255 0 0 255
-0.146937 0.475881 2.147 0.103353 -0.203376 0.97363 255 0 0 255
-0.141078 0.475893 2.147 0.00113898 -0.288767 0.957399 255 0 0 255
-0.135281 0.476126 2.148 -0.00844105 -0.24718 0.968933 255 0 0 255
-0.129359 0.475915 2.147 -0.00222795 -0.196226 0.980556 255 0 0 255
-0.123556 0.476147 2.148 0.0573277 -0.0972599 0.993607 255 0 0 255
-0.117583 0.475714 2.146 0.142983 -0.00991177 0.989676 255 0 0 255
-0.111725 0.475723 2.146 0.145191 0.113369 0.982887 255 0 0 255
-0.105768 0.475289 2.144 0.0312625 0.215966 0.9759 255 0 0 255
-0.100007 0.475741 2.146 -0.0590309 0.24651 0.967341 255 0 0 255
-0.094148 0.475749 2.146 0.118116 0.27208 0.954998 255 0 0 255
-0.088248 0.475535 2.145 0.314861 0.20941 0.925748 255 0 0 255
-0.082275 0.474877 2.142 0.465338 0.105901 0.878775 255 0 0 255
-0.076284 0.473997 2.138 0.584962 0.0908798 0.805953 255 0 0 255
-0.070281 0.472894 2.133 0.636148 0.190789 0.747606 255 0 0 255
-0.064305 0.471791 2.128 0.473084 0.310397 0.824527 255 0 0 255
-0.058438 0.471353 2.126 0.120379 0.37956 0.917302 255 0 0 255
-0.052657 0.47158 2.127 0.0308785 0.307451 0.951063 255 0 0 255
-0.046848 0.471584 2.127 0.234751 0.236426 0.942865 255 0 0 255
-0.041 0.471144 2.125 0.28405 0.236503 0.929183 255 0 0 255
-0.035179 0.470925 2.124 0.262868 0.162391 0.951068 255 0 0 255
-0.029337 0.470263 2.121 0.0638157 0.136287 0.988612 255 0 0 255
-0.023543 0.470265 2.121 -0.187176 0.103007 0.976911 255 0 0 255
-0.017759 0.470489 2.122 -0.24271 0.0607623 0.968194 255 0 0 255
-0.011974 0.470933 2.124 0.0331642 0.0465989 0.998363 255 0 0 255
-0.006169 0.470713 2.123 0.174611 -0.00402662 0.984629 255 0 0 255
-0.000371 0.470713 2.123 -0.0580175 0.0133942 0.998226 255 0 0 255
0.005431 0.470934 2.124 -0.0725352 0.0268762 0.997004 255 0 0 255
0.011232 0.470934 2.124 -0.0861788 -0.0377172 0.995566 255 0 0 255
0.017034 0.470932 2.124 -0.000148045 -0.013422 0.99991 255 0 0 255
0.022835 0.470931 2.124 -0.0591782 -0.0302757 0.997788 255 0 0 255
0.02865 0.47115 2.125 0.0451316 -0.149479 0.987734 255 0 0 255
0.034438 0.470926 2.124 0.0635125 -0.222704 0.972815 255 0 0 255
0.040239 0.470923 2.124 -0.00791941 -0.130023 0.991479 255 0 0 255
0.04604 0.470919 2.124 -0.0653171 0.0761534 0.994954 255 0 0 255
0.051865 0.471137 2.125 -0.204474 0.252556 0.945731 255 0 0 255
0.057696 0.471354 2.126 -0.288273 0.210648 0.934091 255 0 0 255
0.063562 0.471792 2.128 -0.23564 0.199162 0.951214 255 0 0 255
0.069438 0.47223 2.13 -0.0901657 0.160191 0.982959 255 0 0 255
0.075255 0.472224 2.13 -0.148215 0.291002 0.945172 255 0 0 255
0.081109 0.472439 2.131 -0.354181 0.324612 0.877031 255 0 0 255
0.08705 0.473097 2.134 -0.419413 0.30357 0.855534 255 0 0 255
0.093008 0.473755 2.137 -0.182057 0.222862 0.957699 255 0 0 255
0.098796 0.473525 2.136 0.234278 0.23945 0.94222 255 0 0 255
0.104481 0.472852 2.133 0.316923 0.231611 0.919737 255 0 0 255
0.110252 0.472621 2.132 -0.0325349 0.325385 0.945022 255 0 0 255
0.116127 0.472833 2.133 -0.282815 0.295506 0.91252 255 0 0 255
0.122063 0.473267 2.135 -0.308929 0.299015 0.902858 255 0 0 255
0.128011 0.4737 2.137 -0.203051 0.270676 0.941013 255 0 0 255
0.133906 0.473911 2.138 -0.257203 0.198553 0.94574 255 0 0 255
0.139937 0.474565 2.141 -0.349899 0.187373 0.917858 255 0 0 255
0.145848 0.474775 2.142 -0.254166 0.233504 0.938549 255 0 0 255
0.151763 0.474984 2.143 -0.280747 0.206454 0.937314 255 0 0 255
0.157758 0.475415 2.145 -0.443091 0.136932 0.885957 255 0 0 255
0.163915 0.476289 2.149 -0.65965 0.0666757 0.74861 255 0 0 255
0.170331 0.477827 2.156 -0.773443 0.0159237 0.633666 255 0 0 255
0.176866 0.479586 2.164 -0.790664 -0.0028665 0.612243 255 0 0 255
-0.141885 0.587119 2.29162 0.642607 -0.133471 -0.754481 255 255 0 255
-0.120782 0.586514 2.29348 0.182804 -0.604146 -0.775623 255 255 0 255
-0.106661 0.585422 2.29055 -0.169271 -0.576193 -0.799593 255 255 0 255
-0.095165 0.584151 2.28584 -0.337622 -0.612041 -0.715134 255 255 0 255
-0.07828 0.581183 2.27223 -0.623453 -0.441934 -0.644981 255 255 0 255
-0.069421 0.57974 2.26577 -0.455777 -0.460214 -0.761886 255 255 0 255
-0.057117 0.578565 2.26184 -0.189897 -0.444764 -0.875285 255 255 0 255
-0.036204 0.578059 2.26423 -0.0347944 -0.338712 -0.940247 255 255 0 255
-0.023083 0.576974 2.26105 -0.164596 -0.303955 -0.93836 255 255 0 255
-0.009983 0.5759 2.25793 -0.261799 -0.31736 -0.911452 255 255 0 255
0.001377 0.574702 2.25359 -0.246007 -0.430323 -0.868506 255 255 0 255
0.017876 0.573919 2.25312 -0.123985 -0.236226 -0.963756 255 255 0 255
0.032631 0.573015 2.25145 -0.263735 -0.15448 -0.952145 255 255 0 255
0.041361 0.571642 2.24535 -0.303851 -0.113501 -0.945935 255 255 0 255
0.056075 0.570759 2.24378 -0.37715 -0.18171 -0.908152 255 255 0 255
0.063066 0.569264 2.23646 -0.492573 -0.422961 -0.760576 255 255 0 255
0.077742 0.568402 2.23501 -0.60266 -0.419764 -0.678674 255 255 0 255
0.079588 0.566496 2.22384 -0.826633 -0.278711 -0.488874 255 255 0 255
0.086554 0.565015 2.21658 -0.783378 -0.212908 -0.583942 255 255 0 255
0.094366 0.56361 2.21001 -0.671563 -0.430798 -0.60284 255 255 0 255
0.108126 0.562712 2.20807 -0.408127 -0.680002 -0.609122 255 255 0 255
0.108262 0.560671 2.1956 0.648873 0.755918 -0.0868974 255 255 0 255
0.098215 0.557756 2.17514 -0.745917 -0.56686 -0.349683 255 255 0 255
-0.211646 0.495102 2.20697 -0.809741 0.474721 -0.344904 0 255 0 255
-0.232146 0.503046 2.24609 -0.94782 0.303731 -0.0968725 0 255 0 255
-0.231883 0.505496 2.2579 0.842434 -0.290839 -0.453561 0 255 0 255
-0.226346 0.507199 2.26589 0.617593 -0.299094 -0.727408 0 255 0 255
-0.216404 0.508286 2.27074 0.612162 -0.474607 -0.63246 0 255 0 255
-0.210856 0.51 2.27877 0.567688 -0.506497 -0.648992 0 255 0 255
-0.200894 0.511104 2.28368 0.300263 -0.338962 -0.891598 0 255 0 255
-0.184741 0.511362 2.28427 0.374388 -0.0861242 -0.923264 0 255 0 255
-0.176517 0.512732 2.29052 0.686736 -0.0369478 -0.725967 0 255 0 255
-0.170938 0.514473 2.29865 0.609067 -0.00688863 -0.793088 0 255 0 255
-0.162699 0.515856 2.30495 0.319824 -0.0330478 -0.946901 0 255 0 255
-0.145595 0.516046 2.30515 0.135412 -0.053461 -0.989346 0 255 0 255
-0.132899 0.516852 2.30848 0.492208 -0.145792 -0.858182 0 255 0 255
-0.122848 0.518027 2.31368 0.467279 -0.376168 -0.800092 0 255 0 255
-0.109235 0.518739 2.31651 0.172922 -0.166266 -0.9708 0 255 0 255
-0.096491 0.519582 2.32 0.459131 0.143283 -0.876737 0 255 0 255
-0.292585 0.488053 2.231 0.796738 0.00553813 0.604299 255 0 0 255
-0.284969 0.485449 2.219 0.779432 0.121573 0.614577 255 0 0 255
-0.277795 0.483501 2.21 0.81852 0.237668 0.52301 255 0 0 255
-0.270423 0.481114 2.199 0.770433 0.169081 0.61469 255 0 0 255
-0.263591 0.479603 2.192 0.486541 0.152229 0.860293 255 0 0 255
-0.257502 0.479404 2.191 -0.14623 0.258137 0.954978 255 0 0 255
-0.251877 0.480079 2.194 -0.102486 0.441325 0.891476 255 0 0 255
-0.245787 0.479879 2.193 0.0760295 0.596329 0.799131 255 0 0 255
-0.239701 0.479679 2.192 0.422479 0.590755 0.687401 255 0 0 255
-0.232981 0.478165 2.185 0.558567 0.425198 0.712187 255 0 0 255
-0.226713 0.477526 2.182 0.427798 0.273992 0.861346 255 0 0 255
-0.220462 0.476887 2.179 0.342824 0.0316403 0.938867 255 0 0 255
-0.214324 0.476466 2.177 0.52633 0.0485586 0.848893 255 0 0 255
-0.20791 0.475389 2.172 0.6452 0.0726606 0.76055 255 0 0 255
-0.201429 0.474091 2.166 0.649763 0.21153 0.730111 255 0 0 255
-0.195071 0.473013 2.161 0.58307 0.178517 0.792566 255 0 0 255
-0.188827 0.472152 2.157 0.456426 0.231661 0.859074 255 0 0 255
-0.182774 0.471729 2.155 0.301248 0.23639 0.92378 255 0 0 255
-0.176814 0.471524 2.154 0.300432 0.192637 0.934148 255 0 0 255
-0.170779 0.471101 2.152 0.322628 0.126378 0.938051 255 0 0 255
-0.164754 0.470676 2.15 0.223502 0.0464199 0.973597 255 0 0 255
-0.158888 0.470689 2.15 0.167289 -0.047236 0.984776 255 0 0 255
-0.15295 0.470483 2.149 0.243194 -0.0695384 0.967482 255 0 0 255
-0.14688 0.469838 2.146 0.228455 -0.0305014 0.973076 255 0 0 255
-0.140892 0.469412 2.144 0.0318248 -0.109167 0.993514 255 0 0 255
-0.135103 0.469642 2.145 -0.0834914 -0.108206 0.990616 255 0 0 255
-0.129309 0.469872 2.146 -0.0552615 -0.0904873 0.994363 255 0 0 255
-0.123451 0.469882 2.146 0.058596 -0.0495565 0.997051 255 0 0 255
-0.117593 0.469892 2.146 0.0850299 -0.0722065 0.993759 255 0 0 255
-0.111734 0.469902 2.146 0.0585308 -0.00621719 0.998266 255 0 0 255
-0.105875 0.469911 2.146 -0.058349 0.0833171 0.994813 255 0 0 255
-0.100062 0.470138 2.147 -0.0584751 0.08331 0.994807 255 0 0 255
-0.094156 0.469927 2.146 0.118612 0.0648586 0.99082 255 0 0 255
-0.088255 0.469716 2.145 0.357072 0.0214878 0.93383 255 0 0 255
-0.082244 0.468847 2.141 0.47572 0.0229326 0.879298 255 0 0 255
-0.07629 0.468196 2.138 0.542645 0.124985 0.830612 255 0 0 255
-0.070319 0.467327 2.134 0.545209 0.223675 0.807909 255 0 0 255
-0.064431 0.466894 2.132 0.404695 0.321393 0.856112 255 0 0 255
-0.058553 0.466461 2.13 0.182448 0.340981 0.922196 255 0 0 255
-0.052735 0.466466 2.13 0.0928029 0.24277 0.965635 255 0 0 255
-0.046874 0.466032 2.128 0.282763 0.228829 0.931495 255 0 0 255
-0.041023 0.465598 2.126 0.256142 0.213271 0.942819 255 0 0 255
-0.035199 0.465382 2.125 0.308788 0.202831 0.929252 255 0 0 255
-0.029353 0.464728 2.122 0.124087 0.261706 0.957138 255 0 0 255
-0.023579 0.465168 2.124 -0.145841 0.338755 0.929503 255 0 0 255
-0.017777 0.46517 2.124 -0.174499 0.333641 0.926409 255 0 0 255
-0.011986 0.465609 2.126 0.0623446 0.23695 0.969519 255 0 0 255
-0.00617 0.464953 2.123 0.17802 0.147748 0.972872 255 0 0 255
-0.000371 0.465172 2.124 -0.0292162 0.0352961 0.99895 255 0 0 255
0.005431 0.465172 2.124 -0.0586456 0.0346494 0.997677 255 0 0 255
0.011239 0.46539 2.125 -0.0863516 -0.0268685 0.995902 255 0 0 255
0.017043 0.465389 2.125 -0.0476094 0.0866324 0.995102 255 0 0 255
0.022848 0.465387 2.125 -0.000182566 0.0270522 0.999634 255 0 0 255
0.028653 0.465385 2.125 0.111971 -0.00480762 0.9937 255 0 0 255
0.034425 0.464945 2.123 0.0857272 -0.0519185 0.994965 255 0 0 255
0.040242 0.46516 2.124 -0.175014 0.0253339 0.98424 255 0 0 255
0.046087 0.465595 2.126 -0.315767 0.130011 0.939887 255 0 0 255
0.051943 0.466029 2.128 -0.284581 0.28461 0.915429 255 0 0 255
0.057782 0.466243 2.129 -0.228611 0.316715 0.920559 255 0 0 255
0.063627 0.466457 2.13 -0.152386 0.202963 0.967256 255 0 0 255
0.069444 0.466451 2.13 -0.147799 0.188256 0.970935 255 0 0 255
0.075332 0.466883 2.132 -0.284317 0.255338 0.924103 255 0 0 255
0.08123 0.467315 2.134 -0.415489 0.375036 0.828684 255 0 0 255
0.08718 0.467965 2.137 -0.393074 0.378211 0.838122 255 0 0 255
0.093059 0.468176 2.138 -0.0326309 0.310416 0.95004 255 0 0 255
0.098897 0.468168 2.138 0.316346 0.223912 0.92184 255 0 0 255
0.104636 0.467722 2.136 0.236527 0.26905 0.933631 255 0 0 255
0.110416 0.467494 2.135 -0.0891885 0.373838 0.923196 255 0 0 255
0.116354 0.467923 2.137 -0.249856 0.380385 0.890438 255 0 0 255
0.122245 0.468132 2.138 -0.25751 0.307858 0.915922 255 0 0 255
0.128201 0.46856 2.14 -0.176241 0.254423 0.950899 255 0 0 255
0.134042 0.468549 2.14 -0.254643 0.240944 0.936538 255 0 0 255
0.140014 0.468976 2.142 -0.325707 0.189362 0.926314 255 0 0 255
0.145996 0.469402 2.144 -0.305108 0.225173 0.925314 255 0 0 255
0.151988 0.469828 2.146 -0.375294 0.331416 0.865632 255 0 0 255
0.157991 0.470253 2.148 -0.412574 0.365391 0.834429 255 0 0 255
0.164005 0.470678 2.15 -0.61704 0.271507 0.73861 255 0 0 255
0.170424 0.472197 2.157 -0.757613 0.137753 0.638003 255 0 0 255
0.177044 0.474153 2.166 -0.825161 0.0359425 0.563752 255 0 0 255
0.183966 0.476766 2.178 -0.809381 -0.0894233 0.580437 255 0 0 255
-0.130482 0.57713 2.30078 0.147784 -0.371885 -0.91644 255 255 0 255
-0.110266 0.576516 2.30205 0.150082 -0.300811 -0.9418 255 255 0 255
-0.094425 0.575592 2.30037 -0.276828 -0.451152 -0.848427 255 255 0 255
-0.086411 0.574084 2.29323 -0.50231 -0.476501 -0.721547 255 255 0 255
-0.082736 0.572249 2.28304 -0.631259 -0.551753 -0.545052 255 255 0 255
-0.074737 0.570749 2.27594 -0.614843 -0.658994 -0.433237 255 255 0 255
-0.064154 0.569458 2.27073 -0.510056 -0.684458 -0.520922 255 255 0 255
-0.050995 0.568378 2.26742 -0.169553 -0.517019 -0.839013 255 255 0 255
-0.030958 0.567858 2.26918 -0.0407861 -0.460529 -0.886707 255 255 0 255
-0.018708 0.566734 2.26538 -0.120516 -0.384424 -0.915257 255 255 0 255
-0.003894 0.565829 2.26352 -0.162469 -0.500207 -0.850528 255 255 0 255
0.010036 0.564866 2.2611 -0.240842 -0.515776 -0.822174 255 255 0 255
0.022227 0.563774 2.25746 -0.437093 -0.281002 -0.854393 255 255 0 255
0.032684 0.56255 2.25259 -0.333742 -0.150187 -0.930623 255 255 0 255
0.041413 0.561193 2.24648 -0.305082 -0.158287 -0.939079 255 255 0 255
0.058691 0.560557 2.24684 -0.223456 -0.347771 -0.910562 255 255 0 255
0.066534 0.559144 2.24017 -0.433412 -0.512448 -0.741317 255 255 0 255
0.082057 0.558389 2.23936 -0.678401 -0.523351 -0.515632 255 255 0 255
0.084754 0.556553 2.22885 -0.811684 -0.441263 -0.382696 255 255 0 255
0.089157 0.554864 2.21964 -0.664821 -0.366173 -0.651099 255 255 0 255
0.098669 0.553619 2.21438 -0.336924 -0.489265 -0.804427 255 255 0 255
0.117524 0.5532 2.21639 -0.297683 -0.575463 -0.761727 255 255 0 255
0.121902 0.551526 2.20725 0.955701 0.293806 -0.0176937 255 255 0 255
0.111 0.548499 2.18618 0.835135 0.321479 -0.446319 255 255 0 255
-0.218994 0.485837 2.21355 -0.669189 0.677145 -0.306041 0 255 0 255
-0.233614 0.490495 2.23632 -0.880031 0.300261 -0.367951 0 255 0 255
-0.238609 0.493724 2.25197 0.874826 -0.44558 -0.1901 0 255 0 255
-0.233957 0.495543 2.26059 0.733958 -0.456654 -0.502765 0 255 0 255
-0.226664 0.496984 2.26731 0.660966 -0.262992 -0.702822 0 255 0 255
-0.219364 0.498432 2.27406 0.687144 -0.156426 -0.709482 0 255 0 255
-0.21558 0.500389 2.28334 0.604587 -0.145052 -0.783221 0 255 0 255
-0.202099 0.50097 2.28575 0.176948 -0.241486 -0.954135 0 255 0 255
-0.18419 0.500942 2.28511 0.333262 -0.216299 -0.917688 0 255 0 255
-0.175085 0.502174 2.29075 0.576435 -0.11044 -0.809645 0 255 0 255
-0.171271 0.504157 2.30013 0.594385 0.0121861 -0.804088 0 255 0 255
-0.156843 0.504664 2.30213 0.25264 0.201709 -0.946302 0 255 0 255
-0.143282 0.505309 2.30481 0.367276 0.174338 -0.913627 0 255 0 255
-0.128817 0.505846 2.30694 0.541656 0.125361 -0.8312 0 255 0 255
-0.124972 0.507855 2.31642 0.618612 -0.164436 -0.768297 0 255 0 255
-0.110477 0.508415 2.31865 0.113773 -0.344194 -0.93198 0 255 0 255
-0.095963 0.50899 2.32094 0.35168 -0.198146 -0.914909 0 255 0 255
-0.086763 0.510299 2.32689 0.154716 -0.201621 -0.967167 0 255 0 255
-0.292082 0.481136 2.227 0.789281 0.0346232 0.613056 255 0 0 255
-0.285118 0.479645 2.22 0.718743 0.155053 0.677767 255 0 0 255
-0.278193 0.478153 2.213 0.805837 0.188687 0.561269 255 0 0 255
-0.270689 0.475581 2.201 0.777578 0.185584 0.600775 255 0 0 255
-0.263852 0.474088 2.194 0.518716 0.239111 0.820829 255 0 0 255
-0.257757 0.473892 2.193 -0.288895 0.366443 0.884454 255 0 0 255
-0.252241 0.474775 2.197 -0.311029 0.448655 0.837837 255 0 0 255
-0.246254 0.474794 2.197 -0.0591262 0.599867 0.797912 255 0 0 255
-0.240157 0.474597 2.196 0.404226 0.562942 0.720901 255 0 0 255
-0.233425 0.473102 2.189 0.655644 0.409711 0.634247 255 0 0 255
-0.226835 0.471823 2.183 0.557126 0.279629 0.781932 255 0 0 255
-0.22058 0.471192 2.18 0.526287 0.132284 0.839954 255 0 0 255
-0.214341 0.47056 2.177 0.53649 0.025966 0.843507 255 0 0 255
-0.208118 0.469928 2.174 0.601763 0.0169639 0.798494 255 0 0 255
-0.201631 0.468647 2.168 0.626225 0.0602727 0.777309 255 0 0 255
-0.195357 0.467798 2.164 0.544382 0.141209 0.826867 255 0 0 255
-0.189105 0.466948 2.16 0.43787 0.193192 0.878036 255 0 0 255
-0.183043 0.466531 2.158 0.324735 0.223604 0.918993 255 0 0 255
-0.17691 0.465897 2.155 0.323087 0.176881 0.929692 255 0 0 255
-0.170872 0.465478 2.153 0.389502 0.111934 0.914198 255 0 0 255
-0.164768 0.464843 2.15 0.306073 0.0810012 0.948556 255 0 0 255
-0.158827 0.46464 2.149 0.19664 -0.0240579 0.980181 255 0 0 255
-0.15282 0.46422 2.147 0.223442 -0.0489171 0.973489 255 0 0 255
-0.146892 0.464016 2.146 0.230962 0.0801375 0.969657 255 0 0 255
-0.140969 0.463811 2.145 0.117394 0.165003 0.979282 255 0 0 255
-0.135114 0.463822 2.145 -0.117038 0.153446 0.981202 255 0 0 255
-0.129319 0.464049 2.146 -0.0870505 0.0870247 0.992396 255 0 0 255
-0.123461 0.46406 2.146 0.0871185 0.0486513 0.995009 255 0 0 255
-0.117547 0.463853 2.145 0.141563 -0.0696489 0.987476 255 0 0 255
-0.111691 0.463863 2.145 0.0145446 -0.223351 0.97463 255 0 0 255
-0.105834 0.463871 2.145 -0.0539665 -0.177676 0.982608 255 0 0 255
-0.100024 0.464096 2.146 -0.0254589 -0.226314 0.973722 255 0 0 255
-0.09412 0.463888 2.145 0.037324 -0.218975 0.975016 255 0 0 255
-0.088262 0.463895 2.145 0.276152 -0.101126 0.955779 255 0 0 255
-0.082251 0.463037 2.141 0.40046 0.018705 0.916123 255 0 0 255
-0.076368 0.462828 2.14 0.486585 0.110993 0.866554 255 0 0 255
-0.070358 0.461752 2.135 0.468497 0.217051 0.856387 255 0 0 255
-0.064497 0.461542 2.134 0.330279 0.20603 0.921123 255 0 0 255
-0.058585 0.460898 2.131 0.285395 0.0952156 0.953668 255 0 0 255
-0.052765 0.460903 2.131 0.263734 0.102283 0.959157 255 0 0 255
-0.046899 0.460474 2.129 0.30744 0.0387117 0.95078 255 0 0 255
-0.041045 0.460045 2.127 0.17643 0.0952383 0.979695 255 0 0 255
-0.035218 0.459832 2.126 0.23192 0.174914 0.956879 255 0 0 255
-0.029383 0.459402 2.124 0.0310477 0.307973 0.950888 255 0 0 255
-0.023603 0.459837 2.126 -0.178949 0.226242 0.957492 255 0 0 255
-0.017795 0.459839 2.126 -0.0896588 0.176099 0.980281 255 0 0 255
-0.011993 0.460056 2.127 0.151111 0.200498 0.96797 255 0 0 255
-0.006173 0.459408 2.124 0.205238 0.117325 0.971654 255 0 0 255
-0.000371 0.459409 2.124 0.0297896 0.131755 0.990835 255 0 0 255
0.005429 0.459192 2.123 -0.0294357 0.0231341 0.999299 255 0 0 255
0.011234 0.459408 2.124 -0.0586125 0.0121142 0.998207 255 0 0 255
0.017045 0.459623 2.125 -0.0293408 -0.0136002 0.999477 255 0 0 255
0.022861 0.459837 2.126 0.0287965 -0.0352741 0.998963 255 0 0 255
0.028641 0.459403 2.124 0.145038 0.00473346 0.989415 255 0 0 255
0.034427 0.459184 2.123 0.0299692 0.118764 0.99247 255 0 0 255
0.040227 0.459181 2.123 -0.232462 0.116113 0.96565 255 0 0 255
0.046091 0.459826 2.126 -0.404641 0.118922 0.90671 255 0 0 255
0.051972 0.460471 2.129 -0.357089 0.114582 0.927016 255 0 0 255
0.057841 0.460899 2.131 -0.256621 0.190669 0.947518 255 0 0 255
0.063692 0.46111 2.132 -0.0606833 0.250362 0.966249 255 0 0 255
0.069482 0.460888 2.131 -0.121016 0.233623 0.964767 255 0 0 255
0.075373 0.461315 2.133 -0.421231 0.268584 0.866272 255 0 0 255
0.081313 0.461957 2.136 -0.458392 0.29558 0.838158 255 0 0 255
0.08731 0.462815 2.14 -0.293317 0.240096 0.925375 255 0 0 255
0.093197 0.463024 2.141 0.185183 0.12624 0.974562 255 0 0 255
0.098905 0.462367 2.138 0.317401 0.0484762 0.947052 255 0 0 255
0.104645 0.461926 2.136 0.0275595 0.158488 0.986976 255 0 0 255
0.110529 0.462134 2.137 -0.204563 0.151455 0.967065 255 0 0 255
0.116418 0.462341 2.138 -0.282863 0.253054 0.925177 255 0 0 255
0.122369 0.462763 2.14 -0.227523 0.32292 0.918671 255 0 0 255
0.128211 0.462753 2.14 -0.116131 0.345366 0.931255 255 0 0 255
0.134116 0.462959 2.141 -0.200043 0.304327 0.931326 255 0 0 255
0.14009 0.46338 2.143 -0.326512 0.26351 0.907718 255 0 0 255
0.146076 0.463801 2.145 -0.437387 0.334646 0.834688 255 0 0 255
0.152142 0.464437 2.148 -0.460052 0.443462 0.769216 255 0 0 255
0.158298 0.46529 2.152 -0.348127 0.52089 0.779411 255 0 0 255
0.164323 0.465709 2.154 -0.517655 0.427547 0.741105 255 0 0 255
0.170674 0.466993 2.16 -0.69083 0.153584 0.706517 255 0 0 255
0.177058 0.468276 2.166 -0.782254 0.0296788 0.622253 255 0 0 255
0.183811 0.470424 2.176 -0.792492 -0.0920858 0.60289 255 0 0 255
-0.129518 0.566388 2.30267 -0.963841 -0.263152 -0.0419684 255 255 0 255
-0.109311 0.565823 2.30393 0.145324 -0.135634 -0.980043 255 255 0 255
-0.096944 0.564661 2.29979 -0.255234 -0.0165661 -0.966737 255 255 0 255
-0.085463 0.563439 2.29509 -0.648567 -0.122978 -0.751157 255 255 0 255
-0.078326 0.56188 2.28736 -0.547784 -0.542765 -0.636663 255 255 0 255
-0.066007 0.560743 2.28335 -0.544465 -0.599704 -0.586441 255 255 0 255
-0.059754 0.559125 2.27505 -0.500612 -0.583217 -0.639723 255 255 0 255
-0.047466 0.558005 2.27113 -0.19039 -0.595787 -0.78025 255 255 0 255
-0.031749 0.557179 2.26976 -0.0294138 -0.522948 -0.851857 255 255 0 255
-0.01089 0.556796 2.27222 -0.0768421 -0.65501 -0.751703 255 255 0 255
0.005631 0.556071 2.27164 -0.270348 -0.746128 -0.608445 255 255 0 255
0.017829 0.554999 2.26796 -0.516775 -0.586067 -0.624075 255 255 0 255
0.020568 0.553134 2.25734 -0.510783 -0.470694 -0.719408 255 255 0 255
0.034454 0.552222 2.25501 -0.462952 -0.245404 -0.851735 255 255 0 255
0.045749 0.551101 2.25082 -0.142335 -0.395296 -0.907459 255 255 0 255
0.063018 0.550509 2.25118 -0.245191 -0.45026 -0.858573 255 255 0 255
0.07342 0.549334 2.24645 -0.472843 -0.541218 -0.695344 255 255 0 255
0.084661 0.548242 2.2424 -0.751893 -0.368409 -0.546747 255 255 0 255
0.087357 0.546403 2.2319 -0.697509 -0.577852 -0.423755 255 255 0 255
0.092611 0.544793 2.22335 -0.665915 -0.606092 -0.434982 255 255 0 255
0.102968 0.543644 2.21874 -0.329213 -0.474178 -0.816562 255 255 0 255
0.120113 0.543118 2.21944 -0.566544 -0.267925 -0.779259 255 255 0 255
0.122791 0.541292 2.20899 -0.911638 0.304533 -0.275999 255 255 0 255
0.114441 0.538454 2.1899 0.937411 -0.0650115 -0.342103 255 255 0 255
-0.241825 0.48144 2.24349 -0.932555 0.316874 -0.173006 0 255 0 255
-0.244191 0.484298 2.25721 0.805029 -0.450758 -0.385675 0 255 0 255
-0.237786 0.48585 2.26455 0.616368 -0.430732 -0.659212 0 255 0 255
-0.227863 0.48689 2.26937 0.54153 -0.39194 -0.743726 0 255 0 255
-0.217927 0.487939 2.27424 0.544735 -0.183044 -0.818388 0 255 0 255
-0.2115 0.489511 2.28165 0.593629 -0.0937068 -0.799264 0 255 0 255
-0.201544 0.490577 2.28658 0.379505 -0.288001 -0.879222 0 255 0 255
-0.189813 0.491397 2.29031 0.195374 -0.338361 -0.920511 0 255 0 255
-0.177185 0.492103 2.29346 0.413906 -0.129516 -0.901059 0 255 0 255
-0.166308 0.493074 2.29791 0.198396 0.0558882 -0.978527 0 255 0 255
-0.14923 0.493175 2.2981 0.188926 0.120163 -0.974612 0 255 0 255
-0.135667 0.493795 2.30081 0.502721 0.0947699 -0.859238 0 255 0 255
-0.129169 0.495426 2.30846 0.649821 0.224646 -0.726131 0 255 0 255
-0.125323 0.497435 2.31794 0.859639 0.166514 -0.483005 0 255 0 255
-0.114381 0.498457 2.32259 -0.139824 -0.291963 -0.946154 0 255 0 255
-0.100764 0.49912 2.32549 0.348777 -0.416772 -0.839438 0 255 0 255
-0.292103 0.475094 2.227 0.731838 0.00433225 0.681464 255 0 0 255
-0.285396 0.474048 2.222 0.678532 0.129774 0.723017 255 0 0 255
-0.278465 0.472576 2.215 0.764389 0.13119 0.631267 255 0 0 255
-0.270709 0.469609 2.201 0.627367 0.262402 0.733182 255 0 0 255
-0.263992 0.468349 2.195 0.451297 0.31954 0.833202 255 0 0 255
-0.258129 0.468582 2.196 -0.31636 0.370492 0.8733 255 0 0 255
-0.252604 0.469454 2.2 -0.357586 0.422742 0.832719 255 0 0 255
-0.246721 0.469687 2.201 0.00084197 0.44249 0.896773 255 0 0 255
-0.240613 0.469492 2.2 0.365179 0.48854 0.792448 255 0 0 255
-0.23387 0.468016 2.193 0.69705 0.356428 0.622158 255 0 0 255
-0.227164 0.46654 2.186 0.648652 0.299508 0.699675 255 0 0 255
-0.220698 0.46549 2.181 0.577426 0.165812 0.799429 255 0 0 255
-0.214161 0.464226 2.175 0.582925 0.0635076 0.81004 255 0 0 255
-0.207847 0.463388 2.171 0.59944 0.0483468 0.798958 255 0 0 255
-0.201461 0.462337 2.166 0.537864 0.137875 0.831681 255 0 0 255
-0.195282 0.461712 2.163 0.510011 0.139554 0.848772 255 0 0 255
-0.18912 0.461087 2.16 0.457453 0.15236 0.876084 255 0 0 255
-0.183058 0.460675 2.158 0.350312 0.180447 0.919087 255 0 0 255
-0.177006 0.460262 2.156 0.27938 0.190383 0.941117 255 0 0 255
-0.170965 0.459849 2.154 0.416773 0.216579 0.882833 255 0 0 255
-0.164781 0.459008 2.15 0.420715 0.164613 0.892133 255 0 0 255
-0.15884 0.458808 2.149 0.326388 0.0916746 0.94078 255 0 0 255
-0.152832 0.458393 2.147 0.174111 0.0531023 0.983293 255 0 0 255
-0.147041 0.458619 2.148 0.0601469 0.118052 0.991184 255 0 0 255
-0.141046 0.458203 2.146 0.0873415 0.231808 0.968833 255 0 0 255
-0.135188 0.458215 2.146 -0.0290793 0.179136 0.983395 255 0 0 255
-0.12939 0.458439 2.147 -0.0287351 0.108499 0.993681 255 0 0 255
-0.123529 0.458449 2.147 0.142702 0.0374949 0.989055 255 0 0 255
-0.117557 0.458032 2.145 0.250298 0.00757861 0.968139 255 0 0 255
-0.111596 0.457614 2.143 0.202017 -0.0737779 0.976599 255 0 0 255
-0.105695 0.45741 2.142 0.0294004 -0.228098 0.973194 255 0 0 255
-0.099892 0.457632 2.143 0.00386034 -0.350192 0.93667 255 0 0 255
-0.09404 0.457639 2.143 -0.0493117 -0.33248 0.94182 255 0 0 255
-0.088228 0.457861 2.144 0.0826758 -0.234541 0.968584 255 0 0 255
-0.082296 0.45744 2.142 0.2553 -0.0121638 0.966785 255 0 0 255
-0.07641 0.457233 2.141 0.429767 0.0841077 0.899014 255 0 0 255
-0.070397 0.456172 2.136 0.451685 0.173225 0.875199 255 0 0 255
-0.064532 0.455964 2.135 0.356288 0.151962 0.921936 255 0 0 255
-0.058618 0.455328 2.132 0.407082 0.0795922 0.909917 255 0 0 255
-0.052744 0.454906 2.13 0.323898 -0.0599608 0.94419 255 0 0 255
-0.046859 0.454269 2.127 0.252418 -0.0489275 0.966381 255 0 0 255
-0.041049 0.454273 2.127 0.0881757 0.0152202 0.995989 255 0 0 255
-0.035238 0.454276 2.127 0.11772 0.119357 0.985848 255 0 0 255
-0.029413 0.454065 2.126 0.0313771 0.214094 0.976309 255 0 0 255
-0.023616 0.454281 2.127 -0.119405 0.149252 0.981563 255 0 0 255
-0.017813 0.454496 2.128 -0.0299973 0.0846148 0.995962 255 0 0 255
-0.011994 0.454284 2.127 0.146896 0.044004 0.988173 255 0 0 255
-0.00618 0.454071 2.126 0.177504 0.117748 0.97705 255 0 0 255
-0.000371 0.453858 2.125 0.118334 0.149468 0.98166 255 0 0 255
0.005435 0.453857 2.125 0.0299979 0.123549 0.991885 255 0 0 255
0.01124 0.453857 2.125 -0.000110151 -0.0503768 0.99873 255 0 0 255
0.017038 0.453642 2.124 -0.0300996 -0.0239513 0.99926 255 0 0 255
0.022841 0.45364 2.124 -0.0296426 -0.0367518 0.998885 255 0 0 255
0.028644 0.453638 2.124 -0.000789724 0.133228 0.991085 255 0 0 255
0.034447 0.453636 2.124 -0.06033 0.221268 0.973345 255 0 0 255
0.040268 0.453846 2.125 -0.149527 0.207538 0.966731 255 0 0 255
0.046095 0.454056 2.126 -0.385696 0.192075 0.902411 255 0 0 255
0.052 0.454906 2.13 -0.399181 0.0820879 0.91319 255 0 0 255
0.057846 0.455115 2.131 -0.358283 0.183303 0.915442 255 0 0 255
0.063757 0.455751 2.134 -0.15494 0.273595 0.949284 255 0 0 255
0.069521 0.455318 2.132 -0.0892801 0.367282 0.925815 255 0 0 255
0.07545 0.455953 2.135 -0.419831 0.312875 0.851969 255 0 0 255
0.081434 0.456801 2.139 -0.431465 0.280298 0.857479 255 0 0 255
0.087358 0.457221 2.141 -0.157201 0.113447 0.981029 255 0 0 255
0.093161 0.457 2.14 0.337622 -0.0660837 0.938959 255 0 0 255
0.09882 0.456138 2.136 0.325545 -0.132543 0.93619 255 0 0 255
0.104653 0.456129 2.136 -0.150088 -0.00359053 0.988666 255 0 0 255
0.110641 0.456761 2.139 -0.281173 0.119583 0.952178 255 0 0 255
0.116536 0.456965 2.14 -0.358176 0.204239 0.911041 255 0 0 255
0.122551 0.457596 2.143 -0.283211 0.330878 0.900173 255 0 0 255
0.128401 0.457586 2.143 -0.115913 0.344693 0.931532 255 0 0 255
0.134314 0.457789 2.144 -0.170053 0.346746 0.922415 255 0 0 255
0.140232 0.457991 2.145 -0.326404 0.319385 0.889637 255 0 0 255
0.146292 0.45862 2.148 -0.525148 0.329302 0.784717 255 0 0 255
0.152508 0.459676 2.153 -0.52445 0.41708 0.742291 255 0 0 255
0.158605 0.460304 2.156 -0.357835 0.464917 0.809819 255 0 0 255
0.164565 0.460505 2.157 -0.421772 0.317534 0.849282 255 0 0 255
0.170767 0.461345 2.161 -0.599497 0.148481 0.786484 255 0 0 255
0.177072 0.462399 2.166 -0.710057 -0.069859 0.70067 255 0 0 255
0.183741 0.464306 2.175 -0.767054 -0.126459 0.628996 255 0 0 255
0.190198 0.465572 2.181 -0.824637 -0.0737017 0.560841 255 0 0 255
-0.125079 0.55592 2.30698 -0.513909 -0.623644 -0.589038 255 255 0 255
-0.114429 0.55463 2.30156 0.0529666 -0.0331269 -0.998047 255 255 0 255
-0.09946 0.553703 2.29922 -0.200878 -0.2069 -0.957518 255 255 0 255
-0.089709 0.55236 2.29328 -0.329787 -0.141993 -0.933316 255 255 0 255
-0.076512 0.551311 2.28983 -0.475349 -0.408308 -0.779313 255 255 0 255
-0.064198 0.5502 2.28582 -0.529005 -0.162066 -0.833 255 255 0 255
-0.051903 0.549099 2.28186 -0.22026 -0.509106 -0.832043 255 255 0 255
-0.034452 0.548448 2.28168 -0.0237434 -0.593009 -0.804846 255 255 0 255
-0.017891 0.547738 2.28096 0.0126215 -0.679281 -0.73377 255 255 0 255
0.002084 0.547338 2.28282 -0.129327 -0.723323 -0.678291 255 255 0 255
0.016868 0.546509 2.28099 -0.595078 -0.681432 -0.426067 255 255 0 255
0.023898 0.545017 2.27355 -0.655257 -0.675549 -0.338042 255 255 0 255
0.024059 0.542925 2.26104 -0.724285 -0.492744 -0.482301 255 255 0 255
0.037081 0.54197 2.25807 -0.316154 -0.499135 -0.806791 255 255 0 255
0.053508 0.541331 2.25772 -0.13424 -0.407834 -0.903134 255 255 0 255
0.068197 0.540553 2.25616 -0.383089 -0.351992 -0.854017 255 255 0 255
0.077737 0.539323 2.25079 -0.497071 -0.268793 -0.825027 255 255 0 255
0.087265 0.5381 2.24545 -0.600663 -0.340142 -0.723538 255 255 0 255
0.095075 0.536728 2.23885 -0.747842 -0.32982 -0.576151 255 255 0 255
0.102024 0.535283 2.23163 -0.676937 -0.336955 -0.654384 255 255 0 255
0.107266 0.533684 2.22311 -0.571412 0.144414 -0.807857 255 255 0 255
0.116753 0.532485 2.21789 -0.676523 0.258391 -0.689601 255 255 0 255
0.117738 0.530493 2.2061 -0.903156 0.426025 -0.0530252 255 255 0 255
0.113642 0.528017 2.19032 0.933026 -0.258479 -0.250302 255 255 0 255
-0.250644 0.475026 2.26308 0.944948 -0.0597497 -0.321721 0 255 0 255
-0.241614 0.476168 2.2685 0.643535 -0.103102 -0.758441 0 255 0 255
-0.233452 0.47745 2.27459 0.473679 -0.344168 -0.810664 0 255 0 255
-0.220888 0.478082 2.27756 0.520283 -0.476403 -0.708764 0 255 0 255
-0.211826 0.479251 2.28309 0.553487 -0.572487 -0.604906 0 255 0 255
-0.204514 0.480689 2.28991 0.465748 -0.598651 -0.651687 0 255 0 255
-0.195433 0.481874 2.2955 0.200926 -0.466166 -0.861579 0 255 0 255
-0.177523 0.481773 2.29494 0.130637 -0.134655 -0.982243 0 255 0 255
-0.164001 0.482336 2.29755 0.131484 -0.145498 -0.980583 0 255 0 255
-0.147812 0.482527 2.29837 0.149714 -0.152461 -0.976904 0 255 0 255
-0.135136 0.483247 2.30171 0.448991 -0.109752 -0.88677 0 255 0 255
-0.125984 0.484488 2.30754 0.542821 -0.0965697 -0.834278 0 255 0 255
-0.119478 0.486118 2.31522 0.829607 0.415687 -0.37277 0 255 0 255
-0.114739 0.488005 2.32413 -0.951286 -0.291367 -0.100795 0 255 0 255
-0.103787 0.489015 2.32884 0.308675 -0.325394 -0.893778 0 255 0 255
-0.091047 0.489787 2.3324 0.407848 -0.375477 -0.832272 0 255 0 255
-0.292387 0.469472 2.229 0.58858 0.0637271 0.805923 255 0 0 255
-0.285674 0.46844 2.224 0.640525 0.111166 0.759849 255 0 0 255
-0.278736 0.466986 2.217 0.778819 0.163812 0.605481 255 0 0 255
-0.271344 0.464689 2.206 0.782396 0.297545 0.547104 255 0 0 255
-0.264492 0.463235 2.199 0.283071 0.469138 0.836529 255 0 0 255
-0.258501 0.463254 2.199 -0.29701 0.250461 0.921441 255 0 0 255
-0.252853 0.463905 2.202 -0.298011 0.284447 0.911197 255 0 0 255
-0.246964 0.464135 2.203 -0.0858469 0.251333 0.964086 255 0 0 255
-0.240959 0.464153 2.203 0.304344 0.367273 0.878911 255 0 0 255
-0.234314 0.462907 2.197 0.698735 0.335131 0.632025 255 0 0 255
-0.227597 0.46145 2.19 0.717239 0.290266 0.633494 255 0 0 255
-0.220918 0.459992 2.183 0.68425 0.200029 0.701278 255 0 0 255
-0.214473 0.458955 2.178 0.627984 0.124193 0.768253 255 0 0 255
-0.208054 0.457918 2.173 0.57798 0.117283 0.807579 255 0 0 255
-0.201756 0.457091 2.169 0.538821 0.190915 0.820502 255 0 0 255
-0.195478 0.456263 2.165 0.524351 0.185359 0.831083 255 0 0 255
-0.18931 0.455646 2.162 0.524472 0.105377 0.844882 255 0 0 255
-0.183072 0.454818 2.158 0.331558 0.0511177 0.942049 255 0 0 255
-0.177184 0.454832 2.158 0.148816 0.132636 0.979929 255 0 0 255
-0.171217 0.454635 2.157 0.419831 0.186902 0.88815 255 0 0 255
-0.165024 0.453805 2.153 0.475978 0.17715 0.861431 255 0 0 255
-0.158926 0.453186 2.15 0.371105 0.0997005 0.923223 255 0 0 255
-0.152845 0.452566 2.147 0.092034 0.116172 0.988956 255 0 0 255
-0.147053 0.452789 2.148 -0.0284798 0.171338 0.984801 255 0 0 255
-0.141189 0.4528 2.148 0.116084 0.219522 0.968677 255 0 0 255
-0.135325 0.452811 2.148 0.0902648 0.143081 0.985586 255 0 0 255
-0.129401 0.452611 2.147 0.0595484 0.0258337 0.997891 255 0 0 255
-0.123539 0.452621 2.147 0.114323 -0.0126805 0.993363 255 0 0 255
-0.117567 0.45221 2.145 0.253455 0.0883025 0.963308 255 0 0 255
-0.111605 0.451797 2.143 0.308299 0.156139 0.938388 255 0 0 255
-0.105654 0.451384 2.141 0.181865 0.0801054 0.980055 255 0 0 255
-0.099807 0.451393 2.141 0.0597654 -0.0769272 0.995244 255 0 0 255
-0.093916 0.45119 2.14 -0.0260007 -0.204383 0.978546 255 0 0 255
-0.088153 0.451619 2.142 0.0106736 -0.26915 0.963039 255 0 0 255
-0.082264 0.451415 2.141 0.113711 -0.140567 0.98352 255 0 0 255
-0.076416 0.451422 2.141 0.288944 -0.0408451 0.956474 255 0 0 255
-0.070436 0.450584 2.137 0.365028 0.177926 0.913836 255 0 0 255
-0.064568 0.450379 2.136 0.406916 0.154473 0.90031 255 0 0 255
-0.058623 0.449541 2.132 0.50384 0.110986 0.856637 255 0 0 255
-0.052724 0.448913 2.129 0.379745 0.113236 0.918135 255 0 0 255
-0.046863 0.448495 2.127 0.203506 0.109426 0.97294 255 0 0 255
-0.041052 0.448499 2.127 0.0589279 0.10902 0.992291 255 0 0 255
-0.035241 0.448502 2.127 0.087037 0.0463088 0.995128 255 0 0 255
-0.029429 0.448505 2.127 0.0600945 0.0625695 0.99623 255 0 0 255
-0.023607 0.448296 2.126 -0.0575681 -0.0383492 0.997605 255 0 0 255
-0.017806 0.448509 2.127 0.0289006 -0.0781146 0.996525 255 0 0 255
-0.011989 0.448299 2.126 0.0213938 -0.0913839 0.995586 255 0 0 255
-0.00618 0.4483 2.126 0.0303234 0.081133 0.996242 255 0 0 255
-0.000371 0.448089 2.125 0.0891479 0.130896 0.98738 255 0 0 255
0.005433 0.447878 2.124 0.0895959 0.0966539 0.991277 255 0 0 255
0.011236 0.447877 2.124 0.0909891 0.145227 0.985206 255 0 0 255
0.017031 0.447665 2.123 0.0303332 0.172392 0.984561 255 0 0 255
0.022843 0.447875 2.124 -0.0779093 0.175665 0.981362 255 0 0 255
0.02866 0.448083 2.125 -0.176821 0.188135 0.966095 255 0 0 255
0.034498 0.448502 2.127 -0.144829 0.304699 0.941373 255 0 0 255
0.040309 0.448499 2.127 -0.115573 0.347697 0.930457 255 0 0 255
0.046121 0.448496 2.127 -0.287193 0.231834 0.929394 255 0 0 255
0.052005 0.449124 2.13 -0.383085 0.167695 0.908364 255 0 0 255
0.057878 0.449541 2.132 -0.446774 0.18462 0.875391 255 0 0 255
0.063822 0.45038 2.136 -0.322226 0.346757 0.880869 255 0 0 255
0.069657 0.450374 2.136 -0.168807 0.504508 0.846744 255 0 0 255
0.075527 0.450579 2.137 -0.367477 0.460042 0.808283 255 0 0 255
0.081479 0.451205 2.14 -0.246226 0.317444 0.915752 255 0 0 255
0.087324 0.451198 2.14 0.120756 0.143785 0.982214 255 0 0 255
0.093125 0.45098 2.139 0.431242 0.115004 0.894877 255 0 0 255
0.098782 0.450129 2.135 0.245565 0.102178 0.96398 255 0 0 255
0.104662 0.450331 2.136 -0.282327 0.108766 0.953132 255 0 0 255
0.110599 0.450744 2.138 -0.355312 0.163665 0.920308 255 0 0 255
0.116546 0.451157 2.14 -0.422717 0.213261 0.880812 255 0 0 255
0.122618 0.45199 2.144 -0.330643 0.273986 0.903109 255 0 0 255
0.128532 0.452191 2.145 -0.141826 0.358484 0.922699 255 0 0 255
0.134451 0.452391 2.146 -0.14224 0.313464 0.938887 255 0 0 255
0.140309 0.45238 2.146 -0.348714 0.353714 0.86792 255 0 0 255
0.14644 0.453212 2.15 -0.587465 0.250996 0.769342 255 0 0 255
0.152662 0.454254 2.155 -0.552491 0.299757 0.777753 255 0 0 255
0.158765 0.454874 2.158 -0.333411 0.29086 0.896793 255 0 0 255
0.164731 0.455072 2.159 -0.210665 0.238247 0.948082 255 0 0 255
0.17078 0.45548 2.161 -0.415093 0.0482202 0.9085 255 0 0 255
0.176922 0.456098 2.164 -0.664281 -0.0865068 0.742461 255 0 0 255
0.183503 0.45777 2.172 -0.743197 -0.126727 0.656962 255 0 0 255
0.190039 0.459231 2.179 -0.855269 -0.0148811 0.517971 255 0 0 255
-0.132169 0.54667 2.31615 0.252606 -0.684466 -0.683883 255 255 0 255
-0.124984 0.545104 2.30827 -0.410871 -0.450525 -0.792598 255 255 0 255
-0.118673 0.543468 2.2998 -0.367106 -0.465658 -0.805231 255 255 0 255
-0.102836 0.542645 2.29805 0.0202027 -0.808664 -0.587923 255 255 0 255
-0.072969 0.54089 2.29353 -0.39514 -0.125482 -0.91001 255 255 0 255
-0.061526 0.539731 2.2889 -0.345527 -0.113707 -0.931494 255 255 0 255
-0.046648 0.538883 2.28679 -0.00466616 -0.447833 -0.894105 255 255 0 255
-0.028345 0.538351 2.28724 0.00521838 -0.601558 -0.798812 255 255 0 255
-0.007491 0.538063 2.28964 0.0794882 -0.590984 -0.802758 255 255 0 255
0.010747 0.537564 2.29026 -0.260459 -0.579853 -0.771966 255 255 0 255
0.02294 0.536541 2.28657 -0.708056 -0.517307 -0.480677 255 255 0 255
0.029105 0.534984 2.2785 -0.750448 -0.591091 -0.295703 255 255 0 255
0.029264 0.532883 2.26601 -0.720338 -0.426124 -0.547294 255 255 0 255
0.043991 0.532115 2.26431 -0.35849 -0.239977 -0.902162 255 255 0 255
0.058693 0.53136 2.26269 -0.2803 -0.0967049 -0.955029 255 255 0 255
0.0691 0.530219 2.25792 -0.445679 -0.207511 -0.87081 255 255 0 255
0.078637 0.529007 2.25255 -0.584442 -0.1216 -0.802273 255 255 0 255
0.084751 0.527481 2.24462 -0.728195 -0.0384876 -0.684288 255 255 0 255
0.095119 0.526362 2.23995 -0.763899 0.173267 -0.621641 255 255 0 255
0.09611 0.524357 2.22816 -0.787394 0.272363 -0.553019 255 255 0 255
0.102209 0.52284 2.22027 -0.63498 0.179071 -0.751487 255 255 0 255
0.110001 0.521492 2.21371 -0.757144 0.386283 -0.526801 255 255 0 255
0.1093 0.519323 2.20058 -0.977211 0.209372 -0.0349529 255 255 0 255
0.108608 0.51715 2.18743 0.975474 -0.165518 -0.145098 255 255 0 255
-0.244223 0.461261 2.2476 -0.965388 -0.239354 -0.103616 0 255 0 255
-0.244828 0.46388 2.26004 0.89103 0.180635 -0.416458 0 255 0 255
-0.238426 0.465415 2.26739 0.668799 0.297664 -0.681252 0 255 0 255
-0.233773 0.467224 2.27602 0.727288 -0.0521387 -0.684349 0 255 0 255
-0.224726 0.468365 2.28151 0.71519 -0.456248 -0.529472 0 255 0 255
-0.220065 0.470183 2.29017 0.572161 -0.588128 -0.571609 0 255 0 255
-0.213641 0.471738 2.29759 0.497499 -0.616886 -0.609874 0 255 0 255
-0.199286 0.472106 2.29944 0.177961 -0.388126 -0.904261 0 255 0 255
-0.178744 0.471565 2.29703 0.0378653 -0.141233 -0.989252 0 255 0 255
