ply
format ascii 1.0
comment VCGLIB generated
element vertex 724
property float x
property float y
property float z
property float nx
property float ny
property float nz
property uchar red
property uchar green
property uchar blue
property uchar alpha
element face 0
property list uchar int vertex_indices
end_header
0.049786 -0.11183 2.288 -0.306543 0.584669 0.751128 255 0 0 255
0.056133 -0.111975 2.291 -0.349486 0.61939 0.703005 255 0 0 255
0.062522 -0.112169 2.295 -0.523139 0.568254 0.635148 255 0 0 255
0.069054 -0.112559 2.303 -0.509457 0.452967 0.731625 255 0 0 255
0.0754 -0.112606 2.304 -0.499795 0.437876 0.747308 255 0 0 255
0.081928 -0.112897 2.31 -0.546891 0.258797 0.7962 255 0 0 255
0.088298 -0.112944 2.311 -0.301316 0.0328428 0.952959 255 0 0 255
0.094754 -0.113088 2.314 -0.503725 -0.112448 0.856515 255 0 0 255
0.101446 -0.113476 2.322 -0.705042 -0.182014 0.68541 255 0 0 255
-0.161858 -0.467081 2.75096 -0.768443 0.270846 -0.579774 255 255 0 255
-0.140636 -0.46584 2.73739 -0.209058 0.785944 -0.581882 255 255 0 255
-0.126662 -0.463964 2.73262 -0.372461 0.782525 -0.498927 255 255 0 255
-0.137235 -0.471106 2.7137 -0.736118 0.676134 -0.0312129 255 255 0 255
-0.143554 -0.476703 2.69716 0.989471 -0.0443948 -0.137753 255 255 0 255
-0.028412 -0.466216 2.6383 -0.836178 0.512913 -0.194233 255 255 0 255
-0.036361 -0.472465 2.6206 -0.907772 0.386076 -0.163999 255 255 0 255
-0.024271 -0.471119 2.61539 -0.660295 0.682569 -0.313223 255 255 0 255
-0.023862 -0.474207 2.60287 -0.697849 0.670408 -0.252112 255 255 0 255
-0.025943 -0.478253 2.58875 -0.791069 0.470431 -0.391031 255 255 0 255
-0.021362 -0.479758 2.57884 -0.934417 0.0784046 -0.347444 255 255 0 255
-0.015953 -0.480943 2.56947 -0.978203 -0.0949905 -0.184649 255 255 0 255
-0.013865 -0.483403 2.55797 -0.617059 -0.319427 -0.719169 255 255 0 255
0.00231 -0.48043 2.5556 -0.445686 -0.491711 -0.748053 255 255 0 255
0.013492 -0.479365 2.55007 -0.624721 -0.552444 -0.551842 255 255 0 255
-0.012091 -0.495826 2.50751 0.820482 -0.437616 -0.367835 255 255 0 255
0.008993 -0.490905 2.50855 -0.0928361 0.154378 -0.983641 255 255 0 255
-0.201067 -0.489947 2.70796 -0.301629 0.90261 -0.307108 0 255 0 255
-0.191275 -0.490717 2.71432 -0.327409 0.860519 -0.390269 0 255 0 255
-0.195888 -0.485296 2.72906 -0.343593 0.920536 -0.185897 0 255 0 255
-0.254247 -0.11947 2.317 0.835893 0.156266 0.526178 255 0 0 255
-0.24663 -0.118858 2.305 0.748317 0.24705 0.615619 255 0 0 255
-0.239807 -0.118606 2.3 0.48294 0.125202 0.866656 255 0 0 255
-0.233011 -0.118354 2.295 0.554059 0.0747077 0.829119 255 0 0 255
-0.226242 -0.118102 2.29 0.476446 0.213715 0.852833 255 0 0 255
-0.219883 -0.118056 2.289 0.202535 0.342289 0.917506 255 0 0 255
-0.213435 -0.117959 2.287 0.0688637 0.372797 0.925354 255 0 0 255
-0.20736 -0.118067 2.289 0.0407376 0.27453 0.960715 255 0 0 255
-0.200922 -0.117969 2.287 0.282915 0.0825598 0.955585 255 0 0 255
-0.194323 -0.117768 2.283 0.610495 0.0210617 0.79174 255 0 0 255
-0.187581 -0.117463 2.277 0.566334 0.0546781 0.82236 255 0 0 255
-0.18127 -0.117417 2.276 0.0712178 0.170489 0.982782 255 0 0 255
-0.17504 -0.117421 2.276 -0.0915261 0.19438 0.976647 255 0 0 255
-0.168809 -0.117426 2.276 -0.0515606 0.0956092 0.994083 255 0 0 255
-0.162649 -0.117482 2.277 -0.0284938 -0.139068 0.989873 255 0 0 255
-0.156277 -0.117383 2.275 -0.229033 -0.155737 0.96088 255 0 0 255
-0.150179 -0.11749 2.277 -0.392979 -0.215012 0.894057 255 0 0 255
-0.144195 -0.1177 2.281 -0.579018 -0.102158 0.80889 255 0 0 255
-0.13819 -0.11791 2.285 -0.601539 0.0696278 0.795803 255 0 0 255
-0.132335 -0.118275 2.292 -0.584459 0.26296 0.767632 255 0 0 255
-0.126276 -0.118485 2.296 -0.684648 0.36285 0.632137 255 0 0 255
-0.120508 -0.119004 2.306 -0.739827 0.393933 0.54541 255 0 0 255
-0.114536 -0.119368 2.313 -0.767052 0.461266 0.445944 255 0 0 255
-0.108947 -0.120197 2.329 -0.913009 0.247171 0.324532 255 0 0 255
-0.103357 -0.121129 2.347 -0.932603 0.133002 0.335503 255 0 0 255
-0.097669 -0.122061 2.365 -0.602832 -0.111266 0.790072 255 0 0 255
-0.09138 -0.122321 2.37 -0.630231 -0.178706 0.755561 255 0 0 255
-0.085027 -0.12253 2.374 -0.689798 -0.246488 0.680752 255 0 0 255
-0.075774 -0.128935 2.498 0.600121 -0.7845 0.15625 255 0 0 255
-0.066001 -0.123465 2.392 -0.634739 -0.741659 0.216907 255 0 0 255
-0.058524 -0.121557 2.355 0.806943 0.020793 0.590263 255 0 0 255
-0.051958 -0.1213 2.35 0.724932 0.0767733 0.684529 255 0 0 255
-0.045379 -0.12094 2.343 0.707559 0.0608698 0.704028 255 0 0 255
-0.038906 -0.120787 2.34 0.710958 0.0673964 0.699997 255 0 0 255
-0.032351 -0.120271 2.33 0.72959 0.0484325 0.682167 255 0 0 255
-0.025907 -0.120014 2.325 0.679917 0.121203 0.723203 255 0 0 255
-0.019465 -0.119602 2.317 0.638381 0.242373 0.730565 255 0 0 255
-0.013095 -0.119447 2.314 0.615106 0.278025 0.737798 255 0 0 255
-0.006727 -0.119035 2.306 0.678511 0.424926 0.599217 255 0 0 255
-0.000403 -0.118673 2.299 0.671946 0.351208 0.652029 255 0 0 255
0.00588 -0.11826 2.291 0.673178 0.202525 0.711207 255 0 0 255
0.01213 -0.117951 2.285 0.618827 -0.0390368 0.784557 255 0 0 255
0.018371 -0.117795 2.282 0.243034 0.0598952 0.968167 255 0 0 255
0.024628 -0.117795 2.282 -0.055211 0.188926 0.980438 255 0 0 255
0.030899 -0.117846 2.283 -0.258248 0.280858 0.924352 255 0 0 255
0.037223 -0.118051 2.287 -0.389785 0.318556 0.864054 255 0 0 255
0.04355 -0.118205 2.29 -0.447955 0.330975 0.830537 255 0 0 255
0.049916 -0.11841 2.294 -0.503011 0.384893 0.773846 255 0 0 255
0.056303 -0.118615 2.298 -0.570313 0.443849 0.691189 255 0 0 255
0.062711 -0.11882 2.302 -0.516763 0.510324 0.687405 255 0 0 255
0.069202 -0.119128 2.308 -0.414155 0.498779 0.761377 255 0 0 255
0.075594 -0.119229 2.31 -0.353274 0.527125 0.772876 255 0 0 255
0.082138 -0.119537 2.316 -0.0662668 0.389817 0.918505 255 0 0 255
0.08841 -0.119431 2.314 0.051605 0.253891 0.965855 255 0 0 255
0.094752 -0.119429 2.314 -0.279736 -0.0262086 0.959719 255 0 0 255
-0.179418 -0.491911 2.71677 0.232863 -0.968073 -0.0927829 255 255 0 255
-0.14888 -0.487185 2.70851 -0.754715 0.654818 -0.0402397 255 255 0 255
-0.042023 -0.486212 2.61852 0.928271 -0.366379 -0.0638601 255 255 0 255
-0.03493 -0.48676 2.61015 -0.871152 0.466334 -0.153708 255 255 0 255
-0.035339 -0.490185 2.59707 -0.78671 0.529365 -0.317585 255 255 0 255
-0.034075 -0.492973 2.58502 -0.711823 0.46074 -0.530119 255 255 0 255
-0.024499 -0.492554 2.57826 -0.613335 0.0677539 -0.786911 255 255 0 255
-0.014936 -0.492128 2.57153 -0.775754 -0.387114 -0.498347 255 255 0 255
-0.039375 -0.504891 2.54291 -0.857738 0.510612 -0.0596681 255 255 0 255
-0.016104 -0.502432 2.53214 -0.967224 0.125155 -0.220937 255 255 0 255
-0.018129 -0.506521 2.51787 -0.653616 0.417533 -0.631231 255 255 0 255
-0.008951 -0.509533 2.498 -0.917572 0.342261 -0.202285 255 255 0 255
-0.1885 -0.510259 2.69004 -0.376055 0.777609 -0.503892 0 255 0 255
-0.193451 -0.501183 2.71716 -0.327409 0.860519 -0.390269 0 255 0 255
-0.254679 -0.12603 2.321 0.853482 0.125133 0.505876 255 0 0 255
-0.247158 -0.12544 2.31 0.774881 0.20264 0.598745 255 0 0 255
-0.239697 -0.124849 2.299 0.638659 0.157908 0.753113 255 0 0 255
-0.233107 -0.124692 2.296 0.539973 0.130459 0.83151 255 0 0 255
-0.226335 -0.124427 2.291 0.280968 0.334906 0.899386 255 0 0 255
-0.220261 -0.124541 2.293 0.223917 0.377157 0.898673 255 0 0 255
-0.213616 -0.12433 2.289 0.287279 0.271114 0.918677 255 0 0 255
-0.207355 -0.124335 2.289 0.198264 -0.0275971 0.97976 255 0 0 255
-0.201004 -0.124287 2.288 0.365867 -0.146594 0.919049 255 0 0 255
-0.194318 -0.12402 2.283 0.582356 -0.081525 0.808836 255 0 0 255
-0.187576 -0.1237 2.277 0.47772 -0.0616649 0.876346 255 0 0 255
-0.181106 -0.123542 2.274 -0.0489907 0.0354083 0.998171 255 0 0 255
-0.175112 -0.123709 2.277 -0.0792119 0.277413 0.95748 255 0 0 255
-0.168804 -0.12366 2.276 0.0132861 0.268106 0.963298 255 0 0 255
-0.16243 -0.123556 2.274 0.024248 0.201462 0.979196 255 0 0 255
-0.156273 -0.123614 2.275 -0.198001 0.260067 0.945072 255 0 0 255
-0.150241 -0.123782 2.278 -0.456012 0.32377 0.828991 255 0 0 255
-0.144318 -0.124057 2.283 -0.562996 0.199638 0.801985 255 0 0 255
-0.138367 -0.124333 2.288 -0.687991 0.1851 0.701716 255 0 0 255
-0.132504 -0.124717 2.295 -0.721041 0.294554 0.627166 255 0 0 255
-0.126657 -0.125156 2.303 -0.709795 0.470956 0.523824 255 0 0 255
-0.120818 -0.125648 2.312 -0.731306 0.495594 0.468591 255 0 0 255
-0.114979 -0.126195 2.322 -0.814358 0.405006 0.415683 255 0 0 255
-0.109131 -0.126796 2.333 -0.875626 0.284576 0.390251 255 0 0 255
-0.103443 -0.127668 2.349 -0.893232 0.121831 0.432774 255 0 0 255
-0.097583 -0.128432 2.363 -0.677084 -0.215022 0.703792 255 0 0 255
-0.091339 -0.128761 2.369 -0.564266 -0.194799 0.802282 255 0 0 255
-0.084846 -0.128763 2.369 -0.58957 -0.215498 0.77844 255 0 0 255
-0.065944 -0.129911 2.39 -0.462592 -0.785615 0.410875 255 0 0 255
-0.058672 -0.128337 2.361 0.869479 0.183197 0.458743 255 0 0 255
-0.051956 -0.12774 2.35 0.766125 0.133952 0.628577 255 0 0 255
-0.045378 -0.127361 2.343 0.758748 0.0119481 0.651274 255 0 0 255
-0.038838 -0.126982 2.336 0.731861 -0.0507241 0.679563 255 0 0 255
-0.032336 -0.126602 2.329 0.609379 0.0609944 0.790529 255 0 0 255
-0.025895 -0.126331 2.324 0.641104 0.117124 0.758464 255 0 0 255
-0.019473 -0.126006 2.318 0.556313 0.24531 0.793939 255 0 0 255
-0.013112 -0.125952 2.317 0.546275 0.283259 0.788256 255 0 0 255
-0.006738 -0.125572 2.31 0.632838 0.264892 0.727563 255 0 0 255
-0.000404 -0.125354 2.306 0.747546 0.32166 0.581128 255 0 0 255
0.005893 -0.124811 2.296 0.766123 0.265571 0.585258 255 0 0 255
0.012135 -0.124267 2.286 0.580346 0.0779294 0.810633 255 0 0 255
0.018379 -0.124103 2.283 0.0843412 0.184571 0.979194 255 0 0 255
0.024628 -0.124048 2.282 -0.0264144 0.33257 0.942709 255 0 0 255
0.030938 -0.124265 2.286 -0.276193 0.435278 0.856884 255 0 0 255
0.037222 -0.124318 2.287 -0.296047 0.372429 0.879575 255 0 0 255
0.043568 -0.124535 2.291 -0.491574 0.173023 0.853474 255 0 0 255
0.049958 -0.124805 2.296 -0.605578 0.145455 0.78238 255 0 0 255
0.056375 -0.125075 2.301 -0.676596 0.199465 0.708825 255 0 0 255
0.062873 -0.125454 2.308 -0.589748 0.334682 0.734973 255 0 0 255
0.06929 -0.125615 2.311 -0.505172 0.389839 0.769952 255 0 0 255
0.075723 -0.125776 2.314 -0.329276 0.499941 0.801022 255 0 0 255
0.082207 -0.125992 2.318 -0.0559025 0.569821 0.819865 255 0 0 255
0.088484 -0.12588 2.316 0.150881 0.470511 0.869399 255 0 0 255
0.094749 -0.125769 2.314 0.0900963 0.348446 0.932989 255 0 0 255
0.101222 -0.12593 2.317 -0.366839 0.25544 0.894527 255 0 0 255
-0.040591 -0.493997 2.63366 0.770641 0.10827 -0.628004 255 255 0 255
-0.036002 -0.495499 2.62372 -0.763815 -0.563341 -0.315013 255 255 0 255
-0.063903 -0.509568 2.59345 -0.820463 0.406879 -0.401611 255 255 0 255
-0.042641 -0.504632 2.59391 -0.702346 0.397692 -0.590382 255 255 0 255
-0.039704 -0.506785 2.58289 -0.229047 0.0546638 -0.971879 255 255 0 255
-0.014346 -0.500203 2.58615 -0.580311 -0.326715 -0.745987 255 255 0 255
-0.011431 -0.502346 2.57519 -0.65164 -0.292124 -0.70002 255 255 0 255
-0.041185 -0.520604 2.53018 0.763088 -0.598581 -0.243715 255 255 0 255
-0.043187 -0.52472 2.51587 0.935724 0.110037 -0.335129 255 255 0 255
-0.176321 -0.527054 2.68445 -0.628505 0.738086 -0.245381 0 255 0 255
-0.112137 -0.544542 2.68384 0.462098 -0.0175428 -0.886655 0 255 0 255
-0.257854 -0.134038 2.35 0.96566 0.0454159 0.255811 255 0 0 255
-0.247366 -0.131877 2.312 0.793152 0.161434 0.587238 255 0 0 255
-0.240003 -0.131314 2.302 0.677853 0.179382 0.712978 255 0 0 255
-0.233405 -0.131149 2.299 0.356926 0.352765 0.864963 255 0 0 255
-0.226724 -0.130927 2.295 0.305654 0.163222 0.938048 255 0 0 255
-0.220639 -0.131048 2.297 0.33201 0.259692 0.906824 255 0 0 255
-0.213797 -0.130711 2.291 0.537081 -0.0579058 0.841541 255 0 0 255
-0.207168 -0.130489 2.287 0.332349 -0.10109 0.937723 255 0 0 255
-0.200735 -0.130381 2.285 0.443215 -0.165732 0.880962 255 0 0 255
-0.194143 -0.130158 2.281 0.565947 -0.123911 0.815076 255 0 0 255
-0.187654 -0.129992 2.278 0.455213 -0.0772337 0.887026 255 0 0 255
-0.18134 -0.12994 2.277 -0.176048 -0.0421904 0.983477 255 0 0 255
-0.175415 -0.130174 2.281 -0.134014 0.136912 0.981476 255 0 0 255
-0.169096 -0.130122 2.28 0.245153 0.126085 0.961251 255 0 0 255
-0.16264 -0.129955 2.277 0.0625889 0.159966 0.985136 255 0 0 255
-0.156474 -0.130017 2.278 -0.379434 0.226544 0.897055 255 0 0 255
-0.150566 -0.130307 2.283 -0.588111 0.209979 0.781047 255 0 0 255
-0.144503 -0.130482 2.286 -0.6094 0.244818 0.75412 255 0 0 255
-0.138424 -0.130658 2.289 -0.598082 0.347239 0.722304 255 0 0 255
-0.132616 -0.131118 2.297 -0.79198 0.342263 0.505593 255 0 0 255
-0.126874 -0.131693 2.307 -0.756686 0.464556 0.460015 255 0 0 255
-0.121233 -0.132439 2.32 -0.805275 0.360459 0.470746 255 0 0 255
-0.115372 -0.133013 2.33 -0.804905 0.316815 0.501752 255 0 0 255
-0.109502 -0.133644 2.341 -0.864913 0.133131 0.483945 255 0 0 255
-0.103528 -0.134218 2.351 -0.861775 0.0205981 0.506872 255 0 0 255
-0.097457 -0.134735 2.36 -0.763717 -0.207319 0.611355 255 0 0 255
-0.09122 -0.13508 2.366 -0.5719 -0.197305 0.796242 255 0 0 255
-0.058819 -0.135148 2.367 0.882344 0.103549 0.459072 255 0 0 255
-0.051999 -0.134294 2.352 0.776257 0.170266 0.606988 255 0 0 255
-0.045377 -0.133781 2.343 0.770656 0.204299 0.603615 255 0 0 255
-0.038787 -0.133211 2.333 0.721309 -0.0248195 0.692168 255 0 0 255
-0.032349 -0.133041 2.33 0.605901 0.114297 0.787287 255 0 0 255
-0.025906 -0.132757 2.325 0.569024 0.188424 0.800443 255 0 0 255
-0.019506 -0.132586 2.322 0.559847 0.173926 0.810136 255 0 0 255
-0.013111 -0.132301 2.317 0.57059 0.124218 0.811786 255 0 0 255
-0.006756 -0.132244 2.316 0.610467 0.0684865 0.789075 255 0 0 255
-0.000404 -0.131787 2.308 0.75041 0.193625 0.631976 255 0 0 255
0.005895 -0.131159 2.297 0.819045 0.225884 0.527391 255 0 0 255
0.012119 -0.13036 2.283 0.146844 0.351001 0.924789 255 0 0 255
0.018402 -0.13053 2.286 -0.051333 0.481694 0.874835 255 0 0 255
0.024681 -0.130587 2.287 -0.232393 0.569668 0.788335 255 0 0 255
0.031032 -0.130929 2.293 -0.115877 0.514744 0.849477 255 0 0 255
0.03727 -0.130756 2.29 -0.17611 0.462454 0.868977 255 0 0 255
0.043605 -0.130926 2.293 -0.273608 0.274617 0.921805 255 0 0 255
0.049956 -0.131096 2.296 -0.597669 0.108881 0.794316 255 0 0 255
0.056447 -0.131551 2.304 -0.730581 0.0518186 0.680857 255 0 0 255
0.062953 -0.131949 2.311 -0.697406 0.18825 0.69151 255 0 0 255
0.069408 -0.132176 2.315 -0.526197 0.342687 0.778256 255 0 0 255
0.075884 -0.132402 2.319 -0.358165 0.430813 0.828322 255 0 0 255
0.082382 -0.132628 2.323 -0.125726 0.423124 0.897307 255 0 0 255
0.088711 -0.132568 2.322 0.22612 0.354342 0.907365 255 0 0 255
0.094951 -0.132394 2.319 0.199103 0.365012 0.909464 255 0 0 255
-0.042913 -0.506503 2.63369 0.0145235 -0.488764 -0.872295 255 255 0 255
-0.023317 -0.502164 2.63307 -0.640436 -0.556404 -0.529393 255 255 0 255
-0.049478 -0.522273 2.57814 -0.883774 -0.338479 -0.323072 255 255 0 255
-0.010841 -0.510409 2.58981 -0.79262 -0.439507 -0.422596 255 255 0 255
0.003269 -0.511427 2.57323 0.973613 0.227831 -0.0130827 255 255 0 255
-0.07158 -0.544353 2.5119 -0.510863 -0.460775 -0.725745 255 255 0 255
-0.038014 -0.534402 2.52065 0.96534 0.00269259 -0.260982 255 255 0 255
-0.011117 -0.527047 2.52526 -0.123171 -0.746624 -0.653745 255 255 0 255
0.022327 -0.517037 2.53436 0.221025 -0.380456 -0.897998 255 255 0 255
0.046645 -0.510616 2.53763 -0.873092 0.257839 -0.413797 255 255 0 255
-0.247466 -0.138265 2.313 0.80315 0.0673297 0.59196 255 0 0 255
-0.240205 -0.137734 2.304 0.672389 0.0570439 0.737997 255 0 0 255
-0.233601 -0.137562 2.301 0.561248 0.103856 0.821106 255 0 0 255
-0.226816 -0.13727 2.296 0.425757 -0.109255 0.898217 255 0 0 255
-0.220537 -0.137276 2.296 0.417104 -0.142873 0.897559 255 0 0 255
-0.213791 -0.136984 2.291 0.554398 -0.153173 0.818035 255 0 0 255
-0.207162 -0.136751 2.287 0.405154 -0.175179 0.897309 255 0 0 255
-0.200729 -0.136637 2.285 0.44287 -0.182761 0.877761 255 0 0 255
-0.194052 -0.136344 2.28 0.477045 -0.134251 0.868565 255 0 0 255
-0.187483 -0.136111 2.276 0.373024 -0.0445862 0.92675 255 0 0 255
-0.181095 -0.135996 2.274 -0.176129 -0.0198323 0.984167 255 0 0 255
-0.175256 -0.136301 2.279 -0.218584 -0.219425 0.950828 255 0 0 255
-0.168943 -0.136246 2.278 0.0415711 -0.0814128 0.995813 255 0 0 255
-0.162635 -0.136191 2.277 -0.00119704 0.0860903 0.996287 255 0 0 255
-0.156538 -0.136316 2.279 -0.268177 0.11157 0.956887 255 0 0 255
-0.150496 -0.1365 2.282 -0.590246 -0.0453589 0.805948 255 0 0 255
-0.144689 -0.136923 2.289 -0.69042 0.0806825 0.718895 255 0 0 255
-0.138722 -0.137226 2.294 -0.689209 0.230182 0.687028 255 0 0 255
-0.133247 -0.138068 2.308 -0.852185 0.176361 0.492622 255 0 0 255
-0.127365 -0.138551 2.316 -0.837904 0.23691 0.491722 255 0 0 255
-0.121543 -0.139153 2.326 -0.786395 -0.024812 0.617225 255 0 0 255
-0.115467 -0.139515 2.332 -0.824277 0.0740283 0.561327 255 0 0 255
-0.109546 -0.140117 2.342 -0.83158 -0.0886279 0.548288 255 0 0 255
-0.10348 -0.140599 2.35 -0.828367 -0.0434402 0.5585 255 0 0 255
-0.097412 -0.14114 2.359 -0.770719 -0.172962 0.613251 255 0 0 255
-0.091179 -0.141502 2.365 -0.575868 -0.218388 0.787835 255 0 0 255
-0.058793 -0.141574 2.366 0.93134 -0.00351118 0.364135 255 0 0 255
-0.052064 -0.140917 2.355 0.743704 0.0805004 0.663644 255 0 0 255
-0.045472 -0.1405 2.348 0.728509 0.231069 0.64489 255 0 0 255
-0.038852 -0.139843 2.337 0.704105 0.321177 0.633309 255 0 0 255
-0.032376 -0.139545 2.332 0.562598 0.274422 0.779856 255 0 0 255
-0.025938 -0.139306 2.328 0.601661 0.231485 0.764472 255 0 0 255
-0.019522 -0.139068 2.324 0.638668 0.129544 0.7585 255 0 0 255
-0.013111 -0.138649 2.317 0.605908 -0.0176488 0.795339 255 0 0 255
-0.006747 -0.13841 2.313 0.614263 -0.0249356 0.788707 255 0 0 255
-0.000405 -0.138171 2.309 0.706174 0.0188865 0.707786 255 0 0 255
0.005905 -0.137692 2.301 0.792827 0.0779524 0.604441 255 0 0 255
0.012161 -0.137094 2.291 0.324093 0.611862 0.721518 255 0 0 255
0.018434 -0.137033 2.29 -0.259442 0.613735 0.745667 255 0 0 255
0.024745 -0.137212 2.293 -0.215398 0.636202 0.740844 255 0 0 255
0.031058 -0.137331 2.295 -0.0179639 0.649897 0.75981 255 0 0 255
0.037334 -0.13727 2.294 -0.0197319 0.544496 0.838531 255 0 0 255
0.043623 -0.137269 2.294 -0.150743 0.489206 0.859042 255 0 0 255
0.049955 -0.137387 2.296 -0.526458 0.221243 0.82091 255 0 0 255
0.056371 -0.137684 2.301 -0.652644 0.211398 0.727576 255 0 0 255
0.062924 -0.138221 2.31 -0.740988 0.117611 0.661139 255 0 0 255
0.069496 -0.138698 2.318 -0.626113 0.247641 0.739363 255 0 0 255
0.07598 -0.138935 2.322 -0.290767 0.351055 0.890065 255 0 0 255
0.08238 -0.138992 2.323 0.0247134 0.138265 0.990087 255 0 0 255
0.088708 -0.13893 2.322 0.103749 0.161815 0.981352 255 0 0 255
0.095071 -0.138927 2.322 -0.168162 0.225985 0.959506 255 0 0 255
0.101827 -0.139462 2.331 -0.334128 0.511114 0.79191 255 0 0 255
-0.026472 -0.514974 2.63256 -0.338507 -0.358775 -0.869881 255 255 0 255
-0.015235 -0.513846 2.6268 -0.784719 -0.520405 -0.336743 255 255 0 255
-0.040591 -0.527137 2.59809 -0.0174924 -0.571844 -0.820176 255 255 0 255
-0.036821 -0.528967 2.58759 -0.68718 -0.42528 -0.589 255 255 0 255
-0.015633 -0.523892 2.58818 0.764638 -0.183805 -0.617692 255 255 0 255
-0.01354 -0.526371 2.57667 -0.866769 0.398939 -0.299264 255 255 0 255
-0.027997 -0.535444 2.5545 -0.600028 -0.776497 -0.1924 255 255 0 255
-0.010999 -0.531992 2.55257 -0.89514 0.417135 -0.157236 255 255 0 255
-0.163201 -0.563003 2.65536 -0.398837 -0.761445 -0.511009 0 255 0 255
-0.116014 -0.573353 2.66459 0.25641 0.54945 -0.79521 0 255 0 255
-0.255206 -0.145401 2.326 0.805786 0.037861 0.590995 255 0 0 255
-0.247458 -0.144596 2.313 0.802279 -0.0310499 0.596141 255 0 0 255
-0.240406 -0.144166 2.306 0.638081 -0.00272532 0.769965 255 0 0 255
-0.233696 -0.143923 2.302 0.604738 0.00396115 0.796415 255 0 0 255
-0.226612 -0.14343 2.294 0.519525 -0.0247526 0.854097 255 0 0 255
-0.220242 -0.143374 2.293 0.427325 -0.0899084 0.899616 255 0 0 255
-0.213411 -0.143005 2.287 0.472794 -0.0463936 0.879951 255 0 0 255
-0.207065 -0.142949 2.286 0.338957 0.0764827 0.937688 255 0 0 255
-0.20046 -0.142706 2.282 0.407267 0.224285 0.885342 255 0 0 255
-0.194046 -0.142587 2.28 0.48463 0.268771 0.832404 255 0 0 255
-0.18756 -0.142405 2.277 0.307023 0.168157 0.936728 255 0 0 255
-0.181169 -0.142286 2.275 0.25323 0.0104092 0.96735 255 0 0 255
-0.175097 -0.142416 2.277 -0.11315 -0.174455 0.978142 255 0 0 255
-0.168938 -0.142484 2.278 -0.233457 -0.142118 0.961925 255 0 0 255
-0.162844 -0.142614 2.28 -0.160728 0.088099 0.983059 255 0 0 255
-0.156602 -0.142619 2.28 -0.177976 0.0573449 0.982363 255 0 0 255
-0.150491 -0.142749 2.282 -0.574962 -0.0461283 0.816879 255 0 0 255
-0.144558 -0.143067 2.287 -0.775907 0.0203165 0.63052 255 0 0 255
-0.138839 -0.143634 2.296 -0.828234 0.201715 0.522818 255 0 0 255
-0.133301 -0.144452 2.309 -0.830645 -0.0685887 0.552562 255 0 0 255
-0.127361 -0.144894 2.316 -0.79286 -0.0903282 0.602672 255 0 0 255
-0.121382 -0.145336 2.323 -0.799002 -0.0749642 0.596638 255 0 0 255
-0.115365 -0.145778 2.33 -0.83149 -0.0235049 0.555043 255 0 0 255
-0.109449 -0.146407 2.34 -0.828534 -0.040527 0.558471 255 0 0 255
-0.103433 -0.146973 2.349 -0.771243 -0.142979 0.620275 255 0 0 255
-0.097327 -0.147477 2.357 -0.746928 -0.219598 0.627594 255 0 0 255
-0.091138 -0.147918 2.364 -0.721541 -0.221115 0.656115 255 0 0 255
-0.058567 -0.147492 2.357 0.752046 -0.102635 0.651071 255 0 0 255
-0.052062 -0.147369 2.355 0.720419 -0.112194 0.684404 255 0 0 255
-0.04551 -0.147058 2.35 0.515926 -0.128632 0.84692 255 0 0 255
-0.038968 -0.146683 2.344 0.691869 0.25019 0.67729 255 0 0 255
-0.032445 -0.146247 2.337 0.691711 0.233227 0.683477 255 0 0 255
-0.02596 -0.145809 2.33 0.704918 0.0714848 0.705678 255 0 0 255
-0.019513 -0.145372 2.323 0.658365 0.0903494 0.747257 255 0 0 255
-0.01311 -0.144997 2.317 0.64784 0.167592 0.743113 255 0 0 255
-0.006744 -0.144685 2.312 0.621953 -0.0050574 0.783038 255 0 0 255
-0.000404 -0.144309 2.306 0.755224 -0.0370017 0.654422 255 0 0 255
0.005895 -0.143746 2.297 0.508214 0.313273 0.802234 255 0 0 255
0.012182 -0.143621 2.295 0.0700407 0.58085 0.810992 255 0 0 255
0.018482 -0.143683 2.296 -0.0798476 0.614778 0.784648 255 0 0 255
0.02483 -0.143995 2.301 -0.160494 0.456177 0.875297 255 0 0 255
0.031139 -0.143994 2.301 -0.02664 0.503286 0.863709 255 0 0 255
0.03743 -0.14393 2.3 0.0949996 0.475522 0.874559 255 0 0 255
0.043716 -0.143866 2.299 -0.00329071 0.509298 0.860584 255 0 0 255
0.050062 -0.14399 2.301 -0.28052 0.476332 0.833317 255 0 0 255
0.056443 -0.144176 2.304 -0.672454 0.225875 0.70483 255 0 0 255
0.063004 -0.144737 2.313 -0.710975 0.192484 0.676361 255 0 0 255
0.069553 -0.145173 2.32 -0.585222 0.159864 0.794958 255 0 0 255
0.076109 -0.145546 2.326 -0.30223 0.0889326 0.949077 255 0 0 255
0.082448 -0.145481 2.325 0.196866 -0.145298 0.969604 255 0 0 255
0.088705 -0.145291 2.322 0.357675 -0.303652 0.883099 255 0 0 255
0.095109 -0.14535 2.323 -0.714861 -0.0318013 0.698543 255 0 0 255
0.101955 -0.146035 2.334 -0.66247 -0.103125 0.741956 255 0 0 255
-0.028786 -0.520885 2.65808 -0.19489 -0.0334274 -0.980255 255 255 0 255
-0.04838 -0.53192 2.63324 -0.639929 0.538605 -0.548083 255 255 0 255
-0.020464 -0.524189 2.63774 -0.588759 0.463841 -0.661978 255 255 0 255
-0.02088 -0.527655 2.62472 -0.408897 0.573204 -0.710099 255 255 0 255
-0.032919 -0.535753 2.60436 0.284202 -0.86484 -0.413862 255 255 0 255
-0.009237 -0.529635 2.60648 -0.882301 -0.457367 -0.111173 255 255 0 255
-0.004667 -0.531119 2.59658 0.944246 -0.0909039 -0.316443 255 255 0 255
-0.02163 -0.541229 2.57292 -0.94336 -0.25262 -0.21507 255 255 0 255
-0.010802 -0.543549 2.55411 0.246469 0.967777 -0.0515872 255 255 0 255
-0.003742 -0.544039 2.54579 -0.19254 -0.952665 -0.235284 255 255 0 255
-0.001638 -0.546528 2.53426 0.109653 0.927214 -0.35812 255 255 0 255
-0.25476 -0.151505 2.322 0.797091 0.113828 0.593033 255 0 0 255
-0.247237 -0.150796 2.311 0.739553 0.105715 0.664745 255 0 0 255
-0.24019 -0.150346 2.304 0.561955 0.106918 0.820229 255 0 0 255
-0.233587 -0.150158 2.301 0.624502 0.119257 0.771865 255 0 0 255
-0.226604 -0.149709 2.294 0.530872 0.0653709 0.844927 255 0 0 255
-0.220236 -0.149651 2.293 0.473614 0.0274248 0.880306 255 0 0 255
-0.213591 -0.149396 2.289 0.321868 0.126759 0.938261 255 0 0 255
-0.207421 -0.149468 2.29 0.203157 0.323959 0.924001 255 0 0 255
-0.200981 -0.149344 2.288 0.192922 0.482535 0.854366 255 0 0 255
-0.194721 -0.149351 2.288 0.386707 0.398638 0.831592 255 0 0 255
-0.187966 -0.148965 2.282 0.571011 0.308488 0.760777 255 0 0 255
-0.181243 -0.14858 2.276 0.352709 0.0810346 0.932218 255 0 0 255
-0.174706 -0.148324 2.272 -0.0808677 -0.198754 0.976707 255 0 0 255
-0.168858 -0.148656 2.277 -0.348018 -0.193462 0.917309 255 0 0 255
-0.162839 -0.148858 2.28 -0.209873 0.00331768 0.977723 255 0 0 255
-0.156597 -0.148863 2.28 -0.187808 0.145909 0.971308 255 0 0 255
-0.150354 -0.148868 2.28 -0.406096 0.133007 0.904099 255 0 0 255
-0.144553 -0.14933 2.287 -0.733306 0.148407 0.663505 255 0 0 255
-0.138834 -0.149922 2.296 -0.778113 0.196193 0.596698 255 0 0 255
-0.133181 -0.150645 2.307 -0.758741 -0.161376 0.631086 255 0 0 255
-0.126972 -0.15078 2.309 -0.778948 -0.151337 0.608554 255 0 0 255
-0.121274 -0.151567 2.321 -0.86378 -0.0176773 0.50356 255 0 0 255
-0.115311 -0.152094 2.329 -0.848804 0.0652724 0.524663 255 0 0 255
-0.109492 -0.152881 2.341 -0.828578 0.0506915 0.557574 255 0 0 255
-0.103298 -0.153211 2.346 -0.732165 -0.0605741 0.678429 255 0 0 255
-0.097158 -0.153672 2.353 -0.763023 -0.154543 0.627624 255 0 0 255
-0.090942 -0.154067 2.359 -0.76535 -0.156173 0.624379 255 0 0 255
-0.058988 -0.155059 2.374 0.941413 0.0694554 0.330027 255 0 0 255
-0.05195 -0.153493 2.35 0.526058 -0.134039 0.839819 255 0 0 255
-0.045527 -0.15356 2.351 0.490599 -0.102818 0.865298 255 0 0 255
-0.039 -0.153235 2.346 0.688301 -0.0861438 0.720293 255 0 0 255
-0.032471 -0.152779 2.339 0.737996 0.0499559 0.672954 255 0 0 255
-0.02597 -0.152258 2.331 0.755639 -0.00125507 0.654987 255 0 0 255
-0.019529 -0.151866 2.325 0.574948 0.0556898 0.816292 255 0 0 255
-0.01315 -0.151802 2.324 0.581124 0.218536 0.783924 255 0 0 255
-0.006752 -0.151214 2.315 0.726378 0.216328 0.652362 255 0 0 255
-0.000404 -0.150692 2.307 0.680174 0.158177 0.715781 255 0 0 255
0.005903 -0.150234 2.3 0.396859 0.360488 0.844127 255 0 0 255
0.012219 -0.150365 2.302 -0.0400303 0.558838 0.82831 255 0 0 255
0.018513 -0.150234 2.3 -0.0837387 0.528562 0.844755 255 0 0 255
0.02483 -0.150298 2.301 -0.0612735 0.257278 0.964393 255 0 0 255
0.031124 -0.150232 2.3 0.0274974 0.059611 0.997843 255 0 0 255
0.037462 -0.150361 2.302 0.00620815 0.233005 0.972456 255 0 0 255
0.043753 -0.150295 2.301 -0.150447 0.324361 0.933892 255 0 0 255
0.050104 -0.150424 2.303 -0.345993 0.409417 0.844196 255 0 0 255
0.056539 -0.150749 2.308 -0.575408 0.302644 0.759811 255 0 0 255
0.063002 -0.151073 2.313 -0.681497 0.27687 0.677425 255 0 0 255
0.069581 -0.151593 2.321 -0.475174 0.177828 0.861735 255 0 0 255
0.076041 -0.151787 2.324 -0.128834 -0.0215582 0.991432 255 0 0 255
0.082339 -0.151654 2.322 0.445728 -0.232391 0.864477 255 0 0 255
0.088473 -0.151259 2.316 0.439094 -0.368505 0.81939 255 0 0 255
0.094697 -0.15106 2.313 0.289413 -0.233795 0.928213 255 0 0 255
-0.046524 -0.542846 2.63586 -0.662815 0.717768 -0.213272 255 255 0 255
-0.041091 -0.544009 2.62639 -0.712543 0.684427 -0.154408 255 255 0 255
-0.043973 -0.548497 2.61175 -0.849256 0.513526 -0.122702 255 255 0 255
-0.001589 -0.538147 2.61274 -0.729899 0.459703 -0.505887 255 255 0 255
-0.004482 -0.54263 2.59813 0.93987 -0.0774349 -0.332639 255 255 0 255
-0.014811 -0.55013 2.57871 0.981366 -0.0951557 -0.166933 255 255 0 255
0.015 -0.54472 2.57221 -0.176024 -0.984384 -0.00208782 255 255 0 255
0.019555 -0.546194 2.56236 -0.102457 0.929824 -0.353455 255 255 0 255
-0.247229 -0.15712 2.311 0.632625 0.278124 0.722795 255 0 0 255
-0.240495 -0.156856 2.307 0.468638 0.345085 0.8132 255 0 0 255
-0.234087 -0.156795 2.306 0.476228 0.349179 0.80702 255 0 0 255
-0.226992 -0.156259 2.298 0.567366 0.363395 0.738945 255 0 0 255
-0.220228 -0.155926 2.293 0.351454 0.34996 0.868336 255 0 0 255
-0.213771 -0.155798 2.291 0.301767 0.361289 0.882274 255 0 0 255
-0.207505 -0.155805 2.291 0.216618 0.188748 0.957837 255 0 0 255
-0.201062 -0.155675 2.289 0.159101 0.0660667 0.985049 255 0 0 255
-0.194799 -0.155682 2.289 0.445357 0.0923379 0.890579 255 0 0 255
-0.18796 -0.155212 2.282 0.571569 0.302004 0.762956 255 0 0 255
-0.181317 -0.154879 2.277 0.450222 0.372075 0.811702 255 0 0 255
-0.174701 -0.154544 2.272 -0.0345546 0.17459 0.984035 255 0 0 255
-0.168779 -0.154822 2.276 -0.473337 0.163609 0.865554 255 0 0 255
-0.162834 -0.1551 2.28 -0.340167 0.131221 0.931165 255 0 0 255
-0.156729 -0.155242 2.282 -0.30662 0.270963 0.912449 255 0 0 255
-0.150679 -0.155451 2.285 -0.518947 0.351487 0.779199 255 0 0 255
-0.144928 -0.156 2.293 -0.737547 0.336979 0.585209 255 0 0 255
-0.139011 -0.156413 2.299 -0.697027 0.232792 0.678204 255 0 0 255
-0.132946 -0.15669 2.303 -0.702978 0.0210238 0.710901 255 0 0 255
-0.126858 -0.156967 2.307 -0.708617 -0.0150542 0.705433 255 0 0 255
-0.121217 -0.157856 2.32 -0.878782 0.205611 0.430658 255 0 0 255
-0.115456 -0.158676 2.332 -0.81718 0.332131 0.47107 255 0 0 255
-0.109488 -0.159292 2.341 -0.737612 0.227804 0.635637 255 0 0 255
-0.103294 -0.159636 2.346 -0.668496 0.070441 0.740372 255 0 0 255
-0.097155 -0.160116 2.353 -0.735364 0.0937096 0.671161 255 0 0 255
-0.058613 -0.160541 2.359 0.901859 0.0988938 0.42056 255 0 0 255
-0.051926 -0.159862 2.349 0.583643 -0.0525971 0.810305 255 0 0 255
-0.045468 -0.159796 2.348 0.537138 -0.0915463 0.838512 255 0 0 255
-0.038965 -0.159525 2.344 0.679519 -0.0729157 0.730026 255 0 0 255
-0.032442 -0.15905 2.337 0.770066 -0.18054 0.611885 255 0 0 255
-0.025925 -0.15837 2.327 0.681633 -0.132202 0.719652 255 0 0 255
-0.019503 -0.158031 2.322 0.293026 0.033912 0.955503 255 0 0 255
-0.013149 -0.158168 2.324 0.489326 0.136166 0.861405 255 0 0 255
-0.006761 -0.15776 2.318 0.619838 0.240274 0.747041 255 0 0 255
-0.000405 -0.157215 2.31 0.613449 0.369376 0.698027 255 0 0 255
0.00591 -0.156739 2.303 0.269405 0.408847 0.871932 255 0 0 255
0.012234 -0.156874 2.305 -0.000241755 0.515853 0.856677 255 0 0 255
0.018561 -0.156942 2.306 0.180562 0.372925 0.910123 255 0 0 255
0.024861 -0.156805 2.304 0.172853 0.201062 0.964207 255 0 0 255
0.031163 -0.156736 2.303 0.0571917 -0.0766726 0.995415 255 0 0 255
0.037477 -0.156735 2.303 -0.0995442 0.0843205 0.991454 255 0 0 255
0.04379 -0.156733 2.303 -0.32 0.345602 0.882133 255 0 0 255
0.050189 -0.157004 2.307 -0.409867 0.435364 0.80154 255 0 0 255
0.056635 -0.157342 2.312 -0.605346 0.410408 0.681998 255 0 0 255
0.06319 -0.157885 2.32 -0.502634 0.315297 0.804952 255 0 0 255
0.069609 -0.158019 2.322 -0.0873839 0.179132 0.979937 255 0 0 255
0.076005 -0.158084 2.323 0.055242 0.0309699 0.997993 255 0 0 255
0.082265 -0.157877 2.32 0.269247 0.282396 0.920738 255 0 0 255
0.088508 -0.15767 2.317 0.504353 0.192481 0.841771 255 0 0 255
0.094734 -0.157463 2.314 0.4142 -0.008324 0.910148 255 0 0 255
-0.069733 -0.557121 2.6488 -0.714334 0.334894 -0.61447 255 255 0 255
-0.068444 -0.55996 2.63671 -0.720052 0.27363 -0.637693 255 255 0 255
-0.058824 -0.559456 2.62974 -0.807182 0.319127 -0.496604 255 255 0 255
-0.070364 -0.570837 2.59674 -0.31291 0.751018 -0.581429 255 255 0 255
-0.028383 -0.557236 2.61011 -0.500812 0.343875 -0.794316 255 255 0 255
-0.017547 -0.559537 2.59125 -0.944238 0.0203491 -0.328634 255 255 0 255
-0.014616 -0.561696 2.58026 0.956253 -0.291997 -0.0178655 255 255 0 255
-0.247863 -0.163867 2.317 0.70161 0.211486 0.680453 255 0 0 255
-0.240904 -0.163451 2.311 0.43751 0.328907 0.836902 255 0 0 255
-0.234485 -0.163389 2.31 0.454919 0.300409 0.838334 255 0 0 255
-0.227577 -0.162972 2.304 0.592924 0.31025 0.743092 255 0 0 255
-0.220893 -0.162697 2.3 0.452921 0.389274 0.802077 255 0 0 255
-0.21423 -0.162421 2.296 0.443183 0.352085 0.824393 255 0 0 255
-0.207498 -0.162075 2.291 0.424078 0.175189 0.88852 255 0 0 255
-0.201231 -0.162082 2.291 0.244036 0.025531 0.96943 255 0 0 255
-0.194793 -0.161947 2.289 0.368621 0.0476989 0.928355 255 0 0 255
-0.188283 -0.161742 2.286 0.402687 0.294041 0.866824 255 0 0 255
-0.181868 -0.161607 2.284 0.286565 0.51935 0.805081 255 0 0 255
-0.175233 -0.161259 2.279 0.114894 0.637896 0.761503 255 0 0 255
-0.169069 -0.161336 2.28 -0.203605 0.526585 0.82538 255 0 0 255
-0.1629 -0.161413 2.281 -0.298187 0.369106 0.880253 255 0 0 255
-0.156861 -0.161631 2.284 -0.404278 0.307355 0.861448 255 0 0 255
-0.150872 -0.161919 2.288 -0.573347 0.418882 0.704138 255 0 0 255
-0.145049 -0.16242 2.295 -0.696887 0.350599 0.625643 255 0 0 255
-0.139248 -0.162991 2.303 -0.649542 0.351853 0.674013 255 0 0 255
-0.133114 -0.163208 2.306 -0.615685 0.27989 0.73661 255 0 0 255
-0.127128 -0.163638 2.312 -0.716856 0.331218 0.613523 255 0 0 255
-0.121579 -0.164704 2.327 -0.844333 0.369892 0.387663 255 0 0 255
-0.115848 -0.165628 2.34 -0.766255 0.39935 0.503362 255 0 0 255
-0.109718 -0.166057 2.346 -0.514333 0.403839 0.756555 255 0 0 255
-0.103379 -0.166202 2.348 -0.525492 0.41701 0.741593 255 0 0 255
-0.097193 -0.166631 2.354 -0.6652 0.351365 0.658825 255 0 0 255
-0.058884 -0.16778 2.37 0.89276 0.0548657 0.447179 255 0 0 255
-0.052035 -0.166649 2.354 0.59188 0.260749 0.762685 255 0 0 255
-0.045485 -0.166297 2.349 0.63274 0.16671 0.756206 255 0 0 255
-0.038914 -0.165732 2.341 0.770662 0.052946 0.63504 255 0 0 255
-0.032386 -0.165167 2.333 0.789207 0.0087004 0.614066 255 0 0 255
-0.025912 -0.164673 2.326 0.45084 -0.0447422 0.891483 255 0 0 255
-0.019528 -0.164603 2.325 0.164515 0.0159936 0.986245 255 0 0 255
-0.01316 -0.164674 2.326 0.340602 0.149194 0.928295 255 0 0 255
-0.006766 -0.16425 2.32 0.536378 0.122613 0.835024 255 0 0 255
-0.000405 -0.163825 2.314 0.529322 0.232614 0.81591 255 0 0 255
0.005925 -0.163471 2.309 0.27735 0.478316 0.833241 255 0 0 255
0.012255 -0.163471 2.309 0.0515147 0.346414 0.936666 255 0 0 255
0.018568 -0.163329 2.307 0.37918 0.203037 0.902773 255 0 0 255
0.024828 -0.162903 2.301 0.473688 0.112005 0.873541 255 0 0 255
0.031108 -0.16276 2.299 0.12112 0.0763858 0.989694 255 0 0 255
0.03741 -0.162759 2.299 -0.255181 0.0450015 0.965845 255 0 0 255
0.043864 -0.163324 2.307 -0.588577 0.357294 0.725203 255 0 0 255
0.050296 -0.163676 2.312 -0.541297 0.487592 0.685019 255 0 0 255
0.05678 -0.164099 2.318 -0.505981 0.485929 0.712641 255 0 0 255
0.063242 -0.16438 2.322 -0.356371 0.484341 0.799008 255 0 0 255
0.069696 -0.16459 2.325 -0.1086 0.402721 0.908858 255 0 0 255
0.076068 -0.164587 2.325 0.126442 0.382249 0.915368 255 0 0 255
0.082404 -0.164514 2.324 0.163311 0.463116 0.871122 255 0 0 255
0.088734 -0.16444 2.323 0.249347 0.514839 0.820224 255 0 0 255
0.095018 -0.164295 2.321 0.22092 0.483262 0.847144 255 0 0 255
-0.084182 -0.571301 2.65441 -0.435614 0.214799 -0.874129 255 255 0 255
-0.067868 -0.568101 2.65143 -0.748805 0.195031 -0.633446 255 255 0 255
-0.056581 -0.566908 2.64547 -0.788486 -0.0121758 -0.614932 255 255 0 255
-0.065284 -0.573795 2.62724 -0.999947 -0.00943364 -0.0042143 255 255 0 255
-0.073128 -0.580358 2.60946 0.391867 0.78215 -0.48444 255 255 0 255
-0.013214 -0.569413 2.59544 0.959627 -0.151927 -0.236714 255 255 0 255
-0.248068 -0.170353 2.319 0.464105 0.2716 0.843113 255 0 0 255
-0.241313 -0.170068 2.315 0.481661 0.165623 0.860565 255 0 0 255
-0.234579 -0.169783 2.311 0.461295 0.19334 0.865926 255 0 0 255
-0.227767 -0.169424 2.306 0.568354 0.197984 0.798609 255 0 0 255
-0.220885 -0.168991 2.3 0.514161 0.154354 0.84369 255 0 0 255
-0.214503 -0.168925 2.299 0.590174 0.105272 0.800382 255 0 0 255
-0.20749 -0.168345 2.291 0.484345 0.0401116 0.873957 255 0 0 255
-0.201048 -0.168205 2.289 0.311586 0.0621669 0.948182 255 0 0 255
-0.194531 -0.167992 2.286 0.164734 0.149478 0.974946 255 0 0 255
-0.188358 -0.168072 2.287 0.0872222 0.306953 0.94772 255 0 0 255
-0.18218 -0.168152 2.288 0.158544 0.49063 0.856823 255 0 0 255
-0.175688 -0.167938 2.285 0.297054 0.431088 0.852011 255 0 0 255
-0.169286 -0.167798 2.283 -0.0637436 0.425239 0.902834 255 0 0 255
-0.162965 -0.16773 2.282 -0.392617 0.290093 0.872753 255 0 0 255
-0.15713 -0.168177 2.288 -0.522123 0.381325 0.762875 255 0 0 255
-0.151262 -0.168624 2.294 -0.637016 0.350643 0.686485 255 0 0 255
-0.145297 -0.168997 2.299 -0.687845 0.34619 0.637983 255 0 0 255
-0.139364 -0.169443 2.305 -0.657111 0.373425 0.654797 255 0 0 255
-0.133456 -0.169963 2.312 -0.634914 0.490662 0.596771 255 0 0 255
-0.127618 -0.170629 2.321 -0.790718 0.449511 0.415577 255 0 0 255
-0.122045 -0.171737 2.336 -0.826164 0.348961 0.442357 255 0 0 255
-0.116141 -0.172476 2.346 -0.66718 0.259865 0.698099 255 0 0 255
-0.109948 -0.172848 2.351 -0.635041 0.249304 0.731144 255 0 0 255
-0.103683 -0.173146 2.355 -0.49189 0.251676 0.833489 255 0 0 255
-0.058882 -0.17427 2.37 0.853989 0.0841017 0.513448 255 0 0 255
-0.052187 -0.173611 2.361 0.751927 -0.146481 0.642766 255 0 0 255
-0.045581 -0.173098 2.354 0.462362 0.362156 0.809361 255 0 0 255
-0.038962 -0.172364 2.344 0.790348 0.313856 0.52616 255 0 0 255
-0.032371 -0.171483 2.332 0.711869 0.311944 0.629232 255 0 0 255
-0.025911 -0.171043 2.326 0.465805 0.294811 0.834333 255 0 0 255
-0.019527 -0.17097 2.325 0.312915 0.320376 0.894116 255 0 0 255
-0.013143 -0.170824 2.323 0.425421 0.0972581 0.899754 255 0 0 255
-0.006769 -0.170677 2.321 0.580257 0.112646 0.806606 255 0 0 255
-0.000406 -0.170309 2.316 0.521008 0.203089 0.829039 255 0 0 255
0.005933 -0.170015 2.312 0.349753 0.20082 0.915065 255 0 0 255
0.012265 -0.169941 2.311 0.254753 0.159028 0.95384 255 0 0 255
0.018584 -0.169794 2.309 0.346771 0.255337 0.902526 255 0 0 255
0.02487 -0.169499 2.305 0.26402 0.444111 0.856189 255 0 0 255
0.031134 -0.169203 2.301 0.0599753 0.335239 0.940222 255 0 0 255
0.03749 -0.169423 2.304 -0.388401 0.531934 0.752457 255 0 0 255
0.043938 -0.169936 2.311 -0.535694 0.561271 0.630877 255 0 0 255
0.050403 -0.170375 2.317 -0.509998 0.553321 0.658588 255 0 0 255
0.056901 -0.170815 2.323 -0.379055 0.534537 0.755372 255 0 0 255
0.063349 -0.171033 2.326 -0.24313 0.492241 0.835815 255 0 0 255
0.069784 -0.171177 2.328 -0.0410745 0.46772 0.882922 255 0 0 255
0.076163 -0.171175 2.328 0.121393 0.357848 0.925856 255 0 0 255
0.082436 -0.170951 2.325 0.129148 0.378555 0.916524 255 0 0 255
0.088884 -0.171095 2.327 0.132242 0.239691 0.961801 255 0 0 255
-0.079342 -0.584502 2.64595 -0.672619 0.240031 -0.699978 255 255 0 255
-0.058885 -0.579559 2.64554 -0.273224 0.17217 -0.946418 255 255 0 255
-0.061754 -0.58411 2.6309 0.954924 -0.136298 -0.26371 255 255 0 255
-0.061987 -0.594392 2.59194 0.285281 0.944155 -0.164883 255 255 0 255
-0.02009 -0.580528 2.60538 -0.925094 -0.174859 -0.337083 255 255 0 255
-0.029922 -0.591359 2.57335 0.697301 -0.546873 -0.463359 255 255 0 255
-0.247952 -0.176621 2.318 0.55439 0.283749 0.782393 255 0 0 255
-0.2412 -0.176325 2.314 0.50322 0.212962 0.837506 255 0 0 255
-0.23457 -0.176105 2.311 0.476754 0.167268 0.862975 255 0 0 255
-0.228055 -0.175961 2.309 0.601449 0.190032 0.775981 255 0 0 255
-0.221166 -0.175513 2.303 0.611219 0.0798693 0.787421 255 0 0 255
-0.214681 -0.175368 2.301 0.60026 0.0284975 0.799297 255 0 0 255
-0.207664 -0.174766 2.293 0.574995 0.0403276 0.817163 255 0 0 255
-0.201304 -0.174698 2.292 0.327285 0.109579 0.938551 255 0 0 255
-0.194694 -0.1744 2.288 0.0958293 0.108695 0.989445 255 0 0 255
-0.188681 -0.174636 2.291 -0.265586 0.164339 0.949977 255 0 0 255
-0.182412 -0.174643 2.291 0.0621231 0.3069 0.949712 255 0 0 255
-0.175912 -0.174421 2.288 0.26965 0.465618 0.842905 255 0 0 255
-0.169279 -0.174046 2.283 0.0124649 0.536655 0.84371 255 0 0 255
-0.163102 -0.174129 2.284 -0.193139 0.52592 0.828315 255 0 0 255
-0.157262 -0.174592 2.29 -0.585799 0.372294 0.719886 255 0 0 255
-0.151388 -0.175056 2.296 -0.647408 0.307168 0.697503 255 0 0 255
-0.145417 -0.175442 2.301 -0.689856 0.35253 0.632314 255 0 0 255
-0.1396 -0.176058 2.309 -0.711351 0.375291 0.594253 255 0 0 255
-0.133739 -0.176673 2.317 -0.707362 0.483764 0.515375 255 0 0 255
-0.127888 -0.177364 2.326 -0.80464 0.349012 0.480361 255 0 0 255
-0.122144 -0.178284 2.338 -0.819517 0.132746 0.557467 255 0 0 255
-0.116186 -0.178975 2.347 -0.624021 -0.216927 0.750693 255 0 0 255
-0.109944 -0.179284 2.351 -0.627226 -0.226747 0.7451 255 0 0 255
-0.103811 -0.179822 2.358 -0.490513 0.0638733 0.86909 255 0 0 255
-0.098383 -0.181733 2.383 -0.972528 0.232654 0.00787425 255 0 0 255
-0.058557 -0.179768 2.357 0.491802 0.241658 0.8365 255 0 0 255
-0.052141 -0.179923 2.359 0.448871 -0.010576 0.893534 255 0 0 255
-0.045656 -0.179848 2.358 0.216435 0.410423 0.885838 255 0 0 255
-0.039127 -0.179545 2.354 0.613744 0.470644 0.633886 255 0 0 255
-0.032508 -0.178631 2.342 0.759537 0.41358 0.502051 255 0 0 255
-0.026 -0.178022 2.334 0.538546 0.526937 0.657499 255 0 0 255
-0.019568 -0.177718 2.33 0.426287 0.477866 0.768065 255 0 0 255
-0.013153 -0.177337 2.325 0.462694 0.334089 0.821158 255 0 0 255
-0.006772 -0.177109 2.322 0.513542 0.296509 0.805206 255 0 0 255
-0.000406 -0.176728 2.317 0.591988 0.265667 0.760902 255 0 0 255
0.005935 -0.176422 2.313 0.472223 0.254122 0.844054 255 0 0 255
0.012259 -0.176193 2.31 0.239911 0.181606 0.953657 255 0 0 255
0.018575 -0.17604 2.308 0.190651 0.219578 0.956785 255 0 0 255
0.024912 -0.176115 2.309 -0.037203 0.666031 0.744995 255 0 0 255
0.031228 -0.176038 2.308 -0.00551255 0.742154 0.670206 255 0 0 255
0.037651 -0.176494 2.314 -0.342524 0.720845 0.602545 255 0 0 255
0.044051 -0.176722 2.317 -0.367664 0.636269 0.678222 255 0 0 255
0.050575 -0.17733 2.325 -0.381624 0.579127 0.720399 255 0 0 255
0.057021 -0.177557 2.328 -0.274641 0.442801 0.853522 255 0 0 255
0.063455 -0.177707 2.33 -0.206602 0.490031 0.846868 255 0 0 255
0.069841 -0.177704 2.33 -0.138397 0.479123 0.866768 255 0 0 255
0.076291 -0.177854 2.332 0.236195 0.418926 0.876763 255 0 0 255
0.082469 -0.177393 2.326 0.131673 0.417418 0.899124 255 0 0 255
0.088957 -0.177619 2.329 0.048746 0.354879 0.933641 255 0 0 255
-0.071171 -0.596338 2.63952 -0.363057 0.471903 -0.803428 255 255 0 255
-0.048251 -0.590305 2.6407 -0.507204 0.460689 -0.728361 255 255 0 255
-0.054437 -0.596247 2.624 0.396145 0.911616 -0.109662 255 255 0 255
-0.036087 -0.595449 2.60964 0.0797728 -0.993084 -0.0861379 255 255 0 255
-0.033018 -0.604383 2.57282 0.680288 -0.595685 -0.427045 255 255 0 255
-0.248371 -0.183278 2.322 0.569562 0.407105 0.714048 255 0 0 255
-0.241608 -0.182971 2.318 0.518016 0.340653 0.784611 255 0 0 255
-0.234765 -0.182585 2.313 0.453561 0.261595 0.851969 255 0 0 255
-0.228145 -0.182357 2.31 0.621504 0.204808 0.756166 255 0 0 255
-0.220965 -0.181655 2.301 0.631467 0.0539724 0.773522 255 0 0 255
-0.214207 -0.181269 2.296 0.623095 0.0109759 0.782069 255 0 0 255
-0.207475 -0.180882 2.291 0.394068 0.156671 0.90563 255 0 0 255
-0.201121 -0.180811 2.29 0.257017 0.0860804 0.962566 255 0 0 255
-0.194686 -0.180661 2.288 0.124803 0.108673 0.986212 255 0 0 255
-0.188591 -0.180826 2.29 -0.169127 -0.0242386 0.985296 255 0 0 255
-0.182565 -0.18107 2.293 -0.0781713 0.13731 0.987439 255 0 0 255
-0.17629 -0.181077 2.293 -0.0243127 0.161762 0.98653 255 0 0 255
-0.169866 -0.180926 2.291 0.142541 0.523462 0.840042 255 0 0 255
-0.163667 -0.181011 2.292 -0.148245 0.580914 0.800351 255 0 0 255
-0.157736 -0.181413 2.297 -0.457684 0.315102 0.831406 255 0 0 255
-0.151778 -0.181814 2.302 -0.692892 0.292919 0.658862 255 0 0 255
-0.145917 -0.182372 2.309 -0.772942 0.249499 0.583362 255 0 0 255
-0.139958 -0.182852 2.315 -0.781942 0.337717 0.523941 255 0 0 255
-0.134253 -0.183726 2.326 -0.759874 0.139225 0.634987 255 0 0 255
-0.128158 -0.184126 2.331 -0.76896 0.0639437 0.636091 255 0 0 255
-0.122244 -0.184842 2.34 -0.740786 -0.033603 0.6709 255 0 0 255
-0.115983 -0.185084 2.343 -0.612889 -0.209467 0.7619 255 0 0 255
-0.109752 -0.185404 2.347 -0.640924 -0.272349 0.717664 255 0 0 255
-0.103543 -0.185803 2.352 -0.647579 -0.0580318 0.759785 255 0 0 255
-0.058554 -0.186221 2.357 -0.0474722 -0.0158248 0.998747 255 0 0 255
-0.052205 -0.186618 2.362 -0.0947008 0.238771 0.966447 255 0 0 255
-0.045771 -0.186778 2.364 0.391093 0.287644 0.874246 255 0 0 255
-0.039208 -0.186385 2.359 0.644797 0.137311 0.751919 255 0 0 255
-0.032618 -0.185676 2.35 0.75991 0.314139 0.569081 255 0 0 255
-0.026054 -0.184808 2.339 0.611016 0.401766 0.682087 255 0 0 255
-0.01961 -0.184492 2.335 0.5322 0.379045 0.757026 255 0 0 255
-0.013181 -0.184098 2.33 0.517344 0.365626 0.77374 255 0 0 255
-0.006786 -0.183861 2.327 0.555973 0.297928 0.775972 255 0 0 255
-0.000407 -0.183387 2.321 0.600907 0.25613 0.757171 255 0 0 255
0.00594 -0.182913 2.315 0.433978 0.352751 0.828993 255 0 0 255
0.012269 -0.182676 2.312 0.270459 0.333736 0.903035 255 0 0 255
0.018607 -0.182675 2.312 -0.107188 0.559471 0.82189 255 0 0 255
0.024998 -0.183069 2.317 -0.239272 0.663944 0.708468 255 0 0 255
0.031389 -0.183305 2.32 -0.303982 0.696353 0.650144 255 0 0 255
0.037813 -0.18362 2.324 -0.346423 0.624964 0.699579 255 0 0 255
0.044182 -0.183618 2.324 -0.346423 0.624964 0.699579 255 0 0 255
0.050639 -0.183932 2.328 -0.316606 0.486537 0.814274 255 0 0 255
0.057092 -0.184167 2.331 -0.262439 0.473497 0.840789 255 0 0 255
0.063562 -0.184402 2.334 -0.195411 0.428815 0.882005 255 0 0 255
0.069988 -0.184478 2.335 -0.136202 0.447102 0.884053 255 0 0 255
0.076386 -0.184475 2.335 0.133986 0.471379 0.871693 255 0 0 255
0.082501 -0.18384 2.327 0.135559 0.385502 0.912695 255 0 0 255
0.089144 -0.18439 2.334 0.0166786 0.520878 0.853468 255 0 0 255
-0.02512 -0.602586 2.61797 -0.16271 0.978692 -0.125246 255 255 0 255
-0.010599 -0.599902 2.61425 -0.863235 0.0849368 -0.497606 255 255 0 255
-0.249217 -0.190282 2.33 0.586439 0.331593 0.73901 255 0 0 255
-0.242224 -0.189801 2.324 0.61196 0.316115 0.724966 255 0 0 255
-0.235263 -0.189321 2.318 0.576534 0.317551 0.752842 255 0 0 255
-0.228334 -0.188839 2.312 0.590029 0.272159 0.760128 255 0 0 255
-0.221341 -0.188277 2.305 0.640331 0.288539 0.711844 255 0 0 255
-0.214478 -0.187795 2.299 0.622047 0.218756 0.7518 255 0 0 255
-0.207829 -0.187477 2.295 0.520365 0.268789 0.810538 255 0 0 255
-0.201289 -0.18724 2.292 0.372108 0.193931 0.907704 255 0 0 255
-0.194764 -0.187002 2.289 0.0347105 0.214136 0.976187 255 0 0 255
-0.188502 -0.18701 2.289 -0.242418 0.11688 0.963106 255 0 0 255
-0.182398 -0.187181 2.291 -0.145712 0.145077 0.978632 255 0 0 255
-0.176206 -0.18727 2.292 -0.0383993 0.279547 0.959364 255 0 0 255
-0.169934 -0.187277 2.292 -0.0755923 0.347725 0.934544 255 0 0 255
-0.163732 -0.187365 2.293 -0.230292 0.474031 0.849859 255 0 0 255
-0.157524 -0.187453 2.294 -0.453503 0.437804 0.776314 255 0 0 255
-0.15164 -0.18795 2.3 -0.696074 0.186536 0.693315 255 0 0 255
-0.145848 -0.18861 2.308 -0.784691 -0.00383889 0.619876 255 0 0 255
-0.140134 -0.189433 2.318 -0.831278 -0.130563 0.540305 255 0 0 255
-0.134306 -0.190174 2.327 -0.703883 -0.0601153 0.707767 255 0 0 255
-0.128153 -0.190506 2.331 -0.744561 -0.200224 0.63682 255 0 0 255
-0.122135 -0.191083 2.338 -0.760292 -0.0503246 0.647629 255 0 0 255
-0.11588 -0.191333 2.341 -0.575366 -0.0236133 0.817555 255 0 0 255
-0.109701 -0.191747 2.346 -0.629733 0.0272842 0.776332 255 0 0 255
-0.103539 -0.192241 2.352 -0.738814 0.067575 0.670512 255 0 0 255
-0.059024 -0.194227 2.376 0.737457 0.399301 0.544716 255 0 0 255
-0.052247 -0.193248 2.364 0.49218 0.548611 0.675859 255 0 0 255
-0.045749 -0.193168 2.363 0.571311 0.202572 0.795342 255 0 0 255
-0.039157 -0.192598 2.356 0.70886 0.104707 0.697535 255 0 0 255
-0.032589 -0.191945 2.348 0.72874 0.289933 0.620384 255 0 0 255
-0.026075 -0.191374 2.341 0.613028 0.451194 0.648552 255 0 0 255
-0.019634 -0.19113 2.338 0.674362 0.303404 0.673188 255 0 0 255
-0.013198 -0.190722 2.333 0.600864 0.109323 0.79184 255 0 0 255
-0.006789 -0.190314 2.328 0.627511 0.104057 0.771623 255 0 0 255
-0.000407 -0.189905 2.323 0.586808 0.106338 0.802713 255 0 0 255
0.00595 -0.189578 2.319 0.353827 0.36324 0.861895 255 0 0 255
0.01228 -0.189169 2.314 0.0901307 0.519892 0.849464 255 0 0 255
0.018638 -0.189332 2.316 -0.177972 0.570266 0.801949 255 0 0 255
0.02504 -0.18974 2.321 -0.424713 0.410789 0.806766 255 0 0 255
0.031442 -0.189984 2.324 -0.403935 0.365869 0.838437 255 0 0 255
0.03786 -0.190227 2.327 -0.41454 0.445803 0.793357 255 0 0 255
0.044294 -0.190471 2.33 -0.303032 0.583193 0.753696 255 0 0 255
