ply
format ascii 1.0
comment VCGLIB generated
element vertex 730
property float x
property float y
property float z
property float nx
property float ny
property float nz
property uchar red
property uchar green
property uchar blue
property uchar alpha
element face 0
property list uchar int vertex_indices
end_header
-0.238198 0.567262 2.078 0.224359 -0.31123 0.923471 255 0 0 255
-0.232095 0.566187 2.074 0.310271 -0.312027 0.897982 255 0 0 255
-0.22634 0.565931 2.073 0.215136 -0.376235 0.901201 255 0 0 255
-0.220485 0.565402 2.071 0.20449 -0.377937 0.902966 255 0 0 255
-0.214639 0.564873 2.069 0.124179 -0.452558 0.883046 255 0 0 255
-0.208905 0.564616 2.068 0.0636838 -0.457563 0.886894 255 0 0 255
-0.203275 0.564632 2.068 0.0150817 -0.502125 0.864664 255 0 0 255
-0.197643 0.564647 2.068 -0.0252766 -0.503234 0.86378 255 0 0 255
-0.192012 0.564662 2.068 0.0174527 -0.541996 0.8402 255 0 0 255
-0.18638 0.564677 2.068 0.0218378 -0.563804 0.82562 255 0 0 255
-0.180748 0.564691 2.068 0.19329 -0.519214 0.832499 255 0 0 255
-0.174861 0.563886 2.065 0.424403 -0.341096 0.83877 255 0 0 255
-0.16817 0.56035 2.052 0.632317 -0.0737477 0.771192 255 0 0 255
-0.162264 0.559271 2.048 0.211507 -0.21112 0.954303 255 0 0 255
-0.156837 0.559829 2.05 -0.539546 -0.339436 0.770502 255 0 0 255
-0.151916 0.562299 2.059 -0.763395 -0.254589 0.593643 255 0 0 255
-0.146661 0.563677 2.064 -0.376738 -0.0317717 0.925775 255 0 0 255
-0.141242 0.564508 2.067 -0.0613107 0.254915 0.965018 255 0 0 255
-0.135544 0.564246 2.066 0.421364 0.302838 0.854834 255 0 0 255
-0.129725 0.563437 2.063 0.443306 0.365459 0.818486 255 0 0 255
-0.123982 0.562901 2.061 0.368093 0.452379 0.812318 255 0 0 255
-0.11825 0.562365 2.059 0.236437 0.515457 0.823651 255 0 0 255
-0.112584 0.562101 2.058 0.177913 0.591524 0.786414 255 0 0 255
-0.10687 0.561564 2.056 0.0712557 0.742137 0.66645 255 0 0 255
-0.101266 0.561573 2.056 0.0606793 0.755687 0.652115 255 0 0 255
-0.095661 0.561581 2.056 -0.250919 0.658023 0.709961 255 0 0 255
-0.090188 0.562408 2.059 -0.531101 0.443178 0.722167 255 0 0 255
-0.084739 0.563508 2.063 -0.531269 0.409089 0.741889 255 0 0 255
-0.07923 0.564334 2.066 -0.350389 0.437555 0.828115 255 0 0 255
-0.073668 0.564887 2.068 -0.358961 0.351491 0.864639 255 0 0 255
-0.068096 0.565439 2.07 -0.594114 0.274093 0.756242 255 0 0 255
-0.062602 0.56681 2.075 -0.694728 0.200254 0.690834 255 0 0 255
-0.057109 0.568454 2.081 -0.617034 0.188199 0.764101 255 0 0 255
-0.051509 0.569278 2.084 -0.580345 0.0455196 0.813097 255 0 0 255
-0.045915 0.570375 2.088 -0.384048 -0.16492 0.908465 255 0 0 255
-0.040125 0.569013 2.083 0.417241 -0.493275 0.763275 255 0 0 255
-0.034263 0.566011 2.072 0.589808 -0.523185 0.615145 255 0 0 255
-0.028475 0.563282 2.062 0.0590198 -0.597524 0.799676 255 0 0 255
-0.022896 0.564377 2.066 -0.552225 -0.161894 0.817825 255 0 0 255
-0.017371 0.56793 2.079 -0.792045 -0.145423 0.592888 255 0 0 255
-0.011752 0.570389 2.088 -0.495358 -0.313594 0.810111 255 0 0 255
-0.006061 0.570663 2.089 0.00819319 -0.498333 0.866947 255 0 0 255
-0.000364 0.570664 2.089 0.0237777 -0.586147 0.809855 255 0 0 255
0.005328 0.570117 2.087 -0.0444868 -0.580611 0.812965 255 0 0 255
0.011024 0.57039 2.088 -0.149637 -0.604239 0.782627 255 0 0 255
0.016758 0.571754 2.093 -0.269557 -0.692585 0.669078 255 0 0 255
0.02253 0.573392 2.099 -0.249645 -0.776999 0.577884 255 0 0 255
0.028308 0.574482 2.103 -0.21996 -0.81631 0.534093 255 0 0 255
0.034042 0.57448 2.103 -0.236475 -0.813607 0.531152 255 0 0 255
0.039928 0.576662 2.111 -0.329807 -0.811524 0.482344 255 0 0 255
-0.156593 0.68696 2.15593 -0.862943 -0.337062 -0.376455 0 255 0 255
-0.290765 0.564711 2.09 0.447401 -0.75753 0.475375 255 0 0 255
-0.283445 0.561489 2.078 0.343361 -0.705435 0.620052 255 0 0 255
-0.277392 0.560699 2.075 0.203686 -0.698322 0.686191 255 0 0 255
-0.271486 0.560178 2.073 0.109013 -0.711203 0.694483 255 0 0 255
-0.265846 0.560197 2.073 0.00938467 -0.729487 0.683931 255 0 0 255
-0.260207 0.560216 2.073 -0.0851032 -0.681314 0.727027 255 0 0 255
-0.254812 0.560775 2.075 -0.0731942 -0.581707 0.810098 255 0 0 255
-0.249406 0.561334 2.077 -0.0444455 -0.45264 0.890585 255 0 0 255
-0.243636 0.561082 2.076 0.0147502 -0.433307 0.901126 255 0 0 255
-0.237872 0.56083 2.075 0.243251 -0.380062 0.892403 255 0 0 255
-0.231776 0.559766 2.071 0.320479 -0.338677 0.884642 255 0 0 255
-0.22603 0.559513 2.07 0.274769 -0.299327 0.913732 255 0 0 255
-0.220075 0.558719 2.067 0.228404 -0.343879 0.910812 255 0 0 255
-0.214448 0.558736 2.067 0.167247 -0.25134 0.95334 255 0 0 255
-0.208618 0.558212 2.065 0.127852 -0.310088 0.942072 255 0 0 255
-0.202995 0.558227 2.065 0.0529641 -0.393384 0.917847 255 0 0 255
-0.197372 0.558243 2.065 0.0333165 -0.443157 0.895825 255 0 0 255
-0.191748 0.558258 2.065 0.0590617 -0.486547 0.871656 255 0 0 255
-0.185944 0.557732 2.063 0.107582 -0.524167 0.844793 255 0 0 255
-0.180325 0.557746 2.063 0.130464 -0.522284 0.842733 255 0 0 255
-0.174621 0.55749 2.062 0.539356 -0.423996 0.727545 255 0 0 255
-0.168184 0.5548 2.052 0.727422 -0.158752 0.667574 255 0 0 255
-0.162118 0.553191 2.046 0.368912 -0.279175 0.886547 255 0 0 255
-0.15662 0.553474 2.047 -0.461826 -0.434426 0.773299 255 0 0 255
-0.151707 0.55592 2.056 -0.808639 -0.197487 0.554168 255 0 0 255
-0.146673 0.558095 2.064 -0.620715 -0.0641379 0.781409 255 0 0 255
-0.14139 0.559458 2.069 -0.256303 0.0535679 0.965111 255 0 0 255
-0.13562 0.558929 2.067 0.348646 0.228664 0.908933 255 0 0 255
-0.129861 0.558399 2.065 0.365202 0.11991 0.923173 255 0 0 255
-0.124053 0.557598 2.062 0.296788 0.175241 0.938727 255 0 0 255
-0.118375 0.557338 2.061 0.210574 0.268876 0.939875 255 0 0 255
-0.112702 0.557077 2.06 0.125792 0.362395 0.923497 255 0 0 255
-0.107139 0.557356 2.061 0.00126037 0.466983 0.884265 255 0 0 255
-0.10152 0.557365 2.061 0.03356 0.478388 0.877507 255 0 0 255
-0.095855 0.557102 2.06 -0.130256 0.395125 0.909346 255 0 0 255
-0.090327 0.557651 2.062 -0.459381 0.299809 0.836113 255 0 0 255
-0.084828 0.55847 2.065 -0.535542 0.254948 0.805107 255 0 0 255
-0.079313 0.559288 2.068 -0.358976 0.326274 0.874461 255 0 0 255
-0.073674 0.559294 2.068 -0.303195 0.346435 0.887725 255 0 0 255
-0.068134 0.560111 2.071 -0.560426 0.242124 0.792022 255 0 0 255
-0.062638 0.561469 2.076 -0.661384 0.114749 0.741217 255 0 0 255
-0.057087 0.562556 2.08 -0.591389 0.0941179 0.800875 255 0 0 255
-0.051464 0.563102 2.082 -0.387961 -0.0618099 0.919601 255 0 0 255
-0.045852 0.563917 2.085 0.267014 -0.237991 0.933843 255 0 0 255
-0.039993 0.561486 2.076 0.661969 -0.459781 0.591945 255 0 0 255
-0.034133 0.558244 2.064 0.419588 -0.581083 0.697343 255 0 0 255
-0.028394 0.556083 2.056 -0.294288 -0.55007 0.781548 255 0 0 255
-0.022876 0.558249 2.064 -0.707417 -0.387165 0.591324 255 0 0 255
-0.017364 0.562037 2.078 -0.698975 -0.27414 0.660515 255 0 0 255
-0.011742 0.564202 2.086 -0.429203 -0.360522 0.828136 255 0 0 255
-0.006047 0.563662 2.084 0.0815053 -0.462258 0.882992 255 0 0 255
-0.000363 0.563662 2.084 0.0481979 -0.508621 0.85964 255 0 0 255
0.005318 0.563391 2.083 0.0242793 -0.508919 0.860472 255 0 0 255
0.011009 0.563932 2.085 -0.150342 -0.54936 0.821949 255 0 0 255
0.016703 0.564201 2.086 -0.208982 -0.591905 0.778444 255 0 0 255
0.022425 0.565011 2.089 -0.211193 -0.667196 0.714315 255 0 0 255
0.028135 0.565279 2.09 -0.167316 -0.685387 0.708695 255 0 0 255
0.033835 0.565276 2.09 -0.17636 -0.590914 0.787221 255 0 0 255
0.039629 0.566626 2.095 -0.306641 -0.754411 0.580374 255 0 0 255
0.045515 0.568786 2.103 -0.377102 -0.765122 0.521903 255 0 0 255
-0.090384 0.670742 2.10837 0.431557 -0.90085 -0.0471914 0 255 0 255
-0.138882 0.677454 2.15637 -0.852126 -0.423223 -0.307838 0 255 0 255
-0.295051 0.556361 2.08 0.422553 -0.688278 0.58968 255 0 0 255
-0.288838 0.555312 2.076 0.340777 -0.66131 0.668237 255 0 0 255
-0.282373 0.553727 2.07 0.258378 -0.645792 0.718466 255 0 0 255
-0.276476 0.553212 2.068 0.187889 -0.621703 0.760383 255 0 0 255
-0.270457 0.552429 2.065 0.123161 -0.622631 0.772763 255 0 0 255
-0.26484 0.552448 2.065 -0.0228407 -0.642242 0.766162 255 0 0 255
-0.259221 0.552467 2.065 -0.175862 -0.60644 0.775437 255 0 0 255
-0.254094 0.553556 2.069 -0.20474 -0.621287 0.756363 255 0 0 255
-0.248704 0.55411 2.071 -0.0976058 -0.618882 0.779396 255 0 0 255
-0.243185 0.554396 2.072 -0.0732225 -0.585162 0.807604 255 0 0 255
-0.237546 0.554414 2.072 0.0952517 -0.476979 0.873738 255 0 0 255
-0.23157 0.553629 2.069 0.234468 -0.278828 0.931279 255 0 0 255
-0.225829 0.553378 2.068 0.30055 -0.12016 0.946167 255 0 0 255
-0.219879 0.552593 2.065 0.20706 -0.0940196 0.9738 255 0 0 255
-0.214361 0.552877 2.066 0.121821 -0.0610881 0.99067 255 0 0 255
-0.208533 0.552358 2.064 0.168382 -0.149124 0.974377 255 0 0 255
-0.202814 0.552106 2.063 0.181897 -0.245937 0.952066 255 0 0 255
-0.197005 0.551586 2.061 0.13329 -0.335884 0.932425 255 0 0 255
-0.191392 0.551601 2.061 0.151438 -0.41017 0.899348 255 0 0 255
-0.185688 0.551349 2.06 0.163717 -0.45875 0.873353 255 0 0 255
-0.179902 0.550828 2.058 0.121565 -0.496123 0.8597 255 0 0 255
-0.174296 0.550842 2.058 0.396269 -0.493687 0.774109 255 0 0 255
-0.168033 0.548714 2.05 0.675722 -0.20443 0.708243 255 0 0 255
-0.161972 0.547121 2.044 0.471164 -0.302427 0.828579 255 0 0 255
-0.156403 0.547134 2.044 -0.397382 -0.33044 0.856094 255 0 0 255
-0.151571 0.549823 2.054 -0.82861 -0.270201 0.490303 255 0 0 255
-0.146685 0.552512 2.064 -0.683448 -0.214068 0.697906 255 0 0 255
-0.141401 0.553862 2.069 -0.286545 -0.0771146 0.954958 255 0 0 255
-0.135631 0.553338 2.067 0.257316 -0.0582244 0.964571 255 0 0 255
-0.129872 0.552813 2.065 0.315279 0.0563305 0.947326 255 0 0 255
-0.124183 0.552556 2.064 0.240671 0.133153 0.96143 255 0 0 255
-0.118499 0.552298 2.063 0.123985 0.204446 0.970994 255 0 0 255
-0.112821 0.55204 2.062 0.000261334 0.255028 0.966934 255 0 0 255
-0.1072 0.552049 2.062 -0.0619816 0.255461 0.964831 255 0 0 255
-0.101627 0.552326 2.063 0.0932259 0.166594 0.981609 255 0 0 255
-0.095956 0.552066 2.062 -0.0616597 0.139647 0.98828 255 0 0 255
-0.090378 0.552342 2.063 -0.408523 0.252371 0.877165 255 0 0 255
-0.084876 0.553152 2.066 -0.554086 0.231529 0.799614 255 0 0 255
-0.079396 0.55423 2.07 -0.388691 0.290302 0.874439 255 0 0 255
-0.073752 0.554236 2.07 -0.329228 0.38585 0.861817 255 0 0 255
-0.068206 0.555046 2.073 -0.515471 0.32566 0.792613 255 0 0 255
-0.062643 0.555854 2.076 -0.545594 0.186267 0.817088 255 0 0 255
-0.057119 0.557198 2.081 -0.42615 -0.0754495 0.901501 255 0 0 255
-0.051518 0.558006 2.084 -0.264476 -0.154757 0.951894 255 0 0 255
-0.04579 0.557475 2.082 0.219356 -0.422302 0.879514 255 0 0 255
-0.039862 0.553997 2.069 0.728696 -0.465053 0.502721 255 0 0 255
-0.033987 0.550252 2.055 0.388036 -0.555748 0.735236 255 0 0 255
-0.028314 0.548916 2.05 -0.558676 -0.252805 0.789918 255 0 0 255
-0.022833 0.551595 2.06 -0.75648 -0.277879 0.592048 255 0 0 255
-0.017323 0.555078 2.073 -0.722373 -0.355291 0.59325 255 0 0 255
-0.011726 0.557757 2.083 -0.402589 -0.465203 0.788358 255 0 0 255
-0.006039 0.557222 2.081 0.0710293 -0.501801 0.862062 255 0 0 255
-0.000363 0.55749 2.082 0.0596231 -0.427866 0.901874 255 0 0 255
0.005308 0.556687 2.079 0.0458888 -0.38518 0.9217 255 0 0 255
0.010984 0.556954 2.08 -0.0358474 -0.42935 0.902427 255 0 0 255
0.016657 0.556953 2.08 -0.180418 -0.413112 0.89263 255 0 0 255
0.022362 0.557754 2.083 -0.1988 -0.493611 0.846656 255 0 0 255
0.02807 0.558288 2.085 -0.0821734 -0.493098 0.866085 255 0 0 255
0.033757 0.558285 2.085 -0.139629 -0.51556 0.8454 255 0 0 255
0.039462 0.55855 2.086 -0.205107 -0.587309 0.782943 255 0 0 255
0.045238 0.559617 2.09 -0.346777 -0.662959 0.663499 255 0 0 255
0.051157 0.562023 2.099 -0.406754 -0.717925 0.56492 255 0 0 255
0.057098 0.56416 2.107 -0.453293 -0.735498 0.503555 255 0 0 255
-0.105215 0.647217 2.04558 0.946765 0.308355 -0.0924821 0 255 0 255
-0.108391 0.649932 2.06053 -0.977928 -0.204681 -0.0419758 0 255 0 255
-0.101169 0.656459 2.09263 -0.487835 0.79238 -0.366267 0 255 0 255
-0.076029 0.656513 2.0865 0.302747 0.856769 -0.417481 0 255 0 255
-0.085428 0.6598 2.10595 0.431557 -0.90085 -0.0471914 0 255 0 255
-0.084201 0.662093 2.11752 0.523638 -0.656274 -0.543238 0 255 0 255
-0.308298 0.554133 2.093 0.490358 -0.698612 0.521047 255 0 0 255
-0.300294 0.549918 2.077 0.436064 -0.641343 0.63129 255 0 0 255
-0.293511 0.54782 2.069 0.382027 -0.637935 0.668652 255 0 0 255
-0.287467 0.547046 2.066 0.306785 -0.640199 0.704293 255 0 0 255
-0.281575 0.546537 2.064 0.19339 -0.612112 0.766759 255 0 0 255
-0.275827 0.546292 2.063 0.138965 -0.590128 0.795259 255 0 0 255
-0.269953 0.545782 2.061 0.060756 -0.526795 0.847818 255 0 0 255
-0.264346 0.545802 2.061 -0.105254 -0.480318 0.870756 255 0 0 255
-0.258864 0.546085 2.062 -0.200233 -0.46865 0.860392 255 0 0 255
-0.253498 0.546634 2.064 -0.191776 -0.465909 0.8638 255 0 0 255
-0.248002 0.546917 2.065 -0.152454 -0.55273 0.819297 255 0 0 255
-0.242499 0.547201 2.066 -0.140561 -0.558805 0.8173 255 0 0 255
-0.237105 0.547748 2.068 -0.0636887 -0.488414 0.870285 255 0 0 255
-0.231476 0.547766 2.068 -0.0546142 -0.306403 0.950334 255 0 0 255
-0.225846 0.547783 2.068 0.15754 -0.0125391 0.987433 255 0 0 255
-0.219896 0.547006 2.065 0.180972 0.0124995 0.983409 255 0 0 255
-0.214377 0.547287 2.066 0.211349 -0.0750574 0.974525 255 0 0 255
-0.208549 0.546774 2.064 0.278746 -0.176384 0.944028 255 0 0 255
-0.202732 0.54626 2.062 0.23143 -0.266807 0.93555 255 0 0 255
-0.196925 0.545746 2.06 0.215953 -0.328399 0.919521 255 0 0 255
-0.191314 0.545761 2.06 0.231884 -0.384876 0.893364 255 0 0 255
-0.185342 0.544716 2.056 0.240139 -0.412407 0.87878 255 0 0 255
-0.179654 0.544465 2.055 0.169501 -0.419277 0.891895 255 0 0 255
-0.173971 0.544214 2.054 0.386227 -0.256785 0.88594 255 0 0 255
-0.167883 0.542638 2.048 0.670351 -0.146596 0.72742 255 0 0 255
-0.161748 0.540797 2.041 0.217119 -0.228396 0.949049 255 0 0 255
-0.156186 0.54081 2.041 -0.548039 -0.320617 0.772566 255 0 0 255
-0.151288 0.543207 2.05 -0.762408 -0.329333 0.557023 255 0 0 255
-0.146412 0.545869 2.06 -0.70525 -0.306591 0.639237 255 0 0 255
-0.141208 0.54747 2.066 -0.281782 -0.228922 0.931769 255 0 0 255
-0.135577 0.547481 2.066 0.118243 -0.149891 0.981606 255 0 0 255
-0.129882 0.547227 2.065 0.227738 -0.0192827 0.973531 255 0 0 255
-0.124133 0.546708 2.063 0.123793 0.106285 0.9866 255 0 0 255
-0.118509 0.546718 2.063 0.03235 0.183176 0.982548 255 0 0 255
-0.112885 0.546727 2.063 0.000136675 0.2782 0.960523 255 0 0 255
-0.107312 0.547002 2.064 0.0320005 0.195247 0.980232 255 0 0 255
-0.101636 0.546745 2.063 0.122677 0.142469 0.982167 255 0 0 255
-0.095964 0.546488 2.062 -0.0299758 0.115383 0.992869 255 0 0 255
-0.090429 0.547026 2.064 -0.352819 0.080788 0.932198 255 0 0 255
-0.084924 0.547829 2.067 -0.553431 0.0286175 0.832403 255 0 0 255
-0.07948 0.549161 2.072 -0.437757 0.0325222 0.898505 255 0 0 255
-0.073865 0.549432 2.073 -0.441729 0.162492 0.88231 255 0 0 255
-0.068343 0.550498 2.077 -0.473447 0.15043 0.867881 255 0 0 255
-0.062709 0.550769 2.078 -0.433621 0.0290479 0.900627 255 0 0 255
-0.057096 0.551304 2.08 -0.261766 -0.236535 0.935697 255 0 0 255
-0.051399 0.551043 2.079 0.135514 -0.40202 0.905547 255 0 0 255
-0.045618 0.549722 2.074 0.582305 -0.511985 0.6315 255 0 0 255
-0.039749 0.54681 2.063 0.736174 -0.448118 0.507186 255 0 0 255
-0.033941 0.543898 2.052 0.444733 -0.184375 0.876481 255 0 0 255
-0.028316 0.54337 2.05 -0.517428 -0.18774 0.834878 255 0 0 255
-0.022813 0.545493 2.058 -0.697873 -0.101777 0.708953 255 0 0 255
-0.0173 0.548675 2.07 -0.678165 -0.319265 0.661938 255 0 0 255
-0.011693 0.550532 2.077 -0.37209 -0.537632 0.756638 255 0 0 255
-0.006025 0.550268 2.076 -0.100087 -0.584066 0.805512 255 0 0 255
-0.000362 0.551063 2.079 -0.0569818 -0.434902 0.898673 255 0 0 255
0.005308 0.551063 2.079 -0.0189028 -0.367323 0.929902 255 0 0 255
0.010979 0.551062 2.079 -0.0298151 -0.275143 0.960941 255 0 0 255
0.01665 0.551061 2.079 -0.107043 -0.295486 0.949331 255 0 0 255
0.022342 0.55159 2.081 -0.209894 -0.351187 0.912476 255 0 0 255
0.028046 0.552118 2.083 -0.0932586 -0.392722 0.914917 255 0 0 255
0.033727 0.552115 2.083 -0.0535964 -0.408926 0.910992 255 0 0 255
0.03939 0.551847 2.082 -0.0469205 -0.362159 0.930934 255 0 0 255
0.045112 0.552373 2.084 -0.192477 -0.50249 0.842886 255 0 0 255
0.050869 0.553164 2.087 -0.318863 -0.550756 0.771359 255 0 0 255
0.056669 0.55422 2.091 -0.434281 -0.668707 0.603515 255 0 0 255
0.062611 0.556336 2.099 -0.498994 -0.68527 0.530481 255 0 0 255
-0.096776 0.635856 2.04039 -0.698601 -0.715289 -0.0178488 0 255 0 255
-0.103467 0.638946 2.05802 -0.942745 -0.2832 -0.176153 0 255 0 255
-0.110177 0.642026 2.0756 -0.876606 0.444616 -0.184063 0 255 0 255
-0.119555 0.645354 2.09509 -0.887271 -0.0997566 -0.450331 0 255 0 255
-0.114802 0.647296 2.10399 -0.996544 0.0434869 -0.0707744 0 255 0 255
-0.111818 0.649412 2.1142 0.421094 -0.776011 -0.469559 0 255 0 255
-0.101746 0.650851 2.11919 0.354599 -0.779599 -0.516222 0 255 0 255
-0.087229 0.651879 2.12098 0.305221 -0.653778 -0.692398 0 255 0 255
-0.31236 0.545564 2.082 0.510839 -0.664787 0.54507 255 0 0 255
-0.305521 0.543489 2.074 0.484484 -0.61342 0.623692 255 0 0 255
-0.299303 0.542462 2.07 0.419544 -0.586469 0.692847 255 0 0 255
-0.292681 0.540648 2.063 0.378113 -0.554456 0.741356 255 0 0 255
-0.286652 0.539883 2.06 0.225612 -0.584204 0.779619 255 0 0 255
-0.28064 0.539117 2.057 0.169381 -0.569409 0.804415 255 0 0 255
-0.275045 0.539137 2.057 0.0442476 -0.557637 0.828905 255 0 0 255
-0.269449 0.539156 2.057 -0.0729896 -0.469805 0.879748 255 0 0 255
-0.26398 0.539438 2.058 -0.159704 -0.406661 0.899512 255 0 0 255
-0.258506 0.539719 2.059 -0.319892 -0.298894 0.899073 255 0 0 255
-0.253272 0.540524 2.062 -0.172643 -0.221689 0.959713 255 0 0 255
-0.24766 0.540543 2.062 -0.0523502 -0.186639 0.981033 255 0 0 255
-0.242048 0.540561 2.062 -0.10502 -0.273381 0.956156 255 0 0 255
-0.236664 0.541104 2.064 -0.23949 -0.341374 0.908905 255 0 0 255
-0.231381 0.541908 2.067 -0.168194 -0.2883 0.942653 255 0 0 255
-0.225863 0.542187 2.068 0.0650388 -0.103548 0.992496 255 0 0 255
-0.220126 0.541942 2.067 0.209425 0.000603747 0.977825 255 0 0 255
-0.214394 0.541697 2.066 0.32839 -0.138405 0.934347 255 0 0 255
-0.208363 0.540664 2.062 0.410344 -0.198839 0.889989 255 0 0 255
-0.202453 0.539894 2.059 0.304262 -0.310748 0.900478 255 0 0 255
-0.196653 0.539385 2.057 0.268417 -0.376291 0.886768 255 0 0 255
-0.190957 0.539138 2.056 0.256677 -0.393539 0.882748 255 0 0 255
-0.185086 0.538366 2.053 0.184436 -0.294583 0.937659 255 0 0 255
-0.179406 0.538118 2.052 0.0576194 -0.250114 0.966501 255 0 0 255
-0.173815 0.538132 2.052 0.42364 -0.0863159 0.901709 255 0 0 255
-0.167814 0.536835 2.047 0.697291 -0.00796067 0.716744 255 0 0 255
-0.161761 0.535275 2.041 0.57595 -0.0587399 0.815372 255 0 0 255
-0.156046 0.534763 2.039 -0.381243 -0.262607 0.886392 255 0 0 255
-0.151079 0.536873 2.047 -0.731047 -0.230769 0.642118 255 0 0 255
-0.14614 0.539246 2.056 -0.725264 -0.371888 0.579388 255 0 0 255
-0.141083 0.541356 2.064 -0.443281 -0.392803 0.805734 255 0 0 255
-0.135588 0.541892 2.066 0.0330134 -0.157659 0.986942 255 0 0 255
-0.129893 0.54164 2.065 0.172462 -0.0742068 0.982217 255 0 0 255
-0.124203 0.541389 2.064 0.0622135 -0.00481994 0.998051 255 0 0 255
-0.118634 0.541661 2.065 -0.0915074 0.0853073 0.992144 255 0 0 255
-0.113004 0.54167 2.065 -0.0613849 0.156524 0.985765 255 0 0 255
-0.107373 0.54168 2.065 0.123647 0.122155 0.984779 255 0 0 255
-0.101644 0.541164 2.063 0.151169 0.103142 0.983112 255 0 0 255
-0.096019 0.541172 2.063 -0.0927358 0.1479 0.984645 255 0 0 255
-0.090393 0.54118 2.063 -0.296575 0.0521652 0.953584 255 0 0 255
-0.08489 0.541974 2.066 -0.424495 -0.10215 0.899649 255 0 0 255
-0.079371 0.542768 2.069 -0.368016 -0.221986 0.902932 255 0 0 255
-0.0738 0.543299 2.071 -0.454668 -0.214118 0.864541 255 0 0 255
-0.068283 0.544354 2.075 -0.428694 -0.178751 0.88559 255 0 0 255
-0.062654 0.544622 2.076 -0.223694 -0.27019 0.936461 255 0 0 255
-0.057074 0.545414 2.079 -0.0544896 -0.363255 0.930095 255 0 0 255
-0.051329 0.544632 2.076 0.35476 -0.542468 0.761494 255 0 0 255
-0.04549 0.542537 2.068 0.652198 -0.487083 0.580851 255 0 0 255
-0.039637 0.539655 2.057 0.732057 -0.344173 0.58791 255 0 0 255
-0.033894 0.537559 2.049 0.399123 -0.220787 0.889918 255 0 0 255
-0.028305 0.537562 2.049 -0.212339 -0.122643 0.969469 255 0 0 255
-0.022815 0.539925 2.058 -0.827489 -0.0447848 0.559693 255 0 0 255
-0.017268 0.542026 2.066 -0.719918 -0.173949 0.671907 255 0 0 255
-0.01166 0.543339 2.071 -0.290129 -0.474155 0.831266 255 0 0 255
-0.006011 0.543339 2.071 -0.158205 -0.450923 0.87843 255 0 0 255
-0.000362 0.544389 2.075 -0.23126 -0.471299 0.851114 255 0 0 255
0.005299 0.544389 2.075 -0.128742 -0.386173 0.913398 255 0 0 255
0.01097 0.544913 2.077 -0.144648 -0.262659 0.953985 255 0 0 255
0.016636 0.544912 2.077 -0.169411 -0.177354 0.969456 255 0 0 255
0.022312 0.545173 2.078 -0.159942 -0.254009 0.953886 255 0 0 255
0.027994 0.545433 2.079 -0.0836208 -0.31891 0.944089 255 0 0 255
0.033681 0.545693 2.08 -0.0356092 -0.315934 0.948112 255 0 0 255
0.039355 0.545689 2.08 -0.103696 -0.292062 0.950761 255 0 0 255
0.045051 0.545948 2.081 -0.149211 -0.379085 0.913253 255 0 0 255
0.050751 0.546206 2.082 -0.203908 -0.431286 0.878871 255 0 0 255
0.056484 0.546727 2.084 -0.319312 -0.530634 0.785154 255 0 0 255
0.062318 0.548033 2.089 -0.481091 -0.599092 0.640031 255 0 0 255
0.068374 0.550914 2.1 -0.473633 -0.668795 0.573049 255 0 0 255
-0.082182 0.6238 2.03055 0.633568 0.717541 -0.289355 0 255 0 255
-0.097672 0.627829 2.05486 -0.780525 -0.519958 -0.347021 0 255 0 255
-0.112311 0.631749 2.0784 -0.847204 0.472111 -0.243633 0 255 0 255
-0.126098 0.635559 2.10118 -0.764445 0.539077 -0.35358 0 255 0 255
-0.12577 0.637936 2.11335 0.766611 -0.640171 -0.04989 0 255 0 255
-0.123678 0.640136 2.12419 0.413521 -0.859625 -0.300076 0 255 0 255
-0.110077 0.6412 2.12655 0.194507 -0.75041 -0.631706 0 255 0 255
-0.096459 0.642279 2.12897 0.0902792 -0.639804 -0.763217 0 255 0 255
-0.318347 0.540426 2.084 0.571271 -0.62644 0.530304 255 0 0 255
-0.310731 0.537076 2.071 0.439418 -0.589861 0.677477 255 0 0 255
-0.304511 0.53606 2.067 0.409223 -0.570662 0.711956 255 0 0 255
-0.298312 0.535044 2.063 0.392884 -0.559409 0.729866 255 0 0 255
-0.291992 0.533768 2.058 0.330187 -0.512197 0.792862 255 0 0 255
-0.286116 0.53327 2.056 0.222821 -0.502347 0.835463 255 0 0 255
-0.280115 0.532512 2.053 0.0945862 -0.305202 0.947579 255 0 0 255
-0.27453 0.532532 2.053 -0.0431343 -0.416966 0.907898 255 0 0 255
-0.269075 0.532811 2.054 -0.0795553 -0.416816 0.905503 255 0 0 255
-0.263615 0.53309 2.055 -0.235928 -0.401609 0.8849 255 0 0 255
-0.258525 0.534147 2.059 -0.398992 -0.350368 0.847377 255 0 0 255
-0.25329 0.534944 2.062 -0.29309 -0.249059 0.923075 255 0 0 255
-0.247798 0.535222 2.063 -0.0802484 -0.136588 0.987372 255 0 0 255
-0.242066 0.534981 2.062 0.0171531 -0.126064 0.991874 255 0 0 255
-0.236453 0.534999 2.062 -0.106778 -0.300951 0.947643 255 0 0 255
-0.231175 0.535795 2.065 -0.235229 -0.380325 0.894439 255 0 0 255
-0.225771 0.536331 2.067 -0.0744287 -0.33405 0.939612 255 0 0 255
-0.220036 0.536089 2.066 0.198625 -0.24533 0.948874 255 0 0 255
-0.214203 0.535587 2.064 0.375643 -0.271871 0.88599 255 0 0 255
-0.208177 0.534565 2.06 0.412083 -0.262791 0.872427 255 0 0 255
-0.20237 0.534062 2.058 0.361538 -0.237158 0.901691 255 0 0 255
-0.196478 0.533299 2.055 0.315772 -0.27518 0.908055 255 0 0 255
-0.190694 0.532796 2.053 0.271722 -0.199322 0.941508 255 0 0 255
-0.184921 0.532291 2.051 0.182665 -0.126328 0.975025 255 0 0 255
-0.179333 0.532306 2.051 -0.0271628 0.0156151 0.999509 255 0 0 255
-0.173829 0.53258 2.052 0.33288 0.0420996 0.942029 255 0 0 255
-0.16791 0.531555 2.048 0.667497 -0.000608902 0.744612 255 0 0 255
-0.161774 0.529751 2.041 0.621621 0.0489581 0.781787 255 0 0 255
-0.156058 0.529245 2.039 -0.232467 -0.181011 0.955612 255 0 0 255
-0.15087 0.530556 2.044 -0.615517 -0.257467 0.744882 255 0 0 255
-0.145867 0.532644 2.052 -0.706865 -0.425472 0.565079 255 0 0 255
-0.140684 0.534213 2.058 -0.555102 -0.397251 0.730789 255 0 0 255
-0.135468 0.535782 2.064 -0.219621 -0.295918 0.929623 255 0 0 255
-0.129841 0.535793 2.064 0.00479664 -0.105372 0.994421 255 0 0 255
-0.124154 0.535544 2.063 0.00136269 0.0190395 0.999818 255 0 0 255
-0.118586 0.535814 2.064 -0.120734 0.047239 0.99156 255 0 0 255
-0.113013 0.536083 2.065 -0.0606122 0.0859281 0.994456 255 0 0 255
-0.107382 0.536092 2.065 0.122215 0.0759793 0.989591 255 0 0 255
-0.101653 0.535581 2.063 0.0941123 0.165682 0.981678 255 0 0 255
-0.096073 0.535849 2.064 -0.0616685 0.207896 0.976205 255 0 0 255
-0.090488 0.536117 2.065 -0.123527 0.0992517 0.987365 255 0 0 255
-0.084897 0.536384 2.066 -0.211137 -0.0508214 0.976134 255 0 0 255
-0.079263 0.536391 2.066 -0.279725 -0.166831 0.945474 255 0 0 255
-0.073735 0.537176 2.069 -0.305245 -0.366288 0.87901 255 0 0 255
-0.06819 0.537961 2.072 -0.244788 -0.414963 0.876291 255 0 0 255
-0.062629 0.538745 2.075 -0.114127 -0.482811 0.868256 255 0 0 255
-0.056914 0.538231 2.073 0.0629515 -0.55113 0.832042 255 0 0 255
-0.051135 0.536937 2.068 0.447802 -0.576468 0.683489 255 0 0 255
-0.045318 0.534864 2.06 0.652459 -0.442838 0.614973 255 0 0 255
-0.039544 0.532791 2.052 0.575784 -0.338541 0.744219 255 0 0 255
-0.033897 0.532015 2.049 0.314399 -0.346408 0.883829 255 0 0 255
-0.028335 0.532537 2.051 -0.578092 -0.168213 0.798445 255 0 0 255
-0.022839 0.534876 2.06 -0.800386 -0.109632 0.589375 255 0 0 255
-0.017269 0.536436 2.066 -0.524002 -0.233364 0.819123 255 0 0 255
-0.01165 0.537216 2.069 -0.301506 -0.249261 0.920306 255 0 0 255
-0.006002 0.536957 2.068 -0.272068 -0.247356 0.929943 255 0 0 255
-0.000361 0.537996 2.072 -0.284777 -0.269843 0.91983 255 0 0 255
0.005294 0.538255 2.073 -0.296038 -0.189148 0.936261 255 0 0 255
0.010971 0.539293 2.077 -0.245448 -0.200708 0.948405 255 0 0 255
0.016645 0.539551 2.078 -0.0760031 -0.202804 0.976265 255 0 0 255
0.022314 0.53955 2.078 -0.0338624 -0.253579 0.966722 255 0 0 255
0.027983 0.539548 2.078 -0.0729281 -0.274631 0.95878 255 0 0 255
0.033668 0.539805 2.079 -0.0726233 -0.269803 0.960173 255 0 0 255
0.03934 0.539802 2.079 -0.0231676 -0.29363 0.955638 255 0 0 255
0.045033 0.540058 2.08 -0.0344539 -0.381635 0.923671 255 0 0 255
0.050682 0.539794 2.079 -0.0665998 -0.44787 0.891615 255 0 0 255
0.056381 0.540049 2.08 -0.204622 -0.469633 0.858822 255 0 0 255
0.062174 0.541083 2.084 -0.394604 -0.492877 0.775474 255 0 0 255
0.068021 0.542375 2.089 -0.429093 -0.65646 0.620435 255 0 0 255
0.074037 0.544706 2.098 -0.420317 -0.731066 0.537472 255 0 0 255
0.079911 0.545738 2.102 -0.364388 -0.746843 0.556279 255 0 0 255
0.085889 0.547289 2.108 -0.425254 -0.756569 0.496751 255 0 0 255
-0.126793 0.622761 2.09047 -0.78911 0.323 -0.522471 0 255 0 255
-0.133518 0.625882 2.10792 -0.969838 0.240831 -0.0376088 0 255 0 255
-0.13231 0.628174 2.11941 0.856829 -0.406792 -0.316803 0 255 0 255
-0.126685 0.630013 2.12762 0.898084 -0.195381 -0.394045 0 255 0 255
-0.117516 0.631496 2.13324 0.065896 -0.604902 -0.793569 0 255 0 255
-0.10568 0.63272 2.13695 -0.177771 -0.67603 -0.715109 0 255 0 255
-0.31623 0.531191 2.07 0.566633 -0.471213 0.675933 255 0 0 255
-0.309852 0.52993 2.065 0.437992 -0.480981 0.759487 255 0 0 255
-0.303648 0.528925 2.061 0.427896 -0.449958 0.783864 255 0 0 255
-0.297465 0.527919 2.057 0.373246 -0.419039 0.827704 255 0 0 255
-0.291161 0.526657 2.052 0.216398 -0.404068 0.888763 255 0 0 255
-0.285719 0.526934 2.053 0.071746 -0.380416 0.922028 255 0 0 255
-0.279862 0.526441 2.051 0.1038 -0.0502543 0.993328 255 0 0 255
-0.274416 0.526718 2.052 -0.0230333 0.0563009 0.998148 255 0 0 255
-0.268702 0.526481 2.051 -0.0233801 -0.0769837 0.996758 255 0 0 255
-0.263249 0.526757 2.052 -0.226466 -0.275723 0.934179 255 0 0 255
-0.258042 0.527546 2.055 -0.348099 -0.398068 0.848746 255 0 0 255
-0.252818 0.528336 2.058 -0.312377 -0.43144 0.846333 255 0 0 255
-0.247697 0.529381 2.062 -0.0819753 -0.249958 0.96478 255 0 0 255
-0.242084 0.5294 2.062 0.0340662 -0.197706 0.979669 255 0 0 255
-0.236241 0.528904 2.06 -0.0522077 -0.31592 0.947348 255 0 0 255
-0.230745 0.529179 2.061 -0.123929 -0.452089 0.883322 255 0 0 255
-0.225351 0.52971 2.063 -0.10732 -0.510375 0.853229 255 0 0 255
-0.219734 0.529727 2.063 0.0285528 -0.486697 0.873104 255 0 0 255
-0.213908 0.52923 2.061 0.251851 -0.365055 0.896273 255 0 0 255
-0.207992 0.528476 2.058 0.357304 -0.264102 0.895871 255 0 0 255
-0.202189 0.527979 2.056 0.369796 -0.196316 0.908136 255 0 0 255
-0.196302 0.527224 2.053 0.290488 -0.171722 0.941344 255 0 0 255
-0.190523 0.526726 2.051 0.154637 -0.0753127 0.985097 255 0 0 255
-0.184935 0.52674 2.051 0.0364445 0.08975 0.995297 255 0 0 255
-0.179347 0.526755 2.051 -0.02944 0.1329 0.990692 255 0 0 255
-0.173843 0.527026 2.052 0.379141 -0.0237763 0.925033 255 0 0 255
-0.167923 0.526012 2.048 0.656639 -0.00381461 0.754195 255 0 0 255
-0.161866 0.524485 2.042 0.649443 -0.0464182 0.758993 255 0 0 255
-0.155994 0.52347 2.038 0.116616 -0.244156 0.962699 255 0 0 255
-0.150587 0.523996 2.04 -0.303126 -0.359901 0.882375 255 0 0 255
-0.145453 0.525549 2.046 -0.607414 -0.479225 0.633554 255 0 0 255
-0.140491 0.527873 2.055 -0.676984 -0.446569 0.585038 255 0 0 255
-0.135282 0.529426 2.061 -0.493481 -0.29488 0.818243 255 0 0 255
-0.129915 0.530464 2.065 -0.120244 -0.0405591 0.991916 255 0 0 255
-0.124224 0.530218 2.064 0.000910516 0.0430157 0.999074 255 0 0 255
-0.118654 0.530484 2.065 -0.0591962 -0.00691017 0.998222 255 0 0 255
-0.113023 0.530494 2.065 -0.0885074 -0.0275528 0.995694 255 0 0 255
-0.107443 0.53076 2.066 0.00180203 0.0286899 0.999587 255 0 0 255
-0.10176 0.530512 2.065 0.0325351 0.142968 0.989192 255 0 0 255
-0.096174 0.530777 2.066 -0.0302205 0.140043 0.989684 255 0 0 255
-0.090496 0.530528 2.065 -0.0609563 0.0924686 0.993848 255 0 0 255
-0.084864 0.530536 2.065 -0.0894499 -0.00244902 0.995988 255 0 0 255
-0.079231 0.530542 2.065 -0.183019 0.0276475 0.982721 255 0 0 255
-0.07367 0.531063 2.067 -0.293632 -0.0897837 0.951693 255 0 0 255
-0.068064 0.531326 2.068 -0.120692 -0.373767 0.919637 255 0 0 255
-0.062483 0.531845 2.07 -0.140842 -0.398554 0.906266 255 0 0 255
-0.056781 0.531336 2.068 0.285647 -0.541124 0.790943 255 0 0 255
-0.051041 0.530313 2.064 0.510216 -0.482992 0.711616 255 0 0 255
-0.045256 0.528519 2.057 0.614992 -0.423357 0.665247 255 0 0 255
-0.03949 0.526467 2.049 0.518416 -0.372886 0.769546 255 0 0 255
-0.033817 0.525185 2.044 0.114788 -0.411684 0.904069 255 0 0 255
-0.028282 0.525959 2.047 -0.529139 -0.294715 0.795711 255 0 0 255
-0.022797 0.528273 2.056 -0.797284 -0.191347 0.572473 255 0 0 255
-0.017254 0.530331 2.064 -0.517775 -0.317213 0.794534 255 0 0 255
-0.01164 0.531103 2.067 -0.325996 -0.310154 0.893046 255 0 0 255
-0.006003 0.53136 2.068 -0.365041 -0.219697 0.904698 255 0 0 255
-0.000361 0.532131 2.071 -0.402389 -0.0659895 0.913087 255 0 0 255
0.005292 0.532388 2.072 -0.355392 -0.0888251 0.930487 255 0 0 255
0.010961 0.533158 2.075 -0.185131 -0.187351 0.96469 255 0 0 255
0.016622 0.533157 2.075 -0.010312 -0.251065 0.967915 255 0 0 255
0.022284 0.533155 2.075 -0.0304714 -0.251824 0.967293 255 0 0 255
0.027945 0.533153 2.075 -0.0834071 -0.2183 0.972311 255 0 0 255
0.033639 0.533664 2.077 -0.0297003 -0.295224 0.954966 255 0 0 255
0.039305 0.533661 2.077 0.0793877 -0.377078 0.922773 255 0 0 255
0.04495 0.533401 2.076 0.0770347 -0.412527 0.907682 255 0 0 255
0.050589 0.53314 2.075 -0.0119791 -0.447852 0.894028 255 0 0 255
0.056304 0.533649 2.077 -0.222248 -0.439631 0.870247 255 0 0 255
0.06203 0.534158 2.079 -0.372813 -0.427 0.823821 255 0 0 255
0.067864 0.535437 2.084 -0.293063 -0.492245 0.81964 255 0 0 255
0.073619 0.535945 2.086 -0.251256 -0.477503 0.841939 255 0 0 255
0.079348 0.536196 2.087 -0.215294 -0.623288 0.751772 255 0 0 255
0.085081 0.536445 2.088 -0.258127 -0.55449 0.791146 255 0 0 255
0.09108 0.538237 2.095 -0.535832 -0.682302 0.497341 255 0 0 255
-0.128038 0.612428 2.0926 -0.760668 0.601282 -0.244631 0 255 0 255
-0.138286 0.615955 2.11268 0.861843 -0.501826 -0.073469 0 255 0 255
-0.130016 0.617503 2.11892 0.786749 -0.413536 -0.458273 0 255 0 255
-0.125273 0.619431 2.1278 0.685074 -0.433192 -0.585678 0 255 0 255
-0.121412 0.621454 2.13733 0.820847 -0.408461 -0.399212 0 255 0 255
-0.114894 0.623204 2.14492 -0.138946 -0.833788 -0.534315 0 255 0 255
-0.322968 0.527343 2.077 0.739067 -0.401692 0.540762 255 0 0 255
-0.315641 0.524572 2.066 0.617234 -0.337036 0.710935 255 0 0 255
-0.309273 0.523324 2.061 0.50563 -0.279109 0.816356 255 0 0 255
-0.30308 0.522329 2.057 0.431735 -0.20545 0.878291 255 0 0 255
-0.296907 0.521335 2.053 0.409913 -0.084826 0.908172 255 0 0 255
-0.290756 0.52034 2.049 0.0219893 0.0272127 0.999388 255 0 0 255
-0.2856 0.521122 2.052 -0.217585 0.033506 0.975466 255 0 0 255
-0.280155 0.521397 2.053 -0.0915476 0.137323 0.986287 255 0 0 255
-0.27457 0.521417 2.053 0.0335104 0.195076 0.980216 255 0 0 255
-0.268984 0.521437 2.053 0.048073 0.112903 0.992442 255 0 0 255
-0.263269 0.521202 2.052 -0.0866094 -0.149235 0.985002 255 0 0 255
-0.257936 0.521729 2.054 -0.103135 -0.389168 0.915375 255 0 0 255
-0.252345 0.521748 2.054 -0.261994 -0.502555 0.823892 255 0 0 255
-0.247235 0.522783 2.058 -0.261358 -0.474015 0.840834 255 0 0 255
-0.241867 0.52331 2.06 -0.0340972 -0.440637 0.897038 255 0 0 255
-0.236259 0.523328 2.06 0.0380089 -0.343398 0.93842 255 0 0 255
-0.230426 0.522838 2.058 0.00957199 -0.408144 0.912868 255 0 0 255
-0.224823 0.522855 2.058 -0.0346606 -0.483065 0.874898 255 0 0 255
-0.219325 0.523126 2.059 -0.00051455 -0.496232 0.86819 255 0 0 255
-0.213717 0.523143 2.059 0.107547 -0.421457 0.900449 255 0 0 255
-0.207907 0.522651 2.057 0.225614 -0.287018 0.930977 255 0 0 255
-0.202107 0.522159 2.055 0.361912 -0.131766 0.922853 255 0 0 255
-0.196222 0.521413 2.052 0.281234 -0.102669 0.954131 255 0 0 255
-0.190724 0.521682 2.053 0.00366959 -0.0625544 0.998035 255 0 0 255
-0.18513 0.521697 2.053 -0.0918196 0.0916912 0.991545 255 0 0 255
-0.179624 0.521966 2.054 0.0354717 0.0706215 0.996872 255 0 0 255
-0.173857 0.521472 2.052 0.431663 -0.0516696 0.900554 255 0 0 255
-0.167855 0.520215 2.047 0.668647 -0.0114034 0.743493 255 0 0 255
-0.161721 0.518449 2.04 0.689384 -0.0163532 0.724211 255 0 0 255
-0.155854 0.517445 2.036 0.387705 -0.236205 0.891006 255 0 0 255
-0.150304 0.517458 2.036 -0.256582 -0.263872 0.929805 255 0 0 255
-0.144967 0.518232 2.039 -0.498353 -0.440696 0.746614 255 0 0 255
-0.139955 0.520277 2.047 -0.667975 -0.515099 0.537106 255 0 0 255
-0.135031 0.52283 2.057 -0.652122 -0.461524 0.601442 255 0 0 255
-0.129862 0.52462 2.064 -0.340543 -0.245317 0.907662 255 0 0 255
-0.124294 0.524885 2.065 -0.117887 -0.116685 0.986148 255 0 0 255
-0.118606 0.524641 2.064 0.00115418 -0.0728985 0.997339 255 0 0 255
-0.112977 0.524651 2.064 -0.0571833 -0.107116 0.992601 255 0 0 255
-0.1074 0.524914 2.065 -0.116225 -0.0828645 0.98976 255 0 0 255
-0.101818 0.525177 2.066 0.0024417 -0.0116697 0.999929 255 0 0 255
-0.096136 0.524931 2.065 0.0310847 -0.00334426 0.999511 255 0 0 255
-0.090503 0.524939 2.065 -0.0290972 -0.0354909 0.998946 255 0 0 255
-0.084912 0.5252 2.066 -0.151763 0.041328 0.987553 255 0 0 255
-0.079314 0.525462 2.067 -0.182118 0.0882114 0.979312 255 0 0 255
-0.073676 0.525468 2.067 -0.0526417 0.0146767 0.998506 255 0 0 255
-0.06807 0.525728 2.068 0.0770063 -0.385806 0.919361 255 0 0 255
-0.062428 0.525734 2.068 0.105815 -0.465212 0.878852 255 0 0 255
-0.056621 0.524213 2.062 0.375468 -0.578389 0.724217 255 0 0 255
-0.050921 0.523455 2.059 0.502796 -0.546289 0.669899 255 0 0 255
-0.045128 0.521426 2.051 0.567285 -0.516196 0.641661 255 0 0 255
-0.039435 0.520158 2.046 0.370892 -0.640723 0.672245 255 0 0 255
-0.03377 0.51889 2.041 0.131956 -0.598219 0.790393 255 0 0 255
-0.028257 0.51991 2.045 -0.568809 -0.527098 0.631367 255 0 0 255
-0.022776 0.5222 2.054 -0.788967 -0.175261 0.588909 255 0 0 255
-0.01723 0.523981 2.061 -0.597456 -0.23773 0.765853 255 0 0 255
-0.011618 0.524491 2.063 -0.404074 -0.303157 0.86303 255 0 0 255
-0.006001 0.525509 2.067 -0.495595 -0.171454 0.851463 255 0 0 255
-0.000361 0.526272 2.07 -0.442764 -0.0936581 0.891733 255 0 0 255
0.005295 0.527034 2.073 -0.282494 -0.0814679 0.955804 255 0 0 255
0.010957 0.527288 2.074 -0.120502 -0.153827 0.980723 255 0 0 255
0.016624 0.527541 2.075 -0.0646525 -0.223149 0.972638 255 0 0 255
0.022286 0.527539 2.075 -0.0709179 -0.149525 0.986211 255 0 0 255
0.027947 0.527537 2.075 -0.0879627 -0.0914591 0.991916 255 0 0 255
0.033609 0.527534 2.075 -0.0246589 -0.174065 0.984425 255 0 0 255
0.039271 0.527531 2.075 0.0890488 -0.272628 0.95799 255 0 0 255
0.044889 0.527019 2.073 0.102174 -0.273075 0.956551 255 0 0 255
0.050545 0.527015 2.073 0.00276287 -0.319613 0.947544 255 0 0 255
0.056228 0.527265 2.074 -0.225393 -0.308314 0.924197 255 0 0 255
0.061975 0.528022 2.077 -0.447392 -0.273988 0.851335 255 0 0 255
0.067772 0.529034 2.081 -0.30828 -0.412589 0.857166 255 0 0 255
0.07352 0.529536 2.083 -0.106345 -0.476891 0.872506 255 0 0 255
0.079202 0.52953 2.083 -0.0979137 -0.476182 0.873878 255 0 0 255
0.084843 0.529269 2.082 -0.216807 -0.326138 0.920124 255 0 0 255
0.090697 0.530278 2.086 -0.610883 -0.333954 0.717841 255 0 0 255
0.097126 0.534338 2.102 -0.743836 -0.577356 0.336702 255 0 0 255
-0.142498 0.603548 2.10463 -0.885083 0.463424 -0.0431959 0 255 0 255
-0.142169 0.605947 2.11678 0.632003 -0.745831 -0.210494 0 255 0 255
-0.140081 0.608153 2.12759 0.496125 -0.812649 -0.305714 0 255 0 255
-0.127398 0.609211 2.13058 0.752761 -0.563017 -0.34112 0 255 0 255
-0.125305 0.611423 2.14141 0.851113 -0.496056 -0.171859 0 255 0 255
-0.12056 0.613352 2.15029 0.605502 -0.541136 -0.583557 0 255 0 255
-0.106074 0.61425 2.15209 -0.309438 -0.626595 -0.715281 0 255 0 255
-0.086252 0.614602 2.1501 -0.104205 -0.870735 -0.480585 0 255 0 255
-0.321746 0.519709 2.069 0.724821 -0.186438 0.663231 255 0 0 255
-0.315052 0.517973 2.062 0.612313 -0.0102686 0.790549 255 0 0 255
-0.308695 0.516738 2.057 0.42387 0.111408 0.898845 255 0 0 255
-0.302954 0.516508 2.056 0.405717 0.107131 0.907699 255 0 0 255
-0.297073 0.516027 2.054 0.457366 0.270167 0.847246 255 0 0 255
-0.290919 0.515043 2.05 0.204337 0.24561 0.947587 255 0 0 255
-0.285621 0.515566 2.052 -0.252228 0.156586 0.954915 255 0 0 255
-0.280312 0.516089 2.054 -0.155207 0.138785 0.978085 255 0 0 255
-0.274857 0.516361 2.055 0.0633652 0.0885515 0.994054 255 0 0 255
-0.269003 0.515878 2.053 0.263697 0.0299434 0.964141 255 0 0 255
-0.26316 0.515395 2.051 0.146638 -0.181985 0.972306 255 0 0 255
-0.257452 0.515163 2.05 -0.0531543 -0.309826 0.949306 255 0 0 255
-0.251873 0.515182 2.05 -0.145849 -0.262632 0.953809 255 0 0 255
-0.246653 0.515955 2.053 -0.492884 -0.259396 0.830529 255 0 0 255
-0.241534 0.516978 2.057 -0.137961 -0.369835 0.918798 255 0 0 255
-0.235933 0.516997 2.057 0.0617664 -0.222852 0.972894 255 0 0 255
-0.23022 0.516763 2.056 0.195847 -0.182558 0.963492 255 0 0 255
-0.224512 0.516529 2.055 0.119341 -0.260221 0.958146 255 0 0 255
-0.218916 0.516546 2.055 0.0287296 -0.434032 0.900439 255 0 0 255
-0.213318 0.516563 2.055 -0.00649697 -0.421455 0.906826 255 0 0 255
-0.207721 0.51658 2.055 0.0534359 -0.309981 0.94924 255 0 0 255
-0.202024 0.516344 2.054 0.231609 -0.123297 0.964964 255 0 0 255
-0.196142 0.515606 2.051 0.164548 -0.0993631 0.981352 255 0 0 255
-0.190553 0.515621 2.051 -0.0274926 -0.0533415 0.998198 255 0 0 255
-0.185055 0.515887 2.052 -0.117741 -0.0768263 0.990068 255 0 0 255
-0.179551 0.516154 2.053 0.0647536 -0.0635202 0.995878 255 0 0 255
-0.173786 0.515665 2.051 0.342206 -0.0751109 0.936618 255 0 0 255
-0.167868 0.514673 2.047 0.655022 0.0698966 0.75237 255 0 0 255
-0.161813 0.513178 2.041 0.712629 0.141243 0.687176 255 0 0 255
-0.155713 0.51143 2.034 0.432054 0.0846896 0.897862 255 0 0 255
-0.150095 0.511191 2.033 -0.182806 0.203975 0.961757 255 0 0 255
-0.144694 0.511706 2.035 -0.331322 0.0396695 0.942683 255 0 0 255
-0.139556 0.513227 2.041 -0.743794 -0.0342941 0.667529 255 0 0 255
-0.134582 0.515501 2.05 -0.660044 -0.497999 0.56244 255 0 0 255
-0.129621 0.518027 2.06 -0.502475 -0.524467 0.687352 255 0 0 255
-0.124184 0.518792 2.063 -0.137737 -0.279416 0.950239 255 0 0 255
-0.118616 0.519053 2.064 -0.0951853 -0.242372 0.965503 255 0 0 255
-0.112932 0.518811 2.063 -0.0881288 -0.0509872 0.994803 255 0 0 255
-0.107357 0.519072 2.064 -0.116595 -0.0676709 0.990871 255 0 0 255
-0.101777 0.519332 2.065 0.0297071 -0.110755 0.993404 255 0 0 255
-0.096097 0.519089 2.064 -0.0209148 -0.121381 0.992386 255 0 0 255
-0.090511 0.519348 2.065 -0.0869308 -0.0859802 0.992497 255 0 0 255
-0.084878 0.519356 2.065 -0.239376 0.00600972 0.970909 255 0 0 255
-0.079359 0.520117 2.068 -0.12553 -0.0490872 0.990875 255 0 0 255
-0.073718 0.520124 2.068 0.0289521 -0.114087 0.993049 255 0 0 255
-0.067977 0.519375 2.065 0.284616 -0.411396 0.865879 255 0 0 255
-0.062192 0.518123 2.06 0.420061 -0.610776 0.671194 255 0 0 255
-0.056434 0.516871 2.055 0.438834 -0.644089 0.626558 255 0 0 255
-0.050728 0.515869 2.051 0.437744 -0.658324 0.612364 255 0 0 255
-0.044955 0.513861 2.043 0.480706 -0.594682 0.644418 255 0 0 255
-0.039265 0.512355 2.037 0.0488713 -0.642081 0.765077 255 0 0 255
-0.033674 0.511855 2.035 -0.273843 -0.353978 0.894265 255 0 0 255
-0.02819 0.513116 2.04 -0.59761 -0.35946 0.716695 255 0 0 255
-0.022734 0.515633 2.05 -0.826603 -0.157438 0.540316 255 0 0 255
-0.017215 0.517899 2.059 -0.621394 -0.173135 0.764129 255 0 0 255
-0.011608 0.518403 2.061 -0.412838 -0.279527 0.866851 255 0 0 255
-0.005998 0.519661 2.066 -0.547097 -0.198645 0.813157 255 0 0 255
-0.000361 0.520668 2.07 -0.382259 -0.151693 0.911519 255 0 0 255
0.005295 0.521422 2.073 -0.252575 -0.148501 0.956114 255 0 0 255
0.010947 0.52117 2.072 -0.04776 -0.223965 0.973426 255 0 0 255
0.016601 0.521169 2.072 -0.0681809 -0.224977 0.971976 255 0 0 255
0.022266 0.521419 2.073 -0.164471 -0.14769 0.975263 255 0 0 255
0.02795 0.52192 2.075 -0.0295796 -0.102322 0.994312 255 0 0 255
0.033596 0.521665 2.074 0.0317422 -0.153184 0.987688 255 0 0 255
0.039255 0.521662 2.074 0.17459 -0.219931 0.959765 255 0 0 255
0.044871 0.521156 2.072 0.0984281 -0.226039 0.969133 255 0 0 255
0.050525 0.521152 2.072 -0.0148186 -0.183631 0.982884 255 0 0 255
0.056178 0.521147 2.072 -0.325577 -0.122061 0.937604 255 0 0 255
0.061921 0.521897 2.075 -0.413614 -0.152799 0.897539 255 0 0 255
0.067648 0.522394 2.077 -0.264999 -0.254866 0.929957 255 0 0 255
0.073385 0.522891 2.079 -0.24333 -0.233168 0.9415 255 0 0 255
0.079095 0.523136 2.08 -0.189492 -0.0682912 0.979505 255 0 0 255
0.08481 0.523381 2.081 -0.40468 0.0628846 0.912294 255 0 0 255
0.090661 0.524379 2.085 -0.612558 0.0108145 0.790352 255 0 0 255
0.096718 0.526384 2.093 -0.790491 -0.290587 0.53915 255 0 0 255
-0.09566 0.675542 2.10406 0.431557 -0.90085 -0.0471914 255 255 0 255
-0.1079 0.66481 2.02848 0.960288 0.274523 -0.0498433 255 255 0 255
-0.16191 0.597737 2.13268 0.234346 -0.926198 -0.295362 0 255 0 255
-0.154546 0.599343 2.13952 0.151528 -0.896743 -0.415801 0 255 0 255
-0.148057 0.601054 2.14703 0.38613 -0.756533 -0.527789 0 255 0 255
-0.134497 0.601989 2.14938 0.51688 -0.831332 -0.20426 0 255 0 255
-0.122686 0.603132 2.15307 0.0421364 -0.414226 -0.909198 0 255 0 255
-0.102014 0.603322 2.15037 -0.22435 -0.423946 -0.87746 0 255 0 255
-0.08751 0.604206 2.15226 0.0260155 -0.644552 -0.764118 0 255 0 255
-0.078306 0.605678 2.15804 -0.184531 -0.849853 -0.493658 0 255 0 255
-0.33119 0.520047 2.093 0.858124 -0.329692 0.393606 255 0 0 255
-0.321768 0.514106 2.069 0.669725 -0.0596595 0.740209 255 0 0 255
-0.315226 0.512637 2.063 0.625982 0.117225 0.770977 255 0 0 255
-0.309016 0.511665 2.059 0.424334 0.264736 0.865942 255 0 0 255
-0.303123 0.511189 2.057 0.257942 0.351179 0.900078 255 0 0 255
-0.297383 0.510962 2.056 0.385295 0.313535 0.867896 255 0 0 255
-0.291507 0.510486 2.054 0.330737 0.252552 0.909302 255 0 0 255
-0.285781 0.510258 2.053 -0.0207569 0.103491 0.994414 255 0 0 255
-0.280332 0.510527 2.054 -0.0863178 -0.0733915 0.993561 255 0 0 255
-0.274743 0.510547 2.054 0.0919762 -0.127968 0.987504 255 0 0 255
-0.269023 0.510319 2.053 0.290888 -0.147278 0.945353 255 0 0 255
-0.263051 0.509593 2.05 0.248229 -0.122704 0.960899 255 0 0 255
-0.257472 0.509612 2.05 0.033255 -0.0671895 0.997186 255 0 0 255
-0.251769 0.509382 2.049 -0.364832 0.0158477 0.930939 255 0 0 255
-0.246671 0.510396 2.053 -0.529341 0.0306219 0.847856 255 0 0 255
-0.241317 0.510911 2.055 -0.209197 -0.0429201 0.976931 255 0 0 255
-0.235951 0.511427 2.057 -0.105813 -0.0733518 0.991677 255 0 0 255
-0.230238 0.511196 2.056 0.0873596 -0.0379418 0.995454 255 0 0 255
-0.22442 0.510716 2.054 0.252372 -0.104635 0.961956 255 0 0 255
-0.218613 0.510236 2.052 0.0917104 -0.215137 0.972268 255 0 0 255
-0.213024 0.510253 2.052 -0.0445988 -0.299908 0.952925 255 0 0 255
-0.207636 0.510767 2.054 -0.0656393 -0.276803 0.958682 255 0 0 255
-0.20204 0.510783 2.054 0.109036 -0.21633 0.970213 255 0 0 255
-0.196253 0.510301 2.052 0.277851 -0.124904 0.95247 255 0 0 255
-0.190569 0.510068 2.051 -0.0107893 -0.240114 0.970685 255 0 0 255
-0.18498 0.510083 2.051 -0.0636914 -0.323999 0.943911 255 0 0 255
-0.179478 0.510346 2.052 -0.00428588 -0.283463 0.958974 255 0 0 255
-0.1738 0.510111 2.051 0.21966 -0.167137 0.961153 255 0 0 255
-0.167964 0.509379 2.048 0.563418 0.0581999 0.824119 255 0 0 255
-0.161985 0.508149 2.043 0.631724 0.253244 0.732661 255 0 0 255
-0.155956 0.506669 2.037 0.500448 0.42989 0.751496 255 0 0 255
-0.150329 0.506433 2.036 -0.16327 0.594895 0.787047 255 0 0 255
-0.14492 0.506943 2.038 -0.292366 0.613012 0.733989 255 0 0 255
-0.139499 0.507452 2.04 -0.353217 0.456239 0.816752 255 0 0 255
-0.134265 0.508707 2.045 -0.56156 -0.234933 0.793383 255 0 0 255
-0.129129 0.510459 2.052 -0.586646 -0.570298 0.574983 255 0 0 255
-0.123954 0.512211 2.059 -0.472988 -0.520905 0.710592 255 0 0 255
-0.118511 0.512967 2.062 -0.242556 -0.222355 0.944312 255 0 0 255
-0.112996 0.513474 2.064 -0.206769 -0.112581 0.971891 255 0 0 255
-0.107366 0.513484 2.064 -0.0291624 -0.0171694 0.999427 255 0 0 255
-0.101736 0.513492 2.064 0.0594292 -0.049798 0.99699 255 0 0 255
-0.096059 0.513252 2.063 -0.0869881 -0.094676 0.9917 255 0 0 255
-0.090519 0.513757 2.065 -0.117957 -0.0433173 0.992073 255 0 0 255
-0.084844 0.513516 2.064 -0.204392 -0.0970184 0.974069 255 0 0 255
-0.079366 0.514518 2.068 -0.100357 -0.126038 0.986936 255 0 0 255
-0.073581 0.513529 2.064 0.287131 -0.36557 0.88539 255 0 0 255
-0.067818 0.51254 2.06 0.521342 -0.537872 0.662492 255 0 0 255
-0.061925 0.510306 2.051 0.447183 -0.643684 0.621046 255 0 0 255
-0.056219 0.509316 2.047 0.431001 -0.611968 0.663124 255 0 0 255
-0.05051 0.508077 2.042 0.522543 -0.319277 0.790577 255 0 0 255
-0.044827 0.506837 2.037 0.596738 -0.204055 0.776058 255 0 0 255
-0.039153 0.505347 2.031 0.00211363 0.0756771 0.99713 255 0 0 255
-0.033644 0.505848 2.033 -0.272738 -0.334595 0.902031 255 0 0 255
-0.028178 0.507344 2.039 -0.756298 0.0660396 0.650886 255 0 0 255
-0.022769 0.510829 2.053 -0.630359 -0.208823 0.74769 255 0 0 255
-0.017217 0.512324 2.059 -0.543983 -0.250194 0.800928 255 0 0 255
-0.011603 0.512574 2.06 -0.349146 -0.305839 0.885754 255 0 0 255
-0.00599 0.513321 2.063 -0.409625 -0.407236 0.816313 255 0 0 255
-0.000361 0.514565 2.068 -0.40232 -0.369832 0.837474 255 0 0 255
0.005291 0.515312 2.071 -0.181241 -0.366453 0.912614 255 0 0 255
0.010943 0.515311 2.071 -0.120505 -0.387678 0.913884 255 0 0 255
0.016603 0.515559 2.072 -0.098583 -0.302777 0.947949 255 0 0 255
0.022268 0.515806 2.073 -0.155442 -0.277992 0.947923 255 0 0 255
0.027952 0.516301 2.075 -0.056099 -0.247005 0.967389 255 0 0 255
0.033582 0.515801 2.073 0.0695134 -0.274356 0.959112 255 0 0 255
0.039221 0.515549 2.072 0.128607 -0.22294 0.966312 255 0 0 255
0.044832 0.515048 2.07 0.112294 -0.168516 0.979282 255 0 0 255
0.050505 0.515293 2.071 -0.144762 -0.0859724 0.985725 255 0 0 255
0.05621 0.515786 2.073 -0.333303 -0.0485672 0.941568 255 0 0 255
0.061956 0.516527 2.076 -0.325067 -0.128847 0.936872 255 0 0 255
0.067653 0.51677 2.077 -0.306227 -0.062462 0.949907 255 0 0 255
0.073391 0.517262 2.079 -0.38304 -0.0106072 0.923671 255 0 0 255
0.079139 0.517753 2.081 -0.395172 0.145436 0.907021 255 0 0 255
