ply
format ascii 1.0
comment VCGLIB generated
element vertex 742
property float x
property float y
property float z
property float nx
property float ny
property float nz
property uchar red
property uchar green
property uchar blue
property uchar alpha
element face 0
property list uchar int vertex_indices
end_header
-0.163363 0.674057 1.933 0.538773 0.0909006 0.837532 255 0 0 255
-0.15786 0.67302 1.93 0.396355 0.272678 0.876669 255 0 0 255
-0.152533 0.67268 1.929 0.371208 0.269445 0.888597 255 0 0 255
-0.147057 0.671642 1.926 0.396738 0.274164 0.876032 255 0 0 255
-0.141672 0.670953 1.924 0.272999 0.385745 0.881291 255 0 0 255
-0.136439 0.670962 1.924 0.325222 0.557579 0.763764 255 0 0 255
-0.130933 0.669575 1.92 0.50675 0.564292 0.651751 255 0 0 255
-0.125514 0.668536 1.917 0.258456 0.540262 0.800823 255 0 0 255
-0.120236 0.668195 1.916 0.00510476 0.460044 0.887881 255 0 0 255
-0.115144 0.668899 1.918 -0.444652 0.410915 0.795886 255 0 0 255
-0.110099 0.669952 1.921 -0.356835 0.506687 0.784817 255 0 0 255
-0.104873 0.669959 1.921 0.035265 0.476299 0.878576 255 0 0 255
-0.099595 0.669616 1.92 -0.0691639 0.575197 0.815086 255 0 0 255
-0.094519 0.670668 1.923 -0.434278 0.613482 0.659577 255 0 0 255
-0.089612 0.673115 1.93 -0.453505 0.700365 0.5512 255 0 0 255
-0.084449 0.673818 1.932 0.256889 0.436836 0.86208 255 0 0 255
-0.079069 0.672777 1.929 0.329741 0.646543 0.687934 255 0 0 255
-0.073745 0.672084 1.927 -0.123121 0.820176 0.558707 255 0 0 255
-0.068573 0.672786 1.929 -0.208539 0.898171 0.38704 255 0 0 255
-0.063455 0.674186 1.933 -0.276186 0.856292 0.436446 255 0 0 255
-0.058226 0.674538 1.934 -0.100487 0.935245 0.33944 255 0 0 255
-0.053018 0.675239 1.936 -0.0947794 0.761676 0.640989 255 0 0 255
-0.047701 0.674545 1.934 -0.0954014 0.873648 0.477114 255 0 0 255
-0.037329 0.67734 1.942 -0.448043 0.837703 0.312267 255 0 0 255
-0.032969 0.696875 1.998 -0.976315 0.190369 0.102803 255 0 0 255
-0.027932 0.706991 2.027 -0.97882 0.18341 0.0909471 255 0 0 255
-0.189556 0.66844 1.932 -0.455324 0.667765 0.588871 255 0 0 255
-0.185066 0.671218 1.94 -0.293074 0.766389 0.571625 255 0 0 255
-0.17979 0.671229 1.94 0.19676 0.585007 0.786798 255 0 0 255
-0.174425 0.670893 1.939 0.274325 0.197358 0.941167 255 0 0 255
-0.169065 0.670557 1.938 0.427 0.129618 0.894913 255 0 0 255
-0.163541 0.669528 1.935 0.477035 0.158654 0.864446 255 0 0 255
-0.158115 0.668846 1.933 0.322592 0.258651 0.910513 255 0 0 255
-0.1527 0.668163 1.931 0.370507 0.33877 0.864846 255 0 0 255
-0.147295 0.66748 1.929 0.371158 0.339401 0.86432 255 0 0 255
-0.141901 0.666796 1.927 0.10635 0.49171 0.86424 255 0 0 255
-0.13673 0.667151 1.928 0.184 0.562125 0.806325 255 0 0 255
-0.13135 0.666467 1.926 0.514597 0.503636 0.693931 255 0 0 255
-0.125849 0.66509 1.922 0.552346 0.468628 0.689422 255 0 0 255
-0.120432 0.66406 1.919 0.0794373 0.506855 0.858363 255 0 0 255
-0.115332 0.664759 1.921 -0.470275 0.313968 0.824782 255 0 0 255
-0.110278 0.665804 1.924 -0.33706 0.376568 0.862895 255 0 0 255
-0.105098 0.666157 1.925 0.0373688 0.377861 0.925108 255 0 0 255
-0.099809 0.665817 1.924 -0.244155 0.489345 0.837215 255 0 0 255
-0.094722 0.666861 1.927 -0.716792 0.200693 0.667781 255 0 0 255
-0.089757 0.668944 1.933 -0.444354 0.183484 0.87686 255 0 0 255
-0.084498 0.668949 1.933 0.0503794 0.107915 0.992883 255 0 0 255
-0.079156 0.668262 1.931 0.0884551 0.264568 0.960302 255 0 0 255
-0.073979 0.668959 1.933 -0.450607 0.507403 0.734504 255 0 0 255
-0.068826 0.670002 1.936 -0.467987 0.610506 0.63896 255 0 0 255
-0.063591 0.670352 1.937 -0.358798 0.619327 0.698354 255 0 0 255
-0.05835 0.670702 1.938 -0.274735 0.650909 0.7077 255 0 0 255
-0.053104 0.671052 1.939 -0.0316136 0.691034 0.72213 255 0 0 255
-0.047827 0.671055 1.939 0.446204 0.55076 0.705383 255 0 0 255
-0.042375 0.668289 1.931 -0.483707 0.660729 0.57399 255 0 0 255
-0.037447 0.674175 1.948 -0.612071 0.764162 0.203532 255 0 0 255
-0.033054 0.693212 2.003 -0.976315 0.190369 0.102803 255 0 0 255
-0.02792 0.701174 2.026 -0.97882 0.18341 0.0909472 255 0 0 255
-0.185649 0.668038 1.946 0.367795 0.548911 0.750615 255 0 0 255
-0.180172 0.667362 1.944 0.436978 0.420325 0.795221 255 0 0 255
-0.174435 0.665656 1.939 0.435162 0.223856 0.87208 255 0 0 255
-0.169075 0.665323 1.938 0.424733 0.192697 0.884573 255 0 0 255
-0.163466 0.66396 1.934 0.357697 0.149989 0.921714 255 0 0 255
-0.158288 0.664312 1.935 0.238701 0.316835 0.917953 255 0 0 255
-0.152788 0.663292 1.932 0.339152 0.388532 0.856749 255 0 0 255
-0.147457 0.662958 1.931 0.342613 0.354728 0.869933 255 0 0 255
-0.142057 0.66228 1.929 0.180317 0.298063 0.93736 255 0 0 255
-0.136951 0.662975 1.931 0.0733495 0.283431 0.956183 255 0 0 255
-0.131562 0.662296 1.929 0.500743 0.25943 0.825804 255 0 0 255
-0.125987 0.660588 1.924 0.606066 0.209754 0.767259 255 0 0 255
-0.120502 0.659222 1.92 0.222446 0.438293 0.870871 255 0 0 255
-0.115399 0.659916 1.922 -0.420027 0.321326 0.848721 255 0 0 255
-0.110342 0.660953 1.925 -0.331392 0.213323 0.919061 255 0 0 255
-0.105104 0.66096 1.925 0.0362012 0.23348 0.971688 255 0 0 255
-0.099867 0.660967 1.925 -0.200205 0.078375 0.976614 255 0 0 255
-0.094777 0.662003 1.928 -0.658531 0.126797 0.741795 255 0 0 255
-0.089763 0.663725 1.933 -0.407601 0.0813452 0.90953 255 0 0 255
-0.084416 0.663044 1.931 0.0471503 0.165539 0.985075 255 0 0 255
-0.079161 0.66305 1.931 -0.247312 0.238468 0.939132 255 0 0 255
-0.074022 0.664085 1.934 -0.55456 0.345399 0.757075 255 0 0 255
-0.068937 0.665806 1.939 -0.44654 0.358074 0.819991 255 0 0 255
-0.063693 0.666154 1.94 -0.339134 0.345998 0.874799 255 0 0 255
-0.058504 0.667188 1.943 -0.338626 0.426337 0.83879 255 0 0 255
-0.053244 0.667535 1.944 0.0810869 0.362942 0.928277 255 0 0 255
-0.047929 0.667195 1.943 0.277786 0.374328 0.884711 255 0 0 255
-0.033105 0.688836 2.006 -0.973127 0.201001 0.112344 255 0 0 255
-0.185755 0.663123 1.947 0.705783 0.236236 0.667879 255 0 0 255
-0.180368 0.662793 1.946 0.56742 0.314499 0.761002 255 0 0 255
-0.174625 0.661101 1.941 0.511013 0.244467 0.824076 255 0 0 255
-0.169259 0.66077 1.94 0.448561 0.334693 0.828718 255 0 0 255
-0.163645 0.659418 1.936 0.307716 0.303187 0.901881 255 0 0 255
-0.158461 0.659768 1.937 0.140597 0.371819 0.917597 255 0 0 255
-0.153034 0.659097 1.935 0.343111 0.319137 0.883417 255 0 0 255
-0.147695 0.658765 1.934 0.344367 0.342516 0.874125 255 0 0 255
-0.142213 0.657753 1.931 0.237567 0.208006 0.948839 255 0 0 255
-0.136889 0.657421 1.93 0.1027 0.165614 0.980829 255 0 0 255
-0.131639 0.657429 1.93 0.495119 0.103528 0.862635 255 0 0 255
-0.126126 0.656075 1.926 0.632985 0.134456 0.762399 255 0 0 255
-0.120698 0.65506 1.923 0.298404 0.161954 0.940599 255 0 0 255
-0.115466 0.655068 1.923 -0.418159 0.105974 0.902171 255 0 0 255
-0.110406 0.656097 1.926 -0.353958 0.0771429 0.932074 255 0 0 255
-0.105166 0.656104 1.926 0.00276512 0.303886 0.952704 255 0 0 255
-0.099873 0.65577 1.925 -0.206814 0.230452 0.950852 255 0 0 255
-0.094734 0.656458 1.927 -0.557965 0.199583 0.805507 255 0 0 255
-0.089676 0.657826 1.931 -0.535737 0.303864 0.787815 255 0 0 255
-0.084465 0.658173 1.932 -0.28651 0.360207 0.887785 255 0 0 255
-0.07929 0.658859 1.934 -0.327846 0.557776 0.762498 255 0 0 255
-0.074103 0.659546 1.936 -0.494538 0.47831 0.725707 255 0 0 255
-0.068977 0.660913 1.94 -0.397395 0.330714 0.855982 255 0 0 255
-0.063697 0.660917 1.94 -0.363275 0.305494 0.880173 255 0 0 255
-0.058538 0.662284 1.944 -0.327338 0.149231 0.933049 255 0 0 255
-0.053247 0.662288 1.944 0.195273 0.121997 0.973132 255 0 0 255
-0.047883 0.661269 1.941 0.265418 0.135126 0.954617 255 0 0 255
-0.033174 0.684785 2.01 -0.973127 0.201001 0.112344 255 0 0 255
-0.184907 0.654823 1.938 0.47342 0.23982 0.847561 255 0 0 255
-0.180471 0.657875 1.947 0.640307 0.373694 0.671088 255 0 0 255
-0.174726 0.656197 1.942 0.487868 0.385284 0.783289 255 0 0 255
-0.169357 0.655869 1.941 0.472259 0.360607 0.804322 255 0 0 255
-0.16374 0.654528 1.937 0.330049 0.417658 0.84654 255 0 0 255
-0.158553 0.654876 1.938 0.10637 0.374153 0.921246 255 0 0 255
-0.153123 0.65421 1.936 0.3186 0.380631 0.86811 255 0 0 255
-0.147704 0.653543 1.934 0.421045 0.328103 0.845618 255 0 0 255
-0.142295 0.652877 1.932 0.397676 0.253367 0.88185 255 0 0 255
-0.136969 0.652548 1.931 0.333508 0.250124 0.908961 255 0 0 255
-0.131647 0.652218 1.93 0.437723 0.0618487 0.89698 255 0 0 255
-0.126069 0.650537 1.925 0.58276 -0.0855609 0.808127 255 0 0 255
-0.12058 0.649193 1.921 0.254693 -0.103447 0.961473 255 0 0 255
-0.115414 0.649539 1.922 -0.468238 -0.0893485 0.879074 255 0 0 255
-0.110413 0.650898 1.926 -0.536855 0.203059 0.818874 255 0 0 255
-0.105227 0.651243 1.927 -0.10504 0.317233 0.942512 255 0 0 255
-0.099984 0.651249 1.927 -0.137409 0.438901 0.887967 255 0 0 255
-0.094838 0.651932 1.929 -0.561473 0.339907 0.75446 255 0 0 255
-0.089821 0.653628 1.934 -0.576816 0.487742 0.655279 255 0 0 255
-0.084689 0.654647 1.937 -0.443856 0.572485 0.689386 255 0 0 255
-0.079541 0.655667 1.94 -0.262311 0.595065 0.759665 255 0 0 255
-0.074261 0.655672 1.94 -0.312076 0.444425 0.839699 255 0 0 255
-0.069053 0.656353 1.942 -0.272157 0.289004 0.917828 255 0 0 255
-0.063767 0.656357 1.942 -0.299813 0.261128 0.917564 255 0 0 255
-0.058572 0.657375 1.945 -0.203058 0.0585857 0.977413 255 0 0 255
-0.053251 0.657041 1.944 0.0942965 0.0638195 0.993496 255 0 0 255
-0.033225 0.680374 2.013 -0.97675 0.191672 0.0960293 255 0 0 255
-0.180667 0.653288 1.949 0.768075 0.573879 0.284119 255 0 0 255
-0.175187 0.652628 1.947 0.487299 0.504907 0.712466 255 0 0 255
-0.169629 0.651633 1.944 0.523576 0.440247 0.729418 255 0 0 255
-0.164088 0.650638 1.941 0.340873 0.46528 0.816897 255 0 0 255
-0.158726 0.650313 1.94 0.0708423 0.464932 0.882508 255 0 0 255
-0.153449 0.650323 1.94 0.28888 0.467364 0.835535 255 0 0 255
-0.147942 0.649327 1.937 0.419582 0.468872 0.777245 255 0 0 255
-0.142452 0.648331 1.934 0.374374 0.490332 0.787032 255 0 0 255
-0.136977 0.647334 1.931 0.483411 0.355439 0.799986 255 0 0 255
-0.131519 0.646337 1.928 0.690228 0.199783 0.695465 255 0 0 255
-0.125946 0.644669 1.923 0.588657 -0.0808071 0.804334 255 0 0 255
-0.120463 0.643336 1.919 0.183672 -0.14997 0.97148 255 0 0 255
-0.115421 0.64435 1.922 -0.632469 0.0554645 0.772597 255 0 0 255
-0.110478 0.646033 1.927 -0.660653 0.22289 0.716839 255 0 0 255
-0.105452 0.647382 1.931 -0.324217 0.528476 0.7846 255 0 0 255
-0.100146 0.647053 1.93 -0.125701 0.690743 0.712091 255 0 0 255
-0.094992 0.64773 1.932 -0.508648 0.545941 0.665752 255 0 0 255
-0.08992 0.649078 1.936 -0.577288 0.469441 0.668105 255 0 0 255
-0.084826 0.650425 1.94 -0.485585 0.338369 0.806048 255 0 0 255
-0.079628 0.651101 1.942 -0.184025 0.366818 0.91191 255 0 0 255
-0.074304 0.650771 1.941 -0.16917 0.216845 0.961436 255 0 0 255
-0.069093 0.651446 1.943 -0.232127 0.308457 0.922481 255 0 0 255
-0.063804 0.651451 1.943 -0.202716 0.318233 0.926085 255 0 0 255
-0.058576 0.652125 1.945 -0.10859 0.283469 0.952814 255 0 0 255
-0.053227 0.651459 1.943 0.188232 -0.102074 0.976806 255 0 0 255
-0.038284 0.667562 1.991 -0.979929 0.194867 0.0420284 255 0 0 255
-0.033294 0.676282 2.017 -0.980057 0.138104 0.142885 255 0 0 255
-0.181049 0.649354 1.953 0.496738 0.574349 0.650672 255 0 0 255
-0.175558 0.6487 1.951 0.518686 0.606498 0.602599 255 0 0 255
-0.169814 0.647049 1.946 0.493268 0.557388 0.667836 255 0 0 255
-0.164267 0.646062 1.943 0.397864 0.568338 0.720205 255 0 0 255
-0.1589 0.64574 1.942 0.132289 0.523923 0.84143 255 0 0 255
-0.153696 0.646082 1.943 0.227898 0.471683 0.851808 255 0 0 255
-0.148181 0.645094 1.94 0.393008 0.470637 0.789966 255 0 0 255
-0.142829 0.644771 1.939 0.383585 0.558003 0.735863 255 0 0 255
-0.137412 0.644116 1.937 0.574769 0.44394 0.687429 255 0 0 255
-0.131801 0.642462 1.932 0.744361 0.238159 0.623865 255 0 0 255
-0.12602 0.63981 1.924 0.608928 0.0522968 0.7915 255 0 0 255
-0.12047 0.638156 1.919 0.0978587 -0.00244985 0.995197 255 0 0 255
-0.115489 0.639494 1.923 -0.722721 0.141709 0.676456 255 0 0 255
-0.1106 0.641496 1.929 -0.781971 0.226407 0.580742 255 0 0 255
-0.105733 0.643832 1.936 -0.479378 0.594482 0.645591 255 0 0 255
-0.10036 0.643174 1.934 -0.164778 0.65012 0.74175 255 0 0 255
-0.095244 0.644178 1.937 -0.281053 0.679484 0.677725 255 0 0 255
-0.090065 0.644849 1.939 -0.44962 0.448763 0.772304 255 0 0 255
-0.084919 0.645853 1.942 -0.343063 0.235974 0.909189 255 0 0 255
-0.079675 0.646191 1.943 -0.100253 0.126335 0.986909 255 0 0 255
-0.074386 0.646196 1.943 -0.27123 0.184872 0.944593 255 0 0 255
-0.069169 0.646867 1.945 -0.358419 0.30123 0.883627 255 0 0 255
-0.063907 0.647204 1.946 -0.231309 0.429126 0.873125 255 0 0 255
-0.05861 0.647208 1.946 0.470283 0.344439 0.812525 255 0 0 255
-0.053121 0.644884 1.939 0.444053 0.0801958 0.892404 255 0 0 255
-0.18171 0.646388 1.96 0.524144 0.524772 0.670736 255 0 0 255
-0.176019 0.645081 1.956 0.526527 0.480923 0.701058 255 0 0 255
-0.170262 0.643443 1.951 0.558959 0.535437 0.633145 255 0 0 255
-0.164701 0.642464 1.948 0.407749 0.594928 0.692677 255 0 0 255
-0.159156 0.641485 1.945 0.25543 0.547359 0.796965 255 0 0 255
-0.153864 0.641495 1.945 0.290769 0.40939 0.864785 255 0 0 255
-0.14842 0.640846 1.943 0.313189 0.325039 0.892335 255 0 0 255
-0.14306 0.640526 1.942 0.311454 0.375452 0.872944 255 0 0 255
-0.137563 0.639546 1.939 0.614203 0.259312 0.745327 255 0 0 255
-0.131878 0.637576 1.933 0.791594 0.209906 0.573863 255 0 0 255
-0.126028 0.634616 1.924 0.639641 0.130215 0.757564 255 0 0 255
-0.120541 0.633305 1.92 0.107116 0.133636 0.985225 255 0 0 255
-0.115557 0.634632 1.924 -0.756697 0.180061 0.62848 255 0 0 255
-0.110722 0.636949 1.931 -0.834987 0.184122 0.518552 255 0 0 255
-0.105849 0.639265 1.938 -0.624259 0.406193 0.667314 255 0 0 255
-0.100575 0.639272 1.938 -0.275446 0.472083 0.837417 255 0 0 255
-0.095447 0.640269 1.941 -0.355166 0.488625 0.796933 255 0 0 255
-0.090164 0.640275 1.941 -0.210345 0.327663 0.921082 255 0 0 255
-0.084925 0.640611 1.942 -0.137314 0.193965 0.971351 255 0 0 255
-0.079598 0.640287 1.941 -0.177811 0.26649 0.947294 255 0 0 255
-0.074391 0.640952 1.943 -0.486416 0.31204 0.816107 255 0 0 255
-0.069209 0.641946 1.946 -0.486034 0.467397 0.738452 255 0 0 255
-0.06401 0.642941 1.949 -0.19409 0.602119 0.774456 255 0 0 255
-0.058735 0.643275 1.95 -0.214755 0.552453 0.805404 255 0 0 255
-0.181722 0.641095 1.96 0.517623 0.361963 0.775274 255 0 0 255
-0.17621 0.640453 1.958 0.564121 0.295043 0.771179 255 0 0 255
-0.170535 0.639155 1.954 0.508143 0.47415 0.719008 255 0 0 255
-0.164965 0.638185 1.951 0.474539 0.528778 0.70371 255 0 0 255
-0.159494 0.637542 1.949 0.437017 0.424255 0.79311 255 0 0 255
-0.153954 0.636571 1.946 0.367288 0.338412 0.866359 255 0 0 255
-0.148506 0.635927 1.944 0.281862 0.257618 0.924222 255 0 0 255
-0.143143 0.635609 1.943 0.368438 0.274895 0.88808 255 0 0 255
-0.137714 0.634964 1.941 0.62299 0.199231 0.756433 255 0 0 255
-0.132023 0.633011 1.935 0.762219 0.243293 0.599859 255 0 0 255
-0.126168 0.630075 1.926 0.680772 0.323175 0.657349 255 0 0 255
-0.120612 0.628448 1.921 0.0971378 0.390329 0.915537 255 0 0 255
-0.115625 0.629765 1.925 -0.750861 0.205589 0.627647 255 0 0 255
-0.110787 0.632063 1.932 -0.850209 0.189491 0.491159 255 0 0 255
-0.105966 0.634687 1.94 -0.643277 0.352841 0.679483 255 0 0 255
-0.100685 0.634695 1.94 -0.328853 0.314177 0.890589 255 0 0 255
-0.095602 0.63601 1.944 -0.24168 0.342509 0.907898 255 0 0 255
-0.090264 0.635689 1.943 -0.102272 0.343587 0.933535 255 0 0 255
-0.085018 0.636023 1.944 -0.139772 0.299423 0.943827 255 0 0 255
-0.079686 0.635701 1.943 -0.356842 0.457446 0.814498 255 0 0 255
-0.07455 0.637016 1.947 -0.57124 0.526686 0.629513 255 0 0 255
-0.069392 0.638329 1.951 -0.49095 0.605342 0.626521 255 0 0 255
-0.064179 0.639316 1.954 -0.158906 0.665004 0.729739 255 0 0 255
-0.058799 0.638666 1.952 0.0662241 0.533303 0.843328 255 0 0 255
-0.176312 0.635489 1.959 0.312632 0.179401 0.932779 255 0 0 255
-0.170895 0.635176 1.958 0.365244 0.462423 0.807937 255 0 0 255
-0.165314 0.634214 1.955 0.520231 0.47961 0.706636 255 0 0 255
-0.159668 0.632928 1.951 0.5317 0.389534 0.752036 255 0 0 255
-0.154122 0.631965 1.948 0.454332 0.298712 0.839258 255 0 0 255
-0.148669 0.631326 1.946 0.282751 0.328274 0.90127 255 0 0 255
-0.1433 0.631012 1.945 0.371431 0.238936 0.89719 255 0 0 255
-0.137724 0.629724 1.941 0.61238 0.23342 0.755319 255 0 0 255
-0.1321 0.628111 1.936 0.765421 0.284191 0.577379 255 0 0 255
-0.126242 0.6252 1.927 0.489315 0.576172 0.654673 255 0 0 255
-0.120809 0.624235 1.924 0.18392 0.637543 0.74814 255 0 0 255
-0.115693 0.624892 1.926 -0.555193 0.573677 0.602209 255 0 0 255
-0.110852 0.627171 1.933 -0.820759 0.386878 0.420333 255 0 0 255
-0.106028 0.629775 1.941 -0.70443 0.261544 0.659828 255 0 0 255
-0.100796 0.630106 1.942 -0.269871 0.405582 0.873311 255 0 0 255
-0.095608 0.630762 1.944 -0.172201 0.254893 0.951513 255 0 0 255
-0.09027 0.630444 1.943 -0.174452 0.33299 0.926652 255 0 0 255
-0.085112 0.631424 1.946 -0.36853 0.452488 0.812059 255 0 0 255
-0.079855 0.631754 1.947 -0.451401 0.630557 0.631375 255 0 0 255
-0.074746 0.633382 1.952 -0.512986 0.640145 0.571891 255 0 0 255
-0.069539 0.634361 1.955 -0.306655 0.644613 0.700311 255 0 0 255
-0.064282 0.635015 1.957 0.0742949 0.494622 0.865927 255 0 0 255
-0.058894 0.63437 1.955 0.363089 0.306372 0.879945 255 0 0 255
-0.176233 0.629877 1.958 0.0724957 0.396078 0.91535 255 0 0 255
-0.171168 0.630854 1.961 -0.0192997 0.593024 0.804953 255 0 0 255
-0.165579 0.6299 1.958 0.449024 0.637241 0.626339 255 0 0 255
-0.159842 0.628303 1.953 0.554335 0.400307 0.729704 255 0 0 255
-0.154291 0.627348 1.95 0.494578 0.356845 0.792499 255 0 0 255
-0.148756 0.626393 1.947 0.288047 0.404556 0.867965 255 0 0 255
-0.143457 0.626403 1.947 0.380349 0.345228 0.857993 255 0 0 255
-0.137875 0.625126 1.943 0.595074 0.338825 0.728755 255 0 0 255
-0.132382 0.62417 1.94 0.629389 0.349223 0.694199 255 0 0 255
-0.126709 0.622249 1.934 0.481708 0.626119 0.613133 255 0 0 255
-0.121257 0.621293 1.931 0.178509 0.827594 0.532187 255 0 0 255
-0.116061 0.621623 1.932 -0.307047 0.835916 0.454937 255 0 0 255
-0.111089 0.62324 1.937 -0.757644 0.43018 0.490836 255 0 0 255
-0.106254 0.625821 1.945 -0.56664 0.355931 0.743124 255 0 0 255
-0.100907 0.625507 1.944 -0.193544 0.527017 0.827523 255 0 0 255
-0.095714 0.626158 1.946 -0.104355 0.416778 0.902998 255 0 0 255
-0.090369 0.625842 1.945 -0.299558 0.508659 0.807175 255 0 0 255
-0.085249 0.627136 1.949 -0.547877 0.556786 0.624356 255 0 0 255
-0.080066 0.628107 1.952 -0.51546 0.670147 0.534045 255 0 0 255
-0.074905 0.6294 1.956 -0.394382 0.720351 0.570576 255 0 0 255
-0.069651 0.630049 1.958 -0.224178 0.608736 0.761042 255 0 0 255
-0.064352 0.630375 1.959 0.348075 0.308453 0.885269 255 0 0 255
-0.058898 0.629093 1.955 0.383043 0.299317 0.873892 255 0 0 255
-0.176335 0.624908 1.959 -0.135433 0.577319 0.805209 255 0 0 255
-0.171616 0.627153 1.966 -0.351607 0.746819 0.564476 255 0 0 255
-0.166098 0.626526 1.964 0.6312 0.614043 0.473855 255 0 0 255
-0.160099 0.623986 1.956 0.644359 0.472146 0.601564 255 0 0 255
-0.154539 0.623039 1.953 0.520836 0.491203 0.698176 255 0 0 255
-0.148919 0.621774 1.949 0.27996 0.531357 0.799551 255 0 0 255
-0.143688 0.622103 1.95 0.406372 0.448123 0.796271 255 0 0 255
-0.138097 0.620837 1.946 0.602521 0.355205 0.714701 255 0 0 255
-0.132596 0.619889 1.943 0.600805 0.392613 0.696339 255 0 0 255
-0.12698 0.618303 1.938 0.504839 0.439505 0.742948 255 0 0 255
-0.121705 0.618312 1.938 0.00239853 0.70401 0.710186 255 0 0 255
-0.11643 0.618321 1.938 -0.366872 0.667343 0.648119 255 0 0 255
-0.111384 0.619605 1.942 -0.540605 0.352583 0.763827 255 0 0 255
-0.106371 0.621208 1.947 -0.461168 0.277725 0.84273 255 0 0 255
-0.101122 0.621535 1.948 -0.3071 0.323652 0.894952 255 0 0 255
-0.095868 0.621861 1.949 -0.298992 0.555837 0.77566 255 0 0 255
-0.090562 0.621868 1.949 -0.286301 0.674297 0.680702 255 0 0 255
-0.08543 0.62315 1.953 -0.551442 0.653652 0.518316 255 0 0 255
-0.080318 0.624752 1.958 -0.449966 0.707981 0.544328 255 0 0 255
-0.075102 0.625715 1.961 -0.268547 0.779044 0.566544 255 0 0 255
-0.069798 0.626039 1.962 -0.153921 0.711317 0.685811 255 0 0 255
-0.06439 0.625406 1.96 0.546601 0.495978 0.674709 255 0 0 255
-0.058902 0.623815 1.955 0.480022 0.419879 0.770247 255 0 0 255
-0.176797 0.621199 1.964 -0.384498 0.684695 0.619156 255 0 0 255
-0.172239 0.624057 1.973 -0.167279 0.861969 0.478568 255 0 0 255
-0.166532 0.622804 1.969 0.451306 0.802288 0.390713 255 0 0 255
-0.160519 0.620285 1.961 0.661673 0.577348 0.478391 255 0 0 255
-0.154787 0.618714 1.956 0.47779 0.677109 0.559678 255 0 0 255
-0.149311 0.618092 1.954 0.266482 0.76872 0.581426 255 0 0 255
-0.14392 0.617786 1.953 0.440224 0.670726 0.596933 255 0 0 255
-0.138249 0.616215 1.948 0.628085 0.474957 0.616381 255 0 0 255
-0.132606 0.614643 1.943 0.527788 0.364457 0.76721 255 0 0 255
-0.12712 0.613703 1.94 0.391953 0.520505 0.758583 255 0 0 255
-0.121902 0.614028 1.941 -0.166985 0.490653 0.855205 255 0 0 255
-0.116679 0.614353 1.942 -0.289216 0.482545 0.826744 255 0 0 255
-0.111449 0.614678 1.943 -0.518115 0.336677 0.78626 255 0 0 255
-0.106324 0.615635 1.946 -0.46684 0.25336 0.847272 255 0 0 255
-0.101129 0.616275 1.948 -0.475327 0.348318 0.807923 255 0 0 255
-0.096023 0.617548 1.952 -0.509804 0.507028 0.694998 255 0 0 255
-0.090847 0.618504 1.955 -0.492054 0.609213 0.621886 255 0 0 255
-0.085699 0.619776 1.959 -0.582301 0.607028 0.54078 255 0 0 255
-0.080488 0.620731 1.962 -0.53796 0.648282 0.538823 255 0 0 255
-0.075222 0.62137 1.964 -0.303312 0.745388 0.593632 255 0 0 255
-0.070017 0.622641 1.968 -0.295031 0.886477 0.356534 255 0 0 255
-0.064625 0.622329 1.967 0.140468 0.91927 0.367712 255 0 0 255
-0.059057 0.620119 1.96 0.40147 0.787113 0.468269 255 0 0 255
-0.17735 0.617776 1.97 -0.189186 0.882318 0.430957 255 0 0 255
-0.172688 0.620297 1.978 0.257242 0.798738 0.543916 255 0 0 255
-0.166798 0.618427 1.972 0.365602 0.725071 0.583615 255 0 0 255
-0.161022 0.61687 1.967 0.527954 0.693442 0.490309 255 0 0 255
-0.155352 0.615627 1.963 0.382339 0.79847 0.46504 255 0 0 255
-0.149933 0.615324 1.962 0.379732 0.772554 0.508885 255 0 0 255
-0.144372 0.614394 1.959 0.45585 0.711662 0.534545 255 0 0 255
-0.138756 0.61315 1.955 0.542347 0.669213 0.507951 255 0 0 255
-0.132957 0.610964 1.948 0.676963 0.526546 0.514267 255 0 0 255
-0.127261 0.609092 1.942 0.200064 0.652533 0.730873 255 0 0 255
-0.122037 0.609414 1.943 -0.0959242 0.608134 0.788017 255 0 0 255
-0.116807 0.609737 1.944 -0.159848 0.576507 0.801304 255 0 0 255
-0.11163 0.610373 1.946 -0.346004 0.418046 0.839952 255 0 0 255
-0.106441 0.611008 1.948 -0.471048 0.322114 0.821192 255 0 0 255
-0.101241 0.611643 1.95 -0.585524 0.376834 0.717745 255 0 0 255
-0.096177 0.613218 1.955 -0.600534 0.462561 0.652224 255 0 0 255
-0.09104 0.61448 1.959 -0.562501 0.471588 0.679116 255 0 0 255
-0.085837 0.615428 1.962 -0.610717 0.484008 0.626706 255 0 0 255
-0.080699 0.617002 1.967 -0.616734 0.594974 0.515408 255 0 0 255
-0.075496 0.618263 1.971 -0.56681 0.672159 0.47637 255 0 0 255
-0.070342 0.62015 1.977 -0.330456 0.909975 0.250487 255 0 0 255
-0.064958 0.620156 1.977 -0.330456 0.909975 0.250488 255 0 0 255
-0.059454 0.618905 1.973 0.0189855 0.980633 0.19493 255 0 0 255
-0.184207 0.617416 1.986 0.109841 0.960841 0.2544 255 0 0 255
-0.178352 0.615874 1.981 0.109103 0.957798 0.265933 255 0 0 255
-0.173224 0.616819 1.984 0.258618 0.894611 0.364401 255 0 0 255
-0.167402 0.615277 1.979 0.345114 0.827406 0.443052 255 0 0 255
-0.161688 0.614045 1.975 0.552572 0.751189 0.361081 255 0 0 255
-0.155917 0.612502 1.97 0.501948 0.70269 0.504257 255 0 0 255
-0.150326 0.61158 1.967 0.49431 0.611929 0.617414 255 0 0 255
-0.144677 0.610347 1.963 0.519495 0.575297 0.63179 255 0 0 255
-0.13905 0.609114 1.959 0.507397 0.615018 0.603573 255 0 0 255
-0.133444 0.60788 1.955 0.644386 0.637908 0.42171 255 0 0 255
-0.127663 0.605713 1.948 0.348585 0.775448 0.526468 255 0 0 255
-0.12236 0.605722 1.948 0.0262613 0.798449 0.601489 255 0 0 255
-0.116996 0.60542 1.947 -0.153956 0.70517 0.692122 255 0 0 255
-0.111753 0.60574 1.948 -0.377898 0.656482 0.652858 255 0 0 255
-0.106558 0.606369 1.95 -0.397826 0.652348 0.645117 255 0 0 255
-0.101456 0.607621 1.954 -0.533766 0.640758 0.551836 255 0 0 255
-0.096332 0.608872 1.958 -0.518559 0.591789 0.617157 255 0 0 255
-0.09114 0.609812 1.961 -0.518661 0.528933 0.67173 255 0 0 255
-0.085975 0.611063 1.965 -0.656121 0.45454 0.60241 255 0 0 255
-0.080828 0.612624 1.97 -0.703164 0.507763 0.497732 255 0 0 255
-0.075732 0.614807 1.977 -0.641907 0.659301 0.391507 255 0 0 255
-0.070632 0.6173 1.985 -0.612787 0.744924 0.26378 255 0 0 255
-0.065325 0.618238 1.988 -0.622859 0.743291 0.244059 255 0 0 255
-0.060061 0.619798 1.993 -0.357218 0.921824 0.150452 255 0 0 255
-0.186724 0.620372 2.013 -0.487336 -0.872864 0.0247242 255 0 0 255
-0.179716 0.615146 1.996 -0.354013 -0.93524 0.00061316 255 0 0 255
-0.174196 0.614851 1.995 0.300742 0.944934 0.129054 255 0 0 255
-0.168344 0.613322 1.99 0.419886 0.877222 0.232762 255 0 0 255
-0.162519 0.611793 1.985 0.54496 0.799191 0.2536 255 0 0 255
-0.156483 0.609339 1.977 0.597084 0.686881 0.414348 255 0 0 255
-0.150643 0.6075 1.971 0.602222 0.572303 0.556595 255 0 0 255
-0.144983 0.606278 1.967 0.538188 0.552436 0.636528 255 0 0 255
-0.139486 0.605672 1.965 0.442464 0.598835 0.66755 255 0 0 255
-0.133932 0.604758 1.962 0.592996 0.587843 0.550269 255 0 0 255
-0.128066 0.602302 1.954 0.461617 0.728061 0.506791 255 0 0 255
-0.122683 0.602003 1.953 0.0156182 0.828632 0.559575 255 0 0 255
-0.117245 0.601395 1.951 -0.110036 0.799598 0.590369 255 0 0 255
-0.112163 0.602637 1.955 -0.228942 0.841952 0.488573 255 0 0 255
-0.106948 0.603261 1.957 -0.378332 0.807123 0.453229 255 0 0 255
-0.101827 0.604502 1.961 -0.381278 0.735554 0.559988 255 0 0 255
-0.096585 0.605126 1.963 -0.378951 0.696497 0.609334 255 0 0 255
-0.091286 0.605442 1.964 -0.482994 0.607942 0.630176 255 0 0 255
-0.086112 0.606682 1.968 -0.654117 0.516525 0.552569 255 0 0 255
-0.080999 0.608538 1.974 -0.733308 0.542104 0.410346 255 0 0 255
-0.075929 0.61101 1.982 -0.735503 0.610559 0.293689 255 0 0 255
-0.070851 0.61379 1.991 -0.652048 0.696786 0.298868 255 0 0 255
-0.065658 0.615953 1.998 -0.688466 0.705961 0.166233 255 0 0 255
-0.060789 0.621816 2.017 0.730673 -0.682173 0.0275273 255 0 0 255
-0.191005 0.628987 2.059 0.435543 0.519828 0.734903 255 0 0 255
-0.18252 0.619224 2.027 -0.562607 -0.826701 0.00622309 255 0 0 255
-0.175955 0.615571 2.015 -0.533573 -0.845734 0.00586204 255 0 0 255
-0.16971 0.612834 2.006 0.5394 0.841163 0.0386242 255 0 0 255
-0.163349 0.609486 1.995 0.623638 0.765937 0.156255 255 0 0 255
-0.157048 0.606137 1.984 0.684387 0.677403 0.269702 255 0 0 255
-0.150959 0.603399 1.975 0.661681 0.605417 0.442321 255 0 0 255
-0.145141 0.601577 1.969 0.505367 0.599243 0.620896 255 0 0 255
-0.139638 0.600976 1.967 0.466517 0.597367 0.652315 255 0 0 255
-0.134078 0.60007 1.964 0.568003 0.553761 0.608869 255 0 0 255
-0.128403 0.598552 1.959 0.409552 0.703302 0.581063 255 0 0 255
-0.122944 0.59795 1.957 0.0413644 0.864455 0.501006 255 0 0 255
-0.117675 0.598265 1.958 -0.0779411 0.858241 0.507294 255 0 0 255
-0.1124 0.598579 1.959 -0.247026 0.825274 0.507839 255 0 0 255
-0.10723 0.599504 1.962 -0.382061 0.711512 0.589729 255 0 0 255
-0.102043 0.600429 1.965 -0.405731 0.68649 0.603418 255 0 0 255
-0.096789 0.601047 1.967 -0.384796 0.754418 0.531776 255 0 0 255
-0.091525 0.601666 1.969 -0.407866 0.74835 0.523085 255 0 0 255
-0.086338 0.602895 1.973 -0.63666 0.676212 0.370678 255 0 0 255
-0.081292 0.605346 1.981 -0.676214 0.666447 0.313981 255 0 0 255
-0.076165 0.607491 1.988 -0.726355 0.624478 0.287114 255 0 0 255
-0.071106 0.610553 1.998 -0.708466 0.686241 0.164771 255 0 0 255
-0.066091 0.614531 2.011 -0.723369 0.689439 0.0375786 255 0 0 255
-0.061728 0.625842 2.048 0.815525 -0.574542 0.0694258 255 0 0 255
-0.057163 0.637153 2.085 -0.824656 0.481318 0.297111 255 0 0 255
-0.191482 0.624938 2.064 0.435543 0.519828 0.734903 255 0 0 255
-0.184874 0.621621 2.053 0.64009 0.661316 0.391084 255 0 0 255
-0.178239 0.618001 2.041 0.559916 0.828029 0.0293788 255 0 0 255
-0.171076 0.61226 2.022 -0.567695 -0.823238 0.000607257 255 0 0 255
-0.164262 0.607428 2.006 0.632457 0.769753 0.0864829 255 0 0 255
-0.157851 0.603806 1.994 0.690524 0.704732 0.162881 255 0 0 255
-0.151582 0.600487 1.983 0.716851 0.639635 0.277473 255 0 0 255
-0.145668 0.598378 1.976 0.594028 0.630529 0.499563 255 0 0 255
-0.140075 0.59748 1.973 0.529418 0.634826 0.562771 255 0 0 255
-0.134361 0.595976 1.968 0.55562 0.549119 0.624303 255 0 0 255
-0.128806 0.595078 1.965 0.247467 0.763534 0.59647 255 0 0 255
-0.12333 0.594482 1.963 -0.0357552 0.844593 0.534214 255 0 0 255
-0.118105 0.595096 1.965 -0.141892 0.834135 0.532997 255 0 0 255
-0.112753 0.595105 1.965 -0.15572 0.811534 0.563173 255 0 0 255
-0.107457 0.595416 1.966 -0.283937 0.738892 0.61108 255 0 0 255
-0.102258 0.596333 1.969 -0.405663 0.716775 0.56716 255 0 0 255
-0.097043 0.597249 1.972 -0.46776 0.717408 0.516262 255 0 0 255
-0.091904 0.598771 1.977 -0.538075 0.754254 0.376266 255 0 0 255
-0.086738 0.600292 1.982 -0.605991 0.752329 0.258409 255 0 0 255
-0.081627 0.602419 1.989 -0.641375 0.743241 0.190347 255 0 0 255
-0.076477 0.604545 1.996 -0.677383 0.718516 0.157755 255 0 0 255
-0.071431 0.607883 2.007 -0.671357 0.738327 0.0644478 255 0 0 255
-0.066786 0.61546 2.032 0.745365 -0.662055 0.0781964 255 0 0 255
-0.062516 0.628186 2.074 -0.836327 0.538827 0.101101 255 0 0 255
-0.057332 0.63334 2.091 -0.498532 0.527411 0.687971 255 0 0 255
-0.051883 0.636373 2.101 0.120308 0.751265 0.648943 255 0 0 255
-0.198928 0.625049 2.083 0.801501 -0.413125 0.432348 255 0 0 255
-0.191403 0.619062 2.063 0.204345 0.372052 0.905439 255 0 0 255
-0.185518 0.618175 2.06 0.582959 0.493634 0.645356 255 0 0 255
-0.179649 0.617288 2.057 0.161775 0.696895 0.698689 255 0 0 255
-0.17295 0.6134 2.044 0.580258 0.812465 0.0565784 255 0 0 255
-0.16583 0.60771 2.025 0.615765 0.787002 0.0382268 255 0 0 255
-0.158971 0.602621 2.008 0.66991 0.738802 0.0734323 255 0 0 255
-0.152434 0.598431 1.994 0.686916 0.716047 0.124195 255 0 0 255
-0.146047 0.594541 1.981 0.629211 0.698644 0.340572 255 0 0 255
-0.140298 0.593051 1.976 0.554389 0.671534 0.491625 255 0 0 255
-0.134576 0.59156 1.971 0.455116 0.635278 0.623932 255 0 0 255
-0.129078 0.59097 1.969 0.177929 0.778534 0.601852 255 0 0 255
-0.123653 0.59068 1.968 -0.0276024 0.80231 0.59627 255 0 0 255
-0.118414 0.591289 1.97 -0.0753511 0.812461 0.578125 255 0 0 255
-0.112992 0.590998 1.969 -0.0977257 0.784062 0.61294 255 0 0 255
-0.107738 0.591607 1.971 -0.221866 0.760745 0.609953 255 0 0 255
-0.102474 0.592215 1.973 -0.440048 0.687239 0.57798 255 0 0 255
-0.097346 0.593724 1.978 -0.548531 0.698918 0.458943 255 0 0 255
-0.09219 0.595232 1.983 -0.607239 0.752707 0.254349 255 0 0 255
-0.087139 0.597641 1.991 -0.623719 0.771739 0.124073 255 0 0 255
-0.082126 0.600649 2.001 -0.622294 0.777621 0.0897573 255 0 0 255
-0.077058 0.603657 2.011 0.613196 -0.789928 0.00217541 255 0 0 255
-0.072042 0.607565 2.024 0.673248 -0.736162 0.0693083 255 0 0 255
-0.067646 0.617777 2.058 -0.868572 0.49341 0.0461399 255 0 0 255
-0.062913 0.626487 2.087 -0.798881 0.492742 0.344956 255 0 0 255
-0.057474 0.629194 2.096 -0.599752 0.493866 0.629599 255 0 0 255
-0.051739 0.628898 2.095 0.1441 0.0396802 0.988767 255 0 0 255
-0.205986 0.623569 2.097 0.669263 -0.509107 0.5412 255 0 0 255
-0.197509 0.61496 2.068 0.723704 -0.208517 0.657855 255 0 0 255
-0.191417 0.613487 2.063 0.113638 -0.262858 0.958119 255 0 0 255
-0.185892 0.613799 2.064 -0.0957201 -0.0906831 0.991269 255 0 0 255
-0.180536 0.614704 2.067 -0.0664578 0.50745 0.859115 255 0 0 255
-0.174486 0.613231 2.062 0.251496 0.477693 0.841759 255 0 0 255
-0.167726 0.60908 2.048 0.702737 0.695586 0.149401 255 0 0 255
-0.160567 0.603144 2.028 0.619247 0.78447 0.0337528 255 0 0 255
-0.153593 0.597505 2.009 -0.60765 -0.7942 0.0029223 255 0 0 255
-0.146943 0.592758 1.993 0.637787 0.756803 0.143098 255 0 0 255
-0.140877 0.590092 1.984 0.53815 0.795219 0.279323 255 0 0 255
-0.134996 0.588021 1.977 0.452091 0.788732 0.416551 255 0 0 255
-0.129416 0.587138 1.974 0.206173 0.853549 0.478483 255 0 0 255
-0.12404 0.587148 1.974 0.0156701 0.93568 0.352503 255 0 0 255
-0.118724 0.587455 1.975 -0.0498538 0.921419 0.385359 255 0 0 255
-0.113345 0.587464 1.975 -0.0980564 0.890289 0.444715 255 0 0 255
-0.107965 0.587472 1.975 -0.16662 0.863349 0.476304 255 0 0 255
-0.102741 0.588373 1.978 -0.43521 0.79958 0.413841 255 0 0 255
-0.097649 0.590166 1.984 -0.582699 0.762406 0.281423 255 0 0 255
-0.092663 0.59285 1.993 -0.613421 0.784548 0.0905463 255 0 0 255
-0.087758 0.596427 2.005 -0.58225 0.812834 0.0169046 255 0 0 255
-0.08283 0.600301 2.018 0.532572 -0.845631 0.0357289 255 0 0 255
-0.07783 0.604174 2.031 0.590899 -0.805983 0.0350673 255 0 0 255
-0.072867 0.60894 2.047 -0.756395 0.652325 0.0483637 255 0 0 255
-0.068309 0.618168 2.078 -0.930098 0.352448 0.103431 255 0 0 255
-0.06322 0.623825 2.097 -0.23111 0.768589 0.596539 255 0 0 255
-0.057643 0.625317 2.102 0.232624 0.536493 0.81121 255 0 0 255
-0.051743 0.623239 2.095 0.35494 0.50245 0.788392 255 0 0 255
-0.046056 0.623541 2.096 0.549352 0.306913 0.777185 255 0 0 255
-0.212011 0.618771 2.1 0.594618 -0.507933 0.623245 255 0 0 255
-0.204036 0.612009 2.077 0.835984 -0.214495 0.505097 255 0 0 255
-0.197046 0.607899 2.063 0.47048 -0.103241 0.87635 255 0 0 255
-0.190967 0.606439 2.058 0.304601 -0.015502 0.952354 255 0 0 255
-0.185546 0.607043 2.06 -0.388159 -0.0735595 0.918652 255 0 0 255
-0.180375 0.60853 2.065 -0.484862 0.227584 0.844461 255 0 0 255
-0.174922 0.609133 2.067 0.124376 0.104829 0.986682 255 0 0 255
-0.168885 0.607672 2.062 0.377348 0.159867 0.912168 255 0 0 255
-0.162242 0.603853 2.049 0.732068 0.623374 0.27474 255 0 0 255
-0.155286 0.598561 2.031 0.562663 0.824285 0.0629696 255 0 0 255
-0.148503 0.593562 2.014 0.515904 0.85661 0.00794156 255 0 0 255
-0.142024 0.589447 2 -0.421153 -0.906385 0.0331201 255 0 0 255
-0.135963 0.586805 1.991 0.354748 0.925071 0.135637 255 0 0 255
-0.130147 0.585047 1.985 0.241028 0.945024 0.220988 255 0 0 255
-0.124741 0.585057 1.985 0.0745499 0.983279 0.166149 255 0 0 255
-0.119274 0.584772 1.984 0.00824622 0.969279 0.245825 255 0 0 255
-0.11387 0.584781 1.984 -0.0647877 0.97116 0.229456 255 0 0 255
-0.108411 0.584495 1.983 -0.216959 0.929683 0.297687 255 0 0 255
-0.103269 0.585977 1.988 -0.474013 0.867318 0.151893 255 0 0 255
-0.098345 0.588933 1.998 0.496153 -0.867696 0.0305912 255 0 0 255
-0.093553 0.593067 2.012 0.479802 -0.875684 0.0544831 255 0 0 255
-0.088641 0.596906 2.025 0.520502 -0.853048 0.0372295 255 0 0 255
-0.083699 0.60104 2.039 -0.628263 0.770898 0.104891 255 0 0 255
-0.078603 0.604583 2.051 -0.727746 0.650795 0.216452 255 0 0 255
-0.073478 0.608422 2.064 -0.911914 0.380798 0.152991 255 0 0 255
-0.068577 0.614912 2.086 -0.959439 0.168913 0.225712 255 0 0 255
-0.063375 0.619634 2.102 -0.516115 0.219277 0.827975 255 0 0 255
-0.057812 0.621408 2.108 0.200758 0.57031 0.796519 255 0 0 255
-0.051846 0.618759 2.099 0.595472 0.330678 0.732165 255 0 0 255
-0.046016 0.617289 2.094 0.616023 0.0503529 0.786117 255 0 0 255
-0.040349 0.617882 2.096 0.41681 -0.0285816 0.908544 255 0 0 255
-0.223669 0.613648 2.102 0.452719 -0.635811 0.625132 255 0 0 255
-0.217223 0.61162 2.095 0.458364 -0.58205 0.671655 255 0 0 255
-0.210613 0.609008 2.086 0.709553 -0.225382 0.667636 255 0 0 255
-0.203855 0.605812 2.075 0.743256 0.128533 0.656544 255 0 0 255
-0.197348 0.603199 2.066 0.785764 0.212395 0.580915 255 0 0 255
-0.191167 0.601462 2.06 0.213838 0.139652 0.966835 255 0 0 255
-0.185649 0.601768 2.061 -0.272394 0.0384378 0.961418 255 0 0 255
-0.180301 0.602658 2.064 -0.359366 -0.144812 0.921892 255 0 0 255
-0.17502 0.603839 2.068 -0.015898 0.0215823 0.999641 255 0 0 255
-0.169144 0.602976 2.065 0.52301 0.260272 0.811615 255 0 0 255
-0.162967 0.600945 2.058 0.790425 0.389302 0.47294 255 0 0 255
-0.156598 0.598037 2.048 0.714272 0.526886 0.460659 255 0 0 255
-0.15021 0.594837 2.037 0.520912 0.822851 0.227084 255 0 0 255
-0.143881 0.591636 2.026 -0.358061 -0.933663 0.00814528 255 0 0 255
-0.137749 0.589018 2.017 -0.304292 -0.952518 0.0108059 255 0 0 255
-0.131862 0.587277 2.011 -0.19183 -0.978679 0.0734066 255 0 0 255
-0.126259 0.586703 2.009 -0.0613716 -0.997314 0.0399817 255 0 0 255
-0.120666 0.586128 2.007 -0.0689474 -0.993827 0.0869196 255 0 0 255
-0.115199 0.586138 2.007 0.129937 -0.981959 0.137378 255 0 0 255
-0.109677 0.585854 2.006 0.16427 -0.979587 0.115861 255 0 0 255
-0.104628 0.588199 2.014 0.321409 -0.944781 0.0639146 255 0 0 255
-0.099633 0.591128 2.024 0.374641 -0.925385 0.0574986 255 0 0 255
-0.094677 0.59464 2.036 0.411321 -0.909181 0.0648385 255 0 0 255
-0.089392 0.5964 2.042 -0.310874 0.800457 0.512471 255 0 0 255
-0.084198 0.599036 2.051 -0.747501 0.570661 0.339983 255 0 0 255
-0.078878 0.601087 2.058 -0.843497 0.487697 0.225089 255 0 0 255
-0.073697 0.604598 2.07 -0.933871 0.188151 0.304112 255 0 0 255
-0.068681 0.610153 2.089 -0.957939 0.0705248 0.278172 255 0 0 255
-0.063441 0.61454 2.104 -0.604697 -0.062083 0.794033 255 0 0 255
-0.057899 0.616589 2.111 0.110275 -0.0746486 0.991094 255 0 0 255
-0.051949 0.614257 2.103 0.725695 0.146042 0.672338 255 0 0 255
-0.045976 0.611048 2.092 0.507372 -0.240078 0.827609 255 0 0 255
-0.040236 0.610467 2.09 0.111602 -0.34324 0.932594 255 0 0 255
-0.235348 0.608511 2.104 0.245402 -0.7511 0.612885 255 0 0 255
-0.228968 0.606793 2.098 0.251785 -0.729162 0.636339 255 0 0 255
-0.22294 0.605942 2.095 0.292275 -0.706301 0.644759 255 0 0 255
-0.216824 0.604801 2.091 0.36566 -0.571211 0.734855 255 0 0 255
-0.210628 0.60337 2.086 0.570261 -0.245592 0.783892 255 0 0 255
-0.204263 0.601361 2.079 0.690839 0.0675206 0.719849 255 0 0 255
-0.198126 0.59993 2.074 0.699576 0.303177 0.647053 255 0 0 255
-0.191645 0.597341 2.065 0.695015 0.374524 0.613747 255 0 0 255
-0.185663 0.596198 2.061 0.301565 0.177214 0.936832 255 0 0 255
-0.18014 0.596501 2.062 -0.315965 -0.187193 0.930121 255 0 0 255
-0.174779 0.597382 2.065 -0.376756 -0.0792531 0.922916 255 0 0 255
-0.169157 0.597396 2.065 0.540377 0.201349 0.816977 255 0 0 255
-0.163058 0.595672 2.059 0.787566 0.376812 0.487599 255 0 0 255
-0.156916 0.59366 2.052 0.73015 0.411896 0.545182 255 0 0 255
-0.150959 0.592225 2.047 0.610112 0.599647 0.517868 255 0 0 255
-0.1451 0.591079 2.043 0.272681 0.789215 0.550259 255 0 0 255
-0.139262 0.589933 2.039 0.303283 0.878793 0.368433 255 0 0 255
-0.13338 0.588497 2.034 0.258242 0.936833 0.235914 255 0 0 255
-0.127714 0.587929 2.032 0.0954506 0.959277 0.26585 255 0 0 255
-0.122059 0.58736 2.03 -0.0394766 0.961595 0.27162 255 0 0 255
-0.116643 0.587948 2.032 -0.0836542 0.97114 0.223357 255 0 0 255
-0.111162 0.588246 2.033 -0.176326 0.968243 0.177238 255 0 0 255
-0.105987 0.590281 2.04 -0.339862 0.912054 0.22946 255 0 0 255
-0.100675 0.591736 2.045 -0.307797 0.870335 0.384419 255 0 0 255
-0.095289 0.592901 2.049 -0.383224 0.709118 0.591853 255 0 0 255
-0.089706 0.592908 2.049 -0.435099 0.652738 0.620179 255 0 0 255
-0.084328 0.594362 2.054 -0.69954 0.450938 0.554345 255 0 0 255
-0.078999 0.596394 2.061 -0.856029 0.328762 0.398911 255 0 0 255
-0.07381 0.599873 2.073 -0.898995 0.218577 0.379516 255 0 0 255
-0.068654 0.604219 2.088 -0.879855 -0.130358 0.457015 255 0 0 255
-0.063325 0.607697 2.1 -0.560626 -0.249547 0.789573 255 0 0 255
-0.057767 0.609438 2.106 -0.134367 -0.417615 0.898634 255 0 0 255
-0.051953 0.608575 2.103 0.682488 -0.271213 0.678715 255 0 0 255
-0.04598 0.605395 2.092 0.687275 -0.0792631 0.72206 255 0 0 255
-0.040163 0.603663 2.086 -0.11646 -0.436777 0.891999 255 0 0 255
-0.034609 0.605981 2.094 -0.440058 -0.477284 0.760624 255 0 0 255
-0.245641 0.599924 2.094 0.318401 -0.723605 0.612386 255 0 0 255
-0.239486 0.598796 2.09 0.180689 -0.692737 0.698188 255 0 0 255
-0.233575 0.59824 2.088 0.141648 -0.696913 0.703028 255 0 0 255
-0.227785 0.59797 2.087 0.0935115 -0.643495 0.759717 255 0 0 255
-0.221999 0.5977 2.086 0.148282 -0.602212 0.784444 255 0 0 255
-0.216114 0.597143 2.084 0.167578 -0.480929 0.860596 255 0 0 255
-0.21024 0.596586 2.082 0.310569 -0.259104 0.914556 255 0 0 255
-0.20418 0.595455 2.078 0.448798 0.1138 0.886358 255 0 0 255
-0.198332 0.594897 2.076 0.621875 0.168415 0.764793 255 0 0 255
-0.192031 0.592906 2.069 0.734254 0.300345 0.608822 255 0 0 255
-0.185678 0.590627 2.061 0.497605 -0.0918224 0.86253 255 0 0 255
-0.180066 0.590641 2.061 -0.24687 -0.240867 0.938636 255 0 0 255
-0.174793 0.591801 2.065 -0.42179 -0.223566 0.878699 255 0 0 255
-0.169579 0.593247 2.07 0.450756 0.233145 0.861663 255 0 0 255
-0.163546 0.591827 2.065 0.586738 0.340328 0.73479 255 0 0 255
-0.157234 0.58926 2.056 0.743131 0.384251 0.547821 255 0 0 255
-0.151192 0.587553 2.05 0.547961 0.493787 0.675214 255 0 0 255
-0.145466 0.586991 2.048 0.274729 0.707835 0.650763 255 0 0 255
-0.139751 0.586429 2.046 0.193812 0.769141 0.608981 255 0 0 255
-0.134178 0.58644 2.046 0.108989 0.737498 0.666497 255 0 0 255
-0.128541 0.586164 2.045 0.0207591 0.344567 0.938532 255 0 0 255
-0.12303 0.58646 2.046 -0.0600387 0.397584 0.915599 255 0 0 255
-0.117456 0.58647 2.046 -0.211571 0.376132 0.902088 255 0 0 255
-0.111882 0.586479 2.046 -0.225754 0.693688 0.683983 255 0 0 255
-0.106567 0.587921 2.051 -0.391221 0.689066 0.610028 255 0 0 255
-0.100978 0.587929 2.051 -0.245139 0.515544 0.821049 255 0 0 255
-0.095483 0.588511 2.053 -0.21869 0.621679 0.752124 255 0 0 255
-0.089888 0.588518 2.053 -0.361321 0.589995 0.722047 255 0 0 255
-0.084458 0.589672 2.057 -0.672615 0.451937 0.585954 255 0 0 255
-0.079044 0.591112 2.062 -0.80522 0.380075 0.455153 255 0 0 255
-0.073851 0.594558 2.074 -0.876893 0.14956 0.456826 255 0 0 255
-0.068659 0.598577 2.088 -0.831773 -0.185567 0.523181 255 0 0 255
-0.0633 0.601736 2.099 -0.583604 -0.454888 0.672669 255 0 0 255
-0.057662 0.602601 2.102 -0.181366 -0.351377 0.918499 255 0 0 255
-0.051933 0.602605 2.102 0.295827 -0.383326 0.874956 255 0 0 255
-0.045962 0.599456 2.091 0.802603 -0.237062 0.547384 255 0 0 255
-0.04007 0.596593 2.081 0.0630771 -0.641373 0.764632 255 0 0 255
-0.034447 0.597456 2.084 -0.364719 -0.668768 0.647865 255 0 0 255
-0.028987 0.602045 2.1 -0.686905 -0.510233 0.517517 255 0 0 255
-0.023462 0.607208 2.118 -0.504809 -0.735121 0.452509 255 0 0 255
-0.263627 0.596195 2.101 0.180422 -0.736258 0.652205 255 0 0 255
-0.257298 0.594794 2.096 0.289071 -0.708361 0.643943 255 0 0 255
-0.250996 0.593393 2.091 0.306994 -0.623283 0.719217 255 0 0 255
-0.24472 0.591992 2.086 0.298417 -0.581747 0.756649 255 0 0 255
-0.238701 0.591158 2.083 0.206846 -0.556557 0.804649 255 0 0 255
-0.232921 0.590892 2.082 0.091715 -0.591135 0.801341 255 0 0 255
-0.227365 0.591192 2.083 0.0358032 -0.582566 0.811994 255 0 0 255
-0.221696 0.591209 2.083 0.0541331 -0.590294 0.805372 255 0 0 255
-0.215923 0.590941 2.082 0.0973745 -0.515277 0.851474 255 0 0 255
-0.210155 0.590673 2.081 0.187784 -0.338009 0.922219 255 0 0 255
-0.204392 0.590405 2.08 0.328948 -0.091849 0.939871 255 0 0 255
-0.198443 0.589569 2.077 0.576715 0.0694443 0.813988 255 0 0 255
-0.192231 0.58788 2.071 0.747473 0.140969 0.649163 255 0 0 255
-0.185602 0.584772 2.06 0.179102 -0.165792 0.96976 255 0 0 255
-0.179818 0.584219 2.058 0.177442 -0.357159 0.917034 255 0 0 255
-0.174468 0.585084 2.061 -0.348337 -0.5375 0.767955 255 0 0 255
-0.169429 0.587084 2.068 -0.312974 -0.153117 0.937338 255 0 0 255
-0.163638 0.586529 2.066 0.412199 0.0388436 0.910265 255 0 0 255
-0.157399 0.584271 2.058 0.679478 0.404501 0.612118 255 0 0 255
-0.151425 0.582864 2.053 0.396975 0.635694 0.662045 255 0 0 255
-0.145762 0.582591 2.052 0.225088 0.736026 0.638436 255 0 0 255
-0.140104 0.582319 2.051 0.207723 0.740478 0.639174 255 0 0 255
-0.134385 0.581762 2.049 0.290836 0.614002 0.733768 255 0 0 255
-0.128615 0.58092 2.046 0.120176 0.501907 0.856532 255 0 0 255
-0.1231 0.581214 2.047 -0.154434 0.438961 0.885135 255 0 0 255
-0.11758 0.581508 2.048 -0.178429 0.488433 0.854164 255 0 0 255
-0.112055 0.581801 2.049 -0.341988 0.473341 0.811783 255 0 0 255
-0.106627 0.582662 2.052 -0.305447 0.454527 0.836724 255 0 0 255
-0.101036 0.58267 2.052 -0.310672 0.425539 0.849941 255 0 0 255
-0.095583 0.58353 2.055 -0.421138 0.559467 0.71389 255 0 0 255
-0.090071 0.584105 2.057 -0.42252 0.679511 0.599784 255 0 0 255
-0.084629 0.585248 2.061 -0.568795 0.599116 0.563499 255 0 0 255
-0.079203 0.586675 2.066 -0.794508 0.376953 0.476092 255 0 0 255
-0.073929 0.589521 2.076 -0.837985 0.0635866 0.541977 255 0 0 255
-0.068599 0.592366 2.086 -0.833143 -0.217965 0.508296 255 0 0 255
-0.063185 0.594927 2.095 -0.516702 -0.46705 0.717553 255 0 0 255
-0.057529 0.5955 2.097 0.13015 -0.514549 0.847526 255 0 0 255
-0.051863 0.596073 2.099 0.379451 -0.283556 0.880689 255 0 0 255
-0.045855 0.592385 2.086 0.707338 -0.370258 0.602148 255 0 0 255
-0.039977 0.589549 2.076 0.35599 -0.515688 0.779318 255 0 0 255
-0.034317 0.589552 2.076 -0.659042 -0.44043 0.60966 255 0 0 255
-0.028852 0.59353 2.09 -0.746418 -0.373354 0.550878 255 0 0 255
-0.023287 0.59694 2.102 -0.611191 -0.473496 0.63423 255 0 0 255
-0.017607 0.598646 2.108 -0.419183 -0.732169 0.536856 255 0 0 255
-0.011934 0.602339 2.121 -0.36587 -0.771065 0.521151 255 0 0 255
-0.279853 0.588489 2.094 0.251162 -0.78589 0.565061 255 0 0 255
-0.273373 0.586822 2.088 0.102714 -0.735547 0.669643 255 0 0 255
-0.267565 0.58656 2.087 0.0614737 -0.731493 0.679072 255 0 0 255
-0.262014 0.58686 2.088 0.0601742 -0.675608 0.734802 255 0 0 255
-0.256211 0.586597 2.087 0.165026 -0.637145 0.75287 255 0 0 255
-0.250294 0.586053 2.085 0.258067 -0.523324 0.812116 255 0 0 255
-0.244269 0.585228 2.082 0.271953 -0.464503 0.84278 255 0 0 255
-0.23826 0.584402 2.079 0.257929 -0.456737 0.851389 255 0 0 255
-0.232491 0.584138 2.078 0.166211 -0.539376 0.825499 255 0 0 255
-0.226617 0.583593 2.076 0.0886848 -0.610256 0.787225 255 0 0 255
-0.220861 0.583328 2.075 -0.000609841 -0.630686 0.776038 255 0 0 255
-0.215317 0.583626 2.076 -0.108246 -0.552046 0.826757 255 0 0 255
-0.209868 0.584204 2.078 -0.176617 -0.441112 0.879902 255 0 0 255
-0.204211 0.58422 2.078 0.13114 -0.149264 0.980062 255 0 0 255
-0.198362 0.583673 2.076 0.516174 0.00670647 0.856458 255 0 0 255
-0.192339 0.582563 2.072 0.563383 0.0386961 0.825289 255 0 0 255
-0.185616 0.579203 2.06 0.383967 -0.10026 0.917887 255 0 0 255
-0.179482 0.57753 2.054 0.377884 -0.40388 0.833117 255 0 0 255
-0.173973 0.577825 2.055 -0.320233 -0.555819 0.767148 255 0 0 255
-0.169114 0.580369 2.064 -0.407106 -0.500694 0.763918 255 0 0 255
-0.16373 0.581226 2.067 0.458872 0.160299 0.873923 255 0 0 255
-0.157794 0.580114 2.063 0.4122 0.32936 0.849478 255 0 0 255
-0.151806 0.57872 2.058 0.254294 0.7581 0.600516 255 0 0 255
-0.146271 0.579013 2.059 0.125312 0.787773 0.603084 255 0 0 255
-0.140457 0.578181 2.056 0.264742 0.780146 0.566818 255 0 0 255
-0.134724 0.577629 2.054 0.478244 0.595092 0.645869 255 0 0 255
-0.128813 0.576234 2.049 0.15261 0.57574 0.803264 255 0 0 255
-0.123291 0.576525 2.05 -0.211403 0.578396 0.787888 255 0 0 255
-0.117762 0.576816 2.051 -0.286023 0.609169 0.739665 255 0 0 255
-0.112283 0.577388 2.053 -0.214715 0.686952 0.694258 255 0 0 255
-0.106792 0.577959 2.055 -0.155558 0.540028 0.827146 255 0 0 255
-0.101192 0.577967 2.055 -0.326313 0.539934 0.775881 255 0 0 255
-0.095824 0.579382 2.06 -0.527158 0.550051 0.647726 255 0 0 255
-0.090341 0.580233 2.063 -0.531489 0.594385 0.603511 255 0 0 255
-0.084882 0.581365 2.067 -0.5817 0.598015 0.551365 255 0 0 255
-0.079363 0.582216 2.07 -0.680673 0.514761 0.521254 255 0 0 255
-0.073935 0.58391 2.076 -0.753557 0.202844 0.625305 255 0 0 255
-0.068506 0.585884 2.083 -0.714524 -0.189292 0.673517 255 0 0 255
-0.063069 0.58814 2.091 -0.589421 -0.3661 0.720107 255 0 0 255
-0.057507 0.589551 2.096 -0.192421 -0.523543 0.829986 255 0 0 255
-0.051768 0.589275 2.095 0.382559 -0.432422 0.816492 255 0 0 255
-0.045749 0.585341 2.081 0.623377 -0.435494 0.64942 255 0 0 255
-0.039884 0.582531 2.071 0.193468 -0.49005 0.849954 255 0 0 255
-0.034287 0.583378 2.074 -0.587115 -0.491087 0.643529 255 0 0 255
-0.028826 0.587319 2.088 -0.764767 -0.228104 0.602578 255 0 0 255
-0.023223 0.589571 2.096 -0.483321 -0.510983 0.710843 255 0 0 255
