ply
format ascii 1.0
comment VCGLIB generated
element vertex 725
property float x
property float y
property float z
property float nx
property float ny
property float nz
property uchar red
property uchar green
property uchar blue
property uchar alpha
element face 0
property list uchar int vertex_indices
end_header
0.154879 0.098748 2.098 0.599156 -0.266265 0.75506 255 0 0 255
0.160317 0.098556 2.094 0.280276 -0.458934 0.843104 255 0 0 255
0.166049 0.098552 2.094 0.47118 -0.353316 0.808182 255 0 0 255
0.171452 0.09836 2.09 0.723449 -0.267079 0.636625 255 0 0 255
0.176324 0.097885 2.08 0.800198 -0.336599 0.496371 255 0 0 255
-0.075506 -0.113426 2.41792 0.130883 -0.282378 -0.950333 255 255 0 255
-0.049049 -0.109079 2.42284 -0.0649591 -0.238499 -0.968968 255 255 0 255
-0.033555 -0.107702 2.42047 -0.0906921 -0.294238 -0.951419 255 255 0 255
-0.018926 -0.106542 2.41759 -0.0546646 -0.257719 -0.964672 255 255 0 255
-0.011023 -0.10722 2.41016 -0.60794 -0.38301 -0.695494 255 255 0 255
-0.016521 -0.111599 2.39348 0.779699 0.530781 -0.332176 255 255 0 255
-0.021163 -0.115755 2.37732 0.809338 0.587282 -0.00844899 255 255 0 255
0.005113 -0.111317 2.38276 -0.483539 -0.340174 -0.806519 255 255 0 255
0.002975 -0.114775 2.36836 -0.323102 -0.369218 -0.871369 255 255 0 255
0.041683 -0.106803 2.38283 -0.415706 0.276648 -0.866403 255 255 0 255
0.025374 -0.114227 2.35842 0.0651274 0.997654 -0.0211107 255 255 0 255
0.01493 -0.120031 2.33805 -0.285033 -0.957864 -0.0353918 255 255 0 255
0.031096 -0.11834 2.33671 -0.601044 -0.798904 -0.0223012 255 255 0 255
0.048894 -0.116164 2.33665 0.0555607 -0.233652 -0.970732 255 255 0 255
-0.198561 -0.19504 2.28813 -0.987307 0.023786 -0.15703 0 255 0 255
-0.203964 -0.189962 2.30443 -0.879819 -0.472996 -0.0468227 0 255 0 255
-0.212761 -0.183736 2.32304 -0.966212 0.0314733 -0.255819 0 255 0 255
-0.194528 -0.186772 2.32274 0.540987 0.025346 -0.840649 0 255 0 255
-0.183038 -0.187482 2.32721 0.201615 0.176457 -0.963439 0 255 0 255
-0.163911 -0.190772 2.32648 0.166813 0.299868 -0.939283 0 255 0 255
-0.146451 -0.193467 2.32701 0.317576 0.0469818 -0.947068 0 255 0 255
-0.134905 -0.194135 2.33167 0.506682 0.0972365 -0.856632 0 255 0 255
-0.132684 -0.191644 2.34272 0.710938 0.629205 -0.314114 0 255 0 255
-0.141511 -0.185439 2.36123 0.787904 0.614034 -0.0465698 0 255 0 255
-0.146107 -0.180676 2.3768 -0.741798 -0.505629 -0.440541 0 255 0 255
-0.036347 -0.18786 2.41786 -0.679358 0.285665 -0.67592 0 255 0 255
-0.027217 -0.187574 2.4247 0.827997 -0.32546 -0.456614 0 255 0 255
-0.022371 -0.185884 2.43428 0.617773 -0.452166 -0.643352 0 255 0 255
-0.331419 0.101017 2.282 -0.26177 -0.124855 0.95702 255 0 0 255
-0.32548 0.101113 2.284 -0.25563 -0.0555731 0.965176 255 0 0 255
-0.319529 0.101208 2.286 -0.28611 0.0265102 0.95783 255 0 0 255
-0.313429 0.101258 2.287 -0.324569 0.187329 0.927126 255 0 0 255
-0.30759 0.101398 2.29 -0.435977 0.306749 0.846067 255 0 0 255
-0.301735 0.101537 2.293 -0.693056 0.314611 0.648608 255 0 0 255
-0.297021 0.102074 2.305 -0.791423 0.384513 0.475184 255 0 0 255
-0.261857 0.100687 2.273 0.961678 0.0403926 0.271189 255 0 0 255
-0.251597 0.099097 2.237 0.899131 0.0578766 0.433835 255 0 0 255
-0.243398 0.098261 2.218 0.85772 0.0489979 0.511778 255 0 0 255
-0.235838 0.097646 2.204 0.838153 0.0219062 0.544995 255 0 0 255
-0.228874 0.097252 2.195 0.740033 0.158523 0.653622 255 0 0 255
-0.222364 0.097036 2.19 0.624268 0.23641 0.744581 255 0 0 255
-0.215882 0.096819 2.185 0.468881 0.364114 0.804718 255 0 0 255
-0.209617 0.096691 2.182 0.446505 0.415578 0.792419 255 0 0 255
-0.203182 0.096474 2.177 0.414234 0.326493 0.849595 255 0 0 255
-0.197045 0.096389 2.175 0.3622 0.259836 0.895152 255 0 0 255
-0.190743 0.096216 2.171 0.430624 0.192016 0.881869 255 0 0 255
-0.184802 0.096221 2.171 0.363195 0.175693 0.914998 255 0 0 255
-0.178531 0.096047 2.167 0.325723 0.015244 0.945342 255 0 0 255
-0.1726 0.096051 2.167 0.22389 -0.0624839 0.972609 255 0 0 255
-0.166514 0.095966 2.165 0.30281 -0.00809146 0.953017 255 0 0 255
-0.160364 0.095837 2.162 0.388962 -0.00932268 0.921206 255 0 0 255
-0.154301 0.095752 2.16 0.53893 -0.073061 0.839176 255 0 0 255
-0.148043 0.095534 2.155 0.633913 -0.072091 0.770037 255 0 0 255
-0.141746 0.095271 2.149 0.582649 0.00150965 0.812723 255 0 0 255
-0.135607 0.095097 2.145 0.3674 0.0242121 0.929748 255 0 0 255
-0.129671 0.095056 2.144 0.174394 0.0166229 0.984536 255 0 0 255
-0.123855 0.095103 2.145 0.173205 0.0849663 0.981214 255 0 0 255
-0.117814 0.094972 2.142 0.327688 0.263279 0.907361 255 0 0 255
-0.11184 0.094886 2.14 0.285635 0.423603 0.859635 255 0 0 255
-0.105828 0.094756 2.137 0.197068 0.477432 0.856284 255 0 0 255
-0.099972 0.094758 2.137 0.0325405 0.468819 0.882695 255 0 0 255
-0.094071 0.094716 2.136 0.0163768 0.469779 0.882632 255 0 0 255
-0.088259 0.094763 2.137 -0.0328447 0.428939 0.902736 255 0 0 255
-0.082401 0.094765 2.137 -0.131117 0.379166 0.915992 255 0 0 255
-0.076615 0.094855 2.139 -0.248688 0.237111 0.939112 255 0 0 255
-0.070785 0.094901 2.14 -0.257922 0.161572 0.95256 255 0 0 255
-0.064979 0.094991 2.142 -0.365133 0.238068 0.900001 255 0 0 255
-0.059218 0.09517 2.146 -0.465794 0.396338 0.791171 255 0 0 255
-0.053409 0.095305 2.149 -0.161838 0.650729 0.741863 255 0 0 255
-0.047517 0.095306 2.149 -0.0505214 0.704567 0.707837 255 0 0 255
-0.041586 0.095218 2.147 -0.0620201 0.618877 0.783036 255 0 0 255
-0.035749 0.095352 2.15 -0.316492 0.66218 0.679227 255 0 0 255
-0.029909 0.09553 2.154 -0.452332 0.615296 0.645605 255 0 0 255
-0.02407 0.095797 2.16 -0.367007 0.521701 0.770152 255 0 0 255
-0.018172 0.09593 2.163 -0.474897 0.345738 0.809283 255 0 0 255
-0.012264 0.096108 2.167 -0.307194 0.396052 0.865318 255 0 0 255
-0.006325 0.096153 2.168 -0.141943 0.298393 0.943829 255 0 0 255
-0.00038 0.096153 2.168 -0.112598 0.273773 0.955181 255 0 0 255
0.005568 0.096197 2.169 -0.150575 0.247178 0.957199 255 0 0 255
0.011526 0.096286 2.171 -0.249998 0.0549344 0.966687 255 0 0 255
0.017495 0.096374 2.173 -0.25741 -0.0922921 0.961885 255 0 0 255
0.023464 0.096418 2.174 -0.218927 -0.223039 0.949907 255 0 0 255
0.029439 0.096462 2.175 -0.267158 -0.330208 0.905312 255 0 0 255
0.035435 0.09655 2.177 -0.463661 -0.277449 0.841452 255 0 0 255
0.04148 0.096726 2.181 -0.42492 -0.266786 0.865025 255 0 0 255
0.047504 0.096814 2.183 -0.42475 -0.341238 0.838537 255 0 0 255
0.053562 0.096946 2.186 -0.496199 -0.315188 0.808976 255 0 0 255
0.05961 0.097033 2.188 -0.600197 -0.228442 0.766536 255 0 0 255
0.065788 0.097298 2.194 -0.674302 -0.0248917 0.738036 255 0 0 255
0.071966 0.097518 2.199 -0.472563 0.00740688 0.881266 255 0 0 255
0.078101 0.097649 2.202 -0.275635 -0.125432 0.953044 255 0 0 255
0.084175 0.097692 2.203 -0.404097 -0.374928 0.834347 255 0 0 255
0.090417 0.097911 2.208 -0.623705 -0.245895 0.741976 255 0 0 255
0.097212 0.098663 2.225 -0.90963 -0.21361 0.356293 255 0 0 255
0.132829 0.097938 2.209 0.563989 0.416527 0.713037 255 0 0 255
0.136239 0.096073 2.167 0.98771 0.107872 0.113106 255 0 0 255
0.140206 0.094739 2.137 -0.428154 -0.0396118 0.902837 255 0 0 255
0.14476 0.093894 2.118 0.955848 -0.0260007 0.292709 255 0 0 255
0.149351 0.093137 2.101 0.717741 -0.231089 0.656845 255 0 0 255
0.154587 0.092823 2.094 0.537413 -0.431643 0.72448 255 0 0 255
0.160167 0.092731 2.092 0.325726 -0.507478 0.797727 255 0 0 255
0.165894 0.092727 2.092 0.394063 -0.416679 0.819203 255 0 0 255
0.171128 0.092458 2.086 0.694068 -0.422419 0.58295 255 0 0 255
0.175904 0.091966 2.075 0.840752 -0.393144 0.372255 255 0 0 255
0.17817 0.090234 2.036 0.995298 -0.0755891 0.0605594 255 0 0 255
-0.095086 -0.127339 2.4191 0.107258 -0.129708 -0.985734 255 255 0 255
-0.066914 -0.122478 2.42502 0.0106377 -0.230575 -0.972996 255 255 0 255
-0.050557 -0.120845 2.42313 -0.0718443 -0.258569 -0.963317 255 255 0 255
-0.030871 -0.118268 2.42359 0.238445 -0.425572 -0.872945 255 255 0 255
-0.020439 -0.118239 2.41784 -0.146058 -0.28699 -0.946733 255 255 0 255
-0.010024 -0.118203 2.41212 -0.843686 -0.443743 -0.302135 255 255 0 255
-0.011333 -0.121439 2.39834 -0.465796 -0.872507 -0.147533 255 255 0 255
-0.003441 -0.122099 2.39093 -0.827534 -0.474935 -0.299374 255 255 0 255
0.000269 -0.12393 2.38062 -0.31065 -0.783897 -0.53759 255 255 0 255
0.022321 -0.120578 2.38322 -0.148702 0.163972 -0.975193 255 255 0 255
0.031007 -0.120982 2.37651 0.146844 -0.600528 -0.786004 255 255 0 255
0.028867 -0.124454 2.36213 -0.799761 -0.575607 -0.17047 255 255 0 255
0.05167 -0.120826 2.36555 0.979664 0.188187 -0.0696034 255 255 0 255
0.040396 -0.126908 2.34461 0.947076 0.268052 -0.176621 255 255 0 255
0.029154 -0.133005 2.32359 0.439062 -0.158939 -0.884287 255 255 0 255
-0.194522 -0.210932 2.27402 -0.926494 0.211589 -0.311189 0 255 0 255
-0.199062 -0.20611 2.28977 -0.993063 -0.109423 -0.04304 0 255 0 255
-0.215422 -0.197202 2.31378 0.451632 -0.645836 -0.615569 0 255 0 255
-0.212402 -0.195035 2.32408 -0.0516687 -0.16567 -0.984827 0 255 0 255
-0.195866 -0.197534 2.32497 0.095619 -0.419944 -0.902499 0 255 0 255
-0.174234 -0.201761 2.32243 0.188674 -0.23802 -0.952759 0 255 0 255
-0.161878 -0.20277 2.32641 0.352856 -0.240804 -0.90416 0 255 0 255
-0.152048 -0.202897 2.33219 0.213911 -0.312674 -0.92546 0 255 0 255
-0.143901 -0.202436 2.33916 0.278578 -0.612794 -0.739512 0 255 0 255
-0.126411 -0.205147 2.33983 0.765397 -0.184149 -0.616649 0 255 0 255
-0.125034 -0.202361 2.35148 0.469056 -0.319334 -0.823415 0 255 0 255
-0.121959 -0.200153 2.36197 -0.84634 -0.511098 -0.149961 0 255 0 255
-0.032048 -0.197555 2.42925 0.910556 -0.0581756 -0.409271 0 255 0 255
-0.028064 -0.195591 2.43937 -0.000147391 -0.984352 -0.176216 0 255 0 255
-0.021501 -0.194469 2.44788 0.170964 -0.972463 -0.158387 0 255 0 255
-0.020091 -0.191658 2.45963 0.15767 -0.878215 -0.451529 0 255 0 255
-0.331426 0.094774 2.282 -0.381104 -0.0399185 0.92367 255 0 0 255
-0.325629 0.094904 2.285 -0.35986 0.0891898 0.928734 255 0 0 255
-0.319675 0.094994 2.287 -0.292885 0.142796 0.945425 255 0 0 255
-0.313709 0.095083 2.289 -0.414334 0.183462 0.891442 255 0 0 255
-0.308 0.095255 2.293 -0.58576 0.263798 0.766352 255 0 0 255
-0.302399 0.095469 2.298 -0.751292 0.279796 0.597724 255 0 0 255
-0.252165 0.09318 2.242 0.906469 0.0208803 0.421755 255 0 0 255
-0.243733 0.092312 2.221 0.866612 0.00609362 0.498945 255 0 0 255
-0.23595 0.091652 2.205 0.839606 -0.00617904 0.54316 255 0 0 255
-0.228879 0.091241 2.195 0.72382 0.035102 0.689095 255 0 0 255
-0.222471 0.09108 2.191 0.586792 0.0282785 0.809244 255 0 0 255
-0.216281 0.091001 2.189 0.499391 0.0396942 0.865467 255 0 0 255
-0.210102 0.090922 2.187 0.445365 -0.0243438 0.895018 255 0 0 255
-0.20384 0.090802 2.184 0.520834 0.0859678 0.849319 255 0 0 255
-0.197503 0.09064 2.18 0.477297 0.142891 0.867047 255 0 0 255
-0.191274 0.090519 2.177 0.441459 0.199338 0.874859 255 0 0 255
-0.184891 0.090315 2.172 0.4679 0.193319 0.862379 255 0 0 255
-0.1787 0.090194 2.169 0.429376 0.0330045 0.902523 255 0 0 255
-0.172524 0.090073 2.166 0.276047 -0.00448109 0.961134 255 0 0 255
-0.166594 0.090077 2.166 0.272992 -0.0645326 0.959849 255 0 0 255
-0.160516 0.089997 2.164 0.468577 -0.0737695 0.880337 255 0 0 255
-0.154305 0.089834 2.16 0.601745 0.048589 0.797209 255 0 0 255
-0.148046 0.089629 2.155 0.599679 -0.154341 0.785216 255 0 0 255
-0.141881 0.089466 2.151 0.519626 0.0133587 0.854289 255 0 0 255
-0.135799 0.089344 2.148 0.41442 0.110449 0.903359 255 0 0 255
-0.129674 0.08918 2.144 0.175892 0.171511 0.969353 255 0 0 255
-0.1238 0.089183 2.144 0.0472672 0.143114 0.988577 255 0 0 255
-0.117926 0.089186 2.144 0.0687668 0.314373 0.946806 255 0 0 255
-0.112052 0.089188 2.144 0.144872 0.492454 0.858197 255 0 0 255
-0.106028 0.089066 2.141 0.119021 0.607201 0.785583 255 0 0 255
-0.100161 0.089068 2.141 0.0337949 0.636699 0.770371 255 0 0 255
-0.094294 0.08907 2.141 0.044037 0.60982 0.791315 255 0 0 255
-0.088426 0.089072 2.141 0.0657426 0.526285 0.847763 255 0 0 255
-0.082519 0.089032 2.14 -0.0192673 0.450597 0.892519 255 0 0 255
-0.076689 0.089076 2.141 -0.13617 0.401669 0.905605 255 0 0 255
-0.070853 0.089119 2.142 -0.292976 0.365231 0.883613 255 0 0 255
-0.065041 0.089203 2.144 -0.413848 0.453251 0.78949 255 0 0 255
-0.059274 0.089371 2.148 -0.529773 0.424554 0.73423 255 0 0 255
-0.053509 0.089581 2.153 -0.402924 0.473169 0.783431 255 0 0 255
-0.047628 0.089623 2.154 -0.10147 0.618729 0.779024 255 0 0 255
-0.041742 0.089666 2.155 -0.174717 0.749412 0.638636 255 0 0 255
-0.035916 0.089875 2.16 -0.270191 0.564258 0.780134 255 0 0 255
-0.030035 0.09 2.163 -0.409419 0.245676 0.878646 255 0 0 255
-0.024149 0.090167 2.167 -0.303746 -0.0214291 0.952512 255 0 0 255
-0.018198 0.090126 2.166 -0.331067 -0.107255 0.937492 255 0 0 255
-0.01227 0.09021 2.168 -0.137952 -0.221847 0.965274 255 0 0 255
-0.006325 0.09021 2.168 -0.121335 -0.229025 0.965829 255 0 0 255
-0.00038 0.090293 2.17 -0.169397 -0.229305 0.958501 255 0 0 255
0.00557 0.090293 2.17 -0.141991 -0.229106 0.96299 255 0 0 255
0.011526 0.090335 2.171 -0.157439 -0.272618 0.949153 255 0 0 255
0.017471 0.090293 2.17 -0.105995 -0.293722 0.949996 255 0 0 255
0.023432 0.090334 2.171 -0.138726 -0.293305 0.9459 255 0 0 255
0.029399 0.090375 2.172 -0.311581 -0.233564 0.921067 255 0 0 255
0.03542 0.090541 2.176 -0.432235 -0.154157 0.888487 255 0 0 255
0.041443 0.090665 2.179 -0.400092 -0.0817209 0.912824 255 0 0 255
0.047439 0.090705 2.18 -0.464175 0.0232311 0.885439 255 0 0 255
0.05349 0.090829 2.183 -0.52435 0.175345 0.833254 255 0 0 255
0.059584 0.090994 2.187 -0.590278 0.137923 0.79533 255 0 0 255
0.06582 0.091326 2.195 -0.7008 0.0992374 0.706421 255 0 0 255
0.072001 0.091532 2.2 -0.408149 0.115519 0.905577 255 0 0 255
0.078031 0.091531 2.2 -0.00410275 -0.0101386 0.99994 255 0 0 255
0.084062 0.091529 2.2 -0.198429 -0.377095 0.904669 255 0 0 255
0.090256 0.091693 2.204 -0.564242 -0.323891 0.759425 255 0 0 255
0.097039 0.092398 2.221 -0.907514 -0.214882 0.360894 255 0 0 255
0.133192 0.092134 2.215 0.567689 -0.127857 0.813254 255 0 0 255
0.136368 0.090218 2.169 0.997159 0.0472803 0.0586361 255 0 0 255
0.140209 0.088884 2.137 0.98689 -0.155131 0.0445252 255 0 0 255
0.144832 0.088132 2.119 0.970683 -0.0481331 0.235494 255 0 0 255
0.149284 0.087339 2.1 0.774319 -0.229345 0.589773 255 0 0 255
0.154369 0.086961 2.091 0.654733 -0.292876 0.696813 255 0 0 255
0.159864 0.086833 2.088 0.316418 -0.39032 0.864598 255 0 0 255
0.165422 0.086747 2.086 0.565315 -0.379646 0.732317 255 0 0 255
0.170721 0.086535 2.081 0.690696 -0.276916 0.668025 255 0 0 255
0.175145 0.085908 2.066 0.938937 -0.195919 0.282867 255 0 0 255
0.178349 0.08474 2.038 0.993623 -0.0236129 0.110254 255 0 0 255
-0.092371 -0.138069 2.42226 0.124398 -0.0860409 -0.988495 255 255 0 255
-0.069257 -0.134538 2.42477 0.120566 -0.136312 -0.983302 255 255 0 255
-0.053742 -0.133103 2.42228 -0.111847 -0.226184 -0.967642 255 255 0 255
-0.02651 -0.128357 2.42786 0.440174 -0.235146 -0.866576 255 255 0 255
-0.011058 -0.12689 2.42554 -0.470333 -0.559761 -0.682242 255 255 0 255
-0.005676 -0.128247 2.41639 -0.723 -0.623952 -0.296573 255 255 0 255
0.000539 -0.129365 2.40783 -0.812548 -0.544148 -0.208968 255 255 0 255
0.002572 -0.131666 2.39637 -0.798768 -0.576055 -0.173581 255 255 0 255
0.001271 -0.13492 2.38258 -0.685283 -0.46026 -0.5644 255 255 0 255
0.010815 -0.135083 2.37637 -0.341322 -0.582827 -0.737436 255 255 0 255
0.030334 -0.132376 2.37726 -0.643187 -0.486475 -0.591314 255 255 0 255
0.04483 -0.131086 2.37471 -0.488741 0.288499 -0.823347 255 255 0 255
0.054318 -0.131221 2.36865 -0.953528 -0.0633137 -0.294577 255 255 0 255
0.04388 -0.137109 2.34833 0.847314 -0.35128 -0.398322 255 255 0 255
-0.201761 -0.219666 2.28044 -0.926187 0.373809 -0.0494474 0 255 0 255
-0.242508 -0.20211 2.32176 -0.241455 0.513654 -0.823322 0 255 0 255
-0.226866 -0.204385 2.32311 -0.0134004 0.358152 -0.933567 0 255 0 255
-0.216264 -0.204877 2.32808 0.0811663 -0.0895876 -0.992666 0 255 0 255
-0.193828 -0.209477 2.32486 -0.043829 -0.0386888 -0.99829 0 255 0 255
-0.177274 -0.211997 2.32585 0.231292 0.00352776 -0.972878 0 255 0 255
-0.166617 -0.212449 2.33101 0.426221 0.0366833 -0.903875 0 255 0 255
-0.165258 -0.209674 2.34258 0.537849 0.432498 -0.723646 0 255 0 255
-0.163055 -0.207193 2.35356 0.479135 0.432635 -0.763712 0 255 0 255
-0.129479 -0.215496 2.34328 0.547769 -0.332916 -0.767539 0 255 0 255
-0.123008 -0.214451 2.35148 0.473303 -0.458739 -0.752026 0 255 0 255
-0.105488 -0.217178 2.3523 0.221073 -0.53387 -0.816155 0 255 0 255
-0.325778 0.08869 2.286 -0.473045 0.0364323 0.880285 255 0 0 255
-0.319821 0.088774 2.288 -0.368422 0.101787 0.92407 255 0 0 255
-0.313852 0.088857 2.29 -0.423522 0.154347 0.89264 255 0 0 255
-0.30814 0.089018 2.294 -0.658852 0.0849741 0.747459 255 0 0 255
-0.302668 0.089256 2.3 -0.711843 0.154016 0.685244 255 0 0 255
-0.251157 0.086692 2.233 0.913233 -0.0676885 0.401776 255 0 0 255
-0.243408 0.086114 2.218 0.868779 -0.134299 0.476642 255 0 0 255
-0.235954 0.085614 2.205 0.826109 -0.0116075 0.563391 255 0 0 255
-0.229092 0.085308 2.197 0.71596 0.0268952 0.697623 255 0 0 255
-0.222475 0.085079 2.191 0.556981 -0.012155 0.830436 255 0 0 255
-0.215989 0.084889 2.186 0.477118 -0.0412711 0.87787 255 0 0 255
-0.209722 0.084777 2.183 0.467401 -0.0916683 0.87928 255 0 0 255
-0.203471 0.084664 2.18 0.450682 -0.207414 0.868254 255 0 0 255
-0.197325 0.08459 2.178 0.361894 -0.161562 0.918112 255 0 0 255
-0.191278 0.084555 2.177 0.410944 -0.0574176 0.909851 255 0 0 255
-0.18498 0.084404 2.173 0.463463 0.0384229 0.885283 255 0 0 255
-0.178786 0.084291 2.17 0.425827 0.107353 0.898414 255 0 0 255
-0.172527 0.084139 2.166 0.31503 0.120354 0.94142 255 0 0 255
-0.166521 0.084103 2.165 0.203047 0.18923 0.96071 255 0 0 255
-0.160445 0.084029 2.163 0.505453 0.181858 0.843472 255 0 0 255
-0.154094 0.083799 2.157 0.620226 0.137374 0.7723 255 0 0 255
-0.147912 0.083646 2.153 0.534719 0.17537 0.826633 255 0 0 255
-0.141752 0.083494 2.149 0.451601 0.311479 0.836084 255 0 0 255
-0.135866 0.083497 2.149 0.404359 0.397857 0.823531 255 0 0 255
-0.129737 0.083344 2.145 0.229728 0.384231 0.894199 255 0 0 255
-0.123918 0.083385 2.146 0.0306468 0.453213 0.890876 255 0 0 255
-0.117984 0.083349 2.145 0.0240148 0.379155 0.925021 255 0 0 255
-0.112211 0.083429 2.147 0.0444494 0.405883 0.912843 255 0 0 255
-0.106278 0.083392 2.146 0.0141497 0.49841 0.866826 255 0 0 255
-0.100444 0.083433 2.147 0.0682498 0.545593 0.835266 255 0 0 255
-0.094472 0.083357 2.145 0.0917694 0.539098 0.837228 255 0 0 255
-0.088552 0.08332 2.144 0.077459 0.5227 0.848991 255 0 0 255
-0.082598 0.083244 2.142 -0.0310785 0.529061 0.848015 255 0 0 255
-0.076798 0.083324 2.144 -0.131606 0.543582 0.828974 255 0 0 255
-0.070954 0.083364 2.145 -0.284077 0.540442 0.791974 255 0 0 255
-0.065195 0.083521 2.149 -0.377411 0.510666 0.772516 255 0 0 255
-0.059413 0.083678 2.153 -0.488103 0.38101 0.785231 255 0 0 255
-0.05361 0.083834 2.157 -0.465515 0.23516 0.853226 255 0 0 255
-0.047762 0.083952 2.16 -0.363477 0.289437 0.8855 255 0 0 255
-0.041859 0.083992 2.161 -0.270387 0.245025 0.93105 255 0 0 255
-0.035967 0.08407 2.163 -0.184781 -0.00836068 0.982744 255 0 0 255
-0.030008 0.083993 2.161 -0.0820419 -0.35183 0.932462 255 0 0 255
-0.024082 0.083994 2.161 -0.159842 -0.274387 0.948242 255 0 0 255
-0.018165 0.084033 2.162 -0.184981 -0.468309 0.863984 255 0 0 255
-0.012248 0.084111 2.164 -0.18701 -0.38503 0.903758 255 0 0 255
-0.006316 0.08415 2.165 -0.100548 -0.367688 0.924497 255 0 0 255
-0.00038 0.084189 2.166 -0.118373 -0.388663 0.913744 255 0 0 255
0.00556 0.084189 2.166 -0.129187 -0.40719 0.904161 255 0 0 255
0.01151 0.084266 2.168 -0.242418 -0.157525 0.957298 255 0 0 255
0.017464 0.084305 2.169 -0.295426 -0.0911091 0.951011 255 0 0 255
0.023422 0.084344 2.17 -0.350522 0.222079 0.909844 255 0 0 255
0.0294 0.084421 2.172 -0.400824 0.152676 0.903344 255 0 0 255
0.035404 0.084537 2.175 -0.53787 0.290449 0.791413 255 0 0 255
0.041463 0.08473 2.18 -0.464218 0.330394 0.821791 255 0 0 255
0.047506 0.084846 2.183 -0.471038 0.372392 0.799655 255 0 0 255
0.053614 0.085039 2.188 -0.566995 0.39912 0.720569 255 0 0 255
0.059749 0.085232 2.193 -0.616237 0.350567 0.705234 255 0 0 255
0.065941 0.085464 2.199 -0.416435 0.28036 0.864858 255 0 0 255
0.072068 0.085579 2.202 -0.221647 0.251412 0.942159 255 0 0 255
0.078068 0.085539 2.201 0.151541 0.0559633 0.986865 255 0 0 255
0.083987 0.085421 2.198 0.0253444 -0.0540186 0.998218 255 0 0 255
0.090094 0.085497 2.2 -0.496979 -0.230508 0.836587 255 0 0 255
0.096648 0.085961 2.212 -0.894882 -0.184767 0.40626 255 0 0 255
0.136245 0.084196 2.167 -0.998025 -0.000435253 0.062809 255 0 0 255
0.140146 0.082989 2.136 0.988468 -0.115185 0.0983063 255 0 0 255
0.144629 0.082209 2.116 0.907006 -0.207775 0.366292 255 0 0 255
0.149216 0.081546 2.099 0.795887 -0.152471 0.585931 255 0 0 255
0.154225 0.081154 2.089 0.690525 -0.231371 0.685305 255 0 0 255
0.159791 0.081074 2.087 0.404148 -0.194832 0.893703 255 0 0 255
0.165267 0.080954 2.084 0.66511 -0.115025 0.737833 255 0 0 255
0.170397 0.080679 2.077 0.861565 -0.132328 0.490097 255 0 0 255
0.17481 0.080093 2.062 0.948394 -0.0754439 0.30799 255 0 0 255
-0.163317 -0.166545 2.3894 -0.656823 -0.687941 -0.308739 255 255 0 255
-0.09975 -0.151635 2.41865 0.16061 -0.267807 -0.949992 255 255 0 255
-0.048529 -0.143015 2.42712 -0.0393952 -0.357281 -0.933166 255 255 0 255
-0.01796 -0.137241 2.43497 0.447363 -0.177411 -0.876579 255 255 0 255
-0.007547 -0.137164 2.42923 -0.616464 -0.469621 -0.632003 255 255 0 255
-0.003004 -0.138753 2.4195 -0.791472 -0.221062 -0.569827 255 255 0 255
0.004044 -0.139622 2.41152 -0.897689 -0.227796 -0.377179 255 255 0 255
0.004406 -0.142407 2.39891 -0.842367 -0.483889 -0.237212 255 255 0 255
0.009779 -0.143753 2.38978 -0.671831 -0.66375 -0.328753 255 255 0 255
0.022643 -0.14293 2.38593 -0.284364 -0.595047 -0.751702 255 255 0 255
0.040479 -0.140649 2.38567 -0.259174 -0.662354 -0.702934 255 255 0 255
0.040831 -0.143429 2.37309 -0.853172 0.30703 -0.421699 255 255 0 255
0.03787 -0.14718 2.35812 0.94438 -0.26365 -0.196557 255 255 0 255
0.023313 -0.154334 2.33477 0.937603 0.0762012 -0.339254 255 255 0 255
-0.233376 -0.219704 2.30417 -0.129404 0.649536 -0.749238 0 255 0 255
-0.240461 -0.213964 2.32159 -0.0652254 0.493567 -0.867258 0 255 0 255
-0.223981 -0.216574 2.32237 -0.0652254 0.493567 -0.867258 0 255 0 255
-0.190952 -0.221743 2.32417 0.330033 0.0616435 -0.941955 0 255 0 255
-0.17018 -0.225782 2.32227 0.0904988 0.0321528 -0.995377 0 255 0 255
-0.159519 -0.226252 2.32745 0.365715 0.232158 -0.901308 0 255 0 255
-0.149692 -0.226417 2.33326 0.63041 0.406377 -0.661393 0 255 0 255
-0.144086 -0.225101 2.34199 0.782527 -0.0562028 -0.620075 0 255 0 255
-0.132013 -0.222752 2.35893 0.723333 -0.313972 -0.614989 0 255 0 255
-0.118754 -0.224062 2.36258 0.282009 -0.255914 -0.924651 0 255 0 255
-0.029761 -0.211603 2.46868 0.33732 -0.220013 -0.915319 0 255 0 255
-0.002871 -0.213953 2.47725 -0.133898 0.679028 -0.721798 0 255 0 255
-0.331147 0.082213 2.28 -0.52568 0.0247967 0.850321 255 0 0 255
-0.325641 0.082399 2.285 -0.554141 -0.00770724 0.832387 255 0 0 255
-0.319966 0.082548 2.289 -0.347443 0.0330882 0.937117 255 0 0 255
-0.313994 0.082626 2.291 -0.446217 0.0581503 0.893033 255 0 0 255
-0.308279 0.082775 2.295 -0.687781 0.0330299 0.725167 255 0 0 255
-0.302805 0.082997 2.301 -0.6489 0.0260477 0.760428 255 0 0 255
-0.259799 0.081366 2.255 0.934015 -0.173158 0.312461 255 0 0 255
-0.250712 0.080433 2.229 0.880334 -0.257105 0.398635 255 0 0 255
-0.243083 0.079932 2.215 0.825104 -0.204247 0.526771 255 0 0 255
-0.235851 0.079539 2.204 0.785613 -0.0980869 0.610893 255 0 0 255
-0.228887 0.079218 2.195 0.702944 -0.0111399 0.711159 255 0 0 255
-0.222378 0.079042 2.19 0.604697 0.0481332 0.795 255 0 0 255
-0.216092 0.078938 2.187 0.531332 0.0242361 0.846817 255 0 0 255
-0.209726 0.078797 2.183 0.471387 0.110673 0.874955 255 0 0 255
-0.203474 0.078692 2.18 0.458643 0.0471819 0.887367 255 0 0 255
-0.197148 0.078552 2.176 0.292544 -0.0431571 0.955278 255 0 0 255
-0.191194 0.078555 2.176 0.343781 0.0251103 0.938714 255 0 0 255
-0.184984 0.07845 2.173 0.423876 0.0208514 0.90548 255 0 0 255
-0.178954 0.078417 2.172 0.431926 0.0891177 0.897495 255 0 0 255
-0.172769 0.078312 2.169 0.34174 0.115871 0.932624 255 0 0 255
-0.166832 0.078315 2.169 0.154111 0.214954 0.964388 255 0 0 255
-0.160745 0.078246 2.167 0.312081 0.214116 0.925613 255 0 0 255
-0.154525 0.078105 2.163 0.448184 0.3134 0.837205 255 0 0 255
-0.148327 0.077963 2.159 0.355717 0.451792 0.818138 255 0 0 255
-0.142216 0.077857 2.156 0.305604 0.55974 0.770258 255 0 0 255
-0.136184 0.077788 2.154 0.228482 0.672623 0.703829 255 0 0 255
-0.130102 0.077682 2.151 0.232473 0.65022 0.723306 255 0 0 255
-0.124152 0.077648 2.15 0.132925 0.653893 0.744819 255 0 0 255
-0.118151 0.077578 2.148 0.0741804 0.595657 0.799806 255 0 0 255
-0.112265 0.07758 2.148 -0.00544919 0.584265 0.811544 255 0 0 255
-0.106379 0.077582 2.148 -0.0784766 0.569406 0.818302 255 0 0 255
-0.10054 0.07762 2.149 -0.00810638 0.586856 0.809651 255 0 0 255
-0.094606 0.077586 2.148 0.0598768 0.597648 0.799519 255 0 0 255
-0.088718 0.077588 2.148 0.0591676 0.634825 0.770387 255 0 0 255
-0.082792 0.077553 2.147 -0.0162752 0.664196 0.747381 255 0 0 255
-0.076943 0.077591 2.148 -0.124059 0.671852 0.730223 255 0 0 255
-0.07112 0.077665 2.15 -0.238249 0.608394 0.75703 255 0 0 255
-0.065287 0.077738 2.152 -0.284084 0.515673 0.808318 255 0 0 255
-0.059442 0.077812 2.154 -0.321285 0.280515 0.904482 255 0 0 255
-0.053561 0.077849 2.155 -0.302696 0.0848 0.949307 255 0 0 255
-0.047719 0.077958 2.158 -0.229716 -0.163304 0.959459 255 0 0 255
-0.041821 0.077995 2.159 -0.0856842 -0.40986 0.908115 255 0 0 255
-0.035918 0.078032 2.16 0.0579146 -0.363135 0.929935 255 0 0 255
-0.029981 0.077997 2.159 0.0699567 -0.488773 0.869601 255 0 0 255
-0.02406 0.077997 2.159 -0.0403469 -0.457904 0.888086 255 0 0 255
-0.018148 0.078034 2.16 -0.221565 -0.385592 0.895672 255 0 0 255
-0.012242 0.078142 2.163 -0.280298 -0.307965 0.90917 255 0 0 255
-0.006314 0.078179 2.164 -0.13052 -0.269812 0.954026 255 0 0 255
-0.000379 0.078215 2.165 -0.116522 -0.193594 0.974138 255 0 0 255
0.005555 0.078179 2.164 -0.239691 -0.0621649 0.968857 255 0 0 255
0.0115 0.078251 2.166 -0.399581 0.19645 0.895401 255 0 0 255
0.017464 0.078359 2.169 -0.457223 0.23885 0.856678 255 0 0 255
0.023466 0.078539 2.174 -0.469242 0.458558 0.754676 255 0 0 255
0.029481 0.078683 2.178 -0.401249 0.595113 0.696305 255 0 0 255
0.035535 0.078863 2.183 -0.371944 0.553886 0.744895 255 0 0 255
0.041559 0.078935 2.185 -0.397847 0.481002 0.781252 255 0 0 255
0.047615 0.079042 2.188 -0.489925 0.388464 0.780429 255 0 0 255
0.053713 0.079186 2.192 -0.563648 0.315823 0.763254 255 0 0 255
0.059859 0.079365 2.197 -0.591243 0.216004 0.777029 255 0 0 255
0.066002 0.079508 2.201 -0.490784 0.119919 0.86299 255 0 0 255
0.072069 0.079543 2.202 -0.165281 0.142621 0.97588 255 0 0 255
0.078105 0.079542 2.202 0.249665 0.187684 0.949969 255 0 0 255
0.083989 0.079396 2.198 0.230501 0.153976 0.960813 255 0 0 255
0.090014 0.079394 2.198 -0.430225 0.0968418 0.897512 255 0 0 255
0.096562 0.079826 2.21 -0.872784 -0.0172288 0.487802 255 0 0 255
0.132897 0.079813 2.21 0.504197 -0.677431 0.535605 255 0 0 255
0.137065 0.078727 2.18 0.99706 0.023785 0.0728331 255 0 0 255
0.140215 0.077172 2.137 -0.90805 0.0386736 0.417074 255 0 0 255
0.144632 0.076411 2.116 0.930461 -0.165369 0.326948 255 0 0 255
0.149147 0.075758 2.098 0.91741 -0.128893 0.376492 255 0 0 255
0.154228 0.07543 2.089 0.657064 -0.127924 0.742901 255 0 0 255
0.159718 0.075319 2.086 0.336929 -0.171505 0.925778 255 0 0 255
0.16527 0.075244 2.084 0.671177 -0.0218815 0.740974 255 0 0 255
0.170318 0.074952 2.076 0.893473 -0.0652904 0.444346 255 0 0 255
0.174983 0.074516 2.064 0.940983 0.00869996 0.338341 255 0 0 255
-0.074769 -0.158978 2.42371 0.154739 -0.350119 -0.923836 255 255 0 255
-0.044998 -0.153387 2.43082 -0.283174 -0.405426 -0.869162 255 255 0 255
-0.01277 -0.147046 2.43979 -0.511448 -0.025673 -0.858931 255 255 0 255
-0.004875 -0.147669 2.43234 -0.700235 -0.0227622 -0.71355 255 255 0 255
-0.002841 -0.149979 2.4209 -0.737514 -0.136378 -0.661418 255 255 0 255
0.000866 -0.151806 2.41059 -0.723842 -0.327636 -0.607212 255 255 0 255
0.009578 -0.152178 2.40377 -0.721101 -0.52171 -0.455886 255 255 0 255
0.018279 -0.152545 2.39698 -0.469638 -0.49763 -0.729249 255 255 0 255
0.033628 -0.150958 2.3949 -0.0518942 -0.698057 -0.71416 255 255 0 255
0.056435 -0.147164 2.39818 0.0589241 -0.686587 -0.724656 255 255 0 255
0.035547 -0.159094 2.35769 -0.846643 0.527388 -0.0711183 255 255 0 255
-0.224287 -0.237404 2.28652 -0.599133 -0.0132417 -0.80054 0 255 0 255
-0.233024 -0.231015 2.30519 0.385699 0.680877 -0.622609 0 255 0 255
-0.219918 -0.232463 2.30836 0.462168 0.67758 -0.572089 0 255 0 255
-0.203427 -0.2351 2.30922 0.565168 0.451899 -0.690198 0 255 0 255
-0.198707 -0.233523 2.3184 0.555784 0.241321 -0.795531 0 255 0 255
-0.193141 -0.232244 2.327 0.402938 0.127619 -0.906286 0 255 0 255
-0.179132 -0.233948 2.32979 0.155323 -0.134522 -0.978662 0 255 0 255
-0.154123 -0.239515 2.32508 0.21045 -0.215714 -0.953508 0 255 0 255
-0.134993 -0.24297 2.32455 0.613653 0.305765 -0.727968 0 255 0 255
-0.136143 -0.239275 2.33794 0.899497 0.269067 -0.344249 0 255 0 255
-0.139843 -0.234695 2.35303 0.832477 0.114629 -0.542072 0 255 0 255
-0.131687 -0.234268 2.36008 0.747566 -0.246692 -0.616675 0 255 0 255
-0.123522 -0.233835 2.36716 0.407719 -0.448227 -0.795524 0 255 0 255
-0.337222 0.075935 2.279 -0.678734 0.405083 0.612559 255 0 0 255
-0.331152 0.075973 2.28 -0.605248 0.42883 0.670656 255 0 0 255
-0.325788 0.076178 2.286 -0.349286 0.510987 0.785425 255 0 0 255
-0.319971 0.076283 2.289 -0.163926 0.156338 0.974005 255 0 0 255
-0.313725 0.076288 2.289 -0.351909 -0.0856489 0.932108 255 0 0 255
-0.30815 0.07646 2.294 -0.66997 -0.102461 0.735283 255 0 0 255
-0.302678 0.076665 2.3 -0.690574 -0.119256 0.713362 255 0 0 255
-0.260725 0.075458 2.263 0.99985 -0.00562869 0.0163976 255 0 0 255
-0.250266 0.074195 2.225 0.868919 -0.270908 0.414233 255 0 0 255
-0.242758 0.073766 2.212 0.814487 -0.265631 0.515801 255 0 0 255
-0.235855 0.073503 2.204 0.71772 -0.244851 0.651864 255 0 0 255
-0.2291 0.073273 2.197 0.652058 -0.0646344 0.755409 255 0 0 255
-0.222686 0.073143 2.193 0.506474 0.0743453 0.859044 255 0 0 255
-0.216096 0.072947 2.187 0.516468 0.0965005 0.850851 255 0 0 255
-0.209922 0.072884 2.185 0.519853 0.131084 0.844139 255 0 0 255
-0.203478 0.07272 2.18 0.522951 0.0867602 0.847936 255 0 0 255
-0.197332 0.072657 2.178 0.318367 0.0449256 0.946903 255 0 0 255
-0.191197 0.072594 2.176 0.272995 0.0460703 0.960912 255 0 0 255
-0.184987 0.072497 2.173 0.362416 0.0886938 0.927787 255 0 0 255
-0.178792 0.0724 2.17 0.370435 0.121258 0.92091 255 0 0 255
-0.172613 0.072302 2.167 0.262963 0.112457 0.958229 255 0 0 255
-0.166604 0.072272 2.166 0.0953927 0.217003 0.971499 255 0 0 255
-0.160748 0.072308 2.167 0.200237 0.233131 0.951607 255 0 0 255
-0.154599 0.072211 2.164 0.403894 0.26718 0.87492 255 0 0 255
-0.148605 0.07218 2.163 0.320391 0.421653 0.848268 255 0 0 255
-0.142483 0.072082 2.16 0.243814 0.577543 0.779101 255 0 0 255
-0.136503 0.072051 2.159 0.231629 0.632814 0.738846 255 0 0 255
-0.130468 0.071987 2.157 0.223843 0.646591 0.729256 255 0 0 255
-0.124443 0.071922 2.155 0.144004 0.672688 0.725777 255 0 0 255
-0.118483 0.071891 2.154 0.0670964 0.669492 0.739783 255 0 0 255
-0.112581 0.071893 2.154 -0.013755 0.664281 0.747356 255 0 0 255
-0.106678 0.071895 2.154 0.00335389 0.624252 0.781216 255 0 0 255
-0.100822 0.07193 2.155 0.0564048 0.592704 0.803443 255 0 0 255
-0.094828 0.071865 2.153 0.0667771 0.560805 0.825251 255 0 0 255
-0.088927 0.071867 2.153 -0.0470728 0.595304 0.802121 255 0 0 255
-0.083025 0.071868 2.153 -0.0454574 0.625745 0.778702 255 0 0 255
-0.077159 0.071903 2.154 -0.0927938 0.634849 0.767044 255 0 0 255
-0.071287 0.071938 2.155 -0.108527 0.563384 0.819036 255 0 0 255
-0.065409 0.071972 2.156 -0.120057 0.447476 0.886201 255 0 0 255
-0.059526 0.072007 2.157 -0.0582734 0.306005 0.950245 255 0 0 255
-0.053587 0.071974 2.156 -0.0709961 0.173174 0.982329 255 0 0 255
-0.047675 0.071975 2.156 -0.0284154 -0.0324772 0.999068 255 0 0 255
-0.041764 0.071976 2.156 -0.0820117 -0.149831 0.985304 255 0 0 255
-0.035852 0.071977 2.156 -0.043199 -0.190231 0.980789 255 0 0 255
-0.029912 0.07191 2.154 -0.0100448 -0.135826 0.990682 255 0 0 255
-0.024016 0.071944 2.155 -0.125554 -0.129052 0.983657 255 0 0 255
-0.018124 0.072011 2.157 -0.314436 -0.102334 0.943746 255 0 0 255
-0.012225 0.072112 2.16 -0.432231 -0.0373969 0.900987 255 0 0 255
-0.006308 0.072179 2.162 -0.290906 0.0263815 0.956388 255 0 0 255
-0.000379 0.072212 2.163 -0.333227 0.339908 0.879444 255 0 0 255
0.005558 0.072279 2.165 -0.372293 0.321535 0.87064 255 0 0 255
0.011521 0.072446 2.17 -0.508003 0.438931 0.741129 255 0 0 255
0.017512 0.072612 2.175 -0.558777 0.453468 0.694359 255 0 0 255
0.023542 0.072812 2.181 -0.51816 0.394255 0.758995 255 0 0 255
0.029577 0.072945 2.185 -0.358846 0.341932 0.868511 255 0 0 255
0.035585 0.072978 2.186 -0.323413 0.327612 0.887735 255 0 0 255
0.041598 0.073011 2.187 -0.279762 0.33171 0.900945 255 0 0 255
0.04766 0.07311 2.19 -0.472056 0.235538 0.849521 255 0 0 255
0.053763 0.073243 2.194 -0.512767 0.176904 0.840104 255 0 0 255
0.05986 0.073342 2.197 -0.50371 0.0383821 0.86302 255 0 0 255
0.066003 0.073475 2.201 -0.404248 0.0499043 0.913287 255 0 0 255
0.072103 0.07354 2.203 -0.192985 0.0200003 0.980998 255 0 0 255
0.078178 0.073572 2.204 0.114551 0.16248 0.98004 255 0 0 255
0.084143 0.073504 2.202 0.13656 0.353788 0.925303 255 0 0 255
0.090138 0.073469 2.201 -0.482775 0.373798 0.791962 255 0 0 255
0.096564 0.073768 2.21 -0.811599 0.314858 0.492109 255 0 0 255
0.136942 0.072686 2.178 0.997154 -0.0637163 0.0403152 255 0 0 255
0.14002 0.071215 2.134 -0.942144 -0.137597 0.305667 255 0 0 255
0.144361 0.070478 2.112 0.91021 -0.146651 0.387312 255 0 0 255
0.148937 0.069909 2.095 0.90275 -0.158403 0.399939 255 0 0 255
0.154009 0.069606 2.086 0.584462 -0.3245 0.74371 255 0 0 255
0.159567 0.069536 2.084 0.225947 -0.247195 0.942254 255 0 0 255
0.165273 0.069534 2.084 0.608519 -0.120363 0.784358 255 0 0 255
0.170403 0.069297 2.077 0.808235 -0.0903469 0.581888 255 0 0 255
0.17507 0.068894 2.065 0.937154 -0.00431515 0.34889 255 0 0 255
-0.039793 -0.163263 2.43565 -0.378353 0.0428552 -0.924669 255 255 0 255
-0.020981 -0.160724 2.43551 -0.302051 0.570072 -0.764057 255 255 0 255
-0.009732 -0.160363 2.43031 -0.53949 0.553729 -0.634299 255 255 0 255
-0.004348 -0.161704 2.42114 0.139128 -0.774082 -0.617609 255 255 0 255
0.006875 -0.16133 2.41602 -0.461429 -0.832245 -0.30733 255 255 0 255
0.016413 -0.161438 2.40979 -0.497476 -0.793479 -0.350584 255 255 0 255
0.020109 -0.163259 2.39951 -0.400771 -0.654224 -0.641384 255 255 0 255
0.061573 -0.156794 2.40303 0.0390185 -0.559495 -0.827915 255 255 0 255
0.06274 -0.159336 2.3911 0.285032 -0.501586 -0.816804 255 255 0 255
-0.216398 -0.251508 2.28216 0.705812 0.396644 -0.586944 0 255 0 255
-0.217562 -0.247812 2.2955 0.518581 0.603513 -0.605678 0 255 0 255
-0.203605 -0.249584 2.29813 0.63754 0.305515 -0.707251 0 255 0 255
-0.198884 -0.248011 2.30733 0.58413 0.529122 -0.615486 0 255 0 255
-0.191633 -0.247342 2.31476 0.606107 0.549422 -0.575126 0 255 0 255
-0.191117 -0.244254 2.32691 0.606314 0.333528 -0.721902 0 255 0 255
-0.173737 -0.247194 2.32738 0.308835 -0.0791117 -0.94782 0 255 0 255
-0.163086 -0.247711 2.33258 0.0450776 -0.375643 -0.925668 0 255 0 255
-0.144818 -0.25092 2.33263 0.263889 -0.818973 -0.509554 0 255 0 255
-0.140053 -0.249315 2.34196 0.689811 -0.688571 -0.223678 0 255 0 255
-0.140364 -0.245913 2.35475 0.898725 -0.147288 -0.413037 0 255 0 255
-0.127127 -0.247293 2.35839 0.710766 0.146775 -0.687945 0 255 0 255
-0.039662 -0.238011 2.45266 -0.181848 -0.461529 -0.868287 0 255 0 255
-0.0254 -0.23956 2.45634 -0.0716707 -0.910627 -0.406965 0 255 0 255
-0.337375 0.069729 2.28 -0.678734 0.405083 0.612559 255 0 0 255
-0.33261 0.07004 2.29 -0.577595 0.518157 0.630791 255 0 0 255
-0.326648 0.070106 2.292 -0.0508811 0.451133 0.891005 255 0 0 255
-0.320256 0.07008 2.291 0.0696141 0.298159 0.951974 255 0 0 255
-0.31373 0.070023 2.289 -0.134252 -0.0331502 0.990393 255 0 0 255
-0.307886 0.070119 2.292 -0.483476 -0.199769 0.852258 255 0 0 255
-0.302419 0.070307 2.298 -0.703207 -0.144693 0.696106 255 0 0 255
-0.258309 0.068618 2.242 0.925491 -0.24071 0.292446 255 0 0 255
-0.24982 0.067979 2.221 0.810163 -0.350561 0.469833 255 0 0 255
-0.242213 0.067554 2.207 0.735211 -0.340933 0.585858 255 0 0 255
-0.235324 0.067313 2.199 0.622438 -0.329065 0.710132 255 0 0 255
-0.228686 0.067133 2.193 0.363697 -0.169732 0.915924 255 0 0 255
-0.22269 0.067136 2.193 0.465126 -0.0692201 0.882534 255 0 0 255
-0.216396 0.067048 2.19 0.534544 -0.0238397 0.844804 255 0 0 255
-0.210021 0.066929 2.186 0.550446 -0.012354 0.83478 255 0 0 255
-0.203575 0.066779 2.181 0.527619 -0.0573296 0.847545 255 0 0 255
-0.197245 0.066659 2.177 0.324323 -0.0174268 0.945786 255 0 0 255
-0.191288 0.066662 2.177 0.246378 -0.0442384 0.968164 255 0 0 255
-0.18516 0.066604 2.175 0.322333 0.0779951 0.943408 255 0 0 255
-0.179042 0.066545 2.173 0.327925 0.147181 0.933168 255 0 0 255
-0.172935 0.066487 2.171 0.327139 0.192671 0.925126 255 0 0 255
-0.166914 0.066459 2.17 0.160699 0.135911 0.977601 255 0 0 255
-0.160973 0.066462 2.17 0.22025 0.170301 0.960462 255 0 0 255
-0.154816 0.066372 2.167 0.255557 0.149316 0.955194 255 0 0 255
-0.148813 0.066344 2.166 0.252888 0.222264 0.941619 255 0 0 255
-0.142815 0.066316 2.165 0.270798 0.207739 0.939954 255 0 0 255
-0.136821 0.066287 2.164 0.209034 0.290235 0.933846 255 0 0 255
-0.130772 0.066228 2.162 0.234086 0.370719 0.898761 255 0 0 255
-0.124733 0.066169 2.16 0.132349 0.566751 0.813189 255 0 0 255
-0.11876 0.06614 2.159 0.11666 0.593196 0.796561 255 0 0 255
-0.112792 0.066111 2.158 0.0725138 0.582355 0.809694 255 0 0 255
-0.106829 0.066082 2.157 0.0769677 0.518673 0.851502 255 0 0 255
-0.100917 0.066084 2.157 0.0872099 0.498694 0.86238 255 0 0 255
-0.094962 0.066055 2.156 0.0508364 0.4836 0.873811 255 0 0 255
-0.089011 0.066026 2.155 -0.014983 0.539496 0.841855 255 0 0 255
-0.083181 0.066088 2.157 -0.11674 0.552972 0.824981 255 0 0 255
-0.077304 0.06612 2.158 -0.114663 0.410955 0.904416 255 0 0 255
-0.071387 0.066122 2.158 0.00318247 0.502964 0.864301 255 0 0 255
-0.065441 0.066092 2.157 0.0368676 0.401844 0.914966 255 0 0 255
-0.059554 0.066124 2.158 0.0172499 0.327613 0.944654 255 0 0 255
-0.053613 0.066094 2.157 -0.0134692 0.301592 0.953342 255 0 0 255
-0.04772 0.066125 2.158 0.0604223 0.182674 0.981315 255 0 0 255
-0.041764 0.066065 2.156 0.0211308 0.252008 0.967494 255 0 0 255
-0.035886 0.066127 2.158 0.0706966 0.227176 0.971284 255 0 0 255
-0.029968 0.066127 2.158 -0.0174162 0.229487 0.973156 255 0 0 255
-0.02405 0.066128 2.158 -0.0599188 0.229609 0.971437 255 0 0 255
-0.018132 0.066128 2.158 -0.209125 0.197289 0.957781 255 0 0 255
-0.012226 0.06619 2.16 -0.396197 0.209747 0.893887 255 0 0 255
-0.006317 0.066343 2.165 -0.511595 0.218509 0.830978 255 0 0 255
-0.00038 0.066435 2.168 -0.467779 0.39148 0.792418 255 0 0 255
0.005576 0.066557 2.172 -0.432925 0.511817 0.742037 255 0 0 255
0.011548 0.066649 2.175 -0.483538 0.418665 0.768707 255 0 0 255
0.017545 0.066772 2.179 -0.553025 0.218691 0.803951 255 0 0 255
0.023564 0.066894 2.183 -0.550099 0.0967133 0.82948 255 0 0 255
0.029591 0.066985 2.186 -0.416884 0.0828651 0.905175 255 0 0 255
0.035618 0.067046 2.188 -0.272896 0.187388 0.943617 255 0 0 255
0.041636 0.067076 2.189 -0.360353 0.194598 0.912292 255 0 0 255
0.047704 0.067167 2.192 -0.457745 0.180416 0.870586 255 0 0 255
0.053788 0.067258 2.195 -0.424542 0.142453 0.894132 255 0 0 255
0.059888 0.067349 2.198 -0.368127 0.00270059 0.929772 255 0 0 255
0.065974 0.06741 2.2 -0.381489 -0.1013 0.918806 255 0 0 255
0.072104 0.0675 2.203 -0.291628 -0.105432 0.950704 255 0 0 255
0.078144 0.067499 2.203 -0.17625 0.0761008 0.981399 255 0 0 255
0.084221 0.067529 2.204 -0.166928 0.431585 0.886493 255 0 0 255
0.090262 0.067527 2.204 -0.292912 0.504993 0.811902 255 0 0 255
0.09709 0.068077 2.222 -0.825292 0.336446 0.453539 255 0 0 255
0.134806 0.065675 2.144 0.969881 0.194656 0.146422 255 0 0 255
0.13976 0.065244 2.13 0.980984 -0.108553 0.160893 255 0 0 255
0.14409 0.064568 2.108 0.910316 -0.133963 0.391636 255 0 0 255
0.148797 0.064106 2.093 0.883026 -0.170674 0.437191 255 0 0 255
0.153864 0.063828 2.084 0.553993 -0.222836 0.802144 255 0 0 255
0.159493 0.063795 2.083 0.198438 -0.244836 0.94904 255 0 0 255
0.165196 0.063792 2.083 0.447309 -0.257452 0.856524 255 0 0 255
0.170406 0.063606 2.077 0.728879 -0.144548 0.669209 255 0 0 255
0.175328 0.063328 2.068 0.928405 -0.0547611 0.367512 255 0 0 255
-0.054261 -0.175935 2.44015 -0.443743 -0.279272 -0.851528 255 255 0 255
-0.03878 -0.174345 2.43765 -0.589532 0.211145 -0.77966 255 255 0 255
-0.031694 -0.175203 2.42953 -0.640594 -0.045523 -0.766529 255 255 0 255
-0.02127 -0.175071 2.42372 0.448848 -0.075086 -0.890448 255 255 0 255
0.011686 -0.168266 2.43344 -0.277083 -0.810059 -0.516748 255 255 0 255
0.02289 -0.16786 2.42835 -0.454152 -0.731066 -0.509204 255 255 0 255
0.025743 -0.169924 2.41753 -0.442418 -0.882043 -0.162069 255 255 0 255
0.021938 -0.173973 2.40205 -0.398457 -0.682577 -0.612634 255 255 0 255
0.0406 -0.171317 2.40229 -0.111883 -0.79691 -0.593647 255 255 0 255
0.063383 -0.167399 2.40554 0.492923 -0.593709 -0.636032 255 255 0 255
-0.21387 -0.260426 2.29416 0.689409 0.179472 -0.701787 0 255 0 255
-0.200755 -0.261922 2.29741 0.547936 0.0249414 -0.836148 0 255 0 255
-0.190986 -0.262184 2.30309 0.569192 0.144456 -0.809415 0 255 0 255
-0.181206 -0.262437 2.3088 0.652603 0.107948 -0.749971 0 255 0 255
-0.174782 -0.261464 2.31688 0.796144 0.16476 -0.582245 0 255 0 255
-0.171724 -0.259272 2.32732 0.851991 -0.305296 -0.425329 0 255 0 255
-0.170354 -0.256473 2.33892 0.830365 -0.234796 -0.505337 0 255 0 255
-0.15801 -0.257612 2.343 0.527779 -0.79224 -0.306278 0 255 0 255
-0.14734 -0.258136 2.34828 0.522016 -0.291638 -0.801528 0 255 0 255
-0.134966 -0.259253 2.35247 0.70362 0.107051 -0.702466 0 255 0 255
-0.115803 -0.262768 2.35215 0.331397 0.37269 -0.866763 0 255 0 255
-0.045339 -0.247648 2.45774 0.0418979 -0.672535 -0.738878 0 255 0 255
-0.003104 -0.255505 2.45661 -0.345438 -0.878587 -0.329784 0 255 0 255
-0.337676 0.063545 2.282 -0.649228 0.443139 0.618167 255 0 0 255
-0.332469 0.063745 2.289 -0.550443 0.443601 0.70727 255 0 0 255
-0.326938 0.063888 2.294 -0.0955053 0.418561 0.903153 255 0 0 255
-0.32026 0.063809 2.291 0.10499 0.388107 0.915615 255 0 0 255
-0.313872 0.063785 2.29 0.0898144 0.205551 0.974517 255 0 0 255
-0.307622 0.063789 2.29 -0.408469 0.115941 0.905379 255 0 0 255
-0.30216 0.06396 2.296 -0.69311 -0.0381728 0.719821 255 0 0 255
-0.2567 0.062088 2.228 0.90033 -0.253379 0.353843 255 0 0 255
-0.248812 0.061646 2.212 0.791427 -0.33599 0.510641 255 0 0 255
-0.241558 0.061342 2.201 0.721312 -0.294059 0.627087 255 0 0 255
-0.234899 0.061178 2.195 0.520353 -0.225414 0.823663 255 0 0 255
-0.228585 0.061098 2.192 0.398822 -0.246203 0.88336 255 0 0 255
-0.22249 0.061073 2.191 0.296106 -0.31872 0.90041 255 0 0 255
-0.216102 0.060965 2.187 0.505721 -0.240307 0.828552 255 0 0 255
-0.209736 0.060856 2.183 0.534833 -0.243858 0.809004 255 0 0 255
-0.203391 0.060748 2.179 0.488721 -0.189058 0.851709 255 0 0 255
-0.197157 0.060667 2.176 0.279511 -0.101541 0.954758 255 0 0 255
-0.191115 0.060642 2.175 0.114298 -0.0525423 0.992056 255 0 0 255
-0.185078 0.060616 2.174 0.196268 0.0302567 0.980083 255 0 0 255
-0.179045 0.060591 2.173 0.270708 -0.0470323 0.961512 255 0 0 255
-0.173017 0.060566 2.172 0.334396 -0.0538166 0.940895 255 0 0 255
-0.166763 0.060456 2.168 0.301293 -0.0232683 0.953247 255 0 0 255
-0.160827 0.060459 2.168 0.118531 -0.0996379 0.987939 255 0 0 255
-0.154819 0.060433 2.167 0.143555 -0.0737976 0.986887 255 0 0 255
-0.148884 0.060435 2.167 0.251476 0.0334953 0.967284 255 0 0 255
-0.142751 0.060354 2.164 0.219338 -0.10187 0.970316 255 0 0 255
-0.136823 0.060356 2.164 0.0679652 -0.0861337 0.993963 255 0 0 255
-0.130835 0.06033 2.163 0.039166 0.117965 0.992245 255 0 0 255
-0.124966 0.06036 2.164 0.0905051 0.258686 0.961712 255 0 0 255
-0.118982 0.060333 2.163 0.153841 0.348898 0.924447 255 0 0 255
-0.113003 0.060307 2.162 0.188075 0.175714 0.966309 255 0 0 255
-0.107078 0.060309 2.162 0.209168 0.253294 0.944506 255 0 0 255
-0.101059 0.060254 2.16 0.0387863 0.237848 0.970528 255 0 0 255
-0.095139 0.060256 2.16 -0.0340598 0.243473 0.96931 255 0 0 255
-0.089219 0.060257 2.16 0.067733 0.187362 0.979953 255 0 0 255
-0.083336 0.060286 2.161 -0.0386866 0.0970112 0.994531 255 0 0 255
-0.077448 0.060315 2.162 -0.124411 -0.00510473 0.992218 255 0 0 255
-0.071521 0.060317 2.162 0.0607996 0.0932974 0.99378 255 0 0 255
-0.065563 0.06029 2.161 -0.0277098 0.128338 0.991343 255 0 0 255
-0.059611 0.060263 2.16 -0.0440058 0.33163 0.942383 255 0 0 255
-0.053688 0.060264 2.16 -0.00317658 0.375518 0.92681 255 0 0 255
-0.047765 0.060264 2.16 0.0351439 0.459641 0.887409 255 0 0 255
-0.041823 0.060237 2.159 0.0392072 0.444874 0.894735 255 0 0 255
-0.035886 0.06021 2.158 0.0567894 0.432486 0.899851 255 0 0 255
-0.029955 0.060182 2.157 0.0141082 0.390656 0.920429 255 0 0 255
-0.024051 0.060211 2.158 -0.135544 0.434016 0.89065 255 0 0 255
-0.018141 0.060239 2.159 -0.252658 0.392878 0.884201 255 0 0 255
-0.012237 0.060323 2.162 -0.439508 0.396106 0.806184 255 0 0 255
-0.00632 0.060434 2.166 -0.520207 0.426644 0.739838 255 0 0 255
-0.00038 0.060574 2.171 -0.501349 0.374225 0.780131 255 0 0 255
0.005584 0.060686 2.175 -0.406759 0.374241 0.833361 255 0 0 255
0.011559 0.060741 2.177 -0.339226 0.260908 0.903799 255 0 0 255
0.017545 0.060797 2.179 -0.414408 0.121194 0.901986 255 0 0 255
0.023542 0.060852 2.181 -0.490985 0.0727123 0.868128 255 0 0 255
0.029578 0.060964 2.185 -0.479359 0.0799157 0.873973 255 0 0 255
0.035602 0.061019 2.187 -0.343289 0.182005 0.921426 255 0 0 255
0.041656 0.061102 2.19 -0.341545 0.168592 0.924621 255 0 0 255
0.047727 0.061185 2.193 -0.419768 0.160284 0.893367 255 0 0 255
0.053813 0.061268 2.196 -0.3611 0.108815 0.926156 255 0 0 255
0.059862 0.061295 2.197 -0.245097 0.0333085 0.968926 255 0 0 255
0.065916 0.061322 2.198 -0.31858 -0.0535947 0.94638 255 0 0 255
0.07204 0.061405 2.201 -0.34185 -0.0622304 0.937692 255 0 0 255
0.078145 0.061459 2.203 -0.403127 0.099168 0.909755 255 0 0 255
0.084337 0.06157 2.207 -0.527081 0.397128 0.751315 255 0 0 255
0.090592 0.061708 2.212 -0.690254 0.451094 0.565742 255 0 0 255
0.135751 0.060217 2.159 0.987183 -0.141703 0.0734136 255 0 0 255
0.139237 0.059183 2.122 0.875402 -0.387996 0.288323 255 0 0 255
0.143819 0.058679 2.104 0.928721 -0.189276 0.318828 255 0 0 255
0.148657 0.058314 2.091 0.875668 -0.143923 0.460968 255 0 0 255
0.153792 0.058089 2.083 0.58642 -0.223925 0.77844 255 0 0 255
0.159419 0.058059 2.082 0.284159 -0.212561 0.934918 255 0 0 255
0.164881 0.057973 2.079 0.538081 -0.231658 0.810434 255 0 0 255
0.170244 0.057859 2.075 0.760281 -0.172638 0.626234 255 0 0 255
0.174906 0.057522 2.063 0.924404 -0.0778769 0.373381 255 0 0 255
-0.069584 -0.188921 2.44418 -0.21895 -0.761662 -0.609862 255 255 0 255
-0.046536 -0.185078 2.44666 -0.233461 -0.808828 -0.539715 255 255 0 255
-0.040279 -0.186178 2.43795 -0.553804 -0.603555 -0.573604 255 255 0 255
-0.037373 -0.188269 2.42698 -0.954321 -0.180454 -0.238134 255 255 0 255
-0.010234 -0.183138 2.43255 0.193668 -0.702413 -0.684915 255 255 0 255
0.018524 -0.177484 2.43941 -0.405326 -0.561547 -0.721371 255 255 0 255
0.032219 -0.176301 2.43606 -0.485545 -0.509669 -0.71027 255 255 0 255
0.031732 -0.179364 2.42295 -0.463315 -0.452504 -0.761958 255 255 0 255
0.047063 -0.177665 2.42084 -0.399426 -0.855272 -0.330104 255 255 0 255
0.059043 -0.176958 2.41647 -0.0800034 -0.70657 -0.703106 255 255 0 255
0.052741 -0.18178 2.39927 0.635838 -0.608065 -0.47536 255 255 0 255
-0.206831 -0.274313 2.29046 0.604119 -0.0838381 -0.792472 0 255 0 255
-0.20043 -0.273366 2.29848 0.51455 -0.206312 -0.83227 0 255 0 255
-0.198223 -0.270874 2.30947 0.681457 -0.173298 -0.711044 0 255 0 255
-0.185088 -0.272382 2.31282 0.624496 -0.484477 -0.612607 0 255 0 255
-0.182034 -0.270193 2.32325 0.635173 -0.570202 -0.520984 0 255 0 255
