ply
format ascii 1.0
comment VCGLIB generated
element vertex 731
property float x
property float y
property float z
property float nx
property float ny
property float nz
property uchar red
property uchar green
property uchar blue
property uchar alpha
element face 0
property list uchar int vertex_indices
end_header
-0.06981 -0.232362 2.303 0.748195 0.11079 0.654163 255 0 0 255
-0.063391 -0.231962 2.299 0.604739 -0.0414881 0.795342 255 0 0 255
-0.056944 -0.231359 2.293 0.676666 -0.114991 0.727255 255 0 0 255
-0.050485 -0.230555 2.285 0.769248 0.117187 0.628112 255 0 0 255
-0.044012 -0.229447 2.274 0.811039 0.0635212 0.581533 255 0 0 255
-0.037632 -0.228541 2.265 0.697784 -0.0459654 0.714832 255 0 0 255
-0.031357 -0.228038 2.26 0.303269 -0.0439161 0.951893 255 0 0 255
-0.025143 -0.227838 2.258 0.0289967 0.124519 0.991794 255 0 0 255
-0.018973 -0.228041 2.26 -0.00268496 0.366404 0.930452 255 0 0 255
-0.012781 -0.228042 2.26 -0.151173 0.591044 0.792347 255 0 0 255
-0.006603 -0.228547 2.265 -0.190979 0.494591 0.847884 255 0 0 255
-0.000396 -0.228244 2.262 -0.0491789 0.736984 0.674119 255 0 0 255
0.005804 -0.228345 2.263 -0.00652713 0.713275 0.700854 255 0 0 255
0.011994 -0.228143 2.261 -0.0988212 0.637238 0.764305 255 0 0 255
0.018222 -0.228545 2.265 -0.165461 0.389435 0.90607 255 0 0 255
0.024406 -0.228343 2.263 0.11046 0.197763 0.974006 255 0 0 255
0.030606 -0.228341 2.263 -0.170135 0.041823 0.984533 255 0 0 255
0.036872 -0.228743 2.267 -0.327815 -0.219934 0.918785 255 0 0 255
0.04314 -0.229044 2.27 -0.171208 0.00929864 0.985191 255 0 0 255
0.049381 -0.229142 2.271 -0.0871699 0.193902 0.97714 255 0 0 255
0.055578 -0.229039 2.27 -0.181113 0.239061 0.953964 255 0 0 255
-0.264788 -0.227303 2.196 0.417402 0.0747842 0.90564 255 0 0 255
-0.258321 -0.226902 2.192 0.413177 0.0821653 0.906936 255 0 0 255
-0.251991 -0.226603 2.189 0.478103 0.161837 0.863265 255 0 0 255
-0.245339 -0.225994 2.183 0.641698 0.265921 0.719381 255 0 0 255
-0.238609 -0.22528 2.176 0.634051 0.390511 0.667443 255 0 0 255
-0.231809 -0.224463 2.168 0.601163 0.288276 0.745318 255 0 0 255
-0.225365 -0.223957 2.163 0.363079 -0.00350007 0.931752 255 0 0 255
-0.219252 -0.22376 2.161 0.327228 -0.0340007 0.944333 255 0 0 255
-0.213248 -0.223667 2.16 0.256357 0.0755887 0.963622 255 0 0 255
-0.207152 -0.22347 2.158 0.221579 -0.0357615 0.974486 255 0 0 255
-0.20116 -0.223377 2.157 0.0395262 -0.0911263 0.995055 255 0 0 255
-0.195354 -0.22349 2.158 -0.146075 -0.121974 0.981725 255 0 0 255
-0.189629 -0.223706 2.16 -0.026155 -0.0557505 0.998102 255 0 0 255
-0.183722 -0.223715 2.16 -0.00878048 0.00387839 0.999954 255 0 0 255
-0.177815 -0.223724 2.16 -0.142703 -0.0241509 0.989471 255 0 0 255
-0.172066 -0.22394 2.162 -0.334549 0.146335 0.930947 255 0 0 255
-0.166383 -0.224259 2.165 -0.485977 0.131173 0.864072 255 0 0 255
-0.160682 -0.224578 2.168 -0.590527 0.0988344 0.800943 255 0 0 255
-0.155107 -0.225104 2.173 -0.707523 -0.0211615 0.706374 255 0 0 255
-0.149504 -0.225629 2.178 -0.786349 -0.0682382 0.614002 255 0 0 255
-0.144137 -0.226569 2.187 -0.752629 0.0791242 0.653674 255 0 0 255
-0.138278 -0.226783 2.189 -0.698573 0.18999 0.689855 255 0 0 255
-0.133435 -0.228759 2.208 -0.884679 0.375654 0.276091 255 0 0 255
-0.128372 -0.230527 2.225 -0.871208 0.429278 0.238153 255 0 0 255
-0.083103 -0.240621 2.322 0.868639 0.0648877 0.491179 255 0 0 255
-0.076445 -0.239692 2.313 0.817932 0.0730167 0.570662 255 0 0 255
-0.069746 -0.238452 2.301 0.79978 -0.0176377 0.600034 255 0 0 255
-0.06325 -0.23773 2.294 0.735783 -0.230295 0.636858 255 0 0 255
-0.056767 -0.236904 2.286 0.69416 -0.0953443 0.713478 255 0 0 255
-0.050394 -0.236389 2.281 0.774293 0.0769404 0.628133 255 0 0 255
-0.043913 -0.235148 2.269 0.802047 0.110601 0.586932 255 0 0 255
-0.037564 -0.234321 2.261 0.519967 0.0612871 0.851985 255 0 0 255
-0.031328 -0.234011 2.258 0.268023 0.21087 0.940052 255 0 0 255
-0.025153 -0.234117 2.259 -0.0532889 0.348583 0.935762 255 0 0 255
-0.018972 -0.234221 2.26 -0.167125 0.275731 0.946595 255 0 0 255
-0.012791 -0.234429 2.262 -0.450955 0.211506 0.867125 255 0 0 255
-0.006608 -0.234948 2.267 -0.473511 0.340395 0.812354 255 0 0 255
-0.000397 -0.235156 2.269 -0.145045 0.462318 0.874771 255 0 0 255
0.005825 -0.235363 2.271 0.000668474 0.621631 0.78331 255 0 0 255
0.012042 -0.235259 2.27 0.211114 0.487649 0.84713 255 0 0 255
0.018253 -0.235154 2.269 0.232059 0.320675 0.918323 255 0 0 255
0.024448 -0.234946 2.267 0.0295197 0.106744 0.993848 255 0 0 255
0.030632 -0.234737 2.265 -0.213965 0.234738 0.948218 255 0 0 255
0.036854 -0.234839 2.266 -0.21063 0.278677 0.937003 255 0 0 255
0.043081 -0.234941 2.267 -0.314595 0.182676 0.931482 255 0 0 255
0.049378 -0.235353 2.271 -0.280373 0.297504 0.912624 255 0 0 255
0.055624 -0.235454 2.272 -0.254312 0.314995 0.914387 255 0 0 255
-0.264775 -0.233301 2.196 0.426098 0.12771 0.895617 255 0 0 255
-0.258309 -0.232889 2.192 0.430997 0.0440334 0.901278 255 0 0 255
-0.252094 -0.232689 2.19 0.451263 0.0588981 0.890445 255 0 0 255
-0.245552 -0.23217 2.185 0.55438 0.236307 0.798011 255 0 0 255
-0.239255 -0.231863 2.182 0.613104 0.262006 0.745289 255 0 0 255
-0.23244 -0.231024 2.174 0.649281 0.390183 0.652834 255 0 0 255
-0.225771 -0.230291 2.167 0.498924 0.304993 0.811206 255 0 0 255
-0.219444 -0.229877 2.163 0.275209 0.096836 0.956495 255 0 0 255
-0.213533 -0.229888 2.163 0.336018 0.0519224 0.940423 255 0 0 255
-0.20743 -0.229686 2.161 0.296994 -0.0142044 0.954774 255 0 0 255
-0.20143 -0.229589 2.16 -0.0505026 -0.0508785 0.997427 255 0 0 255
-0.195434 -0.229493 2.159 -0.266707 -0.0429674 0.96282 255 0 0 255
-0.189707 -0.229715 2.161 -0.137429 0.132283 0.981639 255 0 0 255
-0.183628 -0.229512 2.159 0.00336603 0.169958 0.985446 255 0 0 255
-0.177806 -0.229627 2.16 -0.11352 0.257405 0.959612 255 0 0 255
-0.171978 -0.229743 2.161 -0.455364 0.230748 0.859883 255 0 0 255
-0.166528 -0.230389 2.167 -0.50267 0.259778 0.824523 255 0 0 255
-0.160748 -0.23061 2.169 -0.498166 0.260572 0.827002 255 0 0 255
-0.155171 -0.23115 2.174 -0.573542 0.12239 0.809982 255 0 0 255
-0.149428 -0.231476 2.177 -0.78078 -0.0235791 0.624361 255 0 0 255
-0.144196 -0.232653 2.188 -0.838504 0.112668 0.53312 255 0 0 255
-0.138713 -0.233511 2.196 -0.864561 0.289988 0.410415 255 0 0 255
-0.134093 -0.235964 2.219 -0.923655 0.313507 0.220397 255 0 0 255
-0.129231 -0.238204 2.24 -0.969154 0.143428 0.200422 255 0 0 255
-0.083027 -0.246756 2.32 0.882728 0.0844974 0.462224 255 0 0 255
-0.076342 -0.245697 2.31 0.826621 -0.041142 0.561253 255 0 0 255
-0.069742 -0.244743 2.301 0.775996 0.049972 0.628756 255 0 0 255
-0.063164 -0.243683 2.291 0.743719 -0.124783 0.656743 255 0 0 255
-0.056739 -0.243048 2.285 0.625377 -0.00111245 0.780322 255 0 0 255
-0.050392 -0.242626 2.281 0.762861 0.221138 0.60757 255 0 0 255
-0.043911 -0.241352 2.269 0.757903 0.159115 0.632666 255 0 0 255
-0.037629 -0.240928 2.265 0.422267 0.299529 0.855554 255 0 0 255
-0.031382 -0.240611 2.262 0.0905851 0.462649 0.881902 255 0 0 255
-0.025218 -0.240932 2.265 0.0805115 0.322593 0.943107 255 0 0 255
-0.019005 -0.240826 2.264 -0.117292 0.192139 0.974333 255 0 0 255
-0.012813 -0.24104 2.266 -0.455918 0.0587769 0.888079 255 0 0 255
-0.006617 -0.241466 2.27 -0.557133 -0.0275851 0.829965 255 0 0 255
-0.000398 -0.241998 2.275 -0.1346 -0.299119 0.944675 255 0 0 255
0.005829 -0.241785 2.273 0.228221 -0.461785 0.857129 255 0 0 255
0.012036 -0.241359 2.269 0.288565 -0.593286 0.751493 255 0 0 255
0.018204 -0.24072 2.263 0.106291 -0.354959 0.92882 255 0 0 255
0.024436 -0.241038 2.266 -0.356521 -0.119288 0.926641 255 0 0 255
0.030671 -0.241249 2.268 -0.272798 0.22021 0.93653 255 0 0 255
0.036933 -0.241567 2.271 -0.235671 0.333064 0.912978 255 0 0 255
0.043154 -0.241565 2.271 -0.292753 0.235996 0.926607 255 0 0 255
0.049441 -0.241881 2.274 -0.335795 0.251784 0.90766 255 0 0 255
0.055744 -0.242198 2.277 -0.438309 0.349473 0.828103 255 0 0 255
-0.264522 -0.239081 2.194 0.418785 0.102339 0.9023 255 0 0 255
-0.258061 -0.238658 2.19 0.374528 0.135497 0.917262 255 0 0 255
-0.252082 -0.23867 2.19 0.442834 0.149531 0.884047 255 0 0 255
-0.245877 -0.238465 2.188 0.540726 0.0779755 0.837577 255 0 0 255
-0.239572 -0.23815 2.185 0.530265 -0.079237 0.844121 255 0 0 255
-0.232963 -0.237507 2.179 0.602591 0.0335904 0.797343 255 0 0 255
-0.226177 -0.236647 2.171 0.613827 0.355217 0.705009 255 0 0 255
-0.219535 -0.235895 2.164 0.456202 0.357174 0.81505 255 0 0 255
-0.213325 -0.235579 2.161 0.371533 0.174162 0.911938 255 0 0 255
-0.207036 -0.235154 2.157 0.272375 0.12382 0.954191 255 0 0 255
-0.20114 -0.235164 2.157 0.0976537 -0.0104003 0.995166 255 0 0 255
-0.195244 -0.235174 2.157 -0.175596 0.0305452 0.983988 255 0 0 255
-0.189785 -0.235729 2.162 -0.20408 0.431798 0.87858 255 0 0 255
-0.183959 -0.235848 2.163 -0.0406173 0.446076 0.894073 255 0 0 255
-0.178044 -0.235857 2.163 -0.0772151 0.443326 0.893028 255 0 0 255
-0.172287 -0.236084 2.165 -0.341696 0.343329 0.874854 255 0 0 255
-0.166673 -0.236529 2.169 -0.526521 0.175743 0.8318 255 0 0 255
-0.160962 -0.236865 2.172 -0.457096 0.155565 0.875707 255 0 0 255
-0.155234 -0.2372 2.175 -0.49868 0.12148 0.858231 255 0 0 255
-0.149489 -0.237535 2.178 -0.794772 0.0650005 0.603417 255 0 0 255
-0.144254 -0.238742 2.189 -0.882308 0.199963 0.426084 255 0 0 255
-0.139085 -0.240168 2.202 -0.925916 0.187105 0.328134 255 0 0 255
-0.13463 -0.243011 2.228 -0.955118 0.199043 0.219389 255 0 0 255
-0.129685 -0.245199 2.248 -0.975419 -0.0326812 0.21792 255 0 0 255
-0.083022 -0.253098 2.32 0.867729 0.193633 0.457769 255 0 0 255
-0.076305 -0.251903 2.309 0.798211 0.214803 0.562778 255 0 0 255
-0.069739 -0.251034 2.301 0.757772 0.156101 0.633572 255 0 0 255
-0.063216 -0.250165 2.293 0.611565 0.387244 0.689949 255 0 0 255
-0.056811 -0.249622 2.288 0.489246 0.46552 0.737516 255 0 0 255
-0.050477 -0.249298 2.285 0.596481 0.422801 0.682238 255 0 0 255
-0.044025 -0.248209 2.275 0.625469 0.531197 0.571505 255 0 0 255
-0.037693 -0.247557 2.269 0.51205 0.527364 0.678006 255 0 0 255
-0.031408 -0.247013 2.264 0.204354 0.336912 0.919092 255 0 0 255
-0.025195 -0.246906 2.263 0.144498 0.315555 0.937841 255 0 0 255
-0.018978 -0.246689 2.261 0.00126688 0.203089 0.979159 255 0 0 255
-0.012795 -0.246908 2.263 -0.279364 -0.0451101 0.959125 255 0 0 255
-0.006602 -0.247126 2.265 -0.0656959 -0.0924216 0.99355 255 0 0 255
-0.000397 -0.247454 2.268 -1.36302e-05 -0.413789 0.910373 255 0 0 255
0.005809 -0.247126 2.265 0.21762 -0.429035 0.876682 255 0 0 255
0.011998 -0.246799 2.262 0.249673 -0.305423 0.918902 255 0 0 255
0.018171 -0.246471 2.259 -0.0710164 -0.462311 0.88387 255 0 0 255
0.024424 -0.247124 2.265 -0.45184 -0.123392 0.883524 255 0 0 255
0.030683 -0.247559 2.269 -0.324626 0.249757 0.912271 255 0 0 255
0.036947 -0.247884 2.272 -0.173604 0.524482 0.833535 255 0 0 255
0.043133 -0.247664 2.27 -0.233873 0.507351 0.829396 255 0 0 255
0.04946 -0.248207 2.275 -0.373632 0.325214 0.868697 255 0 0 255
0.056132 -0.250168 2.293 -0.622815 0.543296 0.562966 255 0 0 255
-0.26692 -0.247306 2.214 0.998114 0.0608349 0.0081716 255 0 0 255
-0.258755 -0.245308 2.196 0.514729 0.363367 0.776543 255 0 0 255
-0.252299 -0.244874 2.192 0.472123 0.21038 0.856061 255 0 0 255
-0.245752 -0.244328 2.187 0.659543 0.0426534 0.750456 255 0 0 255
-0.239122 -0.24367 2.181 0.597846 -0.0734081 0.798243 255 0 0 255
-0.232951 -0.243459 2.179 0.539315 0.0393238 0.841185 255 0 0 255
-0.226686 -0.243135 2.176 0.542407 0.210185 0.813398 255 0 0 255
-0.220132 -0.242476 2.17 0.60763 0.309016 0.731639 255 0 0 255
-0.213709 -0.241929 2.165 0.599691 0.205536 0.773386 255 0 0 255
-0.207505 -0.241604 2.162 0.281007 0.210641 0.936304 255 0 0 255
-0.201503 -0.241503 2.161 0.0944137 0.0844433 0.991945 255 0 0 255
-0.195686 -0.241625 2.162 -0.516832 0.0413543 0.855088 255 0 0 255
-0.190127 -0.242082 2.166 -0.422689 0.129646 0.896954 255 0 0 255
-0.184289 -0.242204 2.167 -0.0502059 0.196182 0.979281 255 0 0 255
-0.178199 -0.24199 2.165 0.00937514 0.125002 0.992112 255 0 0 255
-0.172358 -0.242111 2.166 -0.231853 0.102318 0.967355 255 0 0 255
-0.166741 -0.242567 2.17 -0.487966 0.0579892 0.870934 255 0 0 255
-0.160954 -0.242799 2.172 -0.486948 0.109347 0.866559 255 0 0 255
-0.155226 -0.243143 2.175 -0.498336 0.121269 0.858461 255 0 0 255
-0.149481 -0.243487 2.178 -0.744068 0.167712 0.646711 255 0 0 255
-0.144313 -0.244836 2.19 -0.888804 0.209667 0.407514 255 0 0 255
-0.139394 -0.246744 2.207 -0.928653 0.241437 0.281622 255 0 0 255
-0.134804 -0.249435 2.231 -0.964172 0.0387278 0.262437 255 0 0 255
-0.130025 -0.252013 2.254 -0.969998 -0.0687788 0.23318 255 0 0 255
-0.076334 -0.258326 2.31 0.732112 0.413796 0.541096 255 0 0 255
-0.069886 -0.257882 2.306 0.612242 0.436812 0.659056 255 0 0 255
-0.063378 -0.257103 2.299 0.563244 0.442078 0.698085 255 0 0 255
-0.057031 -0.256883 2.297 0.517047 0.478645 0.709621 255 0 0 255
-0.050629 -0.256326 2.292 0.551475 0.495173 0.671327 255 0 0 255
-0.044235 -0.255658 2.286 0.600458 0.472763 0.644939 255 0 0 255
-0.037874 -0.254989 2.28 0.700072 0.39332 0.595985 255 0 0 255
-0.031489 -0.253873 2.27 0.63206 0.309801 0.710299 255 0 0 255
-0.025238 -0.253539 2.267 0.180015 0.462352 0.868231 255 0 0 255
-0.019011 -0.253316 2.265 0.0529329 0.299099 0.952753 255 0 0 255
-0.012812 -0.253429 2.266 -0.137948 0.207348 0.968492 255 0 0 255
-0.006607 -0.253541 2.267 -0.0917299 -0.0674457 0.993497 255 0 0 255
-0.000397 -0.25343 2.266 0.0724089 0.00554214 0.99736 255 0 0 255
0.005806 -0.253206 2.264 0.317267 0.0109062 0.948273 255 0 0 255
0.011981 -0.252646 2.259 0.242962 0.134613 0.96065 255 0 0 255
0.01817 -0.252645 2.259 -0.392861 0.210581 0.895163 255 0 0 255
0.024433 -0.253427 2.266 -0.653805 0.229856 0.720906 255 0 0 255
0.030749 -0.25432 2.274 -0.623547 0.320312 0.713155 255 0 0 255
0.037075 -0.25499 2.28 -0.24738 0.45458 0.855664 255 0 0 255
0.043283 -0.254764 2.278 -0.0664733 0.390883 0.918037 255 0 0 255
0.049588 -0.255097 2.281 -0.279452 -0.377228 0.882953 255 0 0 255
-0.267388 -0.253808 2.218 0.959782 -0.241226 0.143624 255 0 0 255
-0.259449 -0.251991 2.202 0.788439 -0.146341 0.597452 255 0 0 255
-0.252632 -0.251203 2.195 0.658644 0.155929 0.736121 255 0 0 255
-0.245852 -0.250415 2.188 0.710357 0.0726053 0.700087 255 0 0 255
-0.23889 -0.249397 2.179 0.511039 -0.0464142 0.858303 255 0 0 255
-0.232832 -0.249295 2.178 0.302494 0.0140832 0.953047 255 0 0 255
-0.226778 -0.249192 2.177 0.506868 0.0546293 0.860291 255 0 0 255
-0.220324 -0.248632 2.172 0.647021 0.0973155 0.756237 255 0 0 255
-0.213698 -0.247842 2.165 0.624296 0.160445 0.764534 255 0 0 255
-0.207206 -0.247166 2.159 0.440714 0.172408 0.880935 255 0 0 255
-0.201026 -0.246833 2.156 0.162776 0.107373 0.980803 255 0 0 255
-0.195223 -0.246958 2.157 -0.494819 0.0759868 0.865668 255 0 0 255
-0.189853 -0.247656 2.163 -0.558946 -0.0845399 0.824883 255 0 0 255
-0.184365 -0.248238 2.168 -0.0224744 -0.0455876 0.998707 255 0 0 255
-0.17819 -0.247904 2.165 0.0352966 -0.0503093 0.99811 255 0 0 255
-0.172428 -0.248143 2.167 -0.218488 0.0131402 0.975751 255 0 0 255
-0.166579 -0.248266 2.168 -0.529344 0.104424 0.841956 255 0 0 255
-0.161019 -0.248848 2.173 -0.541535 0.157038 0.825881 255 0 0 255
-0.155289 -0.2492 2.176 -0.498047 0.219903 0.838804 255 0 0 255
-0.149679 -0.249781 2.181 -0.786427 0.302627 0.538469 255 0 0 255
-0.144503 -0.251163 2.193 -0.884266 0.262205 0.386422 255 0 0 255
-0.139386 -0.252774 2.207 -0.905967 0.171066 0.387246 255 0 0 255
-0.134615 -0.255187 2.228 -0.939508 -0.10002 0.327598 255 0 0 255
-0.129844 -0.257829 2.251 -0.979308 -0.10487 0.173083 255 0 0 255
-0.076726 -0.266013 2.322 0.713404 0.512734 0.47766 255 0 0 255
-0.070155 -0.265215 2.315 0.670131 0.492899 0.554955 255 0 0 255
-0.063622 -0.264417 2.308 0.637266 0.413837 0.650101 255 0 0 255
-0.057152 -0.263733 2.302 0.638212 0.311429 0.704058 255 0 0 255
-0.050671 -0.26282 2.294 0.652851 0.237411 0.71932 255 0 0 255
-0.044291 -0.262249 2.289 0.765018 0.167009 0.621977 255 0 0 255
-0.037855 -0.261106 2.279 0.784492 0.0290209 0.61946 255 0 0 255
-0.031515 -0.260306 2.272 0.680269 0.0345228 0.732149 255 0 0 255
-0.025248 -0.259849 2.268 0.188742 0.251777 0.949202 255 0 0 255
-0.019035 -0.25985 2.268 0.0254183 0.312299 0.949644 255 0 0 255
-0.012817 -0.259737 2.267 0.0535104 0.310549 0.94905 255 0 0 255
-0.006607 -0.259737 2.267 0.0976977 0.187176 0.977456 255 0 0 255
-0.000396 -0.259508 2.265 0.0847442 0.101623 0.991207 255 0 0 255
0.005811 -0.259623 2.266 0.0799651 0.454946 0.886922 255 0 0 255
0.012007 -0.259393 2.264 0.0798757 0.548759 0.832156 255 0 0 255
0.018225 -0.259621 2.266 -0.151681 0.558571 0.81547 255 0 0 255
0.024454 -0.259849 2.268 -0.580056 0.350371 0.735374 255 0 0 255
0.030788 -0.260879 2.277 -0.546688 0.0289789 0.836834 255 0 0 255
0.037073 -0.261221 2.28 -0.122498 0.069278 0.990048 255 0 0 255
0.043299 -0.261104 2.279 0.0557794 -0.225107 0.972736 255 0 0 255
0.04952 -0.260987 2.278 0.363309 -0.202975 0.909289 255 0 0 255
-0.259789 -0.258354 2.205 0.83057 -0.156303 0.534531 255 0 0 255
-0.252849 -0.25743 2.197 0.613259 -0.304952 0.728641 255 0 0 255
-0.246064 -0.256623 2.19 0.69997 0.00395733 0.714162 255 0 0 255
-0.239207 -0.255698 2.182 0.644148 0.094818 0.759001 255 0 0 255
-0.233034 -0.255476 2.18 0.406074 0.0164103 0.913693 255 0 0 255
-0.226871 -0.255254 2.178 0.458475 -0.0905883 0.884079 255 0 0 255
-0.220515 -0.254797 2.174 0.596142 0.0219005 0.802581 255 0 0 255
-0.213983 -0.254106 2.168 0.616461 0.114066 0.77908 255 0 0 255
-0.207579 -0.253531 2.163 0.511209 0.18737 0.838783 255 0 0 255
-0.201388 -0.25319 2.16 0.15757 0.248245 0.955796 255 0 0 255
-0.195575 -0.253318 2.161 -0.34883 0.169149 0.921795 255 0 0 255
-0.189931 -0.25368 2.164 -0.543647 -0.0253002 0.838932 255 0 0 255
-0.184185 -0.253925 2.166 -0.116869 -0.102699 0.987823 255 0 0 255
-0.178098 -0.2537 2.164 -0.0539963 0.0279301 0.998151 255 0 0 255
-0.172419 -0.254062 2.167 -0.277621 0.0902102 0.956446 255 0 0 255
-0.166723 -0.254423 2.17 -0.583781 0.124944 0.80224 255 0 0 255
-0.161233 -0.255135 2.176 -0.63285 0.225517 0.740705 255 0 0 255
-0.155495 -0.255496 2.179 -0.616289 0.360506 0.700159 255 0 0 255
-0.150151 -0.256559 2.188 -0.810456 0.367618 0.45609 255 0 0 255
-0.145022 -0.258092 2.201 -0.865242 0.221544 0.449749 255 0 0 255
-0.13982 -0.259624 2.214 -0.935506 0.0647658 0.347325 255 0 0 255
-0.134608 -0.261274 2.228 -0.929377 -0.166504 0.329447 255 0 0 255
-0.129376 -0.26304 2.243 -0.953028 -0.16746 0.252379 255 0 0 255
-0.124775 -0.266331 2.271 -0.994932 0.0113919 0.0998973 255 0 0 255
-0.077152 -0.273883 2.335 0.823122 0.382769 0.419473 255 0 0 255
-0.070364 -0.272362 2.322 0.78885 0.335544 0.514904 255 0 0 255
-0.063701 -0.271076 2.311 0.762086 0.27846 0.584538 255 0 0 255
-0.057124 -0.269906 2.301 0.657896 0.319694 0.681886 255 0 0 255
-0.050756 -0.269557 2.298 0.640348 0.217445 0.736663 255 0 0 255
-0.044308 -0.268622 2.29 0.73967 0.270714 0.616119 255 0 0 255
-0.037836 -0.267216 2.278 0.759345 0.0782549 0.645966 255 0 0 255
-0.0315 -0.266397 2.271 0.476665 0.127292 0.86982 255 0 0 255
-0.025246 -0.266047 2.268 0.0820918 0.300171 0.950346 255 0 0 255
-0.019067 -0.266517 2.272 -0.00266403 0.358547 0.933508 255 0 0 255
-0.012833 -0.266284 2.27 0.0701945 0.377814 0.923217 255 0 0 255
-0.006609 -0.26605 2.268 0.0817578 0.343785 0.935483 255 0 0 255
-0.000397 -0.26605 2.268 -0.0456269 0.345402 0.937345 255 0 0 255
0.005818 -0.266167 2.269 -0.0461298 0.445652 0.894017 255 0 0 255
0.012038 -0.266284 2.27 -0.067252 0.477933 0.875818 255 0 0 255
0.01824 -0.266048 2.268 -0.0837715 0.477398 0.874685 255 0 0 255
0.024484 -0.266399 2.271 -0.387971 0.267494 0.882001 255 0 0 255
0.030786 -0.267101 2.277 -0.293929 -0.18856 0.937044 255 0 0 255
0.037055 -0.267334 2.279 -0.00423514 -0.321696 0.946833 255 0 0 255
0.043278 -0.267214 2.278 0.28784 -0.376667 0.880494 255 0 0 255
0.04943 -0.266742 2.274 0.188582 -0.483555 0.854758 255 0 0 255
-0.264709 -0.26328 2.196 0.664641 -0.270503 0.696477 255 0 0 255
-0.258715 -0.263294 2.196 0.472601 -0.501373 0.724758 255 0 0 255
-0.252375 -0.262947 2.193 0.377474 -0.395825 0.83716 255 0 0 255
-0.245938 -0.262481 2.189 0.644059 -0.134613 0.753039 255 0 0 255
-0.239303 -0.261775 2.183 0.627629 -0.134324 0.766837 255 0 0 255
-0.2327 -0.261068 2.177 0.507219 -0.119013 0.85356 255 0 0 255
-0.226442 -0.26072 2.174 0.454888 -0.109456 0.883797 255 0 0 255
-0.220199 -0.260373 2.171 0.528126 -0.0184215 0.848966 255 0 0 255
-0.213873 -0.259905 2.167 0.541939 0.174238 0.822158 255 0 0 255
-0.207568 -0.259437 2.163 0.316248 0.371499 0.872912 255 0 0 255
-0.201564 -0.259328 2.162 0.083071 0.462992 0.882461 255 0 0 255
-0.195655 -0.259339 2.162 -0.097092 0.457824 0.883725 255 0 0 255
-0.189833 -0.25947 2.163 -0.247609 0.324989 0.912728 255 0 0 255
-0.184175 -0.25984 2.166 -0.0816395 0.147507 0.985686 255 0 0 255
-0.17817 -0.25973 2.165 -0.134922 0.235621 0.962434 255 0 0 255
-0.172489 -0.2601 2.168 -0.294517 0.266864 0.917629 255 0 0 255
-0.166714 -0.260349 2.17 -0.60464 0.0984735 0.790388 255 0 0 255
-0.161298 -0.261198 2.177 -0.688591 0.164283 0.706295 255 0 0 255
-0.1557 -0.261807 2.182 -0.76043 0.309845 0.570738 255 0 0 255
-0.150417 -0.263015 2.192 -0.829005 0.269066 0.490259 255 0 0 255
-0.145014 -0.264104 2.201 -0.839963 0.108561 0.531674 255 0 0 255
-0.139623 -0.265312 2.211 -0.88648 0.0461995 0.460456 255 0 0 255
-0.134298 -0.266759 2.223 -0.918837 -0.137868 0.36977 255 0 0 255
-0.12908 -0.268567 2.238 -0.946471 -0.181695 0.266796 255 0 0 255
-0.123889 -0.270614 2.255 -0.981125 -0.091699 0.170248 255 0 0 255
-0.077412 -0.281222 2.343 0.852569 0.330022 0.40523 255 0 0 255
-0.07045 -0.279066 2.325 0.791125 0.37479 0.483377 255 0 0 255
-0.063725 -0.277509 2.312 0.715118 0.388366 0.581187 255 0 0 255
-0.057171 -0.276433 2.303 0.599577 0.410917 0.686771 255 0 0 255
-0.050775 -0.275956 2.299 0.640878 0.407178 0.650755 255 0 0 255
-0.044344 -0.275118 2.292 0.599393 0.360828 0.714514 255 0 0 255
-0.037834 -0.27344 2.278 0.646992 0.530381 0.547812 255 0 0 255
-0.03154 -0.272962 2.274 0.256785 0.492017 0.831854 255 0 0 255
-0.025278 -0.272604 2.271 0.0708828 0.520142 0.851133 255 0 0 255
-0.019083 -0.272965 2.274 0.0947743 0.519035 0.849482 255 0 0 255
-0.012844 -0.272726 2.272 0.136462 0.336806 0.931633 255 0 0 255
-0.006618 -0.272606 2.271 0.0710365 0.30011 0.951256 255 0 0 255
-0.000397 -0.272486 2.27 0.0824131 0.259938 0.962102 255 0 0 255
0.005823 -0.272606 2.271 -0.106328 0.241929 0.96445 255 0 0 255
0.012053 -0.272846 2.273 -0.126849 0.292632 0.947774 255 0 0 255
0.018279 -0.272845 2.273 -0.0980132 0.387897 0.916477 255 0 0 255
0.024505 -0.272844 2.273 -0.210931 0.306241 0.928291 255 0 0 255
0.030744 -0.272962 2.274 -0.236011 0.0111364 0.971686 255 0 0 255
0.036939 -0.27272 2.272 -0.0799198 -0.10328 0.991436 255 0 0 255
0.043143 -0.272598 2.271 0.247385 -0.176959 0.952621 255 0 0 255
0.04934 -0.272475 2.27 0.377162 -0.308253 0.873344 255 0 0 255
-0.269155 -0.27381 2.233 0.980999 0.180473 0.0712107 255 0 0 255
-0.257877 -0.268428 2.189 0.356701 -0.551674 0.753937 255 0 0 255
-0.251786 -0.26832 2.188 0.364052 -0.525589 0.768909 255 0 0 255
-0.2457 -0.268211 2.187 0.491042 -0.340084 0.80201 255 0 0 255
-0.239291 -0.267733 2.183 0.581144 -0.184725 0.792558 255 0 0 255
-0.232902 -0.267256 2.179 0.50731 -0.110346 0.85467 255 0 0 255
-0.226534 -0.266778 2.175 0.364938 -0.0161519 0.930892 255 0 0 255
-0.22039 -0.266545 2.173 0.394655 0.118987 0.911092 255 0 0 255
-0.214157 -0.266189 2.17 0.324523 0.360101 0.87465 255 0 0 255
-0.208036 -0.265955 2.168 0.211279 0.392524 0.895146 255 0 0 255
-0.202112 -0.265967 2.168 0.181765 0.27331 0.944597 255 0 0 255
-0.196096 -0.265855 2.167 -0.109488 0.33349 0.936374 255 0 0 255
-0.190261 -0.265989 2.168 -0.251075 0.207594 0.945445 255 0 0 255
-0.184334 -0.265999 2.168 -0.137819 0.37309 0.917502 255 0 0 255
-0.17849 -0.266132 2.169 -0.0957537 0.32247 0.941724 255 0 0 255
-0.172639 -0.266265 2.17 -0.146865 0.262812 0.953604 255 0 0 255
-0.166858 -0.26652 2.172 -0.651092 -0.00980531 0.758936 255 0 0 255
-0.161511 -0.267511 2.18 -0.840224 0.0538548 0.539559 255 0 0 255
-0.156119 -0.268502 2.188 -0.824747 0.185793 0.53411 255 0 0 255
-0.150683 -0.269492 2.196 -0.799651 0.0565486 0.597796 255 0 0 255
-0.145203 -0.270483 2.204 -0.827126 0.0584518 0.558969 255 0 0 255
-0.139678 -0.271473 2.212 -0.887651 0.0269546 0.459727 255 0 0 255
-0.13423 -0.272708 2.222 -0.926298 0.0634423 0.371413 255 0 0 255
-0.1289 -0.274311 2.235 -0.965706 0.023255 0.258596 255 0 0 255
-0.124102 -0.277264 2.259 -0.974741 0.142083 0.172313 255 0 0 255
-0.077605 -0.288359 2.349 0.874582 0.281153 0.395044 255 0 0 255
-0.070598 -0.286031 2.33 0.802868 0.399078 0.442876 255 0 0 255
-0.063887 -0.284561 2.318 0.686037 0.419349 0.594558 255 0 0 255
-0.057366 -0.283706 2.311 0.612068 0.489687 0.620951 255 0 0 255
-0.050993 -0.283463 2.309 0.593072 0.527456 0.608323 255 0 0 255
-0.044496 -0.282361 2.3 0.537976 0.569989 0.621043 255 0 0 255
-0.038048 -0.281259 2.291 0.491918 0.615642 0.615631 255 0 0 255
-0.031732 -0.280893 2.288 0.476964 0.668432 0.570705 255 0 0 255
-0.025388 -0.280035 2.281 0.40312 0.651435 0.64275 255 0 0 255
-0.019107 -0.279545 2.277 0.291038 0.459784 0.838985 255 0 0 255
-0.012848 -0.279055 2.273 0.189477 0.363261 0.912217 255 0 0 255
-0.006623 -0.279056 2.273 0.108858 0.450461 0.886135 255 0 0 255
-0.000398 -0.278933 2.272 0.0305221 0.505549 0.862258 255 0 0 255
0.00582 -0.278687 2.27 -0.0756422 0.405774 0.910838 255 0 0 255
0.012058 -0.279178 2.274 -0.1466 0.222133 0.963932 255 0 0 255
0.018286 -0.279177 2.274 -0.0808528 0.17523 0.981202 255 0 0 255
0.024546 -0.279544 2.277 -0.0864667 0.236639 0.967743 255 0 0 255
0.030769 -0.27942 2.276 -0.0604423 0.173478 0.982981 255 0 0 255
0.037018 -0.27954 2.277 -0.175475 0.314506 0.932896 255 0 0 255
0.043254 -0.279538 2.277 0.147584 0.427872 0.891709 255 0 0 255
0.049359 -0.278799 2.271 0.240075 0.312043 0.919235 255 0 0 255
-0.25692 -0.273399 2.181 0.319763 0.0840016 0.943766 255 0 0 255
-0.251082 -0.273538 2.182 0.378396 -0.0041308 0.925634 255 0 0 255
-0.245013 -0.273427 2.181 0.197797 0.0851977 0.976533 255 0 0 255
-0.238839 -0.273189 2.179 0.496202 -0.0288209 0.867728 255 0 0 255
-0.232568 -0.272826 2.176 0.359727 0.128188 0.92421 255 0 0 255
-0.226521 -0.272714 2.175 0.273757 0.13093 0.952846 255 0 0 255
-0.22058 -0.272726 2.175 0.365602 0.180797 0.913043 255 0 0 255
-0.214342 -0.272362 2.172 0.443828 0.13938 0.885206 255 0 0 255
-0.20812 -0.271998 2.169 0.356448 0.127927 0.925516 255 0 0 255
-0.201914 -0.271634 2.166 0.178312 0.065405 0.981798 255 0 0 255
-0.195904 -0.27152 2.165 -0.0851944 -0.0543919 0.994879 255 0 0 255
-0.190162 -0.271782 2.167 -0.169941 0.00237949 0.985452 255 0 0 255
-0.184409 -0.272043 2.169 -0.237001 0.12359 0.963616 255 0 0 255
-0.178726 -0.27243 2.172 -0.136823 0.197966 0.970613 255 0 0 255
-0.172629 -0.272189 2.17 -0.0395453 0.124659 0.991411 255 0 0 255
-0.166695 -0.272199 2.17 -0.278846 0.143753 0.949516 255 0 0 255
-0.161279 -0.273087 2.177 -0.850292 -0.0308107 0.525409 255 0 0 255
-0.15611 -0.274476 2.188 -0.831228 0.0243151 0.5554 255 0 0 255
-0.150606 -0.275363 2.195 -0.814235 0.0564707 0.577783 255 0 0 255
-0.144997 -0.276124 2.201 -0.82283 0.0596888 0.565144 255 0 0 255
-0.139544 -0.277262 2.21 -0.846653 0.224667 0.482394 255 0 0 255
-0.134162 -0.27865 2.221 -0.898482 0.149306 0.412841 255 0 0 255
-0.129008 -0.280665 2.237 -0.937072 0.282683 0.204907 255 0 0 255
-0.124864 -0.285189 2.273 -0.941195 0.33459 0.046912 255 0 0 255
-0.077865 -0.295778 2.357 0.898299 0.251404 0.360354 255 0 0 255
-0.070866 -0.293524 2.339 0.876471 0.234241 0.420631 255 0 0 255
-0.064104 -0.291896 2.326 0.755647 0.370816 0.539901 255 0 0 255
-0.057536 -0.290896 2.318 0.649461 0.402903 0.64488 255 0 0 255
-0.051012 -0.289895 2.31 0.623873 0.44333 0.643616 255 0 0 255
-0.044493 -0.288643 2.3 0.53565 0.556253 0.635343 255 0 0 255
-0.038128 -0.288144 2.296 0.542964 0.424033 0.724835 255 0 0 255
-0.031855 -0.288271 2.297 0.522369 0.439504 0.73073 255 0 0 255
-0.025498 -0.28752 2.291 0.657945 0.297693 0.691728 255 0 0 255
-0.019148 -0.286392 2.282 0.557768 0.21462 0.801769 255 0 0 255
-0.012865 -0.28564 2.276 0.256665 0.31448 0.913907 255 0 0 255
-0.006637 -0.285891 2.278 -0.0532885 0.515796 0.855053 255 0 0 255
-0.000399 -0.285892 2.278 0.0832111 0.535551 0.840393 255 0 0 255
0.00584 -0.285891 2.278 0.194065 0.416723 0.888077 255 0 0 255
0.012068 -0.28564 2.276 -0.0529219 0.233639 0.970882 255 0 0 255
0.018309 -0.285764 2.277 -0.271301 0.0913382 0.958151 255 0 0 255
0.024534 -0.285638 2.276 -0.139974 0.251382 0.957713 255 0 0 255
0.030767 -0.285636 2.276 -0.0895813 0.301724 0.949177 255 0 0 255
0.037049 -0.28601 2.279 -0.281272 0.525601 0.802888 255 0 0 255
0.043365 -0.28651 2.283 -0.197583 0.736679 0.646734 255 0 0 255
-0.25773 -0.280246 2.188 0.285823 0.35285 0.890956 255 0 0 255
-0.251873 -0.280388 2.189 0.168332 0.469625 0.86667 255 0 0 255
-0.245449 -0.27989 2.185 0.26433 0.356074 0.896293 255 0 0 255
-0.239373 -0.279776 2.184 0.492289 0.25958 0.830825 255 0 0 255
-0.232982 -0.279277 2.18 0.519708 0.17658 0.835896 255 0 0 255
-0.226925 -0.279162 2.179 0.254377 0.0218312 0.966859 255 0 0 255
-0.220872 -0.279046 2.178 0.381483 -0.0415826 0.92344 255 0 0 255
-0.214429 -0.278418 2.173 0.432319 -0.0985224 0.896322 255 0 0 255
-0.2083 -0.278174 2.171 0.401632 0.0708222 0.913059 255 0 0 255
-0.201995 -0.277673 2.167 0.298559 0.0995167 0.949189 255 0 0 255
-0.196074 -0.277685 2.167 -0.0548576 0.0858446 0.994797 255 0 0 255
-0.190151 -0.277696 2.167 -0.250114 0.102452 0.962781 255 0 0 255
-0.184398 -0.277963 2.169 -0.355132 0.110413 0.928273 255 0 0 255
-0.178798 -0.278487 2.173 -0.111509 0.122241 0.986216 255 0 0 255
-0.172698 -0.278241 2.171 0.0101666 0.150951 0.988489 255 0 0 255
-0.166762 -0.278251 2.171 -0.481186 0.116359 0.868861 255 0 0 255
-0.161196 -0.278901 2.176 -0.707769 0.0913028 0.700519 255 0 0 255
-0.15603 -0.280321 2.187 -0.872265 -0.00523261 0.489005 255 0 0 255
-0.150597 -0.281355 2.195 -0.815106 0.188826 0.547674 255 0 0 255
-0.145252 -0.282646 2.205 -0.863775 0.234293 0.446093 255 0 0 255
-0.140041 -0.284321 2.218 -0.811177 0.462259 0.358202 255 0 0 255
-0.134697 -0.285867 2.23 -0.840283 0.423044 0.339056 255 0 0 255
-0.129577 -0.288054 2.247 -0.87081 0.43938 0.220534 255 0 0 255
-0.078983 -0.306574 2.391 0.993935 -0.105643 0.0305524 255 0 0 255
-0.070953 -0.300295 2.342 0.883564 0.219876 0.413485 255 0 0 255
-0.064265 -0.299017 2.332 0.744865 0.305433 0.593201 255 0 0 255
-0.057706 -0.298123 2.325 0.662568 0.371287 0.650499 255 0 0 255
-0.051142 -0.296973 2.316 0.642785 0.379921 0.665197 255 0 0 255
-0.044684 -0.296206 2.31 0.710512 0.320816 0.626299 255 0 0 255
-0.038259 -0.295439 2.304 0.708419 0.239481 0.663921 255 0 0 255
-0.031908 -0.295057 2.301 0.601668 0.0802759 0.794702 255 0 0 255
-0.025496 -0.293776 2.291 0.820255 -0.0763309 0.566882 255 0 0 255
-0.019147 -0.292624 2.282 0.691978 -0.208756 0.691077 255 0 0 255
-0.012886 -0.292368 2.28 0.0953452 0.0175577 0.995289 255 0 0 255
-0.006646 -0.292497 2.281 -0.212783 0.171064 0.962009 255 0 0 255
-0.000399 -0.292497 2.281 0.0810323 0.21726 0.972745 255 0 0 255
0.005837 -0.291984 2.277 0.320116 0.187839 0.92857 255 0 0 255
0.012051 -0.291471 2.273 0.169299 0.141138 0.975406 255 0 0 255
0.018292 -0.291726 2.275 -0.134887 0.159263 0.977978 255 0 0 255
0.024576 -0.292366 2.28 -0.419109 0.392978 0.818484 255 0 0 255
0.030833 -0.292492 2.281 -0.36105 0.546106 0.755918 255 0 0 255
0.037176 -0.29326 2.287 -0.41185 0.658693 0.629685 255 0 0 255
0.043591 -0.294283 2.295 -0.488452 0.678727 0.548402 255 0 0 255
-0.257951 -0.286476 2.19 0.0180663 0.661888 0.749385 255 0 0 255
-0.252434 -0.287014 2.194 0.0707266 0.700445 0.710193 255 0 0 255
-0.245884 -0.286374 2.189 0.16974 0.689349 0.704263 255 0 0 255
-0.239689 -0.286127 2.187 0.483661 0.484842 0.728697 255 0 0 255
-0.232862 -0.285094 2.179 0.573411 0.240302 0.783234 255 0 0 255
-0.226495 -0.284583 2.175 0.47223 0.00205803 0.881473 255 0 0 255
-0.220453 -0.284466 2.174 0.437389 -0.204038 0.87582 255 0 0 255
-0.214219 -0.284086 2.171 0.346873 -0.134583 0.928206 255 0 0 255
-0.208288 -0.284098 2.171 0.310352 -0.0383134 0.949849 255 0 0 255
-0.201984 -0.283587 2.167 0.158058 0.155158 0.975163 255 0 0 255
-0.196153 -0.283729 2.168 -0.124933 0.200238 0.971749 255 0 0 255
-0.190228 -0.283741 2.168 -0.162333 0.248644 0.954895 255 0 0 255
-0.184557 -0.284144 2.171 -0.288521 0.118404 0.950124 255 0 0 255
-0.178787 -0.284417 2.173 -0.114786 0.21063 0.970803 255 0 0 255
-0.172767 -0.284297 2.172 -0.127968 0.353743 0.926548 255 0 0 255
-0.166829 -0.284307 2.172 -0.287744 0.413945 0.863628 255 0 0 255
-0.161334 -0.285102 2.178 -0.655577 0.400131 0.640401 255 0 0 255
-0.15602 -0.28629 2.187 -0.822854 0.335217 0.458847 255 0 0 255
-0.150725 -0.287608 2.197 -0.774937 0.429347 0.463825 255 0 0 255
-0.14577 -0.289712 2.213 -0.779229 0.527848 0.337902 255 0 0 255
-0.140916 -0.292208 2.232 -0.745996 0.593983 0.301121 255 0 0 255
-0.135837 -0.294442 2.249 -0.750147 0.607142 0.262025 255 0 0 255
-0.130722 -0.296807 2.267 -0.833043 0.512493 0.208305 255 0 0 255
-0.078087 -0.309566 2.364 0.890813 0.29326 0.347061 255 0 0 255
-0.070888 -0.306427 2.34 0.734978 0.372446 0.566649 255 0 0 255
-0.064179 -0.304991 2.329 0.684897 0.357448 0.634938 255 0 0 255
-0.057703 -0.304471 2.325 0.63475 0.382677 0.671306 255 0 0 255
-0.051161 -0.303427 2.317 0.641162 0.426349 0.638074 255 0 0 255
-0.04472 -0.302775 2.312 0.752356 0.254888 0.607448 255 0 0 255
-0.03824 -0.301599 2.303 0.779939 0.159753 0.605123 255 0 0 255
-0.031782 -0.300161 2.292 0.856002 -0.0659088 0.512755 255 0 0 255
-0.025405 -0.298984 2.283 0.71864 -0.171025 0.674023 255 0 0 255
-0.019112 -0.29833 2.278 0.195195 -0.0972652 0.975929 255 0 0 255
-0.012869 -0.2982 2.277 -0.0887546 0.0783368 0.992968 255 0 0 255
-0.006642 -0.298594 2.28 -0.215129 0.00592597 0.976568 255 0 0 255
-0.000399 -0.298856 2.282 0.162762 0.134433 0.977464 255 0 0 255
0.005844 -0.298594 2.28 0.30177 0.216786 0.928407 255 0 0 255
0.012072 -0.298201 2.277 0.107164 0.24197 0.964348 255 0 0 255
0.018307 -0.2982 2.277 -0.314186 0.314358 0.895805 255 0 0 255
0.024628 -0.299246 2.285 -0.463194 0.53986 0.702853 255 0 0 255
0.030939 -0.299768 2.289 -0.525771 0.603706 0.599253 255 0 0 255
0.037288 -0.300421 2.294 -0.491251 0.671794 0.554406 255 0 0 255
0.04374 -0.301597 2.303 -0.523739 0.666354 0.530727 255 0 0 255
-0.258408 -0.292984 2.194 0.0707266 0.700445 0.710193 255 0 0 255
-0.253455 -0.2942 2.203 0.110454 0.817453 0.565305 255 0 0 255
-0.247218 -0.293948 2.201 0.262686 0.797794 0.542698 255 0 0 255
-0.240551 -0.293161 2.195 0.505766 0.65601 0.560225 255 0 0 255
-0.233276 -0.291572 2.183 0.684068 0.359248 0.634817 255 0 0 255
-0.226586 -0.29065 2.176 0.478174 0.0866437 0.873981 255 0 0 255
-0.220339 -0.290263 2.173 0.375529 -0.0145681 0.926696 255 0 0 255
-0.214009 -0.289741 2.169 0.245196 -0.0667515 0.967173 255 0 0 255
-0.208276 -0.290021 2.171 0.256677 -0.0192763 0.966305 255 0 0 255
-0.202065 -0.289633 2.168 0.030022 0.172982 0.984467 255 0 0 255
-0.196412 -0.290045 2.171 -0.154667 0.238165 0.95883 255 0 0 255
-0.190304 -0.28979 2.169 -0.12367 0.235894 0.963877 255 0 0 255
-0.184631 -0.290202 2.172 -0.215174 0.121133 0.969034 255 0 0 255
-0.178694 -0.290213 2.172 -0.273941 0.0952399 0.957019 255 0 0 255
-0.173075 -0.290758 2.176 -0.332323 0.567096 0.753634 255 0 0 255
-0.167356 -0.291169 2.179 -0.545336 0.631839 0.550807 255 0 0 255
-0.162287 -0.292783 2.191 -0.596232 0.684928 0.418785 255 0 0 255
-0.156724 -0.293594 2.197 -0.600108 0.629543 0.493504 255 0 0 255
-0.151539 -0.295208 2.209 -0.723554 0.586551 0.363905 255 0 0 255
-0.146617 -0.297489 2.226 -0.766618 0.558752 0.316375 255 0 0 255
-0.141854 -0.300304 2.247 -0.782958 0.562302 0.266072 255 0 0 255
-0.136916 -0.302986 2.267 -0.831723 0.503368 0.234218 255 0 0 255
-0.071005 -0.31335 2.344 0.717734 0.497847 0.486833 255 0 0 255
-0.06445 -0.312686 2.339 0.648206 0.460594 0.606369 255 0 0 255
-0.057848 -0.31162 2.331 0.615258 0.460508 0.639836 255 0 0 255
-0.051356 -0.310955 2.326 0.584719 0.514112 0.627529 255 0 0 255
-0.044852 -0.310022 2.319 0.701221 0.403955 0.587461 255 0 0 255
-0.038254 -0.30802 2.304 0.776775 0.13046 0.616117 255 0 0 255
-0.031807 -0.306685 2.294 0.830764 -0.103243 0.546966 255 0 0 255
-0.025393 -0.305082 2.282 0.618744 0.203188 0.758861 255 0 0 255
-0.019119 -0.304683 2.279 0.21942 0.232219 0.947591 255 0 0 255
-0.012885 -0.304817 2.28 0.0591126 0.225434 0.972464 255 0 0 255
-0.006645 -0.304952 2.281 -0.238242 0.0748965 0.968314 255 0 0 255
-0.000399 -0.305086 2.282 -0.0565606 0.0993085 0.993448 255 0 0 255
0.005841 -0.304684 2.279 0.139586 0.347401 0.927269 255 0 0 255
0.012076 -0.30455 2.278 0.0851933 0.453826 0.887009 255 0 0 255
0.01833 -0.304817 2.28 -0.461231 0.521004 0.718207 255 0 0 255
0.024691 -0.306286 2.291 -0.562428 0.577897 0.591362 255 0 0 255
0.031072 -0.307354 2.299 -0.591078 0.575577 0.565099 255 0 0 255
0.037497 -0.308421 2.307 -0.600231 0.556294 0.574683 255 0 0 255
0.043965 -0.309488 2.315 -0.821127 0.249394 0.513374 255 0 0 255
-0.257122 -0.304569 2.235 0.753917 0.53338 0.383557 255 0 0 255
-0.249 -0.302131 2.217 0.470571 0.812648 0.343752 255 0 0 255
-0.241852 -0.300783 2.207 0.618514 0.653945 0.435655 255 0 0 255
-0.23401 -0.29848 2.19 0.594135 0.527491 0.607254 255 0 0 255
-0.227197 -0.297403 2.182 0.54406 0.511261 0.66529 255 0 0 255
-0.220732 -0.296735 2.177 0.539769 0.393139 0.744373 255 0 0 255
-0.214292 -0.296067 2.172 0.342307 0.271542 0.899495 255 0 0 255
-0.208167 -0.295807 2.17 0.203518 0.245373 0.947825 255 0 0 255
-0.202053 -0.295547 2.168 0.00881765 0.305958 0.952004 255 0 0 255
-0.196581 -0.296241 2.173 -0.147433 0.582885 0.799067 255 0 0 255
-0.19038 -0.295843 2.17 -0.149563 0.383558 0.911326 255 0 0 255
-0.18462 -0.296127 2.172 -0.152183 0.425695 0.891977 255 0 0 255
-0.178848 -0.296411 2.174 -0.488914 0.488487 0.722734 255 0 0 255
-0.173701 -0.297786 2.184 -0.551944 0.663276 0.505394 255 0 0 255
-0.168498 -0.29916 2.194 -0.562159 0.714815 0.415954 255 0 0 255
-0.16324 -0.300534 2.204 -0.451766 0.785492 0.422976 255 0 0 255
-0.157357 -0.300816 2.206 -0.461293 0.76318 0.45251 255 0 0 255
-0.151941 -0.302053 2.215 -0.574175 0.688713 0.442717 255 0 0 255
-0.147267 -0.304926 2.236 -0.770318 0.557955 0.308701 255 0 0 255
-0.142603 -0.308072 2.259 -0.805354 0.52403 0.277122 255 0 0 255
-0.137873 -0.311354 2.283 -0.818397 0.516563 0.251774 255 0 0 255
-0.071485 -0.32193 2.36 0.767863 0.342648 0.541275 255 0 0 255
-0.064666 -0.320161 2.347 0.59337 0.533229 0.602974 255 0 0 255
-0.058043 -0.319073 2.339 0.505153 0.625768 0.594336 255 0 0 255
-0.051485 -0.318122 2.332 0.543961 0.617867 0.567756 255 0 0 255
-0.044927 -0.316897 2.323 0.636768 0.541037 0.549368 255 0 0 255
-0.038252 -0.314308 2.304 0.780108 0.399604 0.481402 255 0 0 255
-0.031833 -0.313219 2.296 0.676882 0.442796 0.588016 255 0 0 255
-0.025458 -0.312129 2.288 0.626002 0.502809 0.596074 255 0 0 255
-0.019177 -0.311858 2.286 0.287006 0.666646 0.687903 255 0 0 255
-0.01289 -0.311177 2.281 0.122026 0.533953 0.836663 255 0 0 255
-0.006641 -0.311041 2.28 -0.136408 0.247234 0.959306 255 0 0 255
-0.000399 -0.311451 2.283 6.34477e-05 0.243247 0.969964 255 0 0 255
0.005854 -0.311587 2.284 -0.112062 0.465831 0.877749 255 0 0 255
0.012113 -0.311723 2.285 -0.213169 0.561972 0.799216 255 0 0 255
0.018401 -0.312267 2.289 -0.494342 0.581697 0.645953 255 0 0 255
0.024754 -0.313357 2.297 -0.696664 0.395155 0.598758 255 0 0 255
0.031205 -0.314993 2.309 -0.698534 0.176008 0.693593 255 0 0 255
0.037592 -0.315536 2.313 -0.774131 0.0063629 0.632993 255 0 0 255
0.04419 -0.317443 2.327 -0.878763 0.0151332 0.477019 255 0 0 255
-0.252691 -0.312764 2.25 0.907842 0.246636 0.339108 255 0 0 255
-0.244796 -0.310554 2.234 0.733069 0.548882 0.401669 255 0 0 255
-0.236026 -0.307094 2.209 0.817669 0.313595 0.482779 255 0 0 255
-0.228121 -0.304605 2.191 0.272114 0.136765 0.952496 255 0 0 255
-0.221428 -0.303646 2.184 0.414767 0.452158 0.789634 255 0 0 255
-0.214575 -0.302408 2.175 0.388986 0.584855 0.711783 255 0 0 255
-0.208538 -0.302282 2.174 -0.0440304 0.606553 0.793823 255 0 0 255
-0.202506 -0.302155 2.173 -0.0727224 0.66483 0.743447 255 0 0 255
-0.197293 -0.30328 2.181 -0.134379 0.588852 0.796992 255 0 0 255
-0.190983 -0.302736 2.177 -0.0871739 0.69469 0.714007 255 0 0 255
-0.185204 -0.303026 2.179 -0.299576 0.703485 0.644486 255 0 0 255
-0.179577 -0.303593 2.183 -0.478579 0.663147 0.575498 255 0 0 255
-0.174883 -0.305829 2.199 -0.682916 0.638295 0.355255 255 0 0 255
-0.169793 -0.307509 2.211 -0.560765 0.671705 0.484101 255 0 0 255
-0.164267 -0.308493 2.218 -0.479323 0.738412 0.47434 255 0 0 255
-0.158417 -0.308921 2.221 -0.483937 0.753314 0.445335 255 0 0 255
-0.152755 -0.309765 2.227 -0.582502 0.71849 0.380084 255 0 0 255
-0.147916 -0.312418 2.246 -0.737067 0.614275 0.281778 255 0 0 255
-0.143099 -0.315348 2.267 -0.792618 0.560553 0.23987 255 0 0 255
-0.138529 -0.319113 2.294 -0.872456 0.425184 0.240912 255 0 0 255
-0.07148 -0.32837 2.36 0.626267 0.412681 0.661426 255 0 0 255
-0.064855 -0.327539 2.354 0.573901 0.4529 0.682289 255 0 0 255
-0.058188 -0.326291 2.345 0.354779 0.579711 0.73353 255 0 0 255
-0.051747 -0.326155 2.344 0.456478 0.657537 0.599394 255 0 0 255
-0.045137 -0.324767 2.334 0.575299 0.630866 0.520614 255 0 0 255
-0.038465 -0.322404 2.317 0.679608 0.616169 0.39808 255 0 0 255
-0.031983 -0.321015 2.307 0.576866 0.650774 0.493679 255 0 0 255
-0.025579 -0.319904 2.299 0.47251 0.675408 0.566178 255 0 0 255
-0.019251 -0.319349 2.295 0.411627 0.647218 0.641616 255 0 0 255
-0.012945 -0.318793 2.291 0.347459 0.641552 0.683874 255 0 0 255
-0.006659 -0.318098 2.286 0.154232 0.579996 0.799886 255 0 0 255
-0.0004 -0.317959 2.285 -0.0995984 0.481622 0.870701 255 0 0 255
0.005853 -0.31782 2.284 -0.121046 0.438585 0.8905 255 0 0 255
0.012133 -0.318515 2.289 -0.410922 0.348534 0.842417 255 0 0 255
0.018448 -0.319349 2.295 -0.665339 0.256406 0.701128 255 0 0 255
0.024796 -0.320182 2.301 -0.690098 -0.0857969 0.718613 255 0 0 255
0.03119 -0.321155 2.308 -0.53377 -0.329636 0.778736 255 0 0 255
0.037589 -0.321848 2.313 -0.470096 -0.1199 0.874434 255 0 0 255
0.044244 -0.324211 2.33 -0.862317 -0.0440333 0.504451 255 0 0 255
-0.25335 -0.319748 2.256 0.951594 0.208271 0.226036 255 0 0 255
-0.246096 -0.318346 2.246 0.951594 0.208271 0.226036 255 0 0 255
-0.236546 -0.313825 2.214 0.916732 0.215498 0.336397 255 0 0 255
-0.228419 -0.311004 2.194 -0.568434 0.42115 0.706765 255 0 0 255
-0.221921 -0.31031 2.189 -0.0312659 0.0265166 0.999159 255 0 0 255
-0.215548 -0.309756 2.185 0.0636137 0.660188 0.748402 255 0 0 255
-0.209293 -0.309344 2.182 0.0526063 0.728132 0.683415 255 0 0 255
-0.203239 -0.309215 2.181 0.0410766 0.669103 0.742034 255 0 0 255
-0.197552 -0.309653 2.184 -0.0432747 0.502374 0.863567 255 0 0 255
-0.191234 -0.309098 2.18 -0.135915 0.493597 0.859005 255 0 0 255
-0.185787 -0.309961 2.186 -0.382634 0.670403 0.635729 255 0 0 255
-0.180389 -0.310965 2.193 -0.660108 0.599931 0.45204 255 0 0 255
-0.175667 -0.313245 2.209 -0.814811 0.352369 0.460347 255 0 0 255
-0.170397 -0.314674 2.219 -0.756154 0.362888 0.544559 255 0 0 255
-0.164923 -0.315819 2.227 -0.662325 0.563423 0.493842 255 0 0 255
-0.159476 -0.317106 2.236 -0.644582 0.67859 0.352179 255 0 0 255
-0.15398 -0.318392 2.245 -0.701375 0.655057 0.281022 255 0 0 255
-0.148894 -0.320671 2.261 -0.694941 0.653138 0.300778 255 0 0 255
-0.143974 -0.323517 2.281 -0.790183 0.540814 0.288325 255 0 0 255
-0.139426 -0.327498 2.309 -0.924064 0.249501 0.289576 255 0 0 255
-0.078925 -0.339059 2.39 0.831972 -0.179969 0.524818 255 0 0 255
-0.071475 -0.334808 2.36 0.618447 0.388412 0.683125 255 0 0 255
-0.064823 -0.33382 2.353 0.478888 0.525049 0.703555 255 0 0 255
-0.058333 -0.33354 2.351 0.284581 0.660699 0.694615 255 0 0 255
-0.051876 -0.333402 2.35 0.284581 0.660699 0.694615 255 0 0 255
-0.045385 -0.33298 2.347 0.535558 0.578355 0.615373 255 0 0 255
-0.038712 -0.330854 2.332 0.662809 0.60446 0.441942 255 0 0 255
-0.032203 -0.32958 2.323 0.610683 0.670039 0.422036 255 0 0 255
-0.025677 -0.327453 2.308 0.539547 0.689588 0.48307 255 0 0 255
-0.0193 -0.326462 2.301 0.502976 0.65755 0.56093 255 0 0 255
-0.012956 -0.325328 2.293 0.442742 0.567518 0.694192 255 0 0 255
-0.00667 -0.324903 2.29 0.289753 0.492097 0.820905 255 0 0 255
-0.0004 -0.324761 2.289 0.237517 0.494608 0.836032 255 0 0 255
0.005866 -0.324761 2.289 -0.116581 0.4086 0.905238 255 0 0 255
0.012159 -0.32547 2.294 -0.422013 0.144715 0.894965 255 0 0 255
0.018479 -0.326178 2.299 -0.524949 -0.000205553 0.851134 255 0 0 255
0.024816 -0.326744 2.303 -0.64699 -0.191318 0.738106 255 0 0 255
0.031174 -0.32731 2.307 -0.545213 -0.347843 0.762724 255 0 0 255
0.037506 -0.327449 2.308 -0.274427 -0.608117 0.744905 255 0 0 255
0.043919 -0.328156 2.313 -0.886968 -0.31789 0.335013 255 0 0 255
-0.252324 -0.324598 2.247 0.951594 0.208271 0.226036 255 0 0 255
-0.245314 -0.323458 2.239 0.946493 0.18723 0.26286 255 0 0 255
-0.233433 -0.315671 2.185 -0.619439 0.286845 0.730764 255 0 0 255
-0.22726 -0.315397 2.183 0.109014 -0.0295424 0.993601 255 0 0 255
-0.222009 -0.316422 2.19 0.14998 0.56759 0.809536 255 0 0 255
-0.21593 -0.316291 2.189 0.259997 0.407839 0.875253 255 0 0 255
-0.210047 -0.316449 2.19 0.210346 0.465094 0.859909 255 0 0 255
-0.203692 -0.315884 2.186 0.134479 0.508929 0.850239 255 0 0 255
-0.19763 -0.315752 2.185 0.00642168 0.466321 0.884592 255 0 0 255
-0.19166 -0.315765 2.185 -0.23806 0.551194 0.799696 255 0 0 255
-0.186455 -0.317078 2.194 -0.537901 0.591231 0.600923 255 0 0 255
-0.180953 -0.317957 2.2 -0.749675 0.386152 0.53747 255 0 0 255
-0.175815 -0.319558 2.211 -0.83959 0.20778 0.501912 255 0 0 255
-0.170463 -0.32087 2.22 -0.852811 0.2307 0.468498 255 0 0 255
-0.165505 -0.323049 2.235 -0.820304 0.400785 0.408011 255 0 0 255
-0.160678 -0.325661 2.253 -0.826979 0.482385 0.288809 255 0 0 255
-0.155616 -0.327984 2.269 -0.726988 0.57041 0.382257 255 0 0 255
-0.15007 -0.32944 2.279 -0.824484 0.290105 0.485866 255 0 0 255
-0.144785 -0.331618 2.294 -0.856835 0.377289 0.351406 255 0 0 255
-0.1399 -0.334952 2.317 -0.947559 0.154408 0.279806 255 0 0 255
-0.078854 -0.34529 2.388 0.807313 -0.314671 0.499227 255 0 0 255
-0.071713 -0.342403 2.368 0.479624 0.408392 0.776645 255 0 0 255
-0.065094 -0.341684 2.363 0.2929 0.521527 0.801386 255 0 0 255
-0.058528 -0.34111 2.359 0.204764 0.638239 0.742107 255 0 0 255
-0.052093 -0.341258 2.36 0.381911 0.485744 0.786255 255 0 0 255
-0.045518 -0.340394 2.354 0.626187 0.408688 0.663976 255 0 0 255
-0.038892 -0.338806 2.343 0.694966 0.45847 0.553921 255 0 0 255
-0.03234 -0.337363 2.333 0.571244 0.591459 0.569084 255 0 0 255
-0.025831 -0.335774 2.322 0.620605 0.648488 0.44081 255 0 0 255
-0.019416 -0.334763 2.315 0.631896 0.633913 0.445939 255 0 0 255
-0.013011 -0.333029 2.303 0.538463 0.627796 0.562076 255 0 0 255
-0.00669 -0.332162 2.297 0.401738 0.602335 0.689782 255 0 0 255
-0.000401 -0.331439 2.292 0.200213 0.550293 0.810612 255 0 0 255
0.005866 -0.331005 2.289 -0.0466044 0.478408 0.8769 255 0 0 255
0.012147 -0.331438 2.292 -0.281723 0.252138 0.925775 255 0 0 255
0.018429 -0.331582 2.293 -0.488355 -0.0191504 0.872435 255 0 0 255
0.02476 -0.332304 2.298 -0.580146 -0.162862 0.798064 255 0 0 255
0.031091 -0.332736 2.301 -0.120747 -0.453816 0.882877 255 0 0 255
0.037454 -0.333312 2.305 -0.48648 -0.31764 0.813905 255 0 0 255
0.04365 -0.332441 2.299 -0.56436 -0.250702 0.786541 255 0 0 255
-0.240807 -0.323525 2.198 -0.394104 0.638221 0.661329 255 0 0 255
-0.233846 -0.322215 2.189 -0.348336 0.634638 0.689852 255 0 0 255
-0.228703 -0.323408 2.197 0.132881 0.558203 0.818994 255 0 0 255
-0.222502 -0.323128 2.195 0.0960169 0.663105 0.742343 255 0 0 255
-0.21631 -0.322847 2.193 0.236523 0.324325 0.915898 255 0 0 255
-0.210225 -0.322714 2.192 0.138918 0.427169 0.893436 255 0 0 255
-0.203959 -0.322285 2.189 0.108796 0.52675 0.843029 255 0 0 255
-0.197889 -0.322151 2.188 0.132226 0.525026 0.840752 255 0 0 255
-0.192174 -0.322605 2.191 -0.335496 0.691144 0.640127 255 0 0 255
-0.187038 -0.32409 2.201 -0.414557 0.644902 0.642062 255 0 0 255
-0.18127 -0.324544 2.204 -0.498549 0.503592 0.70558 255 0 0 255
-0.175644 -0.325291 2.209 -0.845633 0.114766 0.521281 255 0 0 255
