ply
format ascii 1.0
comment VCGLIB generated
element vertex 726
property float x
property float y
property float z
property float nx
property float ny
property float nz
property uchar red
property uchar green
property uchar blue
property uchar alpha
element face 0
property list uchar int vertex_indices
end_header
-0.222762 0.499207 2.22721 0.395193 -0.305626 -0.866265 0 255 0 255
-0.207556 0.499534 2.22821 0.299025 -0.143667 -0.943368 0 255 0 255
-0.198483 0.500751 2.23374 0.447192 -0.0123454 -0.894353 0 255 0 255
-0.185881 0.50148 2.23676 0.340244 -0.236444 -0.910125 0 255 0 255
-0.174143 0.502344 2.24046 0.217845 -0.532781 -0.817733 0 255 0 255
-0.159747 0.502851 2.24233 0.297533 -0.48242 -0.82386 0 255 0 255
-0.149741 0.503986 2.2474 0.497342 -0.278272 -0.821715 0 255 0 255
-0.140607 0.505253 2.25312 0.359172 -0.138108 -0.922996 0 255 0 255
-0.130579 0.506406 2.25826 0.385651 -0.184617 -0.903985 0 255 0 255
-0.116119 0.506964 2.26034 0.308657 -0.330761 -0.891812 0 255 0 255
-0.10164 0.507537 2.26249 0.13274 -0.755633 -0.641404 0 255 0 255
-0.08537 0.507884 2.26348 -0.123173 -0.46784 -0.875188 0 255 0 255
-0.071736 0.508607 2.26637 0.0568657 -0.519034 -0.85286 0 255 0 255
-0.345186 0.468559 2.143 0.821999 -0.10999 0.558767 255 0 0 255
-0.3373 0.46574 2.13 0.61489 0.275617 0.738882 255 0 0 255
-0.330729 0.464669 2.125 0.586045 0.377255 0.717098 255 0 0 255
-0.324184 0.463598 2.12 0.442387 0.402605 0.801376 255 0 0 255
-0.317967 0.462965 2.117 0.222205 0.341938 0.913073 255 0 0 255
-0.312354 0.463206 2.118 0.310833 0.289015 0.905458 255 0 0 255
-0.306012 0.462353 2.114 0.429241 0.276685 0.859766 255 0 0 255
-0.299975 0.461937 2.112 0.351315 0.302265 0.886123 255 0 0 255
-0.293949 0.461521 2.11 0.190658 0.361618 0.912624 255 0 0 255
-0.288342 0.46176 2.111 -0.0561153 0.460953 0.885648 255 0 0 255
-0.282595 0.461781 2.111 0.142838 0.537722 0.830934 255 0 0 255
-0.276192 0.460708 2.106 0.354161 0.611457 0.707595 255 0 0 255
-0.270329 0.460509 2.105 0.166477 0.709966 0.684277 255 0 0 255
-0.264345 0.460091 2.103 0.0406057 0.58967 0.806623 255 0 0 255
-0.258986 0.460767 2.106 -0.341782 0.496491 0.797923 255 0 0 255
-0.25337 0.461005 2.107 0.00503337 0.439846 0.898059 255 0 0 255
-0.247395 0.460586 2.105 0.307212 0.316873 0.897336 255 0 0 255
-0.24143 0.460167 2.103 0.382129 0.176146 0.907166 255 0 0 255
-0.235364 0.459529 2.1 0.28191 0.154764 0.946877 255 0 0 255
-0.229532 0.459328 2.099 0.355884 0.0559421 0.932854 255 0 0 255
-0.223384 0.45847 2.095 0.282496 0.0181288 0.959097 255 0 0 255
-0.217674 0.458487 2.095 0.0879299 0.0207556 0.995911 255 0 0 255
-0.211963 0.458503 2.095 -0.0593451 0.107811 0.992399 255 0 0 255
-0.20635 0.458738 2.096 -0.0587425 0.0580041 0.996587 255 0 0 255
-0.200539 0.458535 2.095 0.121533 -0.0236522 0.992306 255 0 0 255
-0.194734 0.458332 2.094 0.192924 -0.16287 0.967602 255 0 0 255
-0.188933 0.458128 2.093 0.151651 -0.220942 0.963424 255 0 0 255
-0.18305 0.457705 2.091 0.00382032 -0.16584 0.986145 255 0 0 255
-0.177431 0.457938 2.092 -0.0565428 -0.0441708 0.997423 255 0 0 255
-0.171642 0.457733 2.091 0.0737335 -0.0272164 0.996907 255 0 0 255
-0.165859 0.457528 2.09 0.0733966 -0.159622 0.984446 255 0 0 255
-0.160233 0.45776 2.091 0.0990628 -0.261331 0.960153 255 0 0 255
-0.154454 0.457554 2.09 -0.160257 -0.307904 0.937823 255 0 0 255
-0.149036 0.458442 2.094 -0.429303 -0.13585 0.892885 255 0 0 255
-0.143458 0.458891 2.096 -0.39595 -0.0363186 0.917554 255 0 0 255
-0.137869 0.459341 2.098 -0.117032 -0.0435452 0.992173 255 0 0 255
-0.13208 0.459133 2.097 -0.0599796 -0.0993691 0.993241 255 0 0 255
-0.126417 0.459362 2.098 0.00182005 -0.0480434 0.998844 255 0 0 255
-0.120747 0.459591 2.099 0.0331864 0.108491 0.993543 255 0 0 255
-0.115017 0.459601 2.099 0.387728 0.0929936 0.917071 255 0 0 255
-0.108922 0.458077 2.092 0.657597 0.0979074 0.746981 255 0 0 255
-0.102964 0.456991 2.087 0.579416 0.180014 0.794904 255 0 0 255
-0.097126 0.456343 2.084 0.343205 0.364044 0.865842 255 0 0 255
-0.091392 0.456132 2.083 0.176164 0.389429 0.904053 255 0 0 255
-0.085663 0.45592 2.082 0.0934372 0.34846 0.932655 255 0 0 255
-0.079977 0.455927 2.082 -0.0300109 0.349848 0.936326 255 0 0 255
-0.074292 0.455933 2.082 0.0923948 0.311413 0.945772 255 0 0 255
-0.068573 0.45572 2.081 -0.0300674 0.347256 0.937288 255 0 0 255
-0.06292 0.455945 2.082 -0.303485 0.218585 0.927425 255 0 0 255
-0.057316 0.456607 2.085 -0.507558 0.201815 0.837649 255 0 0 255
-0.05172 0.457487 2.089 -0.463773 0.148213 0.873469 255 0 0 255
-0.046059 0.457929 2.091 -0.292375 0.11788 0.949011 255 0 0 255
-0.040405 0.45859 2.094 -0.0915928 0.0426709 0.994882 255 0 0 255
-0.034669 0.458374 2.093 -0.059917 -0.00179725 0.998202 255 0 0 255
-0.028966 0.458596 2.094 -0.0890344 0.00420097 0.99602 255 0 0 255
-0.023235 0.458379 2.093 -0.116407 -0.0423018 0.9923 255 0 0 255
-0.017534 0.458819 2.095 -0.305343 -0.0284825 0.951816 255 0 0 255
-0.011823 0.459258 2.097 -0.313426 -0.000277031 0.949612 255 0 0 255
-0.006097 0.459478 2.098 -0.181415 0.119005 0.976179 255 0 0 255
-0.000366 0.459697 2.099 -0.0310032 0.224918 0.973884 255 0 0 255
0.005367 0.459697 2.099 -0.0603907 0.291407 0.954691 255 0 0 255
0.011106 0.459915 2.1 -0.296764 0.229046 0.927075 255 0 0 255
0.016859 0.460352 2.102 -0.493544 0.213626 0.843077 255 0 0 255
0.022644 0.461226 2.106 -0.528028 0.210835 0.822639 255 0 0 255
0.028437 0.461881 2.109 -0.492643 0.163695 0.854697 255 0 0 255
0.034246 0.462535 2.112 -0.487838 0.108324 0.866187 255 0 0 255
0.040072 0.463189 2.115 -0.490999 0.123513 0.86236 255 0 0 255
0.045914 0.463843 2.118 -0.448235 0.160147 0.879453 255 0 0 255
0.051772 0.464496 2.121 -0.311452 0.149099 0.938492 255 0 0 255
0.057619 0.464929 2.123 -0.0906396 0.130449 0.987303 255 0 0 255
0.063418 0.464924 2.123 -0.182001 0.146017 0.972396 255 0 0 255
0.069281 0.465356 2.125 -0.616193 0.202169 0.761206 255 0 0 255
0.075296 0.466664 2.131 -0.796754 0.240278 0.554481 255 0 0 255
0.081459 0.468629 2.14 -0.782957 0.337656 0.522462 255 0 0 255
0.087588 0.470155 2.147 -0.653024 0.372323 0.659496 255 0 0 255
0.093625 0.471023 2.151 -0.509538 0.386028 0.768995 255 0 0 255
0.099637 0.471672 2.154 -0.516246 0.420146 0.746303 255 0 0 255
0.105763 0.472758 2.159 -0.542144 0.412912 0.731836 255 0 0 255
0.111813 0.473406 2.162 -0.600963 0.321573 0.731734 255 0 0 255
0.118042 0.474711 2.168 -0.577861 0.21293 0.787869 255 0 0 255
0.124074 0.475139 2.17 -0.577205 0.223389 0.78545 255 0 0 255
-0.079484 0.566133 2.24685 0.00770152 -0.615088 -0.788421 255 255 0 255
-0.064591 0.565187 2.24477 0.554669 -0.257994 -0.791063 255 255 0 255
-0.054029 0.563908 2.23961 -0.226461 -0.354921 -0.907054 255 255 0 255
-0.038318 0.563053 2.23829 -0.121112 -0.224638 -0.966887 255 255 0 255
-0.023492 0.562142 2.23639 -0.128763 -0.19579 -0.972156 255 255 0 255
-0.010406 0.561103 2.23329 -0.218244 -0.137305 -0.966187 255 255 0 255
0.005232 0.560287 2.23216 -0.136954 -0.381506 -0.914164 255 255 0 255
0.028558 0.560125 2.23687 -0.119769 -0.501244 -0.856977 255 255 0 255
0.04157 0.559124 2.23397 -0.69267 -0.109872 -0.712837 255 255 0 255
0.040025 0.556909 2.22014 -0.721989 -0.394382 -0.568503 255 255 0 255
0.053012 0.555923 2.2173 -0.686858 -0.470757 -0.553727 255 255 0 255
0.061713 0.554582 2.21127 -0.512661 -0.285641 -0.809684 255 255 0 255
0.072108 0.553395 2.20657 -0.858869 -0.118914 -0.498201 255 255 0 255
0.06631 0.550811 2.18945 0.985954 -0.149929 -0.0735975 255 255 0 255
0.061383 0.548293 2.17292 0.983607 -0.15522 -0.0917786 255 255 0 255
-0.293702 0.477038 2.17281 0.733332 -0.619221 -0.280696 0 255 0 255
-0.286468 0.478422 2.17936 0.488926 -0.628054 -0.605392 0 255 0 255
-0.274869 0.479151 2.18263 0.657012 -0.384947 -0.64819 0 255 0 255
-0.268491 0.480683 2.18988 0.636495 -0.351335 -0.686613 0 255 0 255
-0.26298 0.48235 2.19781 0.643537 -0.369189 -0.670492 0 255 0 255
-0.252222 0.483238 2.20184 0.49279 -0.468999 -0.732938 0 255 0 255
-0.2432 0.484397 2.20721 0.62439 -0.429518 -0.652419 0 255 0 255
-0.238545 0.486212 2.21584 0.646512 -0.255112 -0.718985 0 255 0 255
-0.23126 0.487644 2.22255 0.572562 -0.020445 -0.819607 0 255 0 255
-0.219583 0.488439 2.22608 0.231749 -0.0765519 -0.969759 0 255 0 255
-0.203503 0.488605 2.22646 0.358174 -0.04487 -0.932576 0 255 0 255
-0.194428 0.489808 2.23201 0.65414 0.0616719 -0.753855 0 255 0 255
-0.18886 0.491528 2.24011 0.664142 -0.262212 -0.700114 0 255 0 255
-0.184168 0.493378 2.24886 0.531486 -0.451004 -0.717021 0 255 0 255
-0.169786 0.493847 2.25072 0.1469 -0.460611 -0.875362 0 255 0 255
-0.152741 0.493954 2.25076 0.130929 -0.252191 -0.958779 0 255 0 255
-0.139201 0.494579 2.25337 0.36217 -0.111476 -0.925422 0 255 0 255
-0.130057 0.495839 2.25914 0.435323 -0.167329 -0.884588 0 255 0 255
-0.12002 0.496984 2.26433 0.384788 -0.408588 -0.827643 0 255 0 255
-0.105549 0.497522 2.26648 0.07307 -0.770249 -0.633543 0 255 0 255
-0.087519 0.497586 2.26625 0.102576 -0.460743 -0.881586 0 255 0 255
-0.074778 0.4984 2.26975 0.206289 -0.675474 -0.707941 0 255 0 255
-0.068227 0.500078 2.27757 -0.075048 -0.649054 -0.757032 0 255 0 255
-0.344404 0.461666 2.138 0.831079 -0.0456535 0.554278 255 0 0 255
-0.337798 0.46061 2.133 0.527045 0.219317 0.82105 255 0 0 255
-0.331374 0.459769 2.129 0.513707 0.358124 0.779649 255 0 0 255
-0.325124 0.459144 2.126 0.538628 0.42599 0.72692 255 0 0 255
-0.318439 0.45787 2.12 0.47474 0.304345 0.825831 255 0 0 255
-0.312524 0.457676 2.119 0.401577 0.202249 0.893214 255 0 0 255
-0.306179 0.456834 2.115 0.414136 0.181656 0.891904 255 0 0 255
-0.300281 0.45664 2.114 0.299344 0.154516 0.941551 255 0 0 255
-0.294248 0.456229 2.112 0.122363 0.131911 0.98368 255 0 0 255
-0.288499 0.45625 2.112 -0.15055 0.180158 0.972048 255 0 0 255
-0.282883 0.456487 2.113 0.105415 0.407929 0.906908 255 0 0 255
-0.276999 0.456291 2.112 0.234237 0.541107 0.807673 255 0 0 255
-0.270991 0.455879 2.11 0.373187 0.51181 0.77381 255 0 0 255
-0.264742 0.455034 2.106 0.0470534 0.483848 0.873886 255 0 0 255
-0.259129 0.45527 2.107 -0.214297 0.233313 0.948495 255 0 0 255
-0.253629 0.455721 2.109 0.0634388 0.198852 0.977974 255 0 0 255
-0.247649 0.455308 2.107 0.373002 0.15006 0.915615 255 0 0 255
-0.241563 0.454678 2.104 0.45391 0.151893 0.878006 255 0 0 255
-0.235494 0.454048 2.101 0.401898 0.0534268 0.914124 255 0 0 255
-0.229658 0.453849 2.1 0.4317 -0.0614656 0.899921 255 0 0 255
-0.223508 0.453002 2.096 0.352101 -0.0894109 0.931682 255 0 0 255
-0.217691 0.452803 2.095 0.0598484 -0.10666 0.992493 255 0 0 255
-0.211979 0.452819 2.095 -0.0546376 -0.115001 0.991862 255 0 0 255
-0.206366 0.453052 2.096 0.0628435 -0.187087 0.980331 255 0 0 255
-0.200555 0.452852 2.095 0.185028 -0.313898 0.931253 255 0 0 255
-0.194656 0.452435 2.093 0.145197 -0.360572 0.921361 255 0 0 255
-0.188767 0.452017 2.091 -0.0125741 -0.295289 0.955325 255 0 0 255
-0.183152 0.452248 2.092 -0.146651 -0.0832989 0.985675 255 0 0 255
-0.17753 0.452479 2.093 -0.151386 0.114279 0.981847 255 0 0 255
-0.171902 0.452709 2.094 0.0976358 0.0600503 0.993409 255 0 0 255
-0.166031 0.45229 2.092 0.180562 0.180971 0.966771 255 0 0 255
-0.160169 0.45187 2.09 0.123452 0.179923 0.975903 255 0 0 255
-0.154392 0.451667 2.089 -0.251322 0.0970434 0.963026 255 0 0 255
-0.148905 0.452328 2.092 -0.539136 0.12537 0.832835 255 0 0 255
-0.143538 0.453421 2.097 -0.374691 0.0171205 0.926992 255 0 0 255
-0.137946 0.453864 2.099 -0.0267427 -0.0830682 0.996185 255 0 0 255
-0.132154 0.453659 2.098 0.00117237 -0.0932716 0.99564 255 0 0 255
-0.126427 0.45367 2.098 -0.0987258 -0.116783 0.988238 255 0 0 255
-0.1207 0.45368 2.098 -0.0860141 -0.0699437 0.993836 255 0 0 255
-0.115027 0.453906 2.099 0.450417 -0.0340511 0.892169 255 0 0 255
-0.108983 0.452617 2.093 0.645002 0.0736642 0.760622 255 0 0 255
-0.103121 0.451977 2.09 0.474735 0.215617 0.853309 255 0 0 255
-0.097274 0.451337 2.087 0.244066 0.308276 0.919455 255 0 0 255
-0.091575 0.451345 2.087 0.142722 0.464299 0.874103 255 0 0 255
-0.085793 0.450919 2.085 0.209133 0.367039 0.906392 255 0 0 255
-0.080099 0.450926 2.085 0.126074 0.280721 0.951473 255 0 0 255
-0.074405 0.450933 2.085 0.0325603 0.24529 0.968903 255 0 0 255
-0.06871 0.450939 2.085 0.00145937 0.230409 0.973093 255 0 0 255
-0.063016 0.450944 2.085 -0.24624 0.233076 0.940766 255 0 0 255
-0.057376 0.451382 2.087 -0.467263 0.141136 0.872781 255 0 0 255
-0.051749 0.452035 2.09 -0.435972 0.0531405 0.89839 255 0 0 255
-0.046084 0.452472 2.092 -0.26449 -0.00540652 0.964373 255 0 0 255
-0.04037 0.452475 2.092 0.0304216 -0.104474 0.994062 255 0 0 255
-0.034639 0.452262 2.091 -0.0406368 -0.225634 0.973364 255 0 0 255
-0.028954 0.452697 2.093 -0.142957 -0.110242 0.98357 255 0 0 255
-0.023237 0.4527 2.093 -0.146504 -0.0211843 0.988983 255 0 0 255
-0.017527 0.452918 2.094 -0.25583 -0.0230028 0.966448 255 0 0 255
-0.011818 0.453351 2.096 -0.359555 -0.0377139 0.932362 255 0 0 255
-0.006104 0.454217 2.1 -0.317794 0.0343186 0.947538 255 0 0 255
-0.000367 0.454218 2.1 -0.149947 0.184595 0.971309 255 0 0 255
0.005373 0.454434 2.101 -0.0600957 0.117876 0.991208 255 0 0 255
0.011107 0.454217 2.1 -0.298715 0.261658 0.917772 255 0 0 255
0.016876 0.455081 2.104 -0.512551 0.175364 0.840559 255 0 0 255
0.022656 0.455728 2.107 -0.470288 0.219013 0.854905 255 0 0 255
0.028453 0.456375 2.11 -0.405322 0.117407 0.906603 255 0 0 255
0.034249 0.456805 2.112 -0.469193 0.082784 0.879207 255 0 0 255
0.040094 0.457667 2.116 -0.524987 0.127274 0.841541 255 0 0 255
0.045939 0.458312 2.119 -0.446516 0.173553 0.877783 255 0 0 255
0.051801 0.458957 2.122 -0.331318 0.0884729 0.939362 255 0 0 255
0.057624 0.459168 2.123 -0.090013 0.0966009 0.991245 255 0 0 255
0.063393 0.458947 2.122 -0.337388 0.10663 0.935307 255 0 0 255
0.069287 0.45959 2.125 -0.621515 0.286899 0.728978 255 0 0 255
0.075444 0.461747 2.135 -0.806283 0.367999 0.463125 255 0 0 255
0.081694 0.46412 2.146 -0.72944 0.440238 0.523554 255 0 0 255
0.087799 0.46541 2.152 -0.50932 0.5142 0.690067 255 0 0 255
0.093763 0.465835 2.154 -0.476253 0.493466 0.727788 255 0 0 255
0.09983 0.466692 2.158 -0.519793 0.469019 0.714028 255 0 0 255
0.105919 0.467549 2.162 -0.531477 0.485836 0.693899 255 0 0 255
0.112029 0.468405 2.166 -0.530206 0.424986 0.733667 255 0 0 255
0.118106 0.469044 2.169 -0.501148 0.372985 0.780854 255 0 0 255
0.124199 0.469683 2.172 -0.444777 0.355294 0.822155 255 0 0 255
-0.131125 0.557654 2.24982 0.619586 -0.58159 -0.52713 255 255 0 255
-0.113564 0.556908 2.24937 0.011105 -0.994608 -0.103109 255 255 0 255
-0.094305 0.556318 2.25024 0.113696 -0.765326 -0.633521 255 255 0 255
-0.074215 0.555815 2.25182 0.255406 -0.606583 -0.752877 255 255 0 255
-0.061917 0.554691 2.24787 -0.352573 -0.468193 -0.810239 255 255 0 255
-0.048776 0.553648 2.2446 -0.335811 -0.307506 -0.890321 255 255 0 255
-0.038236 0.552399 2.23949 -0.15848 -0.288771 -0.94419 255 255 0 255
-0.021695 0.551666 2.23885 -0.178296 -0.274006 -0.945056 255 255 0 255
-0.010332 0.55051 2.23447 -0.0742843 -0.318684 -0.944946 255 255 0 255
0.011304 0.550242 2.23779 0.0521988 -0.385099 -0.921398 255 255 0 255
0.032045 0.54992 2.24058 -0.298991 -0.106094 -0.94834 255 255 0 255
0.041628 0.548653 2.23511 -0.62326 -0.0024908 -0.782011 255 255 0 255
0.046924 0.547018 2.22644 -0.671352 -0.183402 -0.718088 255 255 0 255
0.053924 0.545537 2.21908 -0.648524 -0.345199 -0.67842 255 255 0 255
0.060064 0.543984 2.21109 -0.820245 0.0230171 -0.571549 255 255 0 255
0.061939 0.542055 2.19985 -0.95423 0.188429 -0.232248 255 255 0 255
0.062967 0.540048 2.18794 -0.998941 -0.0458817 -0.00332277 255 255 0 255
0.06145 0.537809 2.17404 0.988939 -0.0728085 -0.129221 255 255 0 255
-0.290815 0.463885 2.15967 -0.927366 0.172324 -0.33211 0 255 0 255
-0.298365 0.467569 2.17749 0.904085 -0.381022 -0.193528 0 255 0 255
-0.293747 0.469345 2.18601 0.460748 -0.478211 -0.747681 0 255 0 255
-0.280416 0.469776 2.18795 0.382385 -0.567838 -0.728932 0 255 0 255
-0.2723 0.471027 2.19389 0.625435 -0.500535 -0.598578 0 255 0 255
-0.264174 0.472286 2.19985 0.659428 -0.480594 -0.578087 0 255 0 255
-0.259534 0.474084 2.20844 0.505454 -0.521702 -0.687272 0 255 0 255
-0.24615 0.474559 2.21056 0.29671 -0.217592 -0.929848 0 255 0 255
-0.238873 0.475972 2.21725 0.568178 -0.122532 -0.813732 0 255 0 255
-0.226335 0.476603 2.22011 0.332048 0.148421 -0.931512 0 255 0 255
-0.21904 0.478032 2.22687 0.217424 0.255958 -0.94192 0 255 0 255
-0.202966 0.478162 2.22727 0.371403 0.1807 -0.910718 0 255 0 255
-0.193015 0.47922 2.23219 0.779868 0.0851369 -0.620127 0 255 0 255
-0.189203 0.481193 2.24157 0.85605 -0.0450591 -0.514925 0 255 0 255
-0.184511 0.483039 2.25032 0.654507 -0.182389 -0.733727 0 255 0 255
-0.171015 0.483604 2.25282 0.0724036 -0.21526 -0.973869 0 255 0 255
-0.153097 0.483545 2.25225 0.0402065 -0.248095 -0.967901 0 255 0 255
-0.137799 0.483885 2.25363 0.36908 -0.0591162 -0.927516 0 255 0 255
-0.128656 0.48513 2.25941 0.436581 8.43964e-05 -0.899665 0 255 0 255
-0.120386 0.486509 2.26585 0.477147 0.19256 -0.857468 0 255 0 255
-0.108573 0.487393 2.26985 0.453382 0.23659 -0.859343 0 255 0 255
-0.09409 0.487912 2.27207 0.16347 -0.534012 -0.829523 0 255 0 255
-0.080475 0.488572 2.27497 0.247812 -0.509175 -0.824215 0 255 0 255
-0.070385 0.489741 2.28034 0.0499627 -0.449598 -0.891832 0 255 0 255
-0.05585 0.490302 2.28274 -0.430224 -0.41244 -0.802995 0 255 0 255
-0.343783 0.455013 2.134 0.452259 0.166879 0.876136 255 0 0 255
-0.337821 0.454823 2.133 0.431283 0.195211 0.880845 255 0 0 255
-0.331708 0.454419 2.131 0.428259 0.236349 0.8722 255 0 0 255
-0.325453 0.453802 2.128 0.573799 0.24129 0.782646 255 0 0 255
-0.318912 0.452758 2.123 0.591341 0.194946 0.782504 255 0 0 255
-0.312546 0.451927 2.119 0.465505 0.179967 0.866555 255 0 0 255
-0.306345 0.451309 2.116 0.389015 0.135929 0.911148 255 0 0 255
-0.300302 0.450904 2.114 0.298388 0.133924 0.945002 255 0 0 255
-0.29427 0.450499 2.112 0.150744 0.152858 0.976683 255 0 0 255
-0.288657 0.450733 2.113 -0.210444 0.168413 0.96299 255 0 0 255
-0.283172 0.45118 2.115 -0.212174 0.293266 0.932189 255 0 0 255
-0.277413 0.451201 2.115 0.0997763 0.412846 0.905319 255 0 0 255
-0.271268 0.450581 2.112 0.456913 0.37496 0.80662 255 0 0 255
-0.265138 0.44996 2.109 0.365244 0.250643 0.896535 255 0 0 255
-0.259394 0.44998 2.109 -0.0252176 0.197626 0.979953 255 0 0 255
-0.253648 0.449999 2.109 0.0329002 0.0748205 0.996654 255 0 0 255
-0.247785 0.449804 2.108 0.351462 0.110895 0.929611 255 0 0 255
-0.241581 0.448969 2.104 0.471039 0.127896 0.872791 255 0 0 255
-0.235511 0.448347 2.101 0.497159 0.0306854 0.867117 255 0 0 255
-0.229348 0.447511 2.097 0.480606 -0.000326906 0.876937 255 0 0 255
-0.223312 0.446888 2.094 0.390316 -0.0506565 0.919286 255 0 0 255
-0.2175 0.446691 2.093 0.12329 -0.0831972 0.988877 255 0 0 255
-0.211793 0.446708 2.093 -0.0542031 -0.166314 0.984582 255 0 0 255
-0.206087 0.446724 2.093 0.0919073 -0.163252 0.982294 255 0 0 255
-0.200188 0.446313 2.091 0.28635 -0.146599 0.946844 255 0 0 255
-0.194299 0.445901 2.089 0.285255 -0.142579 0.947787 255 0 0 255
-0.188511 0.445703 2.088 -0.0841789 -0.124327 0.988664 255 0 0 255
-0.183078 0.446358 2.091 -0.321655 -0.0115559 0.946787 255 0 0 255
-0.177459 0.446586 2.092 -0.23678 0.0693252 0.969087 255 0 0 255
-0.171916 0.447026 2.094 0.0340674 0.151371 0.98789 255 0 0 255
-0.166044 0.446613 2.092 0.205999 0.223617 0.952659 255 0 0 255
-0.160335 0.446626 2.092 0.148516 0.25288 0.956031 255 0 0 255
-0.154553 0.446425 2.091 -0.215429 0.308095 0.926643 255 0 0 255
-0.149131 0.447291 2.095 -0.496328 0.224864 0.838507 255 0 0 255
-0.14355 0.44773 2.097 -0.327499 0.0641489 0.942671 255 0 0 255
-0.137826 0.447741 2.097 0.0411832 -0.12517 0.99128 255 0 0 255
-0.132039 0.447539 2.096 0.0702923 -0.201896 0.976881 255 0 0 255
-0.126377 0.447763 2.097 -0.0456459 -0.27125 0.961426 255 0 0 255
-0.120652 0.447773 2.097 -0.0345173 -0.317926 0.947487 255 0 0 255
-0.114981 0.447996 2.098 0.240526 -0.296645 0.924202 255 0 0 255
-0.108992 0.446937 2.093 0.514465 -0.0689864 0.854732 255 0 0 255
-0.103129 0.446305 2.09 0.348063 0.11744 0.930086 255 0 0 255
-0.097375 0.4461 2.089 0.12641 0.118488 0.984876 255 0 0 255
-0.09167 0.446108 2.089 0.125801 0.196001 0.972501 255 0 0 255
-0.085924 0.445902 2.088 0.240287 0.260859 0.934994 255 0 0 255
-0.080106 0.445268 2.085 0.1826 0.239272 0.953628 255 0 0 255
-0.074375 0.44506 2.084 0.0315959 0.187426 0.98177 255 0 0 255
-0.068716 0.44528 2.085 0.000515668 0.0844091 0.996431 255 0 0 255
-0.062991 0.445072 2.084 -0.155216 0.16272 0.974387 255 0 0 255
-0.05738 0.445718 2.087 -0.394417 0.0855445 0.914941 255 0 0 255
-0.051729 0.446149 2.089 -0.407434 0.0168235 0.91308 255 0 0 255
-0.046088 0.446794 2.092 -0.147619 -0.022249 0.988794 255 0 0 255
-0.040354 0.446584 2.091 0.143153 -0.0437482 0.988733 255 0 0 255
-0.034625 0.446374 2.09 -0.0580135 -0.0834353 0.994823 255 0 0 255
-0.028943 0.446803 2.092 -0.144436 -0.116879 0.982587 255 0 0 255
-0.023238 0.447019 2.093 -0.229722 -0.0347446 0.972636 255 0 0 255
-0.017537 0.447448 2.095 -0.255852 -0.0230386 0.966441 255 0 0 255
-0.011813 0.447449 2.095 -0.38688 0.010772 0.922067 255 0 0 255
-0.006101 0.448304 2.099 -0.361341 -0.0103186 0.932377 255 0 0 255
-0.000367 0.448518 2.1 -0.174694 0.0200117 0.984419 255 0 0 255
0.005376 0.448945 2.102 -0.0900742 0.0944999 0.991442 255 0 0 255
0.011113 0.448731 2.101 -0.355573 0.14733 0.922964 255 0 0 255
0.016894 0.449798 2.106 -0.513562 0.155582 0.84383 255 0 0 255
0.022669 0.450223 2.108 -0.42783 0.123072 0.895441 255 0 0 255
0.028469 0.450862 2.111 -0.357277 0.0674813 0.931557 255 0 0 255
0.034252 0.451073 2.112 -0.496246 0.0966678 0.862783 255 0 0 255
0.040117 0.452137 2.117 -0.592022 0.110774 0.798272 255 0 0 255
0.045965 0.452775 2.12 -0.446119 0.173368 0.878021 255 0 0 255
0.051805 0.453198 2.122 -0.284395 0.161194 0.945059 255 0 0 255
0.057629 0.453407 2.123 -0.0606281 0.134589 0.989045 255 0 0 255
0.063428 0.453402 2.123 -0.324024 0.206102 0.923326 255 0 0 255
0.069456 0.454891 2.13 -0.77966 0.388102 0.491434 255 0 0 255
0.075627 0.457021 2.14 -0.79435 0.480685 0.371417 255 0 0 255
0.081891 0.459363 2.151 -0.698919 0.528154 0.48225 255 0 0 255
0.08797 0.460424 2.156 -0.446545 0.606041 0.658264 255 0 0 255
0.093945 0.460844 2.158 -0.485859 0.557351 0.673276 255 0 0 255
0.10007 0.461903 2.163 -0.504199 0.545478 0.669505 255 0 0 255
0.106074 0.462322 2.165 -0.50127 0.549022 0.668808 255 0 0 255
0.112297 0.463594 2.171 -0.452757 0.509526 0.731706 255 0 0 255
0.118279 0.463799 2.172 -0.402273 0.44487 0.800167 255 0 0 255
0.124495 0.464856 2.177 -0.533407 0.455077 0.713009 255 0 0 255
-0.124094 0.547357 2.25602 0.0839378 0.0388983 -0.995712 255 255 0 255
-0.10136 0.547089 2.25928 0.248017 -0.251312 -0.935591 255 255 0 255
-0.08471 0.546333 2.25831 0.188271 -0.475923 -0.859099 255 255 0 255
-0.068949 0.545518 2.25679 0.0757887 -0.567825 -0.819653 255 255 0 255
-0.059243 0.5442 2.25097 -0.487297 -0.327967 -0.809308 255 255 0 255
-0.04783 0.543038 2.24644 -0.506562 -0.304493 -0.806647 255 255 0 255
-0.035573 0.541959 2.24258 -0.16068 -0.305042 -0.938686 255 255 0 255
-0.019041 0.541264 2.24194 -0.0219411 -0.443975 -0.895771 255 255 0 255
-0.00082 0.540736 2.24263 -0.00203442 -0.573453 -0.819236 255 255 0 255
0.016514 0.540147 2.24278 -0.237982 -0.551011 -0.799844 255 255 0 255
0.026114 0.538886 2.23725 -0.317176 -0.230528 -0.919922 255 255 0 255
0.034846 0.537555 2.23111 -0.49052 -0.0576285 -0.869523 255 255 0 255
0.04613 0.536463 2.22693 -0.591053 -0.0709429 -0.803507 255 255 0 255
0.058251 0.535456 2.22344 -0.676856 -0.133329 -0.72394 255 255 0 255
0.063534 0.533835 2.21481 -0.956442 -0.0626315 -0.285126 255 255 0 255
0.062002 0.531586 2.20096 -0.992092 -0.0546488 -0.112991 255 255 0 255
0.064734 0.529729 2.19036 0.996195 0.0713983 -0.0499697 255 255 0 255
0.06152 0.527314 2.17515 0.973516 -0.0224256 -0.227515 255 255 0 255
-0.302155 0.457977 2.1815 0.869022 0.0974832 -0.485074 0 255 0 255
-0.297541 0.459748 2.19001 0.585137 -0.156211 -0.795747 0 255 0 255
-0.28683 0.46056 2.19393 0.408389 -0.146243 -0.901017 0 255 0 255
-0.273492 0.460972 2.19592 0.663589 -0.285517 -0.691469 0 255 0 255
-0.267986 0.462625 2.20385 0.704221 -0.276405 -0.653967 0 255 0 255
-0.263349 0.464418 2.21243 0.606068 -0.320493 -0.727987 0 255 0 255
-0.250847 0.464997 2.2152 0.351758 -0.191099 -0.916377 0 255 0 255
-0.234832 0.465049 2.21545 0.164335 0.122913 -0.978717 0 255 0 255
-0.219669 0.465253 2.21641 0.305512 0.285127 -0.908496 0 255 0 255
-0.211493 0.466541 2.22255 0.386832 0.168405 -0.906643 0 255 0 255
-0.198926 0.467172 2.22553 0.565388 -0.0145548 -0.824697 0 255 0 255
-0.192484 0.468743 2.23301 0.713869 0.0200181 -0.699993 0 255 0 255
-0.187793 0.470584 2.24177 0.877854 0.0625774 -0.474824 0 255 0 255
-0.186614 0.472954 2.25305 0.601147 0.0377141 -0.798248 0 255 0 255
-0.173124 0.473489 2.25555 0.375278 -0.201643 -0.904713 0 255 0 255
-0.156976 0.473646 2.25623 0.0890625 -0.321121 -0.942841 0 255 0 255
-0.139925 0.473691 2.25638 0.193634 -0.340108 -0.920235 0 255 0 255
-0.127259 0.4744 2.25969 0.33434 -0.215216 -0.917551 0 255 0 255
-0.11546 0.475251 2.26367 0.441198 -0.172528 -0.880669 0 255 0 255
-0.106296 0.476498 2.26954 0.40908 -0.217596 -0.886175 0 255 0 255
-0.100658 0.478265 2.27789 0.36523 -0.440811 -0.819935 0 255 0 255
-0.086167 0.478764 2.28017 0.0909811 -0.447936 -0.889424 0 255 0 255
-0.071658 0.479278 2.28252 0.0693107 0.181294 -0.980983 0 255 0 255
-0.055356 0.479554 2.28372 -0.43918 0.197899 -0.876332 0 255 0 255
-0.344289 0.449854 2.137 0.519436 0.237829 0.820746 255 0 0 255
-0.338319 0.449667 2.136 0.349273 0.209789 0.913234 255 0 0 255
-0.332042 0.449058 2.133 0.410111 0.201753 0.88944 255 0 0 255
-0.325934 0.44866 2.131 0.547182 0.150599 0.823354 255 0 0 255
-0.319085 0.447208 2.124 0.598692 0.216214 0.771245 255 0 0 255
-0.312715 0.446388 2.12 0.496864 0.174766 0.850049 255 0 0 255
-0.306512 0.445778 2.117 0.385813 0.220412 0.895861 255 0 0 255
-0.300466 0.445378 2.115 0.278665 0.262211 0.9239 255 0 0 255
-0.29443 0.444978 2.113 0.0674926 0.328055 0.942244 255 0 0 255
-0.288678 0.444999 2.113 -0.269756 0.385354 0.882459 255 0 0 255
-0.283326 0.445652 2.116 -0.295109 0.409177 0.863415 255 0 0 255
-0.277826 0.446093 2.118 0.206707 0.421922 0.882754 255 0 0 255
-0.271673 0.445481 2.115 0.512952 0.318068 0.797316 255 0 0 255
-0.265409 0.444658 2.111 0.483839 0.208056 0.850066 255 0 0 255
-0.25929 0.444046 2.108 0.157173 0.107281 0.981727 255 0 0 255
-0.253667 0.444276 2.109 0.00549546 0.111894 0.993705 255 0 0 255
-0.247803 0.444083 2.108 0.286219 0.170584 0.942857 255 0 0 255
-0.241829 0.44368 2.106 0.489005 0.10712 0.865679 255 0 0 255
-0.235641 0.442856 2.102 0.541323 0.185068 0.820194 255 0 0 255
-0.229365 0.44182 2.097 0.462171 0.252471 0.850092 255 0 0 255
-0.223436 0.441416 2.095 0.390614 0.134972 0.910606 255 0 0 255
-0.217412 0.4408 2.092 0.185236 0.170862 0.967726 255 0 0 255
-0.21181 0.441028 2.093 0.0327514 0.0983054 0.994617 255 0 0 255
-0.206103 0.441044 2.093 0.0894571 0.0796136 0.992804 255 0 0 255
-0.200299 0.440849 2.092 0.259248 0.175459 0.949739 255 0 0 255
-0.194407 0.440443 2.09 0.254488 0.190505 0.948126 255 0 0 255
-0.188616 0.440247 2.089 -0.121342 0.137446 0.983049 255 0 0 255
-0.18318 0.440893 2.092 -0.321236 0.000205595 0.946999 255 0 0 255
-0.177643 0.441329 2.094 -0.23379 -0.0321762 0.971755 255 0 0 255
-0.172012 0.441554 2.095 -0.0571177 -0.0105315 0.998312 255 0 0 255
-0.166216 0.441356 2.094 0.0633161 0.105069 0.992447 255 0 0 255
-0.160502 0.441369 2.094 0.00170454 0.225037 0.974349 255 0 0 255
-0.154713 0.441171 2.093 -0.243259 0.226718 0.943093 255 0 0 255
-0.149214 0.441816 2.096 -0.305304 0.220296 0.926423 255 0 0 255
-0.143561 0.442038 2.097 -0.0876234 -0.0179702 0.995992 255 0 0 255
-0.137903 0.44226 2.098 0.0622933 -0.0932757 0.99369 255 0 0 255
-0.131986 0.441639 2.095 0.122658 -0.0941127 0.987977 255 0 0 255
-0.126267 0.441649 2.095 0.064954 -0.150448 0.986482 255 0 0 255
-0.120489 0.441448 2.094 0.0427803 -0.259252 0.964862 255 0 0 255
-0.114771 0.441458 2.094 0.199006 -0.282123 0.938511 255 0 0 255
-0.108897 0.440834 2.091 0.247224 -0.0309725 0.968463 255 0 0 255
-0.103187 0.440843 2.091 0.229316 -0.00624733 0.973332 255 0 0 255
-0.097383 0.44043 2.089 0.0949149 0.107843 0.989627 255 0 0 255
-0.091766 0.440859 2.091 0.12391 0.0348026 0.991683 255 0 0 255
-0.085931 0.440234 2.088 0.346681 0.060477 0.936032 255 0 0 255
-0.080189 0.44003 2.087 0.209844 0.0537383 0.976257 255 0 0 255
-0.074453 0.439825 2.086 0.0010516 0.137348 0.990522 255 0 0 255
-0.068755 0.439831 2.086 -0.0299168 0.130471 0.991001 255 0 0 255
-0.063056 0.439837 2.086 -0.150244 0.133374 0.979611 255 0 0 255
-0.057385 0.440052 2.087 -0.318261 0.121276 0.940214 255 0 0 255
-0.051758 0.440689 2.09 -0.384264 0.00273757 0.923219 255 0 0 255
-0.046092 0.441115 2.092 -0.148277 -0.0460714 0.987872 255 0 0 255
-0.040357 0.440908 2.091 0.144867 0.0140425 0.989352 255 0 0 255
-0.034628 0.4407 2.09 -0.0299413 0.0681397 0.997226 255 0 0 255
-0.028931 0.440914 2.091 -0.1772 0.0343087 0.983577 255 0 0 255
-0.023229 0.441127 2.092 -0.284605 -0.016583 0.958501 255 0 0 255
-0.017538 0.441761 2.095 -0.311369 0.00833422 0.950253 255 0 0 255
-0.01182 0.441973 2.096 -0.337084 0.0150908 0.941354 255 0 0 255
-0.006102 0.442606 2.099 -0.29006 0.00945836 0.956962 255 0 0 255
-0.000367 0.442818 2.1 -0.168819 -0.121788 0.978094 255 0 0 255
0.005374 0.443028 2.101 -0.199956 -0.0889536 0.975759 255 0 0 255
0.01112 0.443238 2.102 -0.448998 0.0424874 0.892522 255 0 0 255
0.016895 0.444081 2.106 -0.489888 0.0496829 0.870368 255 0 0 255
0.022671 0.444501 2.108 -0.4258 0.0621871 0.902678 255 0 0 255
0.028471 0.445131 2.111 -0.414162 0.164007 0.895305 255 0 0 255
0.034255 0.44534 2.112 -0.558098 0.185828 0.808699 255 0 0 255
0.040139 0.446602 2.118 -0.624365 0.205036 0.753743 255 0 0 255
0.046012 0.447442 2.122 -0.424241 0.274158 0.863051 255 0 0 255
0.051858 0.447859 2.124 -0.284268 0.284541 0.915548 255 0 0 255
0.057688 0.448065 2.125 -0.277934 0.416141 0.865783 255 0 0 255
0.063493 0.44806 2.125 -0.408041 0.414992 0.813194 255 0 0 255
0.06969 0.450585 2.137 -0.803143 0.489757 0.339262 255 0 0 255
0.075916 0.452899 2.148 -0.778535 0.506937 0.369999 255 0 0 255
0.082164 0.455 2.158 -0.608708 0.575182 0.546479 255 0 0 255
0.088099 0.455204 2.159 -0.404749 0.636215 0.656817 255 0 0 255
0.09417 0.45604 2.163 -0.458223 0.608944 0.647472 255 0 0 255
0.100309 0.457086 2.168 -0.417139 0.586708 0.694095 255 0 0 255
0.106328 0.4575 2.17 -0.477106 0.431232 0.765774 255 0 0 255
0.112513 0.458545 2.175 -0.451701 0.36104 0.815853 255 0 0 255
0.118452 0.458535 2.175 -0.528999 0.329208 0.782165 255 0 0 255
0.124791 0.460001 2.182 -0.659084 0.354198 0.66344 255 0 0 255
-0.12312 0.536569 2.25791 0.160083 -0.92007 -0.357554 255 255 0 255
-0.100395 0.536359 2.26115 0.170364 -0.490546 -0.8546 255 255 0 255
-0.082025 0.535792 2.26141 0.1304 -0.328285 -0.935535 255 255 0 255
-0.068858 0.534786 2.25802 -0.155718 -0.236932 -0.958966 255 255 0 255
-0.058293 0.533561 2.25282 -0.463798 -0.0211488 -0.885689 255 255 0 255
-0.044302 0.532652 2.25016 -0.130391 -0.169493 -0.976868 255 255 0 255
-0.028615 0.531908 2.24882 0.00687101 -0.286758 -0.957978 255 255 0 255
-0.006086 0.5318 2.2526 0.0532138 -0.449466 -0.891711 255 255 0 255
0.0104 0.531165 2.25205 -0.160378 -0.528999 -0.83333 255 255 0 255
0.025147 0.530387 2.25031 -0.441096 -0.554604 -0.705584 255 255 0 255
0.032169 0.52891 2.24288 -0.556713 -0.577368 -0.597258 255 255 0 255
0.039184 0.527438 2.23546 -0.595497 -0.515212 -0.616392 255 255 0 255
0.0479 0.52613 2.22936 -0.631117 -0.313641 -0.709451 255 255 0 255
0.054899 0.524668 2.22199 -0.760808 -0.235224 -0.604848 255 255 0 255
0.062742 0.523291 2.21528 -0.799045 -0.356437 -0.484231 255 255 0 255
0.063769 0.521269 2.20339 -0.92078 -0.376891 -0.100586 255 255 0 255
0.065651 0.519327 2.19214 0.963381 0.0476114 -0.263877 255 255 0 255
0.056496 0.516316 2.17233 0.876988 -0.158611 -0.45358 255 255 0 255
-0.290594 0.443377 2.16174 0.991651 0.0631239 -0.112448 0 255 0 255
-0.294653 0.446562 2.17691 0.78822 0.501573 -0.356558 0 255 0 255
-0.290901 0.448475 2.1861 0.554358 0.461163 -0.692831 0 255 0 255
-0.282798 0.44969 2.19202 0.56591 0.344179 -0.749191 0 255 0 255
-0.275557 0.451052 2.19862 0.736802 0.0179086 -0.675871 0 255 0 255
-0.26831 0.45242 2.20524 0.755048 -0.183305 -0.629525 0 255 0 255
-0.261927 0.453932 2.21253 0.444725 -0.14581 -0.883719 0 255 0 255
-0.245063 0.453796 2.21208 -0.0206621 0.124442 -0.992012 0 255 0 255
-0.22905 0.453815 2.21236 0.171564 0.443062 -0.879922 0 255 0 255
-0.219136 0.454809 2.2172 0.448485 0.480587 -0.75359 0 255 0 255
-0.211837 0.456221 2.22399 0.475625 0.252025 -0.842772 0 255 0 255
-0.202778 0.457367 2.22953 0.522306 0.0534111 -0.851084 0 255 0 255
-0.192833 0.458387 2.23447 0.781393 -0.0404491 -0.622727 0 255 0 255
-0.186386 0.459955 2.24197 0.806 0.0615015 -0.588711 0 255 0 255
-0.18169 0.461796 2.25074 0.756938 -0.0195657 -0.653193 0 255 0 255
-0.171718 0.462839 2.25577 0.443587 -0.150194 -0.883557 0 255 0 255
-0.163493 0.464157 2.26208 0.255506 -0.306815 -0.916832 0 255 0 255
-0.147335 0.464291 2.26284 0.107534 -0.295327 -0.949325 0 255 0 255
-0.133799 0.464837 2.26553 0.1957 -0.404117 -0.893528 0 255 0 255
-0.117598 0.465003 2.26643 0.428676 -0.388204 -0.815803 0 255 0 255
-0.110204 0.466494 2.27353 0.496684 -0.316631 -0.808115 0 255 0 255
-0.103686 0.468122 2.28127 0.697096 -0.451239 -0.557172 0 255 0 255
-0.089203 0.468588 2.28355 -0.411353 -0.64172 -0.64729 0 255 0 255
-0.344634 0.444471 2.139 0.574712 0.314519 0.755503 255 0 0 255
-0.338342 0.443871 2.136 0.444044 0.203717 0.872539 255 0 0 255
-0.332065 0.44327 2.133 0.445159 0.0938886 0.890516 255 0 0 255
-0.325803 0.442669 2.13 0.502855 0.103606 0.858139 255 0 0 255
-0.319407 0.44186 2.126 0.562605 0.203862 0.801197 255 0 0 255
-0.313032 0.44105 2.122 0.509581 0.258556 0.820656 255 0 0 255
-0.306823 0.440449 2.119 0.427293 0.260171 0.86587 255 0 0 255
-0.300771 0.440054 2.117 0.202963 0.312502 0.927981 255 0 0 255
-0.295008 0.440075 2.117 -0.0851625 0.467206 0.880037 255 0 0 255
-0.289381 0.440304 2.118 -0.215021 0.623204 0.751919 255 0 0 255
-0.283882 0.44074 2.12 -0.243501 0.614812 0.750143 255 0 0 255
-0.27824 0.440968 2.121 0.23346 0.463785 0.854635 255 0 0 255
-0.27195 0.440157 2.117 0.560796 0.281946 0.778469 255 0 0 255
-0.265555 0.439137 2.112 0.547908 0.287003 0.785764 255 0 0 255
-0.259309 0.438324 2.108 0.204533 0.316747 0.926195 255 0 0 255
-0.253686 0.438551 2.109 0.00581969 0.204269 0.978898 255 0 0 255
-0.247939 0.43857 2.109 0.232076 0.185413 0.954863 255 0 0 255
-0.241962 0.438172 2.107 0.474607 0.2079 0.855293 255 0 0 255
-0.235659 0.43715 2.102 0.537212 0.188839 0.822036 255 0 0 255
-0.229711 0.436752 2.1 0.396166 0.33935 0.853167 255 0 0 255
-0.223773 0.436353 2.098 0.418102 0.341461 0.841781 255 0 0 255
-0.217741 0.435746 2.095 0.362579 0.291168 0.885301 255 0 0 255
-0.211826 0.435346 2.093 0.124297 0.182505 0.975317 255 0 0 255
-0.206118 0.435362 2.093 0.0306941 0.16362 0.986046 255 0 0 255
-0.20041 0.435378 2.093 0.178109 0.180423 0.967329 255 0 0 255
-0.194515 0.434977 2.091 0.254253 0.24335 0.936022 255 0 0 255
-0.188721 0.434784 2.09 -0.028119 0.218351 0.975465 255 0 0 255
-0.183107 0.435006 2.091 -0.274013 0.161958 0.947991 255 0 0 255
-0.177487 0.435229 2.092 -0.240672 0.0592504 0.968796 255 0 0 255
-0.171861 0.43545 2.093 -0.151737 0.0779205 0.985345 255 0 0 255
-0.166229 0.435672 2.094 0.00332865 0.159441 0.987202 255 0 0 255
-0.160514 0.435685 2.094 0.00173931 0.224922 0.974375 255 0 0 255
-0.154947 0.436113 2.096 -0.151701 0.117292 0.981443 255 0 0 255
-0.149297 0.436333 2.097 -0.0888385 0.0155289 0.995925 255 0 0 255
-0.143504 0.436137 2.096 -0.0200165 -0.17182 0.984925 255 0 0 255
-0.137782 0.436148 2.096 0.0603903 -0.17432 0.982835 255 0 0 255
-0.131997 0.435951 2.095 0.145225 -0.118154 0.982318 255 0 0 255
-0.126337 0.43617 2.096 0.146194 -0.174967 0.97366 255 0 0 255
-0.120499 0.435763 2.094 0.148235 -0.117603 0.981935 255 0 0 255
-0.114726 0.435565 2.093 0.15948 0.000512309 0.987201 255 0 0 255
-0.108906 0.435158 2.091 0.196016 -0.0328248 0.980051 255 0 0 255
-0.103195 0.435166 2.091 0.180729 0.148322 0.972285 255 0 0 255
-0.097391 0.434758 2.089 0.154237 0.026513 0.987678 255 0 0 255
-0.091685 0.434766 2.089 0.202786 -0.0905643 0.975026 255 0 0 255
-0.085897 0.434357 2.087 0.205472 -0.148795 0.967286 255 0 0 255
-0.080119 0.433947 2.085 0.0320648 0.00581645 0.999469 255 0 0 255
-0.074459 0.434162 2.086 -0.0929397 0.206648 0.973991 255 0 0 255
-0.06876 0.434168 2.086 -0.0914666 0.263523 0.960307 255 0 0 255
-0.063092 0.434381 2.087 -0.0603592 0.311661 0.948274 255 0 0 255
-0.057417 0.434594 2.088 -0.15366 0.181969 0.971224 255 0 0 255
-0.051737 0.434807 2.089 -0.316326 0.0404985 0.947786 255 0 0 255
-0.046096 0.435435 2.092 -0.152457 0.0348377 0.987696 255 0 0 255
-0.040361 0.435231 2.091 0.0307138 0.0566616 0.997921 255 0 0 255
-0.034647 0.435234 2.091 -0.0602462 0.148925 0.987012 255 0 0 255
-0.028934 0.435236 2.091 -0.120091 0.167195 0.978583 255 0 0 255
-0.023231 0.435447 2.092 -0.292398 0.18307 0.93861 255 0 0 255
-0.017532 0.435865 2.094 -0.343863 0.172423 0.923054 255 0 0 255
-0.011827 0.43649 2.097 -0.314033 0.0908275 0.945057 255 0 0 255
-0.006099 0.436699 2.098 -0.235854 0.0732989 0.96902 255 0 0 255
-0.000366 0.4367 2.098 -0.150515 0.0472997 0.987476 255 0 0 255
0.005369 0.436908 2.099 -0.263361 0.057484 0.962983 255 0 0 255
0.011121 0.437531 2.102 -0.474067 0.0599031 0.878449 255 0 0 255
0.016897 0.438363 2.106 -0.499458 0.186257 0.846079 255 0 0 255
0.022673 0.438777 2.108 -0.471758 0.129451 0.872174 255 0 0 255
0.028487 0.439608 2.112 -0.50042 0.204347 0.841322 255 0 0 255
0.034306 0.44023 2.115 -0.576259 0.296847 0.761451 255 0 0 255
0.040199 0.441476 2.121 -0.587474 0.28078 0.758971 255 0 0 255
0.046059 0.442096 2.124 -0.424146 0.280254 0.861138 255 0 0 255
0.051911 0.442509 2.126 -0.358894 0.328973 0.873483 255 0 0 255
0.057774 0.44292 2.128 -0.406174 0.452474 0.793908 255 0 0 255
0.063738 0.443956 2.133 -0.70566 0.494752 0.507212 255 0 0 255
0.069989 0.446656 2.146 -0.811869 0.469194 0.347456 255 0 0 255
0.07617 0.448524 2.155 -0.746925 0.479022 0.46113 255 0 0 255
0.082361 0.450182 2.163 -0.534079 0.584861 0.610489 255 0 0 255
0.088311 0.450383 2.164 -0.389876 0.612058 0.688028 255 0 0 255
0.094439 0.451416 2.169 -0.443853 0.570938 0.69067 255 0 0 255
0.100502 0.452033 2.172 -0.336624 0.537109 0.773433 255 0 0 255
0.106484 0.452233 2.173 -0.338031 0.288297 0.895891 255 0 0 255
0.112574 0.452848 2.176 -0.399725 0.245587 0.883123 255 0 0 255
0.118625 0.453255 2.178 -0.595708 0.26822 0.757093 255 0 0 255
0.124916 0.454494 2.184 -0.68438 0.355895 0.636366 255 0 0 255
0.131119 0.455316 2.188 -0.735275 0.367255 0.569644 255 0 0 255
-0.130193 0.527253 2.26708 0.631135 -0.12387 -0.765719 255 255 0 255
-0.112639 0.526624 2.26655 -0.189392 -0.410185 -0.89212 255 255 0 255
-0.098566 0.5257 2.26365 -0.114099 -0.365101 -0.923949 255 255 0 255
-0.082791 0.524943 2.26204 0.134087 -0.0774049 -0.987942 255 255 0 255
-0.067903 0.524121 2.25988 -0.295234 -0.126089 -0.947069 255 255 0 255
-0.059063 0.522759 2.25342 -0.423903 -0.107681 -0.899284 255 255 0 255
-0.045075 0.521879 2.25075 -0.229508 -0.0544897 -0.97178 255 255 0 255
-0.025956 0.52149 2.2519 0.0518039 -0.0974655 -0.99389 255 255 0 255
-0.001723 0.5216 2.25694 0.0805582 -0.204364 -0.975575 255 255 0 255
0.014754 0.521005 2.25639 -0.239708 -0.436952 -0.866956 255 255 0 255
0.026924 0.520019 2.25274 -0.429385 -0.437536 -0.790058 255 255 0 255
0.03651 0.518797 2.24722 -0.512315 -0.667225 -0.540688 255 255 0 255
0.044375 0.517419 2.24045 -0.63677 -0.687294 -0.349501 255 255 0 255
0.051377 0.515963 2.23307 -0.639677 -0.641151 -0.423957 255 255 0 255
0.054962 0.51418 2.22312 -0.636684 -0.55833 -0.531885 255 255 0 255
0.068766 0.513399 2.22095 -0.629086 -0.635303 -0.44793 255 255 0 255
0.07234 0.511623 2.21102 -0.857477 -0.501893 -0.113299 255 255 0 255
0.068267 0.509089 2.19522 0.959307 0.224285 -0.171542 255 255 0 255
0.040443 0.504174 2.16099 0.978743 -0.14682 -0.1432 255 255 0 255
-0.29237 0.435953 2.17629 0.854778 0.0749459 -0.513555 0 255 0 255
-0.285141 0.437294 2.18287 0.661276 0.408933 -0.628879 0 255 0 255
-0.277034 0.438499 2.18881 0.710282 0.354066 -0.608388 0 255 0 255
-0.275012 0.440705 2.19935 0.887548 0.11436 -0.446297 0 255 0 255
-0.272991 0.442912 2.20988 0.724069 -0.183141 -0.664969 0 255 0 255
-0.262255 0.443708 2.21392 0.471309 -0.149673 -0.869175 0 255 0 255
-0.237545 0.442269 2.20769 -0.110764 0.268158 -0.956986 0 255 0 255
-0.218038 0.441696 2.20543 0.307114 0.483946 -0.819437 0 255 0 255
-0.208992 0.442817 2.21095 0.66565 0.494262 -0.559121 0 255 0 255
-0.205184 0.444779 2.22033 0.657352 0.453078 -0.60217 0 255 0 255
-0.198749 0.446328 2.2278 0.703202 0.234005 -0.671378 0 255 0 255
-0.191431 0.447745 2.23466 0.856216 -0.0984959 -0.507141 0 255 0 255
-0.187615 0.449716 2.24407 0.867837 -0.407662 -0.284025 0 255 0 255
-0.182042 0.451416 2.25221 0.730806 -0.568578 -0.377678 0 255 0 255
-0.175587 0.452985 2.25975 0.475309 -0.517763 -0.711339 0 255 0 255
-0.162091 0.453474 2.26233 0.158665 -0.205135 -0.965787 0 255 0 255
-0.147699 0.453841 2.26435 0.124831 -0.100517 -0.987073 0 255 0 255
-0.134167 0.454358 2.26704 0.252053 -0.310773 -0.916455 0 255 0 255
-0.1215 0.455023 2.27042 0.264538 -0.429666 -0.86337 0 255 0 255
-0.109699 0.455833 2.27445 0.460252 -0.287818 -0.839838 0 255 0 255
-0.100531 0.457054 2.28037 0.429565 -0.010994 -0.902969 0 255 0 255
-0.089587 0.458019 2.2851 0.337318 -0.210289 -0.917603 0 255 0 255
-0.07686 0.458731 2.28867 -0.36614 -0.7566 -0.541754 0 255 0 255
-0.356045 0.445614 2.173 0.889711 -0.264439 0.372137 255 0 0 255
-0.345624 0.439896 2.145 0.635687 0.267076 0.724274 255 0 0 255
-0.338682 0.438483 2.138 0.628034 0.186359 0.755542 255 0 0 255
-0.332087 0.43748 2.133 0.530306 0.0573036 0.845867 255 0 0 255
-0.325979 0.437093 2.131 0.406289 0.0911072 0.909191 255 0 0 255
-0.31973 0.4365 2.128 0.450624 0.202443 0.869457 255 0 0 255
-0.313496 0.435906 2.125 0.510225 0.269203 0.816823 255 0 0 255
-0.306989 0.434902 2.12 0.464358 0.240378 0.852403 255 0 0 255
-0.300934 0.434513 2.118 0.122775 0.296202 0.947201 255 0 0 255
-0.295308 0.434739 2.119 -0.301183 0.274571 0.913181 255 0 0 255
-0.289949 0.435375 2.122 -0.349333 0.364687 0.863117 255 0 0 255
-0.284438 0.435806 2.124 -0.150097 0.315985 0.936816 255 0 0 255
-0.278654 0.435826 2.124 0.340726 0.281981 0.896879 255 0 0 255
-0.272355 0.435026 2.12 0.563375 0.229637 0.793647 255 0 0 255
-0.265951 0.434019 2.115 0.517887 0.323027 0.792115 255 0 0 255
-0.25982 0.433423 2.112 0.263425 0.365456 0.892776 255 0 0 255
-0.254066 0.433442 2.112 0.063039 0.373001 0.925687 255 0 0 255
-0.248193 0.433255 2.111 0.31356 0.237362 0.919423 255 0 0 255
-0.24221 0.432863 2.109 0.529289 0.141309 0.836591 255 0 0 255
-0.236013 0.432059 2.105 0.466145 0.16251 0.869655 255 0 0 255
-0.230056 0.431666 2.103 0.337346 0.153172 0.928836 255 0 0 255
-0.22411 0.431273 2.101 0.444145 0.233875 0.864892 255 0 0 255
-0.217965 0.430469 2.097 0.422574 0.10013 0.90078 255 0 0 255
-0.212045 0.430074 2.095 0.203365 0.167641 0.964645 255 0 0 255
-0.206233 0.429885 2.094 0.000405355 0.205656 0.978624 255 0 0 255
-0.200617 0.430106 2.095 0.0913391 0.206712 0.974129 255 0 0 255
-0.194717 0.429711 2.093 0.201915 0.279572 0.938653 255 0 0 255
-0.188917 0.42952 2.092 0.0297936 0.340841 0.939649 255 0 0 255
-0.183209 0.429535 2.092 -0.149429 0.313394 0.937793 255 0 0 255
-0.177671 0.429959 2.094 -0.150474 0.251354 0.956127 255 0 0 255
-0.172039 0.430178 2.095 -0.180962 0.213275 0.960087 255 0 0 255
-0.16648 0.430602 2.097 -0.0281251 0.121372 0.992208 255 0 0 255
-0.160604 0.430204 2.095 -0.059065 0.12147 0.990836 255 0 0 255
-0.154959 0.430422 2.096 -0.120958 0.105619 0.987023 255 0 0 255
-0.149167 0.430229 2.095 0.088266 -0.0494024 0.994871 255 0 0 255
-0.143447 0.43024 2.095 0.0885733 -0.0570454 0.994435 255 0 0 255
-0.137728 0.430252 2.095 0.0587467 -0.0559394 0.996704 255 0 0 255
-0.131944 0.430057 2.094 0.060894 -0.0662288 0.995945 255 0 0 255
-0.126166 0.429862 2.093 0.159337 0.0198383 0.987025 255 0 0 255
-0.120336 0.429461 2.091 0.112836 -0.0190533 0.993431 255 0 0 255
-0.11468 0.429676 2.092 -0.0272489 0.282157 0.958981 255 0 0 255
-0.108967 0.429685 2.092 0.129299 0.267877 0.954737 255 0 0 255
-0.103204 0.429488 2.091 0.273275 0.242815 0.930785 255 0 0 255
-0.097446 0.429291 2.09 0.289819 0.19045 0.937941 255 0 0 255
-0.091649 0.428888 2.088 0.339371 0.0804051 0.93721 255 0 0 255
-0.085863 0.428484 2.086 0.20815 0.0431793 0.977143 255 0 0 255
-0.080203 0.428696 2.087 -0.122897 0.18292 0.975416 255 0 0 255
-0.074537 0.428908 2.088 -0.240286 0.239728 0.940634 255 0 0 255
-0.068898 0.429325 2.09 -0.179167 0.333087 0.925717 255 0 0 255
-0.063188 0.42933 2.09 -0.029726 0.364192 0.930849 255 0 0 255
-0.05745 0.42913 2.089 0.00032657 0.273956 0.961742 255 0 0 255
-0.051742 0.429134 2.089 -0.23926 0.130264 0.962178 255 0 0 255
-0.046078 0.429549 2.091 -0.153724 0.17376 0.972716 255 0 0 255
-0.040364 0.429552 2.091 -0.0299332 0.110563 0.993418 255 0 0 255
-0.034683 0.429966 2.093 -0.0899924 0.160165 0.982979 255 0 0 255
-0.028964 0.429969 2.093 -0.150593 0.211598 0.965685 255 0 0 255
-0.023255 0.430177 2.094 -0.315259 0.246002 0.916567 255 0 0 255
-0.01755 0.430589 2.096 -0.289973 0.233296 0.928164 255 0 0 255
-0.011828 0.430796 2.097 -0.261852 0.176647 0.948804 255 0 0 255
-0.006103 0.431207 2.099 -0.205316 0.152999 0.966663 255 0 0 255
-0.000367 0.431413 2.1 -0.148085 0.187978 0.970945 255 0 0 255
0.005375 0.431618 2.101 -0.285647 0.235434 0.928965 255 0 0 255
0.011127 0.432029 2.103 -0.534252 0.191445 0.823362 255 0 0 255
0.016906 0.432849 2.107 -0.555809 0.197027 0.807625 255 0 0 255
0.022696 0.433464 2.11 -0.507348 0.29956 0.807999 255 0 0 255
0.028516 0.434283 2.114 -0.537936 0.314529 0.78211 255 0 0 255
0.034358 0.435103 2.118 -0.585254 0.303697 0.751828 255 0 0 255
0.040221 0.435921 2.122 -0.587582 0.266164 0.764136 255 0 0 255
0.046106 0.436739 2.126 -0.3792 0.286258 0.879923 255 0 0 255
0.05194 0.436941 2.127 -0.424162 0.33657 0.840718 255 0 0 255
0.057888 0.437963 2.132 -0.645893 0.361395 0.67247 255 0 0 255
0.063922 0.439396 2.139 -0.787952 0.355128 0.503006 255 0 0 255
0.070158 0.441856 2.151 -0.842704 0.389668 0.371496 255 0 0 255
0.076353 0.443699 2.16 -0.741937 0.447439 0.499328 255 0 0 255
0.082482 0.444925 2.166 -0.55909 0.554429 0.616463 255 0 0 255
0.088522 0.445534 2.169 -0.37057 0.621641 0.690101 255 0 0 255
0.094578 0.446143 2.172 -0.301356 0.634819 0.71147 255 0 0 255
0.100603 0.446546 2.174 -0.130272 0.523082 0.842268 255 0 0 255
0.106541 0.446537 2.174 -0.14798 0.41833 0.89616 255 0 0 255
0.112531 0.446734 2.175 -0.446669 0.267586 0.853747 255 0 0 255
0.118689 0.447546 2.179 -0.600582 0.324822 0.730611 255 0 0 255
0.124983 0.448769 2.185 -0.674111 0.35195 0.649389 255 0 0 255
-0.109076 0.516092 2.27028 0.681695 -0.20958 -0.700976 255 255 0 255
-0.099326 0.514799 2.26429 -0.0532276 -0.301007 -0.952135 255 255 0 255
-0.08614 0.513836 2.26082 -0.119448 -0.342106 -0.932038 255 255 0 255
-0.071252 0.513045 2.25864 -0.172204 -0.26864 -0.947723 255 255 0 255
-0.058969 0.512022 2.25465 -0.417651 -0.161136 -0.894205 255 255 0 255
-0.047563 0.510927 2.25009 -0.465053 -0.100814 -0.879524 255 255 0 255
-0.031881 0.510253 2.24871 -0.0280213 -0.0772671 -0.996617 255 255 0 255
-0.00765 0.51042 2.25371 0.135832 -0.03997 -0.989925 255 255 0 255
0.013967 0.51036 2.25693 -0.0949259 -0.198668 -0.975459 255 255 0 255
0.031268 0.509901 2.25708 -0.282693 -0.514078 -0.80982 255 255 0 255
0.046831 0.509289 2.25603 -0.458904 -0.65568 -0.599576 255 255 0 255
0.054684 0.507928 2.24928 -0.565628 -0.724567 -0.393785 255 255 0 255
0.058263 0.506147 2.23935 -0.598128 -0.752013 -0.276983 255 255 0 255
0.063547 0.504537 2.23071 -0.578975 -0.738557 -0.34543 255 255 0 255
0.073934 0.503446 2.22596 -0.844214 -0.41984 -0.333222 255 255 0 255
0.076654 0.501585 2.21539 0.990845 0.10826 -0.0806561 255 255 0 255
0.06324 0.498073 2.19242 0.878792 -0.135558 -0.457547 255 255 0 255
-0.298473 0.421644 2.15791 0.999774 -0.0212051 -0.00131681 0 255 0 255
-0.294718 0.423553 2.16713 0.942279 -0.0992234 -0.31979 0 255 0 255
