ply
format ascii 1.0
comment VCGLIB generated
element vertex 728
property float x
property float y
property float z
property float nx
property float ny
property float nz
property uchar red
property uchar green
property uchar blue
property uchar alpha
element face 0
property list uchar int vertex_indices
end_header
-0.0523 0.417885 2.28282 -0.884399 0.0894078 -0.458088 255 255 0 255
-0.047767 0.416154 2.27323 -0.837684 -0.140596 -0.527749 255 255 0 255
-0.038959 0.414951 2.26676 -0.903291 -0.149754 -0.402043 255 255 0 255
-0.041269 0.412377 2.25221 -0.935349 -0.182588 -0.302958 255 255 0 255
-0.041005 0.410117 2.23951 -0.657829 0.298188 -0.691625 255 255 0 255
-0.02198 0.410204 2.24059 -0.795882 0.0747594 -0.600819 255 255 0 255
0.053405 0.415165 2.27086 0.935264 -0.0727464 -0.346395 255 255 0 255
0.109685 0.42008 2.30026 0.604127 0.119078 -0.787941 255 255 0 255
0.137839 0.421468 2.30893 -0.206541 -0.0463805 -0.977338 255 255 0 255
0.152373 0.421138 2.30751 0.0348034 -0.455037 -0.889792 255 255 0 255
0.160953 0.420054 2.30166 0.871994 0.310853 -0.37815 255 255 0 255
-0.293373 0.346246 2.24851 0.925387 0.0875254 -0.368779 0 255 0 255
-0.295691 0.349311 2.26219 0.722612 -0.655371 -0.219821 0 255 0 255
-0.291076 0.351045 2.27075 0.260192 0.298579 -0.918233 0 255 0 255
-0.270822 0.349812 2.26792 -0.734427 -0.46369 -0.495589 0 255 0 255
-0.249669 0.348436 2.26456 -0.00937665 0.262969 -0.964759 0 255 0 255
-0.212822 0.344131 2.24999 0.0827673 0.0640142 -0.994511 0 255 0 255
-0.200843 0.347217 2.26569 -0.987919 -0.154951 -0.00259206 0 255 0 255
-0.204878 0.350633 2.28069 0.971533 0.191625 -0.139296 0 255 0 255
-0.198448 0.3521 2.28823 0.856673 0.123479 -0.500864 0 255 0 255
-0.192013 0.353572 2.2958 0.880192 0.00814968 -0.474548 0 255 0 255
-0.190819 0.356013 2.30706 0.853144 0.0223039 -0.521199 0 255 0 255
-0.182626 0.357171 2.31343 0.514512 -0.090774 -0.852665 0 255 0 255
-0.16829 0.357219 2.31557 0.215892 -0.196566 -0.956427 0 255 0 255
-0.153936 0.357281 2.31777 0.550383 -0.38379 -0.741475 0 255 0 255
-0.147461 0.358785 2.32546 0.740539 -0.382718 -0.552385 0 255 0 255
-0.144494 0.360927 2.33558 0.479947 -0.361773 -0.799232 0 255 0 255
-0.12834 0.360706 2.33672 0.126822 -0.248457 -0.960305 0 255 0 255
-0.114804 0.360974 2.33973 0.551468 -0.0310864 -0.833617 0 255 0 255
-0.096846 0.360472 2.33984 -0.207839 -0.353991 -0.911863 0 255 0 255
-0.08239 0.360614 2.34239 0.0728544 -0.372943 -0.92499 0 255 0 255
-0.383472 0.396302 2.228 0.827177 -0.206704 0.522543 255 0 0 255
-0.374872 0.393658 2.213 0.75363 0.000756412 0.657299 255 0 0 255
-0.368021 0.392791 2.208 0.576058 0.0489443 0.815943 255 0 0 255
-0.361359 0.392102 2.204 0.443515 0.0375699 0.895479 255 0 0 255
-0.355202 0.391947 2.203 0.14238 0.0240809 0.989519 255 0 0 255
-0.349208 0.39197 2.203 -0.139701 -0.0291159 0.989766 255 0 0 255
-0.343525 0.392348 2.205 -0.140538 -0.000611361 0.990075 255 0 0 255
-0.337524 0.39237 2.205 -0.176572 0.0278887 0.983893 255 0 0 255
-0.331672 0.392569 2.206 0.18347 0.135963 0.973577 255 0 0 255
-0.325224 0.392057 2.203 0.451355 0.260558 0.853457 255 0 0 255
-0.31879 0.391544 2.2 0.195417 0.309007 0.930767 255 0 0 255
-0.312657 0.391387 2.199 -0.207017 0.322466 0.923666 255 0 0 255
-0.307087 0.391941 2.202 -0.684288 0.15657 0.712205 255 0 0 255
-0.301909 0.39303 2.208 -0.725767 0.240493 0.644535 255 0 0 255
-0.296564 0.39394 2.213 -0.769509 0.375285 0.516736 255 0 0 255
-0.291715 0.395562 2.222 -0.874208 0.348612 0.337979 255 0 0 255
-0.28746 0.398074 2.236 -0.791811 0.489243 0.365619 255 0 0 255
-0.281618 0.39845 2.238 0.359695 0.680402 0.638493 255 0 0 255
-0.273917 0.396154 2.225 0.723185 0.547229 0.421359 255 0 0 255
-0.264841 0.391721 2.2 0.794482 0.536983 0.283633 255 0 0 255
-0.257431 0.389603 2.188 0.723329 0.551911 0.414957 255 0 0 255
-0.250545 0.388196 2.18 0.624149 0.610152 0.488009 255 0 0 255
-0.243927 0.387145 2.174 0.592025 0.663202 0.457897 255 0 0 255
-0.237121 0.385737 2.166 0.629036 0.645408 0.433314 255 0 0 255
-0.230359 0.384329 2.158 0.533039 0.683005 0.499373 255 0 0 255
-0.224055 0.383633 2.154 0.419568 0.694907 0.584009 255 0 0 255
-0.217773 0.382936 2.15 0.395765 0.713795 0.577812 255 0 0 255
-0.211511 0.382239 2.146 0.457752 0.617895 0.639272 255 0 0 255
-0.205175 0.381363 2.141 0.449425 0.496202 0.742833 255 0 0 255
-0.198959 0.380666 2.137 0.0609921 0.35438 0.93311 255 0 0 255
-0.193216 0.380858 2.138 -0.203178 0.374286 0.904781 255 0 0 255
-0.187467 0.38105 2.139 -0.257582 0.379807 0.888481 255 0 0 255
-0.181796 0.38142 2.141 -0.0272041 0.386104 0.922054 255 0 0 255
-0.175868 0.381255 2.14 0.170608 0.369276 0.913525 255 0 0 255
-0.170024 0.381267 2.14 0.19097 0.433697 0.88059 255 0 0 255
-0.164025 0.380923 2.138 0.0969146 0.472649 0.875906 255 0 0 255
-0.158112 0.380757 2.137 -0.0841213 0.475484 0.875693 255 0 0 255
-0.152345 0.380947 2.138 -0.0652257 0.521695 0.850635 255 0 0 255
-0.146573 0.381136 2.139 0.218561 0.47183 0.854171 255 0 0 255
-0.140532 0.380612 2.136 0.501443 0.290311 0.81503 255 0 0 255
-0.134443 0.37991 2.132 0.39238 0.263518 0.881247 255 0 0 255
-0.128617 0.379919 2.132 0.00280006 0.186489 0.982453 255 0 0 255
-0.122849 0.380107 2.133 0.161306 0.109227 0.980841 255 0 0 255
-0.116855 0.379582 2.13 0.562889 0.204302 0.800885 255 0 0 255
-0.11072 0.378521 2.124 0.314238 0.452289 0.834679 255 0 0 255
-0.104865 0.378351 2.123 -0.107472 0.584368 0.804341 255 0 0 255
-0.099155 0.378715 2.125 -0.231969 0.597416 0.767649 255 0 0 255
-0.093434 0.379079 2.127 -0.197072 0.49521 0.846127 255 0 0 255
-0.087661 0.379264 2.128 -0.0587479 0.333348 0.940972 255 0 0 255
-0.081843 0.37927 2.128 -0.0288822 0.16427 0.985993 255 0 0 255
-0.076025 0.379276 2.128 0.148345 0.165093 0.975058 255 0 0 255
-0.07014 0.378925 2.126 0.283726 0.138143 0.948903 255 0 0 255
-0.064267 0.378574 2.124 0.00824289 0.327355 0.944866 255 0 0 255
-0.058514 0.378935 2.126 -0.0564137 0.454462 0.888978 255 0 0 255
-0.0527 0.37894 2.126 -0.16395 0.494288 0.853697 255 0 0 255
-0.046908 0.379122 2.127 -0.277917 0.422998 0.862458 255 0 0 255
-0.041111 0.379303 2.128 -0.452088 0.382585 0.805757 255 0 0 255
-0.035358 0.380019 2.132 -0.553622 0.365894 0.74808 255 0 0 255
-0.029596 0.380913 2.137 -0.564698 0.4249 0.707514 255 0 0 255
-0.023785 0.38145 2.14 -0.541293 0.446898 0.712239 255 0 0 255
-0.017983 0.382521 2.146 -0.533602 0.363165 0.763793 255 0 0 255
-0.01213 0.383057 2.149 -0.57845 0.294841 0.760569 255 0 0 255
-0.006271 0.384127 2.155 -0.547976 0.365015 0.752653 255 0 0 255
-0.000377 0.384305 2.156 -0.558308 0.40188 0.725799 255 0 0 255
0.005535 0.385375 2.162 -0.681801 0.334147 0.650763 255 0 0 255
0.011475 0.386265 2.167 -0.74199 0.37304 0.557039 255 0 0 255
0.017474 0.387868 2.176 -0.779567 0.411342 0.472307 255 0 0 255
0.023511 0.389293 2.184 -0.773338 0.500728 0.388869 255 0 0 255
0.029659 0.391608 2.197 -0.82867 0.495358 0.260626 255 0 0 255
0.035992 0.39517 2.217 -0.872707 0.458461 0.167916 255 0 0 255
0.042549 0.399802 2.243 -0.914718 0.285847 0.285627 255 0 0 255
0.049095 0.403185 2.262 -0.78806 0.387763 0.478123 255 0 0 255
0.055525 0.404963 2.272 -0.861 0.180689 0.475427 255 0 0 255
0.110696 0.402233 2.257 0.848602 0.515096 0.120628 255 0 0 255
0.116036 0.399373 2.241 0.697194 0.613457 0.370931 255 0 0 255
0.121725 0.397938 2.233 0.618401 0.631381 0.467908 255 0 0 255
0.127599 0.397216 2.229 0.448446 0.682616 0.577003 255 0 0 255
0.133391 0.396315 2.224 0.300542 0.60964 0.733494 255 0 0 255
0.139405 0.396127 2.223 0.20341 0.3339 0.920399 255 0 0 255
0.145348 0.39576 2.221 0.225746 0.0953577 0.969508 255 0 0 255
0.151417 0.395749 2.221 -0.0593285 0.0809695 0.994949 255 0 0 255
0.157626 0.396093 2.223 -0.465405 0.00417516 0.885088 255 0 0 255
0.164067 0.396972 2.228 -0.621518 -0.0423663 0.782254 255 0 0 255
0.170534 0.397851 2.233 -0.562804 -0.0841356 0.822297 255 0 0 255
0.17687 0.398373 2.236 -0.433059 -0.0812066 0.8977 255 0 0 255
0.183222 0.398894 2.239 -0.330922 -0.0281033 0.943239 255 0 0 255
0.189336 0.39888 2.239 -0.497187 0.0412426 0.866663 255 0 0 255
0.196148 0.400291 2.247 -0.798913 0.0719627 0.597126 255 0 0 255
0.203273 0.402236 2.258 -0.853626 0.24123 0.46166 255 0 0 255
0.210921 0.405071 2.274 -0.849143 0.282735 0.446112 255 0 0 255
-0.119643 0.417231 2.33958 0.0803736 -0.601309 -0.794964 255 255 0 255
-0.109019 0.416202 2.33403 -0.541188 -0.369707 -0.755269 255 255 0 255
-0.099272 0.415075 2.32793 -0.184531 -0.43075 -0.883404 255 255 0 255
-0.081536 0.412632 2.31462 -0.750301 -0.24673 -0.613329 255 255 0 255
-0.073545 0.411313 2.3074 -0.720229 0.0495709 -0.691964 255 255 0 255
-0.060412 0.410638 2.30387 -0.704382 0.291175 -0.64735 255 255 0 255
-0.058446 0.408585 2.29244 -0.720496 0.334087 -0.607678 255 255 0 255
-0.049625 0.407389 2.28591 -0.758081 0.0347983 -0.651231 255 255 0 255
-0.04167 0.406091 2.2788 -0.69966 -0.282307 -0.656337 255 255 0 255
-0.034579 0.40469 2.27109 -0.828587 -0.405413 -0.386114 255 255 0 255
-0.049421 0.398196 2.23451 -0.226419 0.507888 -0.831134 255 255 0 255
-0.032097 0.398106 2.23429 -0.57236 0.33816 -0.747029 255 255 0 255
0.006478 0.400776 2.2499 -0.0921458 -0.113887 -0.989211 255 255 0 255
0.046679 0.403704 2.26697 0.854333 -0.223242 -0.469338 255 255 0 255
0.096994 0.408001 2.29187 0.973392 -0.050073 -0.223608 255 255 0 255
0.132786 0.410458 2.30621 0.10796 -0.604997 -0.788875 255 255 0 255
0.157492 0.411498 2.31244 -0.0664813 -0.463577 -0.883559 255 255 0 255
0.169452 0.41088 2.30916 -0.038628 -0.464024 -0.88498 255 255 0 255
-0.291976 0.335655 2.24863 0.500278 -0.702742 -0.505841 0 255 0 255
-0.293422 0.338569 2.26168 0.720417 -0.525598 -0.452489 0 255 0 255
-0.285334 0.339628 2.26771 0.62908 -0.151461 -0.762442 0 255 0 255
-0.268557 0.339019 2.26744 -0.915156 -0.0346383 -0.401608 0 255 0 255
-0.195455 0.332981 2.25087 0.915626 0.0448221 -0.399524 0 255 0 255
-0.195987 0.335766 2.26344 -0.990425 -0.133245 -0.0361112 0 255 0 255
-0.200884 0.339372 2.27907 0.994073 0.0883696 -0.0633293 0 255 0 255
-0.199687 0.341819 2.29034 0.941615 0.0301039 -0.335343 0 255 0 255
-0.193253 0.343281 2.29791 0.85476 -0.135845 -0.500931 0 255 0 255
-0.191183 0.345565 2.30855 0.760091 0.0214488 -0.649463 0 255 0 255
-0.181242 0.346383 2.31371 0.526392 0.00524591 -0.850226 0 255 0 255
-0.170414 0.347049 2.3183 0.487443 -0.219814 -0.845033 0 255 0 255
-0.161325 0.348048 2.32414 0.582981 -0.519783 -0.624467 0 255 0 255
-0.15398 0.349377 2.33121 0.603337 -0.509292 -0.613683 0 255 0 255
-0.145749 0.350552 2.33772 0.332207 -0.366473 -0.869101 0 255 0 255
-0.127846 0.349974 2.33768 0.10386 -0.226082 -0.968556 0 255 0 255
-0.115193 0.350372 2.3413 0.327426 -0.100811 -0.939483 0 255 0 255
-0.098124 0.349987 2.34202 -0.441687 -0.305398 -0.843591 0 255 0 255
-0.081031 0.34962 2.34281 0.131917 -0.357701 -0.924472 0 255 0 255
-0.068322 0.350061 2.34662 -0.816799 -0.331883 -0.471903 0 255 0 255
-0.382979 0.38972 2.225 0.72949 -0.165828 0.663585 255 0 0 255
-0.375234 0.387992 2.215 0.722739 -0.0476499 0.689477 255 0 0 255
-0.368043 0.386788 2.208 0.58786 0.0340921 0.808244 255 0 0 255
-0.361546 0.386286 2.205 0.395151 0.0908943 0.914108 255 0 0 255
-0.355063 0.385782 2.202 0.021347 0.138099 0.990188 255 0 0 255
-0.34923 0.38598 2.203 -0.187696 0.203041 0.961012 255 0 0 255
-0.343391 0.386177 2.204 -0.218041 0.318631 0.92246 255 0 0 255
-0.337545 0.386374 2.205 -0.157632 0.232153 0.959821 255 0 0 255
-0.331844 0.386746 2.207 0.125128 0.153264 0.980231 255 0 0 255
-0.32554 0.386417 2.205 0.311824 0.266682 0.911946 255 0 0 255
-0.319246 0.386087 2.203 0.217548 0.377924 0.899915 255 0 0 255
-0.312678 0.385407 2.199 -0.0804006 0.390426 0.917117 255 0 0 255
-0.307246 0.386129 2.203 -0.684514 0.27947 0.673303 255 0 0 255
-0.302202 0.387376 2.21 -0.773854 0.288383 0.563901 255 0 0 255
-0.29712 0.388623 2.217 -0.816724 0.371276 0.441719 255 0 0 255
-0.292392 0.390395 2.227 -0.899036 0.33705 0.279519 255 0 0 255
-0.287994 0.392694 2.24 -0.75397 0.514145 0.408881 255 0 0 255
-0.282895 0.394116 2.248 -0.122405 0.829663 0.544681 255 0 0 255
-0.276152 0.393258 2.243 0.335389 0.80988 0.481257 255 0 0 255
-0.266906 0.388718 2.217 0.834188 0.502272 0.227713 255 0 0 255
-0.258861 0.385756 2.2 0.705708 0.63988 0.304188 255 0 0 255
-0.251367 0.383494 2.187 0.636468 0.663755 0.39286 255 0 0 255
-0.244842 0.382634 2.182 0.630932 0.641415 0.436477 255 0 0 255
-0.238014 0.381248 2.174 0.699803 0.559816 0.443714 255 0 0 255
-0.231229 0.379862 2.166 0.685149 0.548598 0.479178 255 0 0 255
-0.224591 0.37865 2.159 0.545193 0.528364 0.650843 255 0 0 255
-0.218497 0.378315 2.157 0.486088 0.580975 0.65283 255 0 0 255
-0.212118 0.377453 2.152 0.598188 0.471754 0.64778 255 0 0 255
-0.205765 0.376591 2.147 0.571024 0.526254 0.63007 255 0 0 255
-0.199253 0.375378 2.14 0.225441 0.668183 0.709018 255 0 0 255
-0.193501 0.375568 2.141 -0.10307 0.679444 0.726452 255 0 0 255
-0.187743 0.375757 2.142 -0.179846 0.562112 0.80727 255 0 0 255
-0.182064 0.376121 2.144 0.00214299 0.460629 0.88759 255 0 0 255
-0.176045 0.375783 2.142 0.0849409 0.423389 0.901957 255 0 0 255
-0.170116 0.37562 2.141 0.153407 0.438726 0.885429 255 0 0 255
-0.164191 0.375457 2.14 0.0496337 0.452168 0.890551 255 0 0 255
-0.158345 0.375469 2.14 -0.0316132 0.475209 0.879305 255 0 0 255
-0.152642 0.375831 2.142 -0.0574855 0.303954 0.950951 255 0 0 255
-0.146721 0.375667 2.141 0.318113 0.223465 0.92134 255 0 0 255
-0.14074 0.375326 2.139 0.52487 0.0911837 0.846284 255 0 0 255
-0.134516 0.374284 2.133 0.502281 0.0768556 0.861282 255 0 0 255
-0.128567 0.373943 2.131 0.0624232 -0.0238355 0.997765 255 0 0 255
-0.122743 0.373952 2.131 0.0633913 0.00497389 0.997976 255 0 0 255
-0.116863 0.373785 2.13 0.400583 0.159383 0.902292 255 0 0 255
-0.110885 0.373268 2.127 0.161258 0.398267 0.902984 255 0 0 255
-0.105071 0.373276 2.127 -0.142618 0.464924 0.873789 255 0 0 255
-0.099396 0.37381 2.13 -0.2894 0.370604 0.882553 255 0 0 255
-0.093617 0.373993 2.131 -0.0592794 0.28072 0.957957 255 0 0 255
-0.08775 0.373824 2.13 0.0911784 0.151413 0.984256 255 0 0 255
-0.081887 0.373655 2.129 0.145805 0.0846774 0.985683 255 0 0 255
-0.07603 0.373485 2.128 0.144903 0.0741082 0.986667 255 0 0 255
-0.070179 0.373315 2.127 0.0925949 0.144076 0.985225 255 0 0 255
-0.064362 0.37332 2.127 -0.178283 0.315445 0.932046 255 0 0 255
-0.058601 0.373676 2.129 -0.198098 0.417159 0.886981 255 0 0 255
-0.052778 0.37368 2.129 -0.161939 0.515259 0.841596 255 0 0 255
-0.047 0.374035 2.131 -0.229339 0.572622 0.787088 255 0 0 255
-0.041211 0.374389 2.133 -0.449799 0.552421 0.701792 255 0 0 255
-0.035443 0.375095 2.137 -0.598997 0.519652 0.609233 255 0 0 255
-0.029682 0.37615 2.143 -0.470422 0.502615 0.725315 255 0 0 255
-0.023843 0.376503 2.145 -0.448171 0.500024 0.741026 255 0 0 255
-0.018009 0.377207 2.149 -0.481245 0.379664 0.7901 255 0 0 255
-0.012143 0.377559 2.151 -0.592815 0.227961 0.772402 255 0 0 255
-0.006277 0.378613 2.157 -0.587551 0.317318 0.744375 255 0 0 255
-0.000377 0.378964 2.159 -0.577166 0.37282 0.726557 255 0 0 255
0.005543 0.380017 2.165 -0.67383 0.378574 0.634536 255 0 0 255
0.011497 0.38107 2.171 -0.759604 0.421585 0.495246 255 0 0 255
0.017523 0.383 2.182 -0.795189 0.501699 0.340547 255 0 0 255
0.023631 0.38528 2.195 -0.763247 0.593558 0.25523 255 0 0 255
0.029824 0.387735 2.209 -0.804202 0.550702 0.223576 255 0 0 255
0.036206 0.391419 2.23 -0.892111 0.390674 0.226962 255 0 0 255
0.042666 0.394751 2.249 -0.92746 0.229816 0.294962 255 0 0 255
0.04912 0.397204 2.263 -0.830513 0.131562 0.541239 255 0 0 255
0.055529 0.39878 2.272 -0.64602 0.113223 0.754877 255 0 0 255
0.111685 0.399601 2.277 0.798274 0.453969 0.395816 255 0 0 255
0.116511 0.394854 2.25 0.791555 0.541273 0.283661 255 0 0 255
0.122062 0.392915 2.239 0.747556 0.469251 0.470068 255 0 0 255
0.127838 0.391852 2.233 0.649178 0.459017 0.606525 255 0 0 255
0.133641 0.390965 2.228 0.58424 0.425938 0.690826 255 0 0 255
0.139604 0.390604 2.226 0.489072 0.342361 0.802246 255 0 0 255
0.145425 0.389892 2.222 0.356609 0.137319 0.924107 255 0 0 255
0.151428 0.389705 2.221 -0.117954 0.0614858 0.991114 255 0 0 255
0.157567 0.389869 2.222 -0.483889 0.0676196 0.872513 255 0 0 255
0.163932 0.390559 2.226 -0.580599 0.0696339 0.811207 255 0 0 255
0.170318 0.391249 2.23 -0.544767 0.0154448 0.838445 255 0 0 255
0.176804 0.392113 2.235 -0.495789 0.0486596 0.867079 255 0 0 255
0.183154 0.392627 2.238 -0.427285 0.106284 0.897848 255 0 0 255
0.189519 0.393139 2.241 -0.622698 0.204721 0.755206 255 0 0 255
0.196424 0.394704 2.25 -0.796311 0.262055 0.545175 255 0 0 255
0.204008 0.397497 2.266 -0.837821 0.282376 0.467247 255 0 0 255
0.2114 0.399762 2.279 -0.876261 0.245812 0.414419 255 0 0 255
-0.134487 0.406782 2.34353 0.412473 0.121505 -0.90283 255 255 0 255
-0.116938 0.406612 2.34268 -0.216498 -0.0828491 -0.972761 255 255 0 255
-0.105456 0.40571 2.33773 -0.321877 -0.0997016 -0.941517 255 255 0 255
-0.094853 0.40471 2.33222 -0.354289 -0.119813 -0.927429 255 255 0 255
-0.086846 0.403395 2.32495 -0.602293 0.0106572 -0.798204 255 255 0 255
-0.073689 0.402733 2.32134 -0.919078 0.0199525 -0.393569 255 255 0 255
-0.069142 0.400997 2.31171 -0.85948 -0.00296919 -0.51116 255 255 0 255
-0.06717 0.398937 2.30027 -0.777097 0.243534 -0.580355 255 255 0 255
-0.065195 0.396875 2.28881 -0.783496 0.247026 -0.570187 255 255 0 255
-0.052087 0.396238 2.28532 -0.550286 -0.171061 -0.817266 255 255 0 255
-0.040709 0.395392 2.28066 -0.621196 -0.51859 -0.587521 255 255 0 255
-0.035328 0.39378 2.27171 0.953074 0.273291 -0.130239 255 255 0 255
-0.046166 0.390059 2.25097 0.969604 -0.218978 -0.10916 255 255 0 255
-0.065499 0.385208 2.2239 0.765741 -0.340751 -0.545463 255 255 0 255
-0.025751 0.385781 2.22721 -0.145311 0.123801 -0.98161 255 255 0 255
0.04421 0.392756 2.26624 0.70685 0.00395493 -0.707352 255 255 0 255
0.094505 0.397194 2.2911 0.875818 -0.192646 -0.442528 255 255 0 255
0.141309 0.401227 2.31368 0.223508 -0.328267 -0.917761 255 255 0 255
0.168537 0.402678 2.32183 0.0117032 -0.37601 -0.926542 255 255 0 255
0.171174 0.40083 2.31152 -0.0630971 -0.380625 -0.922574 255 255 0 255
-0.30155 0.329856 2.26881 -0.769121 0.15336 -0.62043 0 255 0 255
-0.290004 0.330213 2.27229 0.0945989 -0.390778 -0.915611 0 255 0 255
-0.278444 0.330582 2.27582 -0.318667 -0.389776 -0.864017 0 255 0 255
-0.221385 0.324759 2.25858 -0.043657 -0.451297 -0.891305 0 255 0 255
-0.200184 0.323329 2.25548 0.416223 -0.322002 -0.850337 0 255 0 255
-0.193751 0.324779 2.26306 -0.995274 0.0857955 -0.045486 0 255 0 255
-0.196897 0.328076 2.27746 -0.986917 -0.097184 -0.128644 0 255 0 255
-0.200054 0.331367 2.29183 0.967786 0.0326071 -0.249652 0 255 0 255
-0.195367 0.333152 2.30063 0.92062 -0.0735014 -0.383479 0 255 0 255
-0.189803 0.334775 2.30883 0.685053 -0.0465387 -0.727006 0 255 0 255
-0.176366 0.334914 2.31157 0.490881 0.0396246 -0.870325 0 255 0 255
-0.170787 0.336549 2.31982 0.694743 0.0363093 -0.718341 0 255 0 255
-0.164328 0.338024 2.32748 0.775248 -0.0969533 -0.624172 0 255 0 255
-0.158739 0.339668 2.33576 0.673802 -0.278529 -0.684407 0 255 0 255
-0.146129 0.34001 2.33926 0.215172 -0.27303 -0.937633 0 255 0 255
-0.130867 0.339877 2.34103 0.0785685 -0.24567 -0.966164 0 255 0 255
-0.114706 0.339597 2.34228 0.29178 -0.141013 -0.946034 0 255 0 255
-0.099403 0.339496 2.34419 -0.116441 -0.166826 -0.979087 0 255 0 255
-0.083198 0.339249 2.34559 -0.113929 -0.226771 -0.967262 0 255 0 255
-0.069614 0.339501 2.34882 -0.393747 -0.331454 -0.857381 0 255 0 255
-0.394647 0.389165 2.257 0.875525 -0.301634 0.377456 255 0 0 255
-0.382313 0.382981 2.221 0.596058 -0.338027 0.728322 255 0 0 255
-0.375257 0.381969 2.215 0.598858 -0.0995541 0.794643 255 0 0 255
-0.368066 0.380785 2.208 0.528754 0.0812845 0.844874 255 0 0 255
-0.361568 0.38029 2.205 0.354703 0.178284 0.917824 255 0 0 255
-0.355247 0.379967 2.203 -0.0163834 0.309468 0.950769 255 0 0 255
-0.349886 0.380679 2.207 -0.195154 0.424755 0.884024 255 0 0 255
-0.344036 0.380873 2.208 -0.140964 0.352553 0.925114 255 0 0 255
-0.338179 0.381068 2.209 -0.0291915 0.31477 0.948719 255 0 0 255
-0.331865 0.380744 2.207 0.0908553 0.218541 0.971589 255 0 0 255
-0.325856 0.380765 2.207 0.192834 0.254681 0.947604 255 0 0 255
-0.319557 0.380441 2.205 0.195307 0.384638 0.902169 255 0 0 255
-0.313409 0.380289 2.204 -0.0494298 0.382412 0.922669 255 0 0 255
-0.307685 0.380654 2.206 -0.561912 0.460547 0.687133 255 0 0 255
-0.302633 0.381882 2.213 -0.812552 0.295122 0.502654 255 0 0 255
-0.297675 0.383283 2.221 -0.84929 0.33019 0.411923 255 0 0 255
-0.292936 0.385028 2.231 -0.908905 0.320387 0.266917 255 0 0 255
-0.288656 0.387464 2.245 -0.769993 0.528432 0.357589 255 0 0 255
-0.284299 0.389899 2.259 -0.780208 0.433047 0.451383 255 0 0 255
-0.277894 0.389573 2.257 0.174452 0.838705 0.515889 255 0 0 255
-0.269453 0.386312 2.238 0.737638 0.609703 0.290089 255 0 0 255
-0.260644 0.38236 2.215 0.817848 0.49224 0.298035 255 0 0 255
-0.252994 0.379961 2.201 0.751712 0.558001 0.351516 255 0 0 255
-0.246093 0.378597 2.193 0.751149 0.454467 0.478786 255 0 0 255
-0.239125 0.37706 2.184 0.737724 0.450974 0.50238 255 0 0 255
-0.232099 0.37535 2.174 0.763915 0.402499 0.504409 255 0 0 255
-0.225335 0.373985 2.166 0.670378 0.321326 0.668837 255 0 0 255
-0.219019 0.37331 2.162 0.599721 0.293367 0.744493 255 0 0 255
-0.212527 0.372289 2.156 0.625384 0.235213 0.744022 255 0 0 255
-0.206259 0.371613 2.152 0.469411 0.345414 0.812614 255 0 0 255
-0.200012 0.370937 2.148 0.263269 0.63407 0.727079 255 0 0 255
-0.193967 0.370605 2.146 0.0127695 0.663323 0.748225 255 0 0 255
-0.188195 0.370792 2.147 -0.0259342 0.456358 0.889418 255 0 0 255
-0.182247 0.370632 2.146 0.0667697 0.333532 0.940371 255 0 0 255
-0.176386 0.370645 2.146 0.174664 0.312144 0.933841 255 0 0 255
-0.170366 0.370312 2.144 0.202412 0.340525 0.918189 255 0 0 255
-0.16451 0.370324 2.144 0.114954 0.342365 0.932508 255 0 0 255
-0.158579 0.370163 2.143 0.0646918 0.209908 0.975579 255 0 0 255
-0.152724 0.370175 2.143 0.0996691 0.142045 0.98483 255 0 0 255
-0.1468 0.370013 2.142 0.405599 0.00314978 0.914046 255 0 0 255
-0.140618 0.36916 2.137 0.599842 -0.00038156 0.800118 255 0 0 255
-0.134463 0.368306 2.132 0.428934 0.0453784 0.902195 255 0 0 255
-0.128516 0.36797 2.13 0.0783532 0.0526701 0.995533 255 0 0 255
-0.122752 0.368152 2.131 -0.00979068 0.175342 0.984459 255 0 0 255
-0.116927 0.368161 2.131 0.125425 0.275932 0.952959 255 0 0 255
-0.11105 0.367997 2.13 0.196886 0.388014 0.900378 255 0 0 255
-0.105177 0.367832 2.129 -0.0276294 0.303324 0.952487 255 0 0 255
-0.09945 0.368185 2.131 -0.14914 0.129654 0.980279 255 0 0 255
-0.093624 0.368192 2.131 0.0584718 0.0641808 0.996224 255 0 0 255
-0.087756 0.368026 2.13 0.144321 0.0849847 0.985875 255 0 0 255
-0.081894 0.36786 2.129 0.173067 0.0952146 0.980297 255 0 0 255
-0.076 0.36752 2.127 0.0895803 0.103592 0.990578 255 0 0 255
-0.070217 0.367699 2.128 -0.05868 0.204758 0.977052 255 0 0 255
-0.064428 0.367876 2.129 -0.230877 0.246804 0.941161 255 0 0 255
-0.058688 0.368399 2.132 -0.283744 0.318924 0.90431 255 0 0 255
-0.052857 0.368404 2.132 -0.282193 0.38814 0.877334 255 0 0 255
-0.04707 0.368753 2.134 -0.324165 0.558745 0.763362 255 0 0 255
-0.041291 0.369275 2.137 -0.495489 0.49215 0.715737 255 0 0 255
-0.035529 0.370142 2.142 -0.590692 0.420054 0.68894 255 0 0 255
-0.029739 0.371008 2.147 -0.40716 0.360144 0.839355 255 0 0 255
-0.023878 0.371183 2.148 -0.372467 0.360155 0.855311 255 0 0 255
-0.018019 0.37153 2.15 -0.369842 0.36253 0.855447 255 0 0 255
-0.012149 0.371877 2.152 -0.573147 0.308289 0.75925 255 0 0 255
-0.00628 0.372914 2.158 -0.656436 0.287738 0.697351 255 0 0 255
-0.000378 0.373606 2.162 -0.612373 0.400026 0.681893 255 0 0 255
0.005551 0.374642 2.168 -0.706345 0.459489 0.538467 255 0 0 255
0.011529 0.376197 2.177 -0.767926 0.524665 0.367446 255 0 0 255
0.017597 0.378615 2.191 -0.774353 0.587952 0.233859 255 0 0 255
0.023751 0.381206 2.206 -0.753719 0.621339 0.214114 255 0 0 255
0.029988 0.383796 2.221 -0.822765 0.510762 0.249359 255 0 0 255
0.036323 0.386558 2.237 -0.882182 0.281487 0.377518 255 0 0 255
0.042726 0.389147 2.252 -0.844795 0.394914 0.36106 255 0 0 255
0.049168 0.39139 2.265 -0.70685 -0.00395492 0.707352 255 0 0 255
0.055558 0.392769 2.273 -0.693293 -0.0391098 0.719594 255 0 0 255
0.117038 0.390458 2.26 0.912915 0.367723 0.177102 255 0 0 255
0.122452 0.38803 2.246 0.787003 0.386849 0.480597 255 0 0 255
0.128191 0.386812 2.239 0.753026 0.319289 0.575332 255 0 0 255
0.13395 0.385765 2.233 0.667611 0.278074 0.69063 255 0 0 255
0.139677 0.384719 2.227 0.593849 0.221085 0.773605 255 0 0 255
0.145501 0.384017 2.223 0.466699 0.18 0.865905 255 0 0 255
0.151439 0.383661 2.221 -0.0941605 0.0744773 0.992767 255 0 0 255
0.157791 0.38434 2.225 -0.47985 0.140327 0.866056 255 0 0 255
0.164164 0.38502 2.229 -0.533852 0.107665 0.838696 255 0 0 255
0.170559 0.385698 2.233 -0.547568 0.0659502 0.834158 255 0 0 255
0.176896 0.386204 2.236 -0.575454 0.119033 0.809125 255 0 0 255
0.183331 0.386882 2.24 -0.495594 0.221203 0.839914 255 0 0 255
0.189786 0.387559 2.244 -0.701423 0.340708 0.626039 255 0 0 255
0.196875 0.389445 2.255 -0.809364 0.442296 0.386398 255 0 0 255
0.204292 0.391849 2.269 -0.833551 0.278885 0.476881 255 0 0 255
0.211229 0.393215 2.277 -0.799529 0.23958 0.550776 255 0 0 255
-0.121137 0.395127 2.34103 -0.385785 -0.279977 -0.879081 255 255 0 255
-0.108792 0.394355 2.33665 -0.533173 0.0289515 -0.84551 255 255 0 255
-0.096464 0.393592 2.33232 -0.294409 -0.109442 -0.949392 255 255 0 255
-0.086735 0.392509 2.32625 -0.266193 0.337928 -0.902744 255 255 0 255
-0.07616 0.391543 2.32081 -0.814289 0.216139 -0.538718 255 255 0 255
-0.074184 0.389475 2.30935 -0.887652 0.25008 -0.386697 255 255 0 255
-0.070489 0.387629 2.29911 -0.893663 0.0359195 -0.447298 255 255 0 255
-0.062512 0.386342 2.29191 -0.447126 -0.166704 -0.878799 255 255 0 255
-0.042564 0.386634 2.29332 -0.220676 -0.354637 -0.90859 255 255 0 255
-0.030344 0.385928 2.28929 -0.660392 -0.383158 -0.645811 255 255 0 255
-0.028389 0.383873 2.27789 -0.979996 -0.0983563 -0.173013 255 255 0 255
-0.083786 0.369448 2.1986 0.900577 0.199368 -0.386283 255 255 0 255
0.031553 0.380394 2.25796 0.886377 -0.149373 -0.438205 255 255 0 255
0.09202 0.386359 2.29033 -0.621165 0.0668129 -0.780827 255 255 0 255
0.144738 0.391338 2.31733 0.269673 -0.0292007 -0.962509 255 255 0 255
0.167719 0.39228 2.32227 -0.0648983 -0.0484188 -0.996717 255 255 0 255
-0.307356 0.318072 2.2623 -0.983749 -0.138901 -0.113777 0 255 0 255
-0.302747 0.319788 2.27084 -0.0821411 0.183979 -0.979492 0 255 0 255
-0.288607 0.319601 2.27243 0.0197139 -0.49885 -0.866464 0 255 0 255
-0.282252 0.320983 2.27976 -0.20921 -0.401721 -0.891544 0 255 0 255
-0.261138 0.319442 2.27642 -0.809849 -0.40299 -0.426314 0 255 0 255
-0.233045 0.316551 2.26818 0.0593307 0.394462 -0.916995 0 255 0 255
-0.205779 0.313863 2.26071 0.809127 0.182108 -0.558704 0 255 0 255
-0.195001 0.314448 2.26517 0.994144 0.0172887 -0.106671 0 255 0 255
-0.199014 0.317934 2.28019 0.996919 0.0234133 -0.0748608 0 255 0 255
-0.196066 0.320056 2.29024 0.980949 0.098536 -0.16742 0 255 0 255
-0.195736 0.322685 2.30213 0.983738 -0.0660145 -0.167037 0 255 0 255
-0.190173 0.324301 2.31033 0.632642 -0.260029 -0.729486 0 255 0 255
-0.178489 0.324746 2.3143 0.379416 -0.424135 -0.822285 0 255 0 255
-0.16679 0.325202 2.31831 0.760203 -0.119945 -0.638517 0 255 0 255
-0.162079 0.327004 2.32719 0.800394 -0.111776 -0.588962 0 255 0 255
-0.15824 0.328975 2.33669 0.773401 -0.168164 -0.611205 0 255 0 255
-0.150894 0.330286 2.3438 0.434045 -0.257316 -0.863362 0 255 0 255
-0.134765 0.329949 2.34497 0.0432344 -0.275544 -0.960316 0 255 0 255
-0.115979 0.329136 2.34445 0.17438 -0.220719 -0.959622 0 255 0 255
-0.100683 0.328999 2.34637 -0.0391297 -0.380934 -0.923774 0 255 0 255
-0.084485 0.328715 2.34778 -0.336218 -0.148475 -0.930007 0 255 0 255
-0.070027 0.328773 2.35043 -0.39787 -0.235361 -0.886738 0 255 0 255
-0.389075 0.377597 2.225 0.522814 -0.385898 0.760097 255 0 0 255
-0.381648 0.376262 2.217 0.550707 -0.336013 0.76408 255 0 0 255
-0.375111 0.375776 2.214 0.531094 -0.178272 0.828346 255 0 0 255
-0.368255 0.37495 2.209 0.445636 0.0527447 0.893659 255 0 0 255
-0.362082 0.374802 2.208 0.286754 0.223644 0.931534 255 0 0 255
-0.355752 0.374485 2.206 -0.110571 0.26072 0.959062 255 0 0 255
-0.350225 0.375016 2.209 -0.164785 0.233786 0.958222 255 0 0 255
-0.344214 0.375038 2.209 -0.193066 0.200502 0.960481 255 0 0 255
-0.338354 0.375229 2.21 0.0176081 0.197511 0.980143 255 0 0 255
-0.332037 0.374911 2.208 0.118354 0.195639 0.973508 255 0 0 255
-0.326173 0.375102 2.209 0.115346 0.247365 0.962032 255 0 0 255
-0.319867 0.374783 2.207 0.264573 0.24662 0.932298 255 0 0 255
-0.313572 0.374463 2.205 -0.112261 0.297466 0.94811 255 0 0 255
-0.307984 0.374993 2.208 -0.57486 0.376927 0.726266 255 0 0 255
-0.303063 0.376372 2.216 -0.827892 0.272031 0.490503 255 0 0 255
-0.298097 0.37775 2.224 -0.880622 0.272143 0.38787 255 0 0 255
-0.293612 0.379808 2.236 -0.91858 0.288332 0.270325 255 0 0 255
-0.28919 0.382035 2.249 -0.910618 0.332608 0.245247 255 0 0 255
-0.284821 0.384433 2.263 -0.75904 0.296894 0.579407 255 0 0 255
-0.278898 0.384792 2.265 0.415423 0.343773 0.842166 255 0 0 255
-0.270916 0.382262 2.25 0.806895 0.456332 0.375075 255 0 0 255
-0.261956 0.378202 2.226 0.881035 0.346903 0.321614 255 0 0 255
-0.253816 0.375161 2.208 0.837181 0.349182 0.420952 255 0 0 255
-0.246334 0.37297 2.195 0.808255 0.334561 0.484555 255 0 0 255
-0.239142 0.371117 2.184 0.809579 0.240403 0.535526 255 0 0 255
-0.232115 0.369434 2.174 0.75209 0.294338 0.589683 255 0 0 255
-0.225351 0.36809 2.166 0.71565 0.215242 0.664467 255 0 0 255
-0.219034 0.367426 2.162 0.646441 0.0858673 0.758116 255 0 0 255
-0.212542 0.366421 2.156 0.591567 0.0813214 0.802144 255 0 0 255
-0.206369 0.365926 2.153 0.428226 0.238302 0.871685 255 0 0 255
-0.200305 0.365601 2.151 0.366445 0.270152 0.890357 255 0 0 255
-0.194252 0.365275 2.149 0.175038 0.280154 0.943862 255 0 0 255
-0.188384 0.365288 2.149 0.175428 0.22106 0.959353 255 0 0 255
-0.182345 0.364961 2.147 0.148633 0.19808 0.968851 255 0 0 255
-0.176564 0.365144 2.148 0.11761 0.123469 0.985354 255 0 0 255
-0.170537 0.364817 2.146 0.17284 0.0932566 0.980525 255 0 0 255
-0.164598 0.364659 2.145 0.1427 0.13051 0.981124 255 0 0 255
-0.158664 0.3645 2.144 0.250783 0.0284386 0.967626 255 0 0 255
-0.152664 0.364171 2.142 0.197337 -0.0446202 0.97932 255 0 0 255
-0.146811 0.364182 2.142 0.447791 -0.130086 0.884625 255 0 0 255
-0.140563 0.363173 2.136 0.572063 -0.0259821 0.819798 255 0 0 255
-0.134536 0.362673 2.133 0.363723 0.137634 0.921283 255 0 0 255
-0.128586 0.362342 2.131 -0.0278502 0.257081 0.965988 255 0 0 255
-0.122876 0.362691 2.133 -0.175282 0.314572 0.93291 255 0 0 255
-0.1171 0.36287 2.134 0.0614856 0.311748 0.948173 255 0 0 255
-0.111266 0.362879 2.134 0.232948 0.259544 0.937215 255 0 0 255
-0.105333 0.362546 2.132 0.15217 0.171331 0.973391 255 0 0 255
-0.099458 0.362384 2.131 -0.0287249 0.108432 0.993689 255 0 0 255
-0.093631 0.362391 2.131 0.058938 0.104331 0.992795 255 0 0 255
-0.087763 0.362228 2.13 0.115781 0.150993 0.981731 255 0 0 255
-0.081938 0.362234 2.13 0.172787 0.106098 0.979228 255 0 0 255
-0.076078 0.36207 2.129 0.0308736 0.17115 0.984761 255 0 0 255
-0.070288 0.362245 2.13 -0.173499 0.223961 0.95903 255 0 0 255
-0.064463 0.36225 2.13 -0.256884 0.26597 0.929124 255 0 0 255
-0.058692 0.362595 2.132 -0.333131 0.262836 0.905506 255 0 0 255
-0.052935 0.363109 2.135 -0.359395 0.290268 0.886893 255 0 0 255
-0.047162 0.363623 2.138 -0.491692 0.314711 0.811909 255 0 0 255
-0.041391 0.364307 2.142 -0.547266 0.293442 0.783831 255 0 0 255
-0.035581 0.36482 2.145 -0.557093 0.202285 0.805437 255 0 0 255
-0.029755 0.365333 2.148 -0.469834 0.203001 0.859096 255 0 0 255
-0.023913 0.365845 2.151 -0.35595 0.223788 0.907314 255 0 0 255
-0.018046 0.366187 2.153 -0.372529 0.334081 0.865801 255 0 0 255
-0.012167 0.366528 2.155 -0.591664 0.355571 0.723535 255 0 0 255
-0.006289 0.367549 2.161 -0.681979 0.358127 0.637691 255 0 0 255
-0.000379 0.36857 2.167 -0.702301 0.456134 0.546548 255 0 0 255
0.00557 0.369931 2.175 -0.763055 0.532588 0.366193 255 0 0 255
0.011588 0.372141 2.188 -0.781957 0.569568 0.253252 255 0 0 255
0.017718 0.375201 2.206 -0.781098 0.573319 0.247368 255 0 0 255
0.023882 0.377241 2.218 -0.77973 0.551382 0.296646 255 0 0 255
0.030112 0.37928 2.23 -0.822576 0.414927 0.388849 255 0 0 255
0.036374 0.380978 2.24 -0.868216 0.282422 0.40797 255 0 0 255
0.042729 0.383016 2.252 -0.890547 0.22256 0.396728 255 0 0 255
0.049128 0.384883 2.263 -0.872876 0.032415 0.486865 255 0 0 255
0.055513 0.38624 2.271 -0.722137 0.0722618 0.687966 255 0 0 255
0.118548 0.389237 2.289 -0.508088 -0.757495 0.409936 255 0 0 255
0.12257 0.382256 2.248 0.88937 0.252982 0.380817 255 0 0 255
0.128257 0.380887 2.24 0.791195 0.16168 0.589805 255 0 0 255
0.13396 0.379687 2.233 0.710637 0.0891387 0.697889 255 0 0 255
0.139813 0.378997 2.229 0.662033 0.149671 0.734378 255 0 0 255
0.145577 0.378136 2.224 0.527905 0.152069 0.835578 255 0 0 255
0.151518 0.377785 2.222 -0.0943173 0.0853423 0.991877 255 0 0 255
0.157803 0.378284 2.225 -0.483603 0.0432499 0.874218 255 0 0 255
0.164176 0.378953 2.229 -0.544173 0.0185278 0.838769 255 0 0 255
0.170495 0.379451 2.232 -0.605885 0.0912925 0.790297 255 0 0 255
0.176988 0.380288 2.237 -0.597386 0.213933 0.772892 255 0 0 255
0.183589 0.381295 2.243 -0.695548 0.464858 0.547833 255 0 0 255
0.190646 0.383152 2.254 -0.718111 0.556734 0.41757 255 0 0 255
0.197587 0.384668 2.263 -0.728348 0.420566 0.540956 255 0 0 255
0.204667 0.386353 2.273 -0.765698 0.145139 0.62661 255 0 0 255
-0.115843 0.384829 2.34591 -0.961146 -0.114815 -0.251032 255 255 0 255
-0.111259 0.383079 2.33618 -0.89672 0.0473618 -0.440057 255 255 0 255
-0.098932 0.38234 2.33184 -0.194159 -0.177296 -0.964815 255 255 0 255
-0.088343 0.381386 2.32634 -0.622489 -0.00671715 -0.7826 255 255 0 255
-0.078626 0.380326 2.32029 -0.891601 0.033661 -0.451569 255 255 0 255
-0.075787 0.378365 2.30943 -0.890894 -0.0269753 -0.453409 255 255 0 255
-0.072089 0.376517 2.29917 -0.793734 -0.262874 -0.548528 255 255 0 255
-0.062398 0.375471 2.29318 -0.446016 -0.386723 -0.807165 255 255 0 255
-0.045878 0.375352 2.29213 -0.310909 -0.0919712 -0.945979 255 255 0 255
-0.031948 0.3749 2.28931 -0.824784 0.0182981 -0.565152 255 255 0 255
-0.03255 0.37249 2.27605 -0.92579 0.135161 -0.353051 255 255 0 255
-0.04934 0.367867 2.25098 0.836858 -0.20041 -0.509417 255 255 0 255
0.138848 0.38015 2.31398 0.466594 0.231574 -0.853618 255 255 0 255
0.168596 0.382104 2.32399 -0.161258 0.177099 -0.970892 255 255 0 255
0.169547 0.380008 2.3124 -0.0518716 0.188562 -0.980691 255 255 0 255
-0.308841 0.305408 2.25258 -0.628435 0.746269 -0.219437 0 255 0 255
-0.312011 0.308712 2.26688 -0.698716 0.119585 -0.705334 0 255 0 255
-0.307406 0.310421 2.27542 -0.325752 0.393256 -0.859788 0 255 0 255
-0.29241 0.310023 2.27637 0.152187 -0.480445 -0.863719 0 255 0 255
-0.29039 0.312271 2.28685 0.0844702 -0.380263 -0.921013 0 255 0 255
-0.236013 0.306657 2.27152 -0.191185 0.100433 -0.976402 0 255 0 255
-0.19886 0.304631 2.26915 0.986067 0.0601994 -0.155071 0 255 0 255
-0.195909 0.306756 2.27921 0.993275 0.110425 -0.0347974 0 255 0 255
-0.194699 0.309225 2.29051 -0.999953 -0.00748795 -0.00615058 0 255 0 255
-0.195237 0.312036 2.30301 0.9885 -0.129318 -0.078389 0 255 0 255
-0.196653 0.315014 2.31611 0.799105 -0.461224 -0.385622 0 255 0 255
-0.186724 0.315771 2.32128 0.468097 -0.536618 -0.702087 0 255 0 255
-0.172415 0.315688 2.32347 0.448267 -0.533586 -0.717177 0 255 0 255
-0.165083 0.316975 2.33053 0.716071 -0.324963 -0.617772 0 255 0 255
-0.15862 0.318436 2.33823 0.746867 -0.171499 -0.642478 0 255 0 255
-0.150399 0.319566 2.34474 0.431156 -0.170771 -0.885969 0 255 0 255
-0.135153 0.319361 2.34653 0.0753959 -0.286996 -0.95496 0 255 0 255
-0.118131 0.318837 2.34721 0.12426 -0.264753 -0.956277 0 255 0 255
-0.104599 0.318997 2.35032 0.202383 -0.343829 -0.916964 0 255 0 255
-0.086653 0.31834 2.35056 -0.39411 -0.198505 -0.89737 0 255 0 255
-0.074841 0.318862 2.35497 -0.147257 -0.486398 -0.861239 0 255 0 255
-0.399054 0.375196 2.247 0.875525 -0.301634 0.377456 255 0 0 255
-0.387699 0.37021 2.217 0.507428 -0.37156 0.77747 255 0 0 255
-0.381154 0.369732 2.214 0.326965 -0.286776 0.900474 255 0 0 255
-0.374455 0.369086 2.21 0.233273 -0.141347 0.962084 255 0 0 255
-0.368444 0.369109 2.21 0.232353 0.0160204 0.9725 255 0 0 255
-0.362268 0.368964 2.209 0.0823653 0.136559 0.987202 255 0 0 255
-0.355936 0.368652 2.207 -0.0504972 0.110888 0.992549 255 0 0 255
-0.350406 0.369174 2.21 -0.199686 0.0825417 0.976377 255 0 0 255
-0.344235 0.369029 2.209 -0.131723 -0.0348057 0.990675 255 0 0 255
-0.338681 0.369551 2.212 0.00103731 0.0208178 0.999783 255 0 0 255
-0.332358 0.369238 2.21 0.0387914 0.123835 0.991544 255 0 0 255
-0.326489 0.369426 2.211 0.0886767 0.140833 0.986054 255 0 0 255
-0.320178 0.369112 2.209 0.0739942 0.196826 0.977642 255 0 0 255
-0.314019 0.368966 2.208 -0.200028 0.34931 0.915408 255 0 0 255
-0.308423 0.369487 2.211 -0.604098 0.345119 0.718303 255 0 0 255
-0.303356 0.370677 2.218 -0.840612 0.262702 0.473666 255 0 0 255
-0.298519 0.3722 2.227 -0.905159 0.235571 0.353827 255 0 0 255
-0.294157 0.374392 2.24 -0.933937 0.24699 0.258376 255 0 0 255
-0.289852 0.376752 2.254 -0.878294 0.258775 0.402038 255 0 0 255
-0.28484 0.378275 2.263 -0.718824 0.156528 0.677341 255 0 0 255
-0.27867 0.378294 2.263 -0.277877 0.321879 0.905085 255 0 0 255
-0.270934 0.376139 2.25 0.901005 0.19386 0.388083 255 0 0 255
-0.262562 0.37298 2.231 0.895955 0.242703 0.371969 255 0 0 255
-0.254523 0.370155 2.214 0.884148 0.283373 0.371459 255 0 0 255
-0.246688 0.367497 2.198 0.843377 0.249406 0.475932 255 0 0 255
-0.239487 0.365675 2.187 0.810091 0.197254 0.552126 255 0 0 255
-0.232345 0.363852 2.176 0.8025 0.229088 0.550919 255 0 0 255
-0.225678 0.362697 2.169 0.71161 0.169717 0.681767 255 0 0 255
-0.219151 0.361709 2.163 0.667299 0.0975733 0.738371 255 0 0 255
-0.212655 0.36072 2.157 0.538571 0.155108 0.82818 255 0 0 255
-0.206575 0.3604 2.155 0.363597 0.209083 0.907789 255 0 0 255
-0.200506 0.36008 2.153 0.374711 0.110719 0.920507 255 0 0 255
-0.194446 0.359759 2.151 0.224428 0.0914162 0.970193 255 0 0 255
-0.188485 0.359606 2.15 0.249513 0.132449 0.959271 255 0 0 255
-0.182358 0.359117 2.147 0.174614 0.103396 0.979193 255 0 0 255
-0.176494 0.359129 2.147 0.115746 0.0479623 0.99212 255 0 0 255
-0.17055 0.358975 2.146 0.172742 0.0932157 0.980546 255 0 0 255
-0.164687 0.358986 2.146 0.169236 0.0549985 0.98404 255 0 0 255
-0.158676 0.358663 2.144 0.342693 0.0181675 0.939272 255 0 0 255
-0.152604 0.358173 2.141 0.268024 -0.111941 0.956887 255 0 0 255
-0.146685 0.358016 2.14 0.415858 -0.113796 0.902282 255 0 0 255
-0.140507 0.35719 2.135 0.484829 0.0259384 0.874224 255 0 0 255
-0.134609 0.357033 2.134 0.202722 0.242826 0.948651 255 0 0 255
-0.128776 0.357042 2.134 -0.0580518 0.287573 0.955998 255 0 0 255
-0.123058 0.357386 2.136 -0.118954 0.212052 0.969992 255 0 0 255
-0.117219 0.357395 2.136 0.0343748 0.113834 0.992905 255 0 0 255
-0.111275 0.357068 2.134 0.224332 0.0405337 0.973669 255 0 0 255
-0.105341 0.356741 2.132 0.230098 0.146362 0.962098 255 0 0 255
-0.099465 0.356582 2.131 0.0298153 0.0750846 0.996731 255 0 0 255
-0.093682 0.356756 2.132 0.000591928 0.126865 0.99192 255 0 0 255
-0.08781 0.356595 2.131 0.0297823 0.218271 0.975434 255 0 0 255
-0.081983 0.356601 2.131 0.118282 0.245267 0.962213 255 0 0 255
-0.076083 0.356273 2.129 0.0306685 0.312617 0.949384 255 0 0 255
-0.070326 0.356613 2.131 -0.172809 0.280241 0.944247 255 0 0 255
-0.064528 0.356785 2.132 -0.19948 0.285254 0.937464 255 0 0 255
-0.058752 0.357124 2.134 -0.3572 0.233204 0.904447 255 0 0 255
-0.052964 0.357463 2.136 -0.424039 0.212694 0.880313 255 0 0 255
-0.047187 0.357969 2.139 -0.48821 0.14446 0.860687 255 0 0 255
-0.041413 0.358642 2.143 -0.493438 0.153281 0.856168 255 0 0 255
-0.035601 0.359146 2.146 -0.471592 0.13195 0.871889 255 0 0 255
-0.029771 0.359651 2.149 -0.483604 0.075985 0.871983 255 0 0 255
-0.023926 0.360155 2.152 -0.443117 0.123471 0.88792 255 0 0 255
-0.018055 0.360491 2.154 -0.464542 0.274424 0.841957 255 0 0 255
-0.012185 0.361162 2.158 -0.61593 0.327088 0.716689 255 0 0 255
-0.006299 0.362167 2.164 -0.726791 0.39569 0.56143 255 0 0 255
-0.00038 0.363673 2.173 -0.769498 0.478379 0.423115 255 0 0 255
0.005593 0.365514 2.184 -0.806989 0.526947 0.266637 255 0 0 255
0.011658 0.368358 2.201 -0.872371 0.40328 0.276285 255 0 0 255
0.017792 0.3707 2.215 -0.845155 0.421654 0.328514 255 0 0 255
0.023981 0.372707 2.227 -0.797248 0.429592 0.424082 255 0 0 255
0.030195 0.374211 2.236 -0.779498 0.274337 0.563136 255 0 0 255
0.036442 0.375548 2.244 -0.847578 0.236452 0.47508 255 0 0 255
0.042808 0.377553 2.256 -0.846133 0.112684 0.520923 255 0 0 255
0.049218 0.379391 2.267 -0.833363 0.229518 0.50282 255 0 0 255
0.055591 0.380558 2.274 -0.817147 0.19471 0.542548 255 0 0 255
0.122798 0.376805 2.252 0.924016 0.189558 0.332059 255 0 0 255
0.128324 0.374955 2.241 0.832664 0.100733 0.544539 255 0 0 255
0.13409 0.373942 2.235 0.666256 0.101414 0.738795 255 0 0 255
0.139885 0.373095 2.23 0.624064 0.172414 0.762114 255 0 0 255
0.145588 0.372081 2.224 0.546103 0.223586 0.80733 255 0 0 255
0.151529 0.371736 2.222 0.0254578 0.207813 0.977837 255 0 0 255
0.157743 0.372059 2.224 -0.312991 0.0699502 0.947177 255 0 0 255
0.164041 0.37255 2.227 -0.534376 0.136277 0.834189 255 0 0 255
0.170584 0.373541 2.233 -0.644897 0.0943363 0.758425 255 0 0 255
0.177238 0.3747 2.24 -0.671516 0.355725 0.65002 255 0 0 255
0.184421 0.376862 2.253 -0.708268 0.585675 0.394134 255 0 0 255
0.191421 0.378521 2.263 -0.655718 0.462089 0.597083 255 0 0 255
0.198125 0.379511 2.269 -0.507239 0.104502 0.855446 255 0 0 255
0.204501 0.379831 2.271 -0.548584 0.103226 0.829699 255 0 0 255
-0.114001 0.374095 2.34842 -0.835328 -0.314432 -0.450954 255 255 0 255
-0.11114 0.372119 2.3375 0.0300507 -0.369525 -0.928735 255 255 0 255
-0.098815 0.371406 2.33315 -0.201145 -0.310317 -0.929109 255 255 0 255
-0.087368 0.370587 2.32824 -0.65386 -0.338734 -0.676555 255 255 0 255
-0.081088 0.369083 2.31977 -0.76294 -0.366754 -0.532367 255 255 0 255
-0.073099 0.367814 2.31253 -0.776609 -0.395587 -0.490295 255 255 0 255
-0.067689 0.3662 2.30348 -0.656054 -0.515089 -0.551613 255 255 0 255
-0.056292 0.365408 2.29872 -0.455793 -0.387813 -0.801158 255 255 0 255
-0.044058 0.364743 2.29461 -0.548007 -0.0797718 -0.832662 255 255 0 255
-0.034404 0.363732 2.28871 -0.835102 0.15225 -0.528607 255 255 0 255
-0.035851 0.361189 2.27483 -0.935561 0.305702 -0.176841 255 255 0 255
-0.053477 0.356382 2.24914 0.982078 -0.087281 -0.167049 255 255 0 255
0.038528 0.359991 2.26537 0.884225 0.0445938 -0.464927 255 255 0 255
0.090455 0.365096 2.29136 0.111825 0.00212199 -0.993726 255 255 0 255
0.153405 0.369602 2.31361 0.023807 0.187886 -0.981902 255 255 0 255
0.164513 0.368961 2.30964 -0.334952 0.35905 -0.871143 255 255 0 255
-0.327302 0.298927 2.26741 0.0876511 -0.135101 -0.986947 0 255 0 255
-0.316662 0.299367 2.27146 0.627547 -0.769652 -0.117558 0 255 0 255
-0.308603 0.300354 2.27745 -0.0446638 -0.730205 -0.681767 0 255 0 255
-0.297075 0.300634 2.28095 0.397745 -0.303895 -0.865706 0 255 0 255
-0.28813 0.30146 2.28638 -0.148417 -0.344949 -0.926813 0 255 0 255
-0.262707 0.298923 2.27993 -0.418823 -0.0339099 -0.907434 0 255 0 255
-0.231174 0.295178 2.26923 0.223474 0.220862 -0.949357 0 255 0 255
-0.199591 0.291468 2.2587 0.631991 0.225963 -0.741302 0 255 0 255
-0.19316 0.292891 2.26631 0.984356 0.166894 -0.0564849 0 255 0 255
-0.19368 0.295722 2.27886 0.989371 0.145007 -0.0108954 0 255 0 255
-0.194207 0.298548 2.29139 -0.982597 0.0867906 -0.164228 0 255 0 255
-0.196482 0.301719 2.30513 -0.98507 0.127855 -0.115286 0 255 0 255
-0.197895 0.304711 2.31822 0.91461 -0.236041 -0.328287 0 255 0 255
-0.190589 0.305967 2.32522 0.378983 -0.34087 -0.860337 0 255 0 255
-0.176288 0.30585 2.32741 0.352607 -0.368617 -0.860111 0 255 0 255
-0.165464 0.306434 2.33207 0.59494 -0.444115 -0.669932 0 255 0 255
-0.158127 0.307715 2.33917 0.648343 -0.279326 -0.708257 0 255 0 255
-0.152534 0.309344 2.34749 0.44175 -0.296939 -0.846572 0 255 0 255
-0.137296 0.309102 2.34928 0.172826 -0.316373 -0.932759 0 255 0 255
-0.125546 0.309556 2.35351 0.159111 -0.481791 -0.86172 0 255 0 255
-0.107635 0.308836 2.35368 0.195157 -0.429741 -0.88161 0 255 0 255
-0.090578 0.308304 2.35451 0.353774 -0.306237 -0.883778 0 255 0 255
-0.073497 0.307789 2.35542 0.151722 -0.678472 -0.718789 0 255 0 255
-0.398189 0.368263 2.242 0.860519 -0.328091 0.389698 255 0 0 255
-0.387197 0.363687 2.214 0.413682 -0.118287 0.902704 255 0 0 255
-0.38066 0.363217 2.211 0.388184 -0.0260763 0.921213 255 0 0 255
-0.374478 0.363075 2.21 0.148174 -0.00198151 0.988959 255 0 0 255
-0.368466 0.363097 2.21 0.0843037 0.0400887 0.995633 255 0 0 255
-0.36229 0.362954 2.209 0.139564 0.107634 0.984346 255 0 0 255
-0.35628 0.362976 2.209 -0.0233072 0.129585 0.991294 255 0 0 255
-0.350269 0.362998 2.209 -0.0538398 0.0547638 0.997047 255 0 0 255
-0.344256 0.363019 2.209 -0.0517898 -0.0421921 0.997766 255 0 0 255
-0.338243 0.36304 2.209 -0.0246787 -0.0890257 0.995724 255 0 0 255
-0.332379 0.363225 2.21 -0.0498244 -0.00960088 0.998712 255 0 0 255
-0.326362 0.363246 2.21 -0.0235078 0.0678878 0.997416 255 0 0 255
-0.320198 0.363102 2.209 0.012646 0.288959 0.957258 255 0 0 255
-0.314181 0.363122 2.209 -0.352865 0.499456 0.79122 255 0 0 255
-0.308721 0.363799 2.213 -0.585301 0.48803 0.647495 255 0 0 255
-0.303649 0.364969 2.22 -0.796156 0.400114 0.453922 255 0 0 255
-0.298806 0.366468 2.229 -0.877615 0.302297 0.372033 255 0 0 255
-0.294439 0.368625 2.242 -0.922928 0.279647 0.264578 255 0 0 255
-0.290128 0.370946 2.256 -0.914563 0.139866 0.379488 255 0 0 255
-0.284985 0.37228 2.264 -0.737081 0.12392 0.664346 255 0 0 255
-0.279182 0.372792 2.267 -0.512819 0.216391 0.830778 255 0 0 255
-0.271434 0.370672 2.254 0.737389 0.278443 0.615409 255 0 0 255
-0.263051 0.367566 2.235 0.891721 0.195195 0.408329 255 0 0 255
-0.25477 0.364458 2.216 0.880451 0.296228 0.370209 255 0 0 255
-0.246704 0.361514 2.198 0.854913 0.269761 0.443117 255 0 0 255
-0.239612 0.359886 2.188 0.806637 0.287125 0.516621 255 0 0 255
-0.232788 0.358586 2.18 0.795441 0.269908 0.542607 255 0 0 255
-0.225798 0.356957 2.17 0.747504 0.194161 0.635248 255 0 0 255
-0.219166 0.35582 2.163 0.679076 0.149731 0.718635 255 0 0 255
-0.212769 0.355013 2.158 0.506351 0.244505 0.826938 255 0 0 255
-0.206781 0.354863 2.157 0.442535 0.203328 0.873396 255 0 0 255
-0.20052 0.354219 2.153 0.460073 0.113632 0.88058 255 0 0 255
-0.19446 0.353903 2.151 0.224205 0.0493386 0.973292 255 0 0 255
-0.188498 0.353752 2.15 0.223589 0.0741861 0.971856 255 0 0 255
-0.182456 0.353436 2.148 0.197759 0.110226 0.974034 255 0 0 255
-0.176588 0.353448 2.148 0.199802 0.0461359 0.97875 255 0 0 255
-0.170562 0.353131 2.146 0.168921 0.0160234 0.985499 255 0 0 255
-0.164699 0.353143 2.146 0.221437 -0.0537665 0.973691 255 0 0 255
-0.158687 0.352825 2.144 0.378238 -0.0864207 0.921666 255 0 0 255
-0.152615 0.352343 2.141 0.347284 -0.0729617 0.934917 255 0 0 255
-0.146695 0.352189 2.14 0.349533 -0.0570968 0.935183 255 0 0 255
-0.140649 0.351705 2.137 0.313908 0.0388552 0.948658 255 0 0 255
-0.134745 0.351551 2.136 0.0588224 0.198578 0.978318 255 0 0 255
-0.128906 0.35156 2.136 -0.0581888 0.233807 0.97054 255 0 0 255
-0.123067 0.351569 2.136 0.0316336 0.110931 0.993325 255 0 0 255
-0.117172 0.351413 2.135 0.169636 0.0164296 0.98537 255 0 0 255
-0.111283 0.351257 2.134 0.221793 -0.000956242 0.975093 255 0 0 255
-0.105398 0.3511 2.133 0.196558 0.0591823 0.978705 255 0 0 255
-0.099519 0.350943 2.132 0.000483033 0.0974203 0.995243 255 0 0 255
-0.093733 0.351114 2.133 -0.0875574 0.134361 0.987057 255 0 0 255
-0.087899 0.351121 2.133 -0.058377 0.240346 0.96893 255 0 0 255
-0.082104 0.351292 2.134 0.0886477 0.299107 0.950093 255 0 0 255
-0.076196 0.350968 2.132 0.0298253 0.35252 0.935329 255 0 0 255
-0.070397 0.351138 2.133 -0.198644 0.322689 0.925425 255 0 0 255
-0.064593 0.351308 2.134 -0.197529 0.325246 0.924769 255 0 0 255
-0.058783 0.351477 2.135 -0.304258 0.287374 0.908209 255 0 0 255
-0.053017 0.351975 2.138 -0.378255 0.216835 0.899948 255 0 0 255
-0.047213 0.352308 2.14 -0.488995 0.201746 0.848636 255 0 0 255
