ply
format ascii 1.0
comment VCGLIB generated
element vertex 727
property float x
property float y
property float z
property float nx
property float ny
property float nz
property uchar red
property uchar green
property uchar blue
property uchar alpha
element face 0
property list uchar int vertex_indices
end_header
0.076279 0.543515 2.161 -0.664819 -0.109283 0.738967 255 0 0 255
0.082403 0.545017 2.167 -0.651056 -0.0840914 0.754357 255 0 0 255
0.088478 0.546016 2.171 -0.632013 -0.0666269 0.772088 255 0 0 255
0.094618 0.547266 2.176 -0.699288 -0.152141 0.698462 255 0 0 255
-0.099987 0.689381 2.19214 0.869903 -0.344434 -0.353036 255 255 0 255
-0.09817 0.681459 2.14146 -0.607225 0.790297 -0.0819038 255 255 0 255
-0.083255 0.68014 2.1396 -0.932249 0.361789 -0.00457197 255 255 0 255
-0.213996 0.610776 2.20775 0.39886 -0.503488 -0.766427 0 255 0 255
-0.211979 0.612939 2.21832 0.356299 -0.57375 -0.73747 0 255 0 255
-0.193151 0.613268 2.21665 0.19179 -0.752369 -0.630204 0 255 0 255
-0.182267 0.614482 2.22084 0.351851 -0.716394 -0.602478 0 255 0 255
-0.16428 0.614941 2.21996 0.482718 -0.597487 -0.640307 0 255 0 255
-0.162235 0.61713 2.23062 0.420035 -0.553623 -0.719077 0 255 0 255
-0.14865 0.618092 2.23303 0.288632 -0.606396 -0.740929 0 255 0 255
-0.134159 0.618973 2.23487 0.0549942 -0.3831 -0.922068 0 255 0 255
-0.116981 0.619589 2.23489 0.0816491 -0.392993 -0.915909 0 255 0 255
-0.102449 0.620503 2.23687 0.412154 -0.183743 -0.892394 0 255 0 255
-0.094135 0.622077 2.24327 0.753233 -0.0911309 -0.65141 0 255 0 255
-0.083136 0.623383 2.24783 0.422345 -0.678778 -0.600738 0 255 0 255
-0.075694 0.625065 2.25492 0.23792 -0.796014 -0.556558 0 255 0 255
-0.067352 0.626663 2.26141 0.156989 -0.647878 -0.745391 0 255 0 255
-0.345432 0.542409 2.183 0.871417 -0.313513 0.377282 255 0 0 255
-0.335454 0.535972 2.157 0.802172 -0.116192 0.585679 255 0 0 255
-0.328367 0.534007 2.149 0.66578 -0.105258 0.738686 255 0 0 255
-0.321773 0.532787 2.144 0.55916 -0.101831 0.822782 255 0 0 255
-0.315206 0.531567 2.139 0.428722 -0.0986728 0.898032 255 0 0 255
-0.309099 0.531092 2.137 0.291291 0.00458915 0.956624 255 0 0 255
-0.303003 0.530617 2.135 0.293589 0.0141425 0.955827 255 0 0 255
-0.296917 0.530142 2.133 0.249022 0.0204081 0.968283 255 0 0 255
-0.290841 0.529666 2.131 0.00822687 0.0357863 0.999326 255 0 0 255
-0.285177 0.529935 2.132 -0.349034 -0.0254448 0.936765 255 0 0 255
-0.279768 0.530702 2.135 -0.237148 0.0143176 0.971368 255 0 0 255
-0.274086 0.530971 2.136 0.119478 0.0794998 0.989649 255 0 0 255
-0.268147 0.530742 2.135 0.197107 0.122457 0.972704 255 0 0 255
-0.262213 0.530513 2.134 0.00197043 0.150289 0.98864 255 0 0 255
-0.256524 0.530782 2.135 -0.287567 -0.0369731 0.957047 255 0 0 255
-0.250946 0.531298 2.137 -0.38872 -0.165833 0.906309 255 0 0 255
-0.245586 0.532311 2.141 -0.257232 -0.254235 0.932307 255 0 0 255
-0.23998 0.532827 2.143 0.0348062 -0.148655 0.988276 255 0 0 255
-0.233926 0.532348 2.141 0.355726 -0.117849 0.92713 255 0 0 255
-0.227775 0.53162 2.138 0.321311 -0.0754194 0.943966 255 0 0 255
-0.221848 0.531389 2.137 -0.0239934 -0.110737 0.99356 255 0 0 255
-0.216229 0.531903 2.139 0.0318357 -0.180894 0.982987 255 0 0 255
-0.210106 0.531174 2.136 0.309587 -0.145379 0.939692 255 0 0 255
-0.203904 0.530196 2.132 0.552015 -0.0833072 0.829662 255 0 0 255
-0.197537 0.52872 2.126 0.308195 -0.0161571 0.951186 255 0 0 255
-0.191654 0.528486 2.125 0.00805757 -0.0171926 0.99982 255 0 0 255
-0.186037 0.528999 2.127 -0.0862383 -0.0052963 0.99626 255 0 0 255
-0.180325 0.529262 2.128 0.180958 -0.0202142 0.983283 255 0 0 255
-0.174279 0.52853 2.125 0.413333 0.175734 0.893462 255 0 0 255
-0.168328 0.528047 2.123 0.392698 0.437243 0.809078 255 0 0 255
-0.162387 0.527563 2.121 0.0580428 0.7483 0.660816 255 0 0 255
-0.156752 0.528073 2.123 0.0464812 0.833925 0.549916 255 0 0 255
-0.150751 0.52734 2.12 -0.0395806 0.53938 0.841132 255 0 0 255
-0.14497 0.527352 2.12 0.227809 0.511851 0.828318 255 0 0 255
-0.139386 0.52811 2.123 -0.50067 -0.465749 0.729663 255 0 0 255
-0.134289 0.530858 2.134 -0.644696 -0.582265 0.495312 255 0 0 255
-0.129011 0.533107 2.143 -0.396389 -0.647462 0.650898 255 0 0 255
-0.123338 0.533864 2.146 0.0272775 -0.534291 0.84486 255 0 0 255
-0.117485 0.533874 2.146 -0.028639 -0.418548 0.907743 255 0 0 255
-0.11158 0.533635 2.145 -0.00760167 -0.262173 0.964991 255 0 0 255
-0.105827 0.534142 2.147 -0.25974 -0.0141874 0.965574 255 0 0 255
-0.100063 0.534648 2.149 -0.189535 0.126435 0.9737 255 0 0 255
-0.094245 0.534905 2.15 0.00947871 0.128249 0.991697 255 0 0 255
-0.088256 0.534166 2.147 0.340434 -0.14701 0.928705 255 0 0 255
-0.082245 0.533178 2.143 0.499383 -0.441538 0.745426 255 0 0 255
-0.076148 0.531443 2.136 0.564319 -0.4982 0.658286 255 0 0 255
-0.07009 0.529708 2.129 0.489364 -0.296013 0.820305 255 0 0 255
-0.064129 0.528469 2.124 0.551174 0.115109 0.826412 255 0 0 255
-0.058169 0.526982 2.118 0.456088 0.453033 0.765992 255 0 0 255
-0.05229 0.525991 2.114 0.354753 0.536214 0.765915 255 0 0 255
-0.046456 0.525249 2.111 -0.2124 0.522755 0.825598 255 0 0 255
-0.040791 0.526497 2.116 -0.494845 0.46758 0.73246 255 0 0 255
-0.035116 0.527993 2.122 -0.745204 0.103226 0.658798 255 0 0 255
-0.029422 0.529737 2.129 -0.331907 -0.399551 0.854516 255 0 0 255
-0.023612 0.52974 2.129 -0.0820888 -0.416727 0.905318 255 0 0 255
-0.017794 0.529492 2.128 -0.220582 -0.257967 0.940636 255 0 0 255
-0.012009 0.530489 2.132 -0.568093 -0.104465 0.816307 255 0 0 255
-0.006208 0.531983 2.138 -0.706215 -0.0591677 0.70552 255 0 0 255
-0.000374 0.533476 2.144 -0.639536 -0.0111145 0.76868 255 0 0 255
0.005487 0.534471 2.148 -0.349505 0.100585 0.931519 255 0 0 255
0.011355 0.534719 2.149 0.0585041 0.0784025 0.995204 255 0 0 255
0.017212 0.534469 2.148 0.144214 0.0972843 0.984753 255 0 0 255
0.023063 0.534219 2.147 0.144359 0.104814 0.983959 255 0 0 255
0.028922 0.534216 2.147 -0.00030599 0.0851924 0.996364 255 0 0 255
0.034781 0.534214 2.147 -0.0004117 0.10357 0.994622 255 0 0 255
0.040621 0.533962 2.146 -0.120568 0.139321 0.98288 255 0 0 255
0.046521 0.534456 2.148 -0.379478 0.0814793 0.921606 255 0 0 255
0.052456 0.535198 2.151 -0.37571 0.0579832 0.924922 255 0 0 255
0.058379 0.535691 2.153 -0.146865 0.0792925 0.985973 255 0 0 255
0.064254 0.535685 2.153 -0.175202 0.138173 0.974788 255 0 0 255
0.070194 0.536177 2.155 -0.517779 0.0359636 0.854758 255 0 0 255
0.07625 0.537415 2.16 -0.681423 -0.0295717 0.731292 255 0 0 255
0.082372 0.538901 2.166 -0.694339 -0.0048848 0.719632 255 0 0 255
0.088485 0.540138 2.171 -0.65453 0.0806862 0.751718 255 0 0 255
0.094669 0.541623 2.177 -0.670789 -0.0214268 0.741339 255 0 0 255
-0.099901 0.678685 2.19336 0.885073 -0.389165 -0.255336 255 255 0 255
-0.105729 0.676402 2.17609 0.74722 -0.664556 -0.00530295 255 255 0 255
-0.113006 0.672016 2.14461 -0.724098 0.653552 -0.220347 255 255 0 255
-0.104111 0.670423 2.13816 -0.444687 0.79657 -0.409549 255 255 0 255
-0.093242 0.666912 2.12014 -0.748124 0.651633 -0.125239 255 255 0 255
-0.23094 0.595332 2.18527 0.988005 0.140169 -0.0647929 0 255 0 255
-0.242143 0.599012 2.20563 0.724036 -0.684312 -0.0865408 0 255 0 255
-0.233083 0.60036 2.21094 0.583567 -0.594281 -0.553426 0 255 0 255
-0.224896 0.601816 2.21694 0.476412 -0.485211 -0.733214 0 255 0 255
-0.212283 0.602781 2.21973 0.351217 -0.544261 -0.761858 0 255 0 255
-0.200539 0.603858 2.22322 0.252202 -0.641152 -0.724789 0 255 0 255
-0.186125 0.604652 2.22484 0.34813 -0.639423 -0.685525 0 255 0 255
-0.177006 0.606049 2.23035 0.433306 -0.677657 -0.59416 0 255 0 255
-0.166991 0.607357 2.23525 0.455444 -0.662253 -0.594973 0 255 0 255
-0.1614 0.609159 2.24335 0.193298 -0.582505 -0.789508 0 255 0 255
-0.143373 0.609616 2.24265 -0.03473 -0.506799 -0.861364 0 255 0 255
-0.120878 0.609612 2.2389 -0.0131369 -0.376082 -0.926493 0 255 0 255
-0.103686 0.610205 2.239 0.36229 -0.397961 -0.842836 0 255 0 255
-0.096264 0.61186 2.24603 0.621704 -0.383845 -0.68275 0 255 0 255
-0.087052 0.613332 2.25184 0.702529 -0.393634 -0.592878 0 255 0 255
-0.080507 0.615095 2.25954 0.49651 -0.593921 -0.633036 0 255 0 255
-0.073063 0.616769 2.26664 0.329667 -0.533341 -0.779017 0 255 0 255
-0.343398 0.533302 2.17 0.870999 -0.256986 0.41871 255 0 0 255
-0.33501 0.529393 2.154 0.768252 -0.0745264 0.635794 255 0 0 255
-0.328084 0.527695 2.147 0.678334 -0.0651684 0.731858 255 0 0 255
-0.321496 0.526489 2.142 0.545021 -0.10979 0.831203 255 0 0 255
-0.315228 0.525774 2.139 0.378955 -0.077009 0.922205 255 0 0 255
-0.309121 0.525305 2.137 0.242386 -0.0357529 0.969521 255 0 0 255
-0.303167 0.525081 2.136 0.269668 0.0456279 0.961872 255 0 0 255
-0.297077 0.524611 2.134 0.250694 0.115153 0.961193 255 0 0 255
-0.291135 0.524386 2.133 0.0356139 0.182622 0.982538 255 0 0 255
-0.285599 0.524899 2.135 -0.270308 0.0637463 0.960661 255 0 0 255
-0.280051 0.525411 2.137 -0.261822 -0.0522692 0.9637 255 0 0 255
-0.274235 0.525432 2.137 0.00317048 0.0108578 0.999936 255 0 0 255
-0.268293 0.525206 2.136 0.0900115 0.129153 0.987531 255 0 0 255
-0.262356 0.52498 2.135 0.0607442 0.148937 0.986979 255 0 0 255
-0.256543 0.525 2.135 -0.0556386 0.0278498 0.998062 255 0 0 255
-0.250848 0.525265 2.136 -0.254602 -0.177415 0.950632 255 0 0 255
-0.245376 0.526021 2.139 -0.222264 -0.301871 0.927078 255 0 0 255
-0.239663 0.526286 2.14 -0.0938748 -0.344245 0.934175 255 0 0 255
-0.233725 0.526058 2.139 0.212428 -0.325257 0.921457 255 0 0 255
-0.22758 0.525338 2.136 0.203382 -0.304273 0.93062 255 0 0 255
-0.221657 0.52511 2.135 -0.00411229 -0.313459 0.949593 255 0 0 255
-0.215942 0.525373 2.136 0.0157917 -0.273081 0.961861 255 0 0 255
-0.210024 0.525144 2.135 0.262539 -0.202017 0.943537 255 0 0 255
-0.20392 0.524422 2.132 0.520006 -0.016442 0.854004 255 0 0 255
-0.197739 0.523454 2.128 0.373152 0.190366 0.90803 255 0 0 255
-0.191939 0.52347 2.128 -0.0293513 0.331616 0.942958 255 0 0 255
-0.186052 0.523239 2.127 -0.0592107 0.258135 0.964293 255 0 0 255
-0.180255 0.523253 2.127 0.12377 0.192041 0.973551 255 0 0 255
-0.174375 0.523022 2.126 0.100112 0.367123 0.924769 255 0 0 255
-0.168658 0.523282 2.127 -0.0125038 0.666553 0.745353 255 0 0 255
-0.16286 0.523295 2.127 -0.153027 0.774405 0.613905 255 0 0 255
-0.157282 0.524046 2.13 -0.0272224 0.741851 0.670012 255 0 0 255
-0.151261 0.523321 2.127 0.281162 0.740079 0.610926 255 0 0 255
-0.145187 0.522349 2.123 0.26883 0.246763 0.931042 255 0 0 255
-0.139069 0.52113 2.118 0.48084 0.174858 0.859196 255 0 0 255
-0.133608 0.522372 2.123 -0.292375 -0.429805 0.854274 255 0 0 255
-0.128359 0.524597 2.132 -0.493947 -0.699121 0.516958 255 0 0 255
-0.122889 0.526084 2.138 -0.407023 -0.622665 0.668297 255 0 0 255
-0.117276 0.527078 2.142 -0.297925 -0.486999 0.821019 255 0 0 255
-0.111485 0.527334 2.143 -0.287096 -0.370565 0.883322 255 0 0 255
-0.105737 0.527835 2.145 -0.193985 -0.243525 0.950297 255 0 0 255
-0.099979 0.528336 2.147 -0.0804731 -0.245655 0.966011 255 0 0 255
-0.094121 0.528344 2.147 0.139966 -0.337325 0.930925 255 0 0 255
-0.088058 0.527121 2.142 0.420053 -0.528192 0.737949 255 0 0 255
-0.081944 0.525406 2.135 0.5557 -0.560901 0.613667 255 0 0 255
-0.075869 0.52369 2.128 0.430812 -0.515233 0.740902 255 0 0 255
-0.069964 0.522958 2.125 0.213664 -0.230248 0.949386 255 0 0 255
-0.064135 0.522717 2.124 0.395842 0.142349 0.907219 255 0 0 255
-0.058284 0.52223 2.122 0.412749 0.514358 0.751714 255 0 0 255
-0.052419 0.521497 2.119 0.204039 0.78721 0.581952 255 0 0 255
-0.046636 0.521501 2.119 -0.0446515 0.892981 0.447874 255 0 0 255
-0.040911 0.522243 2.122 -0.249048 0.771872 0.584969 255 0 0 255
-0.035136 0.522492 2.123 -0.539612 0.309893 0.782806 255 0 0 255
-0.029383 0.523234 2.126 -0.247275 0.0222564 0.96869 255 0 0 255
-0.023592 0.523482 2.127 -0.129399 0.0876385 0.987712 255 0 0 255
-0.017795 0.52373 2.128 -0.481585 0.167827 0.86018 255 0 0 255
-0.012015 0.524962 2.133 -0.690994 0.210593 0.691504 255 0 0 255
-0.006211 0.526439 2.139 -0.718779 0.168065 0.674619 255 0 0 255
-0.000374 0.527916 2.145 -0.663205 0.10692 0.740762 255 0 0 255
0.005493 0.529146 2.15 -0.369751 0.0248186 0.9288 255 0 0 255
0.011361 0.529146 2.15 0.058539 0.0896465 0.994252 255 0 0 255
0.017221 0.528898 2.149 0.115829 0.0749523 0.990437 255 0 0 255
0.023076 0.52865 2.148 0.144115 0.082466 0.986119 255 0 0 255
0.028925 0.528402 2.147 0.029391 0.0844975 0.99599 255 0 0 255
0.034817 0.528892 2.149 -0.0300997 0.0770966 0.996569 255 0 0 255
0.040663 0.528642 2.148 -0.150506 0.138291 0.978889 255 0 0 255
0.046568 0.529131 2.15 -0.330005 0.126257 0.935498 255 0 0 255
0.05246 0.529373 2.151 -0.354445 0.145414 0.923701 255 0 0 255
0.058411 0.530106 2.154 -0.257151 0.178839 0.949679 255 0 0 255
0.064289 0.530101 2.154 -0.200909 0.192739 0.960462 255 0 0 255
0.070233 0.530588 2.156 -0.424776 0.148834 0.89298 255 0 0 255
0.076222 0.53132 2.159 -0.660795 0.0557655 0.748492 255 0 0 255
0.082417 0.533282 2.167 -0.723144 0.0335914 0.68988 255 0 0 255
0.088574 0.534751 2.173 -0.660832 0.0643446 0.747771 255 0 0 255
0.094721 0.535974 2.178 -0.658457 0.0102983 0.752548 255 0 0 255
0.10094 0.537442 2.184 -0.670885 0.00432108 0.741549 255 0 0 255
-0.121086 0.670983 2.20502 0.49971 -0.47635 -0.723451 255 255 0 255
-0.112176 0.669392 2.19852 -0.00155415 -0.681905 -0.731439 255 255 0 255
-0.108473 0.667549 2.18824 0.982415 -0.152162 -0.108199 255 255 0 255
-0.116015 0.665144 2.16968 -0.496782 0.86494 -0.0713192 255 255 0 255
-0.119213 0.662948 2.15425 -0.761877 0.615317 -0.202306 255 255 0 255
-0.112353 0.657178 2.12001 -0.801974 0.597206 -0.013498 255 255 0 255
-0.103463 0.655603 2.11356 0.714427 -0.69001 -0.116104 255 255 0 255
-0.239168 0.586117 2.19256 0.618999 -0.78397 -0.0472501 0 255 0 255
-0.23011 0.587447 2.19789 0.724036 -0.684312 -0.0865408 0 255 0 255
-0.231621 0.590025 2.21104 0.606937 -0.542283 -0.580996 0 255 0 255
-0.22167 0.591263 2.21575 0.68231 -0.475049 -0.555681 0 255 0 255
-0.217889 0.593227 2.22502 0.465681 -0.512646 -0.721342 0 255 0 255
-0.207037 0.594379 2.22914 0.401225 -0.400048 -0.824002 0 255 0 255
-0.196171 0.595542 2.23331 0.308253 -0.503209 -0.807317 0 255 0 255
-0.186178 0.596816 2.23816 0.472023 -0.486348 -0.735295 0 255 0 255
-0.176173 0.5981 2.24305 0.454215 -0.545931 -0.704022 0 255 0 255
-0.16261 0.598995 2.24545 0.19353 -0.597926 -0.777837 0 255 0 255
-0.142817 0.599211 2.2435 0.0358247 -0.558927 -0.828443 0 255 0 255
-0.127437 0.599941 2.24478 0.0355751 -0.581962 -0.812438 0 255 0 255
-0.111147 0.600588 2.2455 0.147465 -0.592261 -0.792137 0 255 0 255
-0.099284 0.601741 2.24941 0.517418 -0.460413 -0.721317 0 255 0 255
-0.089186 0.603099 2.2546 0.725117 -0.223424 -0.651373 0 255 0 255
-0.084425 0.605044 2.26353 0.930694 0.228759 -0.285445 0 255 0 255
-0.077877 0.606801 2.27124 -0.122671 -0.681989 -0.721001 0 255 0 255
-0.357852 0.540281 2.223 0.888654 -0.330586 0.317815 255 0 0 255
-0.34263 0.526209 2.165 0.806303 -0.12381 0.5784 255 0 0 255
-0.335189 0.523801 2.155 0.769974 -0.0326177 0.637241 255 0 0 255
-0.328107 0.52188 2.147 0.702461 -0.0320501 0.711 255 0 0 255
-0.321218 0.520201 2.14 0.560801 -0.0341411 0.827247 255 0 0 255
-0.315103 0.519737 2.138 0.334748 -0.0414985 0.941393 255 0 0 255
-0.309143 0.519516 2.137 0.220437 -0.019965 0.975197 255 0 0 255
-0.303188 0.519295 2.136 0.202821 0.0548902 0.977676 255 0 0 255
-0.297099 0.51883 2.134 0.124869 0.155984 0.979835 255 0 0 255
-0.291293 0.518852 2.134 0.00479003 0.183633 0.982983 255 0 0 255
-0.285352 0.51863 2.133 -0.11739 0.105307 0.987487 255 0 0 255
-0.27981 0.519137 2.135 -0.128456 -0.120432 0.984376 255 0 0 255
-0.274127 0.5194 2.136 -0.0512232 -0.11567 0.991966 255 0 0 255
-0.268313 0.519421 2.136 -0.0263522 0.0328248 0.999114 255 0 0 255
-0.262621 0.519684 2.137 0.0902406 0.0916849 0.991691 255 0 0 255
-0.256563 0.519217 2.135 0.089862 0.0288401 0.995537 255 0 0 255
-0.250749 0.519236 2.135 -0.138783 -0.134178 0.981191 255 0 0 255
-0.245165 0.519741 2.137 -0.155779 -0.294102 0.942994 255 0 0 255
-0.239457 0.520003 2.138 -0.0720099 -0.352667 0.932974 255 0 0 255
-0.233525 0.519778 2.137 0.189469 -0.325159 0.926485 255 0 0 255
-0.227384 0.519066 2.134 0.169723 -0.292944 0.940945 255 0 0 255
-0.221467 0.51884 2.133 -0.022544 -0.194562 0.980631 255 0 0 255
-0.215858 0.519344 2.135 -0.00820459 -0.265478 0.964082 255 0 0 255
-0.209942 0.519118 2.134 0.147761 -0.225516 0.962969 255 0 0 255
-0.203841 0.518404 2.131 0.334693 -0.0574012 0.940577 255 0 0 255
-0.197847 0.517934 2.129 0.159304 0.264762 0.951064 255 0 0 255
-0.192045 0.517949 2.129 0.0322604 0.27078 0.962101 255 0 0 255
-0.18633 0.518208 2.13 0.120046 0.25205 0.96024 255 0 0 255
-0.180439 0.517979 2.129 0.0652753 0.22842 0.971372 255 0 0 255
-0.174635 0.517993 2.129 -0.180971 0.338686 0.923331 255 0 0 255
-0.168989 0.518494 2.131 -0.258849 0.490669 0.83201 255 0 0 255
-0.163332 0.518994 2.133 -0.26435 0.477893 0.837698 255 0 0 255
-0.157664 0.519494 2.135 0.102179 0.485383 0.86831 255 0 0 255
-0.151629 0.518776 2.132 0.508172 0.35102 0.786477 255 0 0 255
-0.145473 0.517572 2.127 0.618701 0.404861 0.673274 255 0 0 255
-0.139212 0.51588 2.12 0.473989 0.303932 0.826414 255 0 0 255
-0.133241 0.515162 2.117 0.154524 0.162844 0.974476 255 0 0 255
-0.127647 0.515902 2.12 -0.328123 -0.307767 0.893093 255 0 0 255
-0.122267 0.517616 2.127 -0.582351 -0.583579 0.565953 255 0 0 255
-0.116957 0.519817 2.136 -0.531838 -0.542965 0.649875 255 0 0 255
-0.111494 0.52153 2.143 -0.350917 -0.335225 0.874346 255 0 0 255
-0.105746 0.522025 2.145 -0.07722 -0.438349 0.895482 255 0 0 255
-0.099847 0.521791 2.144 -0.0592737 -0.414223 0.908243 255 0 0 255
-0.093954 0.521555 2.143 0.320602 -0.556887 0.766219 255 0 0 255
-0.087818 0.519859 2.136 0.501636 -0.568149 0.652356 255 0 0 255
-0.081683 0.51792 2.128 0.474289 -0.465678 0.747124 255 0 0 255
-0.075697 0.516709 2.123 0.131873 -0.242299 0.961198 255 0 0 255
-0.069904 0.516716 2.123 -0.0914367 -0.0701118 0.99334 255 0 0 255
-0.064201 0.517451 2.126 -0.197195 0.223517 0.954544 255 0 0 255
-0.058399 0.517457 2.126 -0.0627294 0.581148 0.811377 255 0 0 255
-0.052646 0.517948 2.128 -0.111894 0.76301 0.636628 255 0 0 255
-0.046838 0.517952 2.128 -0.10266 0.868055 0.485738 255 0 0 255
-0.041049 0.518199 2.129 0.0331968 0.739675 0.672145 255 0 0 255
-0.035222 0.517959 2.128 -0.0123237 0.75711 0.653171 255 0 0 255
-0.0294 0.517719 2.127 -0.0172142 0.623731 0.78145 255 0 0 255
-0.023594 0.517721 2.127 -0.150914 0.521997 0.839491 255 0 0 255
-0.017813 0.518453 2.13 -0.518181 0.355561 0.777859 255 0 0 255
-0.012028 0.519671 2.135 -0.664164 0.28194 0.692384 255 0 0 255
-0.006217 0.521132 2.141 -0.670167 0.170497 0.722362 255 0 0 255
-0.000374 0.52235 2.146 -0.597907 0.0215257 0.801276 255 0 0 255
0.005494 0.523323 2.15 -0.279534 -0.122954 0.952231 255 0 0 255
0.011357 0.523079 2.149 -0.000164302 -0.114198 0.993458 255 0 0 255
0.017223 0.523078 2.149 0.0287441 -0.0368933 0.998906 255 0 0 255
0.023088 0.523076 2.149 0.198397 0.0123446 0.980044 255 0 0 255
0.028927 0.522587 2.147 0.0862213 -0.0632671 0.994265 255 0 0 255
0.034787 0.522584 2.147 -0.113396 -0.0631924 0.991538 255 0 0 255
0.040666 0.522824 2.148 -0.23342 0.0172134 0.972224 255 0 0 255
0.046572 0.523308 2.15 -0.356163 0.113761 0.927473 255 0 0 255
0.052489 0.52379 2.152 -0.382983 0.194346 0.90308 255 0 0 255
0.058416 0.524272 2.154 -0.307597 0.20744 0.92863 255 0 0 255
0.064355 0.524754 2.156 -0.227472 0.255608 0.939639 255 0 0 255
0.070271 0.524991 2.157 -0.353083 0.25747 0.899467 255 0 0 255
0.076263 0.525715 2.16 -0.61345 0.205526 0.762521 255 0 0 255
0.082386 0.527169 2.166 -0.732203 0.134803 0.667613 255 0 0 255
0.088582 0.528866 2.173 -0.641389 0.0152889 0.767063 255 0 0 255
0.094685 0.529831 2.177 -0.592952 -0.000329041 0.805238 255 0 0 255
0.100856 0.53104 2.182 -0.661708 -0.00116615 0.749761 255 0 0 255
-0.114053 0.660583 2.21129 -0.00189213 -0.57324 -0.819385 255 255 0 255
-0.106885 0.658919 2.20354 0.883232 0.463372 -0.0720299 255 255 0 255
-0.106647 0.656897 2.19074 0.335133 0.114249 -0.935218 255 255 0 255
-0.270966 0.572628 2.18146 0.740992 -0.662699 -0.10845 0 255 0 255
-0.2637 0.574129 2.188 0.57369 -0.812321 -0.104947 0 255 0 255
-0.259942 0.576067 2.19719 0.507699 -0.849526 -0.143343 0 255 0 255
-0.255304 0.577901 2.20573 0.355269 -0.909303 -0.216683 0 255 0 255
-0.246262 0.579205 2.21102 0.545082 -0.728431 -0.415058 0 255 0 255
-0.239854 0.580836 2.21829 0.409615 -0.714554 -0.567122 0 255 0 255
-0.230795 0.582156 2.22363 0.519836 -0.630625 -0.576266 0 255 0 255
-0.220843 0.583379 2.22836 0.500892 -0.609329 -0.614675 0 255 0 255
-0.209113 0.584404 2.23185 0.330887 -0.569827 -0.752204 0 255 0 255
-0.195601 0.585233 2.23411 0.444346 -0.31129 -0.840033 0 255 0 255
-0.186494 0.586592 2.2396 0.501186 -0.262036 -0.824712 0 255 0 255
-0.180035 0.588268 2.24703 0.523059 -0.46774 -0.712481 0 255 0 255
-0.169139 0.589438 2.25133 0.367106 -0.595864 -0.714268 0 255 0 255
-0.152907 0.59001 2.25189 0.0914667 -0.63694 -0.765468 0 255 0 255
-0.138429 0.590801 2.25378 0.0886538 -0.695112 -0.713414 0 255 0 255
-0.12482 0.591707 2.25636 0.0633392 -0.723254 -0.687672 0 255 0 255
-0.105859 0.592027 2.25527 0.148912 -0.686551 -0.711669 0 255 0 255
-0.09132 0.592865 2.25736 0.55297 -0.573497 -0.604422 0 255 0 255
-0.082998 0.59441 2.26383 0.717738 -0.38218 -0.582058 0 255 0 255
-0.080015 0.596553 2.274 0.796762 -0.248533 -0.550818 0 255 0 255
-0.069003 0.597817 2.27868 -0.550967 -0.527022 -0.647058 0 255 0 255
-0.351598 0.524886 2.184 0.835745 -0.306391 0.455692 255 0 0 255
-0.342496 0.520103 2.164 0.7187 -0.245027 0.650717 255 0 0 255
-0.335057 0.517723 2.154 0.742081 -0.000875165 0.67031 255 0 0 255
-0.32813 0.516063 2.147 0.70085 0.0606182 0.710728 255 0 0 255
-0.321391 0.514644 2.141 0.587763 0.11626 0.800636 255 0 0 255
-0.315126 0.513945 2.138 0.322647 0.130404 0.937493 255 0 0 255
-0.309021 0.513487 2.136 0.181248 0.189428 0.965021 255 0 0 255
-0.303068 0.513268 2.135 0.123638 0.211917 0.969435 255 0 0 255
-0.29726 0.51329 2.135 0.0630479 0.226861 0.971884 255 0 0 255
-0.291587 0.513551 2.136 0.150713 0.210746 0.965853 255 0 0 255
-0.285641 0.513332 2.135 0.0957155 0.0403115 0.994592 255 0 0 255
-0.27983 0.513353 2.135 -0.0988225 -0.0629353 0.993113 255 0 0 255
-0.274019 0.513373 2.135 -0.126577 -0.0868954 0.988143 255 0 0 255
-0.268333 0.513634 2.136 -0.14394 -0.0205109 0.989374 255 0 0 255
-0.262641 0.513894 2.137 0.0605832 0.0295392 0.997726 255 0 0 255
-0.256582 0.513433 2.135 0.142004 0.00875985 0.989827 255 0 0 255
-0.250768 0.513452 2.135 0.0386047 -0.0964258 0.994591 255 0 0 255
-0.24484 0.513231 2.134 -0.0271957 -0.227909 0.973303 255 0 0 255
-0.23914 0.51349 2.135 -0.0172585 -0.309335 0.950797 255 0 0 255
-0.233324 0.513508 2.135 0.118525 -0.253164 0.960135 255 0 0 255
-0.227189 0.512804 2.132 0.173379 -0.128666 0.976414 255 0 0 255
-0.22138 0.512822 2.132 -0.024813 -0.0784295 0.996611 255 0 0 255
-0.215572 0.512839 2.132 0.0626764 -0.106798 0.992303 255 0 0 255
-0.209762 0.512856 2.132 0.134441 -0.174663 0.975407 255 0 0 255
-0.203857 0.512631 2.131 0.0695446 -0.0773959 0.994572 255 0 0 255
-0.198142 0.512888 2.132 0.00468973 0.14085 0.99002 255 0 0 255
-0.192331 0.512904 2.132 0.00260524 0.180434 0.983584 255 0 0 255
-0.186432 0.512678 2.131 0.121888 0.176942 0.976645 255 0 0 255
-0.180453 0.512212 2.129 0.00252918 0.199589 0.979877 255 0 0 255
-0.174813 0.512707 2.131 -0.322512 0.308084 0.895025 255 0 0 255
-0.169162 0.513202 2.133 -0.3497 0.185955 0.918222 255 0 0 255
-0.163499 0.513697 2.135 -0.209783 0.133441 0.968599 255 0 0 255
-0.157677 0.51371 2.135 0.184744 0.225793 0.956498 255 0 0 255
-0.151712 0.513242 2.133 0.446133 0.121622 0.886664 255 0 0 255
-0.14569 0.512532 2.13 0.518747 0.349387 0.780276 255 0 0 255
-0.139552 0.51134 2.125 0.576262 0.458992 0.676201 255 0 0 255
-0.133441 0.510149 2.12 0.294516 0.577067 0.761744 255 0 0 255
-0.127477 0.509438 2.117 0.206463 0.51303 0.83317 255 0 0 255
-0.121932 0.51041 2.121 -0.554411 -0.10905 0.825068 255 0 0 255
-0.116638 0.512586 2.13 -0.628608 -0.463042 0.624855 255 0 0 255
-0.111243 0.514521 2.138 -0.398342 -0.516675 0.757873 255 0 0 255
-0.105607 0.515493 2.142 -0.0349941 -0.519757 0.853597 255 0 0 255
-0.099576 0.514539 2.138 0.239374 -0.606909 0.757867 255 0 0 255
-0.093611 0.513825 2.135 0.368591 -0.59402 0.715039 255 0 0 255
-0.087538 0.512388 2.129 0.415689 -0.475508 0.775303 255 0 0 255
-0.081574 0.511433 2.125 0.293369 -0.174827 0.939878 255 0 0 255
-0.075704 0.510958 2.123 0.154027 -0.0568867 0.986428 255 0 0 255
-0.069943 0.511205 2.124 -0.313096 0.0984738 0.944602 255 0 0 255
-0.064236 0.511933 2.127 -0.394003 0.197369 0.897668 255 0 0 255
-0.058513 0.51266 2.13 -0.350442 0.199953 0.914992 255 0 0 255
-0.052749 0.513146 2.132 -0.369099 0.308499 0.876695 255 0 0 255
-0.046996 0.513872 2.135 -0.228636 0.379814 0.896363 255 0 0 255
-0.041168 0.513876 2.135 0.0714509 0.42983 0.900079 255 0 0 255
-0.035307 0.513398 2.133 0.101451 0.469172 0.87726 255 0 0 255
-0.029485 0.513401 2.133 0.0589102 0.560373 0.826143 255 0 0 255
-0.023651 0.513162 2.132 -0.141853 0.583847 0.799375 255 0 0 255
-0.017848 0.513646 2.134 -0.471895 0.418227 0.776145 255 0 0 255
-0.012046 0.51461 2.138 -0.604873 0.25512 0.754349 255 0 0 255
-0.006221 0.515573 2.142 -0.575228 0.124798 0.808417 255 0 0 255
-0.000374 0.516296 2.145 -0.422391 -0.0955612 0.901362 255 0 0 255
0.005486 0.516777 2.147 -0.167054 -0.287534 0.943089 255 0 0 255
0.011347 0.516776 2.147 -0.0606368 -0.288643 0.955515 255 0 0 255
0.017224 0.517256 2.149 -0.054413 -0.1963 0.979033 255 0 0 255
0.02308 0.517014 2.148 0.164495 -0.122544 0.978736 255 0 0 255
0.028916 0.51653 2.146 0.109264 -0.142522 0.983742 255 0 0 255
0.034774 0.516527 2.146 -0.202687 0.0235322 0.978961 255 0 0 255
0.04067 0.517006 2.148 -0.415382 0.177793 0.892103 255 0 0 255
0.046576 0.517483 2.15 -0.430023 0.203267 0.879638 255 0 0 255
0.052542 0.518442 2.154 -0.335859 0.250626 0.907957 255 0 0 255
0.058476 0.518918 2.156 -0.282071 0.187867 0.94082 255 0 0 255
0.06442 0.519395 2.158 -0.280346 0.219615 0.934439 255 0 0 255
0.070342 0.51963 2.159 -0.429357 0.283968 0.85733 255 0 0 255
0.07634 0.520345 2.162 -0.646674 0.304694 0.699267 255 0 0 255
0.082469 0.521783 2.168 -0.699331 0.220605 0.679904 255 0 0 255
0.088589 0.522979 2.173 -0.597081 0.144575 0.789045 255 0 0 255
0.09465 0.523693 2.176 -0.598369 0.162171 0.784637 255 0 0 255
0.100865 0.525129 2.182 -0.697143 0.0628054 0.714176 255 0 0 255
-0.105293 0.650308 2.21882 0.148371 -0.78819 -0.597279 255 255 0 255
-0.100732 0.648516 2.20919 -0.25431 -0.906081 -0.338148 255 255 0 255
-0.103092 0.64634 2.1945 0.415692 -0.749529 -0.515177 255 255 0 255
-0.116997 0.639384 2.1451 -0.95098 0.0745095 -0.300143 255 255 0 255
-0.284021 0.559352 2.16846 0.956442 -0.062792 -0.285089 0 255 0 255
-0.2829 0.561612 2.17962 0.944839 -0.324342 -0.0456261 0 255 0 255
-0.2774 0.563316 2.18745 0.769198 -0.632895 -0.0881912 0 255 0 255
-0.271018 0.564913 2.19464 0.742108 -0.668439 -0.049655 0 255 0 255
-0.272535 0.567507 2.20776 0.567612 -0.822847 -0.0271929 0 255 0 255
-0.271423 0.569768 2.21888 0.496218 -0.702531 -0.510116 0 255 0 255
-0.257999 0.570501 2.22087 0.326902 -0.680909 -0.655361 0 255 0 255
-0.243677 0.57114 2.22228 0.433364 -0.658432 -0.615356 0 255 0 255
-0.232861 0.572226 2.22633 0.46867 -0.621704 -0.627561 0 255 0 255
-0.227323 0.573967 2.23428 0.424076 -0.620161 -0.65997 0 255 0 255
-0.216485 0.575071 2.2384 0.242714 -0.534118 -0.80982 0 255 0 255
-0.201218 0.575654 2.23937 0.158651 -0.373418 -0.913996 0 255 0 255
-0.188582 0.576571 2.24232 0.568963 -0.353253 -0.742626 0 255 0 255
-0.181239 0.578131 2.24911 0.659968 -0.43517 -0.612429 0 255 0 255
-0.175662 0.579908 2.2572 0.60728 -0.54102 -0.581815 0 255 0 255
-0.163874 0.58096 2.2609 0.299368 -0.703811 -0.644227 0 255 0 255
-0.15296 0.582127 2.26527 0.060616 -0.62702 -0.776641 0 255 0 255
-0.136705 0.582686 2.26595 0.128684 -0.55434 -0.822282 0 255 0 255
-0.121316 0.583365 2.26732 0.0256847 -0.560769 -0.827574 0 255 0 255
-0.102349 0.583652 2.2663 0.226262 -0.802966 -0.551409 0 255 0 255
-0.090476 0.584771 2.27028 0.476521 -0.750527 -0.457862 0 255 0 255
-0.083044 0.586407 2.27738 0.550328 -0.511528 -0.659908 0 255 0 255
-0.071145 0.587547 2.28144 0.179296 -0.543056 -0.820331 0 255 0 255
-0.057448 0.588499 2.28435 -0.352574 -0.5633 -0.747252 0 255 0 255
-0.349529 0.515879 2.171 0.816539 -0.279032 0.505377 255 0 0 255
-0.342203 0.513764 2.162 0.671324 -0.219293 0.70798 255 0 0 255
-0.335235 0.512124 2.155 0.681804 -0.0187257 0.731295 255 0 0 255
-0.328306 0.510484 2.148 0.660387 0.0846668 0.746137 255 0 0 255
-0.321563 0.509081 2.142 0.570562 0.201859 0.796061 255 0 0 255
-0.315295 0.50839 2.139 0.350912 0.257689 0.900254 255 0 0 255
-0.309332 0.508174 2.138 0.177487 0.255004 0.950511 255 0 0 255
-0.303516 0.508196 2.138 0.0637633 0.315091 0.946917 255 0 0 255
-0.297699 0.508218 2.138 0.000377651 0.335516 0.942034 255 0 0 255
-0.291745 0.508002 2.137 0.263594 0.215436 0.940269 255 0 0 255
-0.285528 0.50731 2.134 0.258681 0.0772413 0.96287 255 0 0 255
-0.27972 0.507331 2.134 0.0595326 -0.0347935 0.99762 255 0 0 255
-0.273911 0.507351 2.134 -0.142022 -0.0663198 0.987639 255 0 0 255
-0.268353 0.507847 2.136 -0.174345 -0.0646653 0.982559 255 0 0 255
-0.262538 0.507867 2.136 0.0592152 0.0452794 0.997218 255 0 0 255
-0.256722 0.507886 2.136 0.212692 0.0219833 0.976872 255 0 0 255
-0.250788 0.507668 2.135 0.24543 -0.115299 0.962533 255 0 0 255
-0.244744 0.507211 2.133 0.0650499 -0.163898 0.98433 255 0 0 255
-0.239046 0.507467 2.134 -0.0279703 -0.264483 0.963985 255 0 0 255
-0.233124 0.507248 2.133 0.0235499 -0.20362 0.978767 255 0 0 255
-0.227313 0.507266 2.133 0.0311988 -0.096249 0.994868 255 0 0 255
-0.221605 0.507521 2.134 0.00236113 -0.0214659 0.999767 255 0 0 255
-0.21569 0.5073 2.133 0.117895 0.0068991 0.993002 255 0 0 255
-0.20968 0.506841 2.131 0.166646 -0.0464913 0.98492 255 0 0 255
-0.203777 0.50662 2.13 0.0301704 -0.0700513 0.997087 255 0 0 255
-0.198065 0.506874 2.131 -0.055565 -0.0385137 0.997712 255 0 0 255
-0.192256 0.506889 2.131 0.03302 -0.0350751 0.998839 255 0 0 255
-0.186447 0.506904 2.131 0.115665 -0.0242645 0.992992 255 0 0 255
-0.180553 0.506681 2.13 -0.057262 0.0434677 0.997413 255 0 0 255
-0.174909 0.507171 2.132 -0.347855 0.0976629 0.932448 255 0 0 255
-0.169334 0.507899 2.135 -0.321493 0.0523866 0.945462 255 0 0 255
-0.163589 0.50815 2.136 -0.147074 0.0314987 0.988624 255 0 0 255
-0.157764 0.508164 2.136 0.172209 -0.0398716 0.984253 255 0 0 255
-0.151725 0.507462 2.133 0.285361 0.114611 0.951543 255 0 0 255
-0.145839 0.507237 2.132 0.393004 0.282474 0.875075 255 0 0 255
-0.139826 0.506535 2.129 0.485118 0.44023 0.755552 255 0 0 255
-0.13383 0.505832 2.126 0.451131 0.568609 0.68787 255 0 0 255
-0.127789 0.504891 2.122 0.283856 0.559482 0.77872 255 0 0 255
-0.121942 0.504664 2.121 0.043729 0.458172 0.887787 255 0 0 255
-0.116374 0.505625 2.125 -0.52787 -0.217915 0.820894 255 0 0 255
-0.110993 0.507538 2.133 -0.327139 -0.610963 0.720905 255 0 0 255
-0.10532 0.508261 2.136 0.105727 -0.629405 0.769851 255 0 0 255
-0.099305 0.507318 2.132 0.268009 -0.562298 0.782299 255 0 0 255
-0.093356 0.506612 2.129 0.298853 -0.513064 0.804645 255 0 0 255
-0.087422 0.505906 2.126 0.243203 -0.313343 0.91797 255 0 0 255
-0.081543 0.505437 2.124 0.127693 -0.195334 0.972388 255 0 0 255
-0.07571 0.505206 2.123 -0.0592125 0.0738499 0.99551 255 0 0 255
-0.069982 0.505688 2.125 -0.338302 0.14112 0.930396 255 0 0 255
-0.064242 0.50617 2.127 -0.408257 0.0952979 0.907879 255 0 0 255
-0.058518 0.506889 2.13 -0.39442 0.132471 0.909332 255 0 0 255
-0.052754 0.50737 2.132 -0.400102 0.108959 0.90997 255 0 0 255
-0.047 0.508088 2.135 -0.179429 -0.0634026 0.981726 255 0 0 255
-0.041172 0.508091 2.135 -0.0140982 -0.0368723 0.999221 255 0 0 255
-0.035344 0.508095 2.135 -0.00331064 0.08066 0.996736 255 0 0 255
-0.029529 0.508335 2.136 -0.0223721 0.268252 0.963089 255 0 0 255
-0.023687 0.5081 2.135 -0.123608 0.243243 0.962057 255 0 0 255
-0.017875 0.508577 2.137 -0.259545 0.31896 0.911538 255 0 0 255
-0.012052 0.509055 2.139 -0.465425 0.203371 0.861406 255 0 0 255
-0.006224 0.510008 2.143 -0.382308 -0.0227344 0.923755 255 0 0 255
-0.000374 0.510246 2.144 -0.175066 -0.244069 0.953825 255 0 0 255
0.005482 0.510484 2.145 -0.123236 -0.282553 0.951303 255 0 0 255
0.011338 0.510483 2.145 -0.155101 -0.302563 0.940425 255 0 0 255
0.017209 0.510958 2.147 -0.0559082 -0.245008 0.967908 255 0 0 255
0.02306 0.510718 2.146 0.0801858 -0.194028 0.977713 255 0 0 255
0.028919 0.510716 2.146 0.021269 -0.0391571 0.999007 255 0 0 255
0.034777 0.510713 2.146 -0.367675 0.161144 0.915887 255 0 0 255
0.040711 0.511662 2.15 -0.5312 0.258978 0.806695 255 0 0 255
0.046667 0.51261 2.154 -0.44807 0.317515 0.835714 255 0 0 255
0.052595 0.513082 2.156 -0.262848 0.296187 0.918251 255 0 0 255
0.058481 0.513077 2.156 -0.228219 0.19808 0.953247 255 0 0 255
0.064425 0.513548 2.158 -0.360462 0.215842 0.907458 255 0 0 255
0.070381 0.514018 2.16 -0.562553 0.333325 0.75659 255 0 0 255
0.076488 0.515439 2.166 -0.653357 0.417137 0.631761 255 0 0 255
0.082628 0.516861 2.172 -0.639573 0.427451 0.63893 255 0 0 255
0.088719 0.517805 2.176 -0.451182 0.442786 0.774839 255 0 0 255
0.094744 0.518273 2.178 -0.530107 0.306483 0.790604 255 0 0 255
0.100966 0.519693 2.184 -0.643234 0.152803 0.750268 255 0 0 255
-0.097625 0.642062 2.23844 0.342678 -0.680846 -0.647318 255 255 0 255
-0.092207 0.640325 2.22947 0.0198535 -0.787651 -0.615802 255 255 0 255
-0.091985 0.638289 2.21673 0.179538 -0.755086 -0.630565 255 255 0 255
-0.278196 0.548466 2.16516 0.992759 -0.119427 -0.0128953 0 255 0 255
-0.279694 0.55108 2.17832 0.961278 -0.270851 -0.0508308 0 255 0 255
-0.282953 0.553917 2.19278 -0.932779 0.352068 -0.0772693 0 255 0 255
-0.280961 0.556069 2.20325 -0.833445 0.546189 -0.083946 0 255 0 255
-0.285115 0.559009 2.2183 0.761904 -0.582349 -0.283499 0 255 0 255
-0.276984 0.560372 2.22416 0.599707 -0.456048 -0.65755 0 255 0 255
-0.266207 0.561408 2.22811 0.256184 -0.247047 -0.934525 0 255 0 255
-0.250138 0.561789 2.2282 0.367037 -0.575417 -0.730876 0 255 0 255
-0.240211 0.56296 2.23289 0.460415 -0.659356 -0.594364 0 255 0 255
-0.233799 0.564581 2.24018 0.378718 -0.613835 -0.692661 0 255 0 255
-0.219441 0.565222 2.24173 0.214528 -0.464514 -0.859188 0 255 0 255
-0.203299 0.56566 2.24207 0.116662 -0.325039 -0.938477 0 255 0 255
-0.188902 0.566333 2.24376 0.564268 -0.42944 -0.705112 0 255 0 255
-0.18333 0.568098 2.25183 0.7851 -0.487559 -0.381973 0 255 0 255
-0.181295 0.570297 2.26243 0.698191 -0.5959 -0.396777 0 255 0 255
-0.17306 0.571748 2.26863 0.444721 -0.597562 -0.66719 0 255 0 255
-0.157723 0.572358 2.26987 0.0874498 -0.522744 -0.847992 0 255 0 255
-0.140591 0.572772 2.26993 0.0789716 -0.412603 -0.907481 0 255 0 255
-0.124323 0.573309 2.27068 0.128561 -0.278794 -0.951707 0 255 0 255
-0.108922 0.573968 2.27213 0.454116 -0.589998 -0.667594 0 255 0 255
-0.097059 0.575059 2.27611 0.344737 -0.598074 -0.723508 0 255 0 255
-0.088742 0.576576 2.28258 0.24243 -0.372489 -0.895812 0 255 0 255
-0.080417 0.578101 2.28908 0.328681 -0.424319 -0.843755 0 255 0 255
-0.067624 0.579121 2.29258 -0.056835 -0.257456 -0.964617 0 255 0 255
-0.347943 0.507647 2.161 0.609815 -0.255714 0.750157 255 0 0 255
-0.341751 0.507201 2.159 0.501765 -0.143328 0.853047 255 0 0 255
-0.335103 0.50605 2.154 0.589616 -0.0372252 0.806825 255 0 0 255
-0.328481 0.504898 2.149 0.612281 0.111244 0.782775 255 0 0 255
-0.322036 0.503981 2.145 0.517785 0.210633 0.829176 255 0 0 255
-0.315612 0.503064 2.141 0.276264 0.417867 0.865486 255 0 0 255
-0.309788 0.503086 2.141 0.105867 0.361866 0.926199 255 0 0 255
-0.30368 0.502638 2.139 0.103207 0.372116 0.92243 255 0 0 255
-0.297999 0.502895 2.14 0.116273 0.42265 0.898804 255 0 0 255
-0.292039 0.502681 2.139 0.393053 0.255181 0.883398 255 0 0 255
-0.285683 0.501762 2.135 0.37668 0.149302 0.914232 255 0 0 255
-0.27974 0.501548 2.134 0.14627 0.119622 0.981986 255 0 0 255
-0.273803 0.501333 2.133 -0.177445 0.0548622 0.9826 255 0 0 255
-0.268499 0.502294 2.137 -0.232704 -0.00344015 0.972542 255 0 0 255
-0.262557 0.502079 2.136 -0.0279345 0.13918 0.989873 255 0 0 255
-0.256741 0.502098 2.136 0.21896 0.153536 0.963578 255 0 0 255
-0.250454 0.501177 2.132 0.339706 0.0902511 0.936192 255 0 0 255
-0.244533 0.500961 2.131 0.160408 0.00210129 0.987049 255 0 0 255
-0.238728 0.500979 2.131 0.0500083 -0.099019 0.993828 255 0 0 255
-0.233032 0.501233 2.132 -0.0153772 -0.170828 0.985181 255 0 0 255
-0.227224 0.501251 2.132 -0.0710811 -0.166431 0.983488 255 0 0 255
-0.221415 0.501268 2.132 -0.055398 -0.0610557 0.996596 255 0 0 255
-0.215605 0.501285 2.132 0.143668 -0.0352226 0.988999 255 0 0 255
-0.209697 0.501067 2.131 0.166109 0.0254794 0.985778 255 0 0 255
-0.203793 0.500848 2.13 0.0580502 -0.0193301 0.998127 255 0 0 255
-0.197988 0.500864 2.13 0.00093881 -0.0301441 0.999545 255 0 0 255
-0.192181 0.500879 2.13 -0.0101525 -0.0854473 0.996291 255 0 0 255
-0.186375 0.500895 2.13 -0.0276429 0.0152858 0.999501 255 0 0 255
-0.180567 0.500909 2.13 -0.117197 0.0526158 0.991714 255 0 0 255
-0.174841 0.501159 2.131 -0.262505 0.0285843 0.964507 255 0 0 255
-0.169189 0.501643 2.133 -0.226317 -0.0859237 0.970257 255 0 0 255
-0.163449 0.501892 2.134 -0.0394844 -0.176927 0.983432 255 0 0 255
-0.157703 0.50214 2.135 0.0630846 -0.062549 0.996046 255 0 0 255
-0.151737 0.501682 2.133 0.149732 0.0935292 0.984293 255 0 0 255
-0.145987 0.50193 2.134 0.232807 0.294022 0.927012 255 0 0 255
-0.139969 0.501236 2.131 0.333258 0.329787 0.883278 255 0 0 255
-0.134155 0.501247 2.131 0.368974 0.492874 0.787993 255 0 0 255
-0.128101 0.500317 2.127 0.365058 0.509532 0.779173 255 0 0 255
-0.12224 0.500092 2.126 0.200262 0.396951 0.895726 255 0 0 255
-0.116329 0.499632 2.124 0.168084 0.132586 0.976816 255 0 0 255
-0.11069 0.500347 2.127 -0.126478 -0.500076 0.856696 255 0 0 255
-0.104984 0.500826 2.129 -0.0998181 -0.615411 0.78186 255 0 0 255
-0.099081 0.500364 2.127 0.138757 -0.476347 0.868239 255 0 0 255
-0.093188 0.499902 2.125 0.219233 -0.404704 0.887779 255 0 0 255
-0.087306 0.499439 2.123 0.138901 -0.297292 0.944629 255 0 0 255
-0.08155 0.499681 2.124 0.0853678 -0.198569 0.976362 255 0 0 255
-0.075752 0.499688 2.124 -0.175771 -0.0322733 0.983902 255 0 0 255
-0.07002 0.500165 2.126 -0.386318 0.0391229 0.921535 255 0 0 255
-0.064277 0.500641 2.128 -0.357144 0.0161414 0.93391 255 0 0 255
-0.058523 0.501117 2.13 -0.303151 -0.0503181 0.951613 255 0 0 255
-0.052758 0.501592 2.132 -0.320826 -0.115871 0.940024 255 0 0 255
-0.046982 0.502067 2.134 -0.148838 -0.220281 0.964014 255 0 0 255
-0.041156 0.50207 2.134 -0.0695086 -0.216657 0.97377 255 0 0 255
-0.03533 0.502074 2.134 -0.143662 -0.0887819 0.985636 255 0 0 255
-0.029532 0.502547 2.136 -0.178074 0.00679658 0.983994 255 0 0 255
-0.023711 0.502785 2.137 -0.157606 0.0892134 0.983464 255 0 0 255
-0.017885 0.503022 2.138 -0.269465 0.0822404 0.959492 255 0 0 255
-0.012059 0.503493 2.14 -0.331464 -0.0785632 0.940191 255 0 0 255
-0.006219 0.50373 2.141 -0.199735 -0.219874 0.954862 255 0 0 255
-0.000374 0.503965 2.142 -0.13585 -0.282297 0.94966 255 0 0 255
0.005475 0.503965 2.142 -0.139407 -0.238184 0.961163 255 0 0 255
0.011333 0.504435 2.144 -0.165596 -0.259299 0.951494 255 0 0 255
0.017195 0.504669 2.145 -0.0728414 -0.21696 0.973459 255 0 0 255
0.023062 0.504902 2.146 -0.0283131 -0.1331 0.990698 255 0 0 255
0.028907 0.504665 2.145 -0.237511 0.00049388 0.971385 255 0 0 255
0.034812 0.505368 2.148 -0.536015 0.193182 0.821808 255 0 0 255
0.040752 0.506306 2.152 -0.607293 0.324567 0.725156 255 0 0 255
0.046736 0.507478 2.157 -0.39238 0.355027 0.848524 255 0 0 255
0.052624 0.507474 2.157 -0.0594827 0.306904 0.94988 255 0 0 255
0.05854 0.507705 2.158 -0.228564 0.226495 0.946815 255 0 0 255
0.064461 0.507935 2.159 -0.494492 0.303915 0.814317 255 0 0 255
0.070517 0.509105 2.164 -0.631095 0.386443 0.672592 255 0 0 255
0.076636 0.510511 2.17 -0.688813 0.41187 0.596573 255 0 0 255
0.082863 0.512386 2.178 -0.52871 0.330289 0.781904 255 0 0 255
0.08893 0.513085 2.181 -0.375824 0.280239 0.883302 255 0 0 255
0.094883 0.513077 2.181 -0.452906 0.246908 0.856687 255 0 0 255
0.10102 0.51401 2.185 -0.488372 0.25666 0.834038 255 0 0 255
-0.098624 0.633348 2.25177 0.731093 -0.190315 -0.655198 255 255 0 255
-0.082804 0.632238 2.25029 -0.0257822 -0.909596 -0.414693 255 255 0 255
-0.078266 0.63046 2.24073 0.0478908 -0.866031 -0.497691 255 255 0 255
-0.06854 0.629001 2.23495 -0.241257 -0.963658 -0.114713 255 255 0 255
-0.07006 0.626857 2.22099 0.460623 0.88712 -0.0290525 255 255 0 255
-0.075657 0.62239 2.19107 -0.774368 0.49607 -0.39277 255 255 0 255
-0.280869 0.541101 2.18035 -0.979649 0.165746 -0.113205 0 255 0 255
-0.284123 0.543958 2.1948 -0.963088 0.213391 -0.16409 0 255 0 255
-0.286512 0.546692 2.20856 -0.903345 0.428681 -0.0141714 0 255 0 255
-0.287157 0.549191 2.22097 0.732399 -0.215818 -0.645767 0 255 0 255
-0.27464 0.549966 2.22358 0.422565 -0.0835314 -0.902475 0 255 0 255
-0.262107 0.550754 2.22623 0.385281 -0.217893 -0.896706 0 255 0 255
-0.253076 0.55201 2.23153 0.530319 -0.541956 -0.651955 0 255 0 255
-0.246675 0.553613 2.2388 0.557115 -0.671984 -0.487914 0 255 0 255
-0.239388 0.555109 2.24544 0.275109 -0.668719 -0.690746 0 255 0 255
-0.222396 0.555379 2.24507 0.0499029 -0.387074 -0.920697 0 255 0 255
-0.206263 0.555779 2.24542 0.20856 -0.389836 -0.896956 0 255 0 255
-0.194523 0.55675 2.24901 0.588154 -0.484751 -0.647373 0 255 0 255
-0.187188 0.558286 2.2558 0.830325 -0.39046 -0.397621 0 255 0 255
-0.186923 0.560706 2.26766 0.80326 -0.354137 -0.478915 0 255 0 255
-0.176039 0.561813 2.27197 0.579891 -0.26373 -0.770826 0 255 0 255
-0.165141 0.56293 2.27633 0.246272 -0.443753 -0.861646 0 255 0 255
-0.140927 0.562434 2.27141 0.0479623 -0.250054 -0.967043 0 255 0 255
-0.128217 0.563366 2.27466 0.135961 -0.223079 -0.965272 0 255 0 255
-0.112825 0.563988 2.27611 0.336291 -0.270557 -0.902058 0 255 0 255
-0.102747 0.565267 2.28132 0.81715 -0.164636 -0.552414 0 255 0 255
-0.091767 0.566448 2.28595 0.298548 -0.53485 -0.790446 0 255 0 255
-0.079884 0.567535 2.29001 0.341613 -0.474663 -0.811169 0 255 0 255
-0.356461 0.505482 2.177 0.890632 -0.183478 0.416065 255 0 0 255
-0.347645 0.501326 2.159 0.555405 -0.0145142 0.831453 255 0 0 255
-0.341458 0.500885 2.157 0.501047 0.0330056 0.864791 255 0 0 255
-0.335126 0.500212 2.154 0.558816 -0.00666572 0.829265 255 0 0 255
-0.328504 0.499074 2.149 0.50827 0.0445358 0.860045 255 0 0 255
-0.322359 0.498632 2.147 0.447472 0.152755 0.881155 255 0 0 255
-0.316077 0.497958 2.144 0.321628 0.186214 0.928375 255 0 0 255
-0.310389 0.498212 2.145 0.0676751 0.2005 0.977354 255 0 0 255
-0.304411 0.498002 2.144 0.180009 0.0955878 0.97901 255 0 0 255
-0.298438 0.497792 2.143 0.137892 0.183156 0.973365 255 0 0 255
-0.292333 0.497348 2.141 0.398073 0.198927 0.895525 255 0 0 255
-0.285971 0.49644 2.137 0.413908 0.184674 0.89139 255 0 0 255
-0.279892 0.495997 2.135 0.171539 0.212848 0.96191 255 0 0 255
-0.273952 0.495785 2.134 -0.149304 0.146888 0.97782 255 0 0 255
-0.268393 0.49627 2.136 -0.26896 0.206671 0.940717 255 0 0 255
-0.2627 0.496522 2.137 -0.0886971 0.204278 0.974886 255 0 0 255
-0.257001 0.496774 2.138 0.268032 0.183463 0.94578 255 0 0 255
-0.250826 0.496096 2.135 0.374647 0.221081 0.900424 255 0 0 255
-0.244896 0.495883 2.134 0.263845 0.1126 0.95797 255 0 0 255
-0.238859 0.495436 2.132 0.179291 0.0180004 0.983631 255 0 0 255
-0.232941 0.495222 2.131 0.00540445 -0.145876 0.989288 255 0 0 255
-0.227135 0.49524 2.131 -0.0767722 -0.19572 0.97765 255 0 0 255
-0.221432 0.49549 2.132 -0.0776302 -0.171323 0.982152 255 0 0 255
-0.215724 0.495739 2.133 0.058607 -0.125522 0.990358 255 0 0 255
-0.209713 0.495291 2.131 0.142538 -0.037942 0.989062 255 0 0 255
-0.203905 0.495307 2.131 0.0579591 -0.00836245 0.998284 255 0 0 255
-0.198003 0.495091 2.13 0.0361027 -0.0304561 0.998884 255 0 0 255
-0.192197 0.495106 2.13 -0.0826844 -0.00379073 0.996569 255 0 0 255
-0.186389 0.495122 2.13 -0.105968 0.0550383 0.992845 255 0 0 255
-0.180751 0.495601 2.132 -0.147527 0.13285 0.980095 255 0 0 255
-0.174938 0.495616 2.132 -0.0878852 0.0700038 0.993668 255 0 0 255
-0.169203 0.495862 2.133 -0.0443484 -0.0966024 0.994335 255 0 0 255
-0.163386 0.495875 2.133 -0.134261 -0.194523 0.971666 255 0 0 255
-0.157716 0.496353 2.135 -0.12675 -0.0994748 0.986934 255 0 0 255
-0.151892 0.496366 2.135 -0.0887535 0.106848 0.990306 255 0 0 255
-0.146068 0.496378 2.135 0.122546 0.236668 0.963831 255 0 0 255
-0.140112 0.495925 2.133 0.206778 0.285835 0.935703 255 0 0 255
-0.13423 0.495704 2.132 0.25486 0.415967 0.872936 255 0 0 255
-0.128292 0.49525 2.13 0.348486 0.414863 0.840504 255 0 0 255
-0.122365 0.494795 2.128 0.43125 0.322026 0.842806 255 0 0 255
-0.116339 0.493875 2.124 0.43476 0.0871021 0.896324 255 0 0 255
-0.110439 0.493419 2.122 -0.0538855 -0.192429 0.97983 255 0 0 255
-0.104746 0.493893 2.124 -0.0287409 -0.388084 0.921176 255 0 0 255
-0.098949 0.493902 2.124 0.0298796 -0.391298 0.919779 255 0 0 255
-0.093152 0.49391 2.124 0.166899 -0.327917 0.929847 255 0 0 255
-0.087272 0.493452 2.122 0.0707184 -0.314276 0.946694 255 0 0 255
-0.08148 0.493459 2.122 -0.108419 -0.205166 0.972704 255 0 0 255
-0.075687 0.493466 2.122 -0.242462 -0.174854 0.954274 255 0 0 255
-0.069993 0.49417 2.125 -0.396099 -0.08085 0.914641 255 0 0 255
-0.064283 0.494873 2.128 -0.276237 -0.12544 0.952868 255 0 0 255
-0.058501 0.495111 2.129 -0.188901 -0.19611 0.962215 255 0 0 255
-0.052713 0.495348 2.13 -0.228992 -0.30198 0.925403 255 0 0 255
-0.046942 0.495818 2.132 -0.141061 -0.306349 0.94141 255 0 0 255
-0.041121 0.495821 2.132 -0.159396 -0.224915 0.961253 255 0 0 255
-0.035316 0.496057 2.133 -0.221924 -0.121984 0.967404 255 0 0 255
-0.029506 0.496292 2.134 -0.221151 -0.081425 0.971835 255 0 0 255
-0.023702 0.49676 2.136 -0.114904 -0.110546 0.987206 255 0 0 255
-0.01787 0.496762 2.136 -0.163142 -0.245417 0.955592 255 0 0 255
-0.012049 0.497228 2.138 -0.165834 -0.324436 0.931258 255 0 0 255
-0.006214 0.497461 2.139 -0.148708 -0.345234 0.92666 255 0 0 255
-0.000374 0.497927 2.141 -0.166785 -0.347988 0.922544 255 0 0 255
0.005472 0.497927 2.141 -0.201686 -0.288858 0.935887 255 0 0 255
0.011329 0.498391 2.143 -0.27591 -0.122553 0.953339 255 0 0 255
0.01718 0.49839 2.143 -0.167673 -0.0866926 0.982023 255 0 0 255
0.023042 0.498621 2.144 -0.149339 0.0330414 0.988234 255 0 0 255
0.02891 0.498851 2.145 -0.428168 0.158881 0.889623 255 0 0 255
0.034848 0.500011 2.15 -0.631493 0.240909 0.737007 255 0 0 255
0.040813 0.501171 2.155 -0.61167 0.285844 0.737668 255 0 0 255
0.046805 0.50233 2.16 -0.302591 0.357807 0.88341 255 0 0 255
0.052653 0.50186 2.158 0.0293147 0.193297 0.980702 255 0 0 255
0.058572 0.502088 2.159 -0.312025 0.244746 0.918009 255 0 0 255
0.064556 0.502781 2.162 -0.580528 0.262863 0.770643 255 0 0 255
0.070653 0.50417 2.168 -0.693993 0.367305 0.619242 255 0 0 255
0.076784 0.505559 2.174 -0.668406 0.347627 0.657563 255 0 0 255
0.08287 0.506483 2.178 -0.525493 0.230204 0.819062 255 0 0 255
0.088897 0.506941 2.18 -0.364086 0.198111 0.910051 255 0 0 255
0.094934 0.507398 2.182 -0.498338 0.267802 0.824586 255 0 0 255
0.101029 0.508087 2.185 -0.4627 0.288275 0.838335 255 0 0 255
-0.089868 0.623181 2.25922 -0.203375 -0.749933 -0.629475 255 255 0 255
-0.072327 0.62222 2.25901 0.156989 -0.647878 -0.745391 255 255 0 255
-0.056548 0.621164 2.25762 -0.232118 -0.463503 -0.855153 255 255 0 255
-0.037335 0.620343 2.25881 -0.231991 -0.911799 -0.338826 255 255 0 255
-0.037157 0.61831 2.2462 -0.41018 -0.883234 -0.227266 255 255 0 255
-0.038696 0.61616 2.23231 0.422866 0.896656 -0.131121 255 255 0 255
-0.047983 0.613495 2.21265 -0.341751 -0.938175 -0.0550845 255 255 0 255
-0.059825 0.610646 2.191 -0.527585 0.375907 -0.761806 255 255 0 255
-0.287292 0.531835 2.18635 -0.964935 0.23389 -0.119145 0 255 0 255
-0.288796 0.53447 2.19946 0.988238 -0.0438833 -0.146495 0 255 0 255
-0.292936 0.537455 2.21451 0.91056 0.228908 -0.344211 0 255 0 255
-0.289199 0.539373 2.22364 0.638954 0.170917 -0.750017 0 255 0 255
-0.275812 0.540004 2.2256 0.432687 0.079735 -0.898011 0 255 0 255
-0.263284 0.540765 2.22827 0.684954 -0.412609 -0.600493 0 255 0 255
-0.260408 0.542817 2.2381 0.713542 -0.576161 -0.398618 0 255 0 255
-0.254894 0.544523 2.24599 0.627625 -0.647164 -0.432742 0 255 0 255
