ply
format ascii 1.0
comment VCGLIB generated
element vertex 726
property float x
property float y
property float z
property float nx
property float ny
property float nz
property uchar red
property uchar green
property uchar blue
property uchar alpha
element face 0
property list uchar int vertex_indices
end_header
0.037889 0.542019 2.19418 -0.137299 -0.0877847 -0.986632 255 255 0 255
0.05342 0.541295 2.19332 -0.156228 0.0100713 -0.98767 255 255 0 255
0.064669 0.540201 2.18925 -0.411385 -0.0407864 -0.910549 255 255 0 255
0.072502 0.538809 2.18259 -0.825378 -0.292946 -0.482633 255 255 0 255
0.070985 0.536571 2.16869 -0.720483 -0.691121 -0.0570552 255 255 0 255
0.072871 0.53464 2.15742 0.67385 0.738217 -0.0310199 255 255 0 255
0.077304 0.532943 2.14812 0.563784 0.825481 -0.0269739 255 255 0 255
0.077503 0.530854 2.13549 0.678903 0.71648 -0.160456 255 255 0 255
0.080246 0.529 2.12486 0.629697 0.773127 -0.0758647 255 255 0 255
-0.259231 0.461453 2.14767 0.96039 -0.265779 -0.0837403 0 255 0 255
-0.258933 0.463931 2.1596 0.680074 -0.544445 -0.490998 0 255 0 255
-0.246443 0.464518 2.16231 0.620028 -0.497065 -0.607035 0 255 0 255
-0.238296 0.46579 2.16835 0.715 -0.419304 -0.559427 0 255 0 255
-0.23276 0.46747 2.17636 0.860049 -0.096342 -0.501033 0 255 0 255
-0.23246 0.469954 2.18829 0.947807 0.0467554 -0.315399 0 255 0 255
-0.230416 0.47217 2.19891 0.852133 -0.041234 -0.521698 0 255 0 255
-0.223125 0.473594 2.20565 0.56776 -0.0738814 -0.819872 0 255 0 255
-0.207947 0.473839 2.20663 0.179299 -0.221055 -0.958638 0 255 0 255
-0.193625 0.474231 2.20832 0.558652 -0.18646 -0.808171 0 255 0 255
-0.188932 0.476074 2.21708 0.786 -0.131927 -0.603986 0 255 0 255
-0.181603 0.47753 2.22394 0.571535 -0.184463 -0.799576 0 255 0 255
-0.171631 0.478604 2.22893 0.351152 -0.302803 -0.886004 0 255 0 255
-0.155492 0.478784 2.22956 0.410658 -0.627775 -0.661256 0 255 0 255
-0.149012 0.480395 2.23715 0.570559 -0.636958 -0.518408 0 255 0 255
-0.140765 0.481754 2.24351 0.499571 -0.637543 -0.586487 0 255 0 255
-0.128983 0.482612 2.24741 0.277214 -0.477685 -0.833648 0 255 0 255
-0.111009 0.482594 2.24703 -0.0219572 -0.419587 -0.907449 0 255 0 255
-0.09301 0.482595 2.24673 0.0416586 -0.37743 -0.925101 0 255 0 255
-0.079406 0.483244 2.24959 0.0750633 -0.375961 -0.92359 0 255 0 255
-0.067553 0.484157 2.25373 -0.21725 -0.279407 -0.935272 0 255 0 255
-0.314463 0.4547 2.132 0.510316 -0.0257855 0.8596 255 0 0 255
-0.307793 0.453442 2.126 0.450434 0.0753282 0.889626 255 0 0 255
-0.301865 0.45325 2.125 0.566495 0.212569 0.796177 255 0 0 255
-0.294966 0.451565 2.117 0.703877 0.252214 0.664037 255 0 0 255
-0.28852 0.45052 2.112 0.585177 0.27086 0.764332 255 0 0 255
-0.282235 0.449687 2.108 0.335522 0.230022 0.913518 255 0 0 255
-0.276495 0.449707 2.108 -0.0888561 0.183435 0.979008 255 0 0 255
-0.271011 0.450154 2.11 0.0107832 0.239402 0.97086 255 0 0 255
-0.265138 0.44996 2.109 0.156171 0.231693 0.960172 255 0 0 255
-0.259271 0.449766 2.108 0.298526 0.282485 0.911638 255 0 0 255
-0.253167 0.449145 2.105 0.403728 0.505966 0.762235 255 0 0 255
-0.246844 0.448097 2.1 0.488061 0.451126 0.747182 255 0 0 255
-0.240663 0.447262 2.096 0.400923 0.226557 0.887656 255 0 0 255
-0.234727 0.446853 2.094 0.355145 0.239054 0.903729 255 0 0 255
-0.22891 0.446657 2.093 0.362848 0.10313 0.926124 255 0 0 255
-0.222885 0.446034 2.09 0.458541 0.222873 0.860272 255 0 0 255
-0.21698 0.445624 2.088 0.376026 0.215978 0.901087 255 0 0 255
-0.211085 0.445214 2.086 0.307432 0.196625 0.931034 255 0 0 255
-0.205299 0.445017 2.085 0.307048 0.172528 0.935925 255 0 0 255
-0.199326 0.444392 2.082 0.353185 0.120794 0.927723 255 0 0 255
-0.193462 0.44398 2.08 0.233819 0.1748 0.956438 255 0 0 255
-0.187699 0.443782 2.079 0.0605249 0.175637 0.982593 255 0 0 255
-0.182028 0.443796 2.079 0.119984 0.181263 0.976088 255 0 0 255
-0.176272 0.443597 2.078 0.261256 0.082359 0.96175 255 0 0 255
-0.170438 0.443184 2.076 0.263594 -0.00633591 0.964613 255 0 0 255
-0.164695 0.442984 2.075 0.0292351 -0.173779 0.984351 255 0 0 255
-0.159033 0.442996 2.075 0.00212539 -0.108992 0.99404 255 0 0 255
-0.153444 0.443222 2.076 0.0912718 0.00404684 0.995818 255 0 0 255
-0.147707 0.443021 2.075 0.09037 0.0387412 0.995155 255 0 0 255
-0.141975 0.442819 2.074 0.0908233 -0.0144548 0.995762 255 0 0 255
-0.136248 0.442617 2.073 0.00158845 -0.0765459 0.997065 255 0 0 255
-0.130653 0.442841 2.074 -0.0902767 0.0570622 0.994281 255 0 0 255
-0.125051 0.443065 2.075 -0.0900083 0.0783159 0.992857 255 0 0 255
-0.119444 0.443289 2.076 -0.0901893 0.0374699 0.99522 255 0 0 255
-0.113721 0.443084 2.075 0.0012493 -0.0399692 0.9992 255 0 0 255
-0.108055 0.443094 2.075 0.000888626 -0.110394 0.993887 255 0 0 255
-0.102389 0.443102 2.075 0.00776942 -0.0906034 0.995857 255 0 0 255
-0.096723 0.44311 2.075 0.0901745 -0.0217284 0.995689 255 0 0 255
-0.091056 0.443118 2.075 0.201189 -0.0341461 0.978957 255 0 0 255
-0.085307 0.442698 2.073 0.258498 0.0118595 0.965939 255 0 0 255
-0.079606 0.442491 2.072 0.241017 0.132458 0.961439 255 0 0 255
-0.073912 0.442284 2.071 0.394676 0.220237 0.892035 255 0 0 255
-0.068123 0.441436 2.067 0.566783 0.213739 0.795659 255 0 0 255
-0.062356 0.440587 2.063 0.480258 0.219876 0.849121 255 0 0 255
-0.056666 0.440165 2.061 0.0966749 0.188191 0.977363 255 0 0 255
-0.05106 0.440383 2.062 -0.120415 0.0198063 0.992526 255 0 0 255
-0.045427 0.440387 2.062 0.000877871 0.0446665 0.999002 255 0 0 255
-0.039775 0.440177 2.061 0.00119824 0.0740742 0.997252 255 0 0 255
-0.034144 0.44018 2.061 -0.121835 0.0494649 0.991317 255 0 0 255
-0.028528 0.440396 2.062 -0.208954 0.0573119 0.976245 255 0 0 255
-0.022905 0.440612 2.063 -0.0625237 0.16578 0.984179 255 0 0 255
-0.017269 0.440613 2.063 -0.0927953 0.177343 0.979765 255 0 0 255
-0.011644 0.441042 2.065 -0.295629 0.136942 0.945437 255 0 0 255
-0.006008 0.44147 2.067 -0.150067 0.0192479 0.988488 255 0 0 255
-0.000361 0.441256 2.066 -0.0300214 0.0207319 0.999334 255 0 0 255
0.005286 0.44147 2.067 -0.0599445 0.0516174 0.996866 255 0 0 255
0.010934 0.441469 2.067 -0.121381 0.0300691 0.99215 255 0 0 255
0.016597 0.441895 2.069 -0.0883747 -0.0913021 0.991894 255 0 0 255
0.02225 0.441893 2.069 -0.0298652 -0.0769755 0.996586 255 0 0 255
0.027902 0.441891 2.069 -0.120436 -0.00374303 0.992714 255 0 0 255
0.033571 0.442102 2.07 -0.392224 0.0591556 0.917966 255 0 0 255
0.039283 0.44274 2.073 -0.472845 0.0476394 0.879857 255 0 0 255
0.045011 0.443377 2.076 -0.334857 0.0158769 0.942135 255 0 0 255
0.050731 0.4438 2.078 -0.382419 0.00460164 0.923978 255 0 0 255
0.056489 0.444437 2.081 -0.497136 0.117509 0.859679 255 0 0 255
0.062263 0.445073 2.084 -0.627374 0.124827 0.768648 255 0 0 255
0.068119 0.446135 2.089 -0.537755 0.226891 0.811997 255 0 0 255
0.073895 0.446556 2.091 -0.203671 0.312077 0.927969 255 0 0 255
0.079645 0.446763 2.092 -0.119344 0.303607 0.945293 255 0 0 255
0.085358 0.446757 2.092 -0.228326 0.414672 0.88086 255 0 0 255
0.091202 0.44739 2.095 -0.547457 0.399724 0.735195 255 0 0 255
0.097155 0.44845 2.1 -0.650329 0.41198 0.638235 255 0 0 255
0.103135 0.44951 2.105 -0.434733 0.544419 0.717367 255 0 0 255
0.108986 0.449928 2.107 -0.271345 0.530537 0.803058 255 0 0 255
0.114739 0.449919 2.107 -0.274516 0.499119 0.821901 255 0 0 255
0.120664 0.45055 2.11 -0.488071 0.369776 0.790603 255 0 0 255
0.126664 0.451394 2.114 -0.644829 0.279227 0.711497 255 0 0 255
0.132874 0.452878 2.121 -0.667481 0.32993 0.667544 255 0 0 255
0.13899 0.453935 2.126 -0.494911 0.392493 0.77525 255 0 0 255
0.144793 0.453923 2.126 -0.146246 0.468775 0.871127 255 0 0 255
0.150596 0.453911 2.126 -0.113259 0.523759 0.844303 255 0 0 255
0.156545 0.454326 2.128 -0.148196 0.471698 0.869218 255 0 0 255
-0.120105 0.543349 2.2329 0.555835 -0.619691 -0.554103 255 255 0 255
-0.107757 0.542222 2.22879 -0.210588 0.0171055 -0.977425 255 255 0 255
-0.09715 0.540957 2.22348 -0.301771 -0.365953 -0.880348 255 255 0 255
-0.077951 0.540442 2.22448 -0.0740594 -0.559322 -0.825636 255 255 0 255
-0.064803 0.539422 2.22117 -0.242731 -0.577551 -0.779433 255 255 0 255
-0.054252 0.538187 2.21601 -0.229566 -0.513306 -0.826932 255 255 0 255
-0.04114 0.537187 2.2128 -0.153856 -0.433197 -0.88807 255 255 0 255
-0.026335 0.536349 2.21092 -0.411388 -0.523845 -0.745886 255 255 0 255
-0.019258 0.534837 2.20334 -0.713504 -0.198484 -0.67195 255 255 0 255
-0.010478 0.533482 2.19706 -0.421021 -0.140624 -0.896084 255 255 0 255
0.005125 0.532752 2.19598 -0.069462 -0.205519 -0.976185 255 255 0 255
0.023263 0.532268 2.1969 -0.0731814 -0.255453 -0.964048 255 255 0 255
0.036256 0.531332 2.19402 -0.272989 -0.0769778 -0.958933 255 255 0 255
0.045823 0.530092 2.18857 -0.169286 -0.0586384 -0.983821 255 255 0 255
0.061331 0.529412 2.18775 -0.195462 0.0187999 -0.980531 255 255 0 255
0.070017 0.52811 2.18173 -0.579907 -0.533055 -0.616085 255 255 0 255
0.082087 0.527134 2.17838 -0.55973 -0.701426 -0.441253 255 255 0 255
0.085661 0.525363 2.16846 -0.478376 -0.805222 -0.350392 255 255 0 255
0.091775 0.523835 2.16053 -0.632015 -0.773887 -0.0407016 255 255 0 255
0.088577 0.521417 2.14527 0.661221 0.74416 -0.0949338 255 255 0 255
0.086239 0.519074 2.13064 0.663227 0.744259 -0.078794 255 255 0 255
-0.265357 0.454644 2.16561 0.66564 -0.483346 -0.568594 0 255 0 255
-0.255489 0.455614 2.17028 0.485842 -0.470279 -0.736746 0 255 0 255
-0.245609 0.456592 2.17499 0.544131 -0.593706 -0.592819 0 255 0 255
-0.234847 0.457445 2.17908 0.72226 -0.490678 -0.487418 0 255 0 255
-0.228435 0.458986 2.18646 0.891522 -0.188141 -0.412057 0 255 0 255
-0.22726 0.461345 2.19774 0.85511 0.111409 -0.506335 0 255 0 255
-0.219968 0.462759 2.2045 0.447492 0.178978 -0.876195 0 255 0 255
-0.206543 0.46324 2.20678 0.085154 0.0286379 -0.995956 0 255 0 255
-0.190473 0.463334 2.20722 0.46354 0.140901 -0.874802 0 255 0 255
-0.184024 0.464909 2.21472 0.752692 0.0933884 -0.651716 0 255 0 255
-0.17757 0.46649 2.22224 0.718002 -0.0453846 -0.69456 0 255 0 255
-0.170231 0.467943 2.22914 0.476106 -0.186478 -0.859389 0 255 0 255
-0.158491 0.468745 2.23293 0.565882 -0.412526 -0.713863 0 255 0 255
-0.153774 0.470607 2.24177 0.638906 -0.532747 -0.554959 0 255 0 255
-0.145532 0.47195 2.24813 0.494533 -0.571161 -0.655143 0 255 0 255
-0.134639 0.472911 2.25265 0.312659 -0.500183 -0.807503 0 255 0 255
-0.11756 0.472977 2.25289 -0.0608308 -0.555256 -0.829452 0 255 0 255
-0.100456 0.473061 2.2532 0.0484107 -0.481951 -0.87486 0 255 0 255
-0.089513 0.474061 2.25789 0.0684724 -0.435848 -0.897412 0 255 0 255
-0.314043 0.448283 2.129 0.336348 -0.0898008 0.937446 255 0 0 255
-0.30796 0.447884 2.127 0.301401 0.114897 0.946549 255 0 0 255
-0.30217 0.447905 2.127 0.45206 0.156849 0.878089 255 0 0 255
-0.295405 0.446452 2.12 0.688437 0.236494 0.685656 255 0 0 255
-0.288814 0.44521 2.114 0.615793 0.270513 0.740015 255 0 0 255
-0.282523 0.444388 2.11 0.429145 0.25512 0.866457 255 0 0 255
-0.276777 0.444408 2.11 0.04051 0.144693 0.988647 255 0 0 255
-0.271031 0.444428 2.11 0.0940159 -0.0349959 0.994955 255 0 0 255
-0.265032 0.444027 2.108 0.153995 -0.0219902 0.987827 255 0 0 255
-0.25929 0.444046 2.108 -0.018665 0.116127 0.993059 255 0 0 255
-0.253667 0.444276 2.109 0.0740898 0.387842 0.918743 255 0 0 255
-0.247568 0.443662 2.106 0.387771 0.518775 0.761909 255 0 0 255
-0.24137 0.442838 2.102 0.590142 0.403013 0.699509 255 0 0 255
-0.234969 0.441592 2.096 0.372735 0.328647 0.86779 255 0 0 255
-0.229256 0.441609 2.096 0.341445 0.267568 0.901012 255 0 0 255
-0.223116 0.440784 2.092 0.457194 0.257047 0.851411 255 0 0 255
-0.217205 0.440379 2.09 0.394997 0.249049 0.88428 255 0 0 255
-0.211203 0.439763 2.087 0.330505 0.194228 0.923603 255 0 0 255
-0.205315 0.439358 2.085 0.283485 0.216651 0.934184 255 0 0 255
-0.199437 0.438952 2.083 0.380127 0.176255 0.907986 255 0 0 255
-0.19357 0.438546 2.081 0.286989 0.224333 0.931296 255 0 0 255
-0.187894 0.438561 2.081 0.090811 0.140444 0.985915 255 0 0 255
-0.182217 0.438575 2.081 0.179784 0.103301 0.978267 255 0 0 255
-0.17637 0.438168 2.079 0.32943 0.0181439 0.944006 255 0 0 255
-0.170452 0.437549 2.076 0.324976 -0.0252296 0.945386 255 0 0 255
-0.164628 0.437141 2.074 0.0892118 -0.0572741 0.994365 255 0 0 255
-0.159045 0.437364 2.075 -0.073177 -0.0320303 0.996804 255 0 0 255
-0.153382 0.437377 2.075 -0.0293159 0.0288568 0.999154 255 0 0 255
-0.147719 0.437389 2.075 0.11887 0.0727781 0.990239 255 0 0 255
-0.141987 0.43719 2.074 0.202055 0.0606839 0.977492 255 0 0 255
-0.136259 0.43699 2.073 -0.0593801 0.0485084 0.997056 255 0 0 255
-0.130726 0.437422 2.075 -0.208926 0.0697057 0.975444 255 0 0 255
-0.125061 0.437433 2.075 -0.0905733 0.124038 0.988135 255 0 0 255
-0.119396 0.437443 2.075 0.000787819 0.0697282 0.997566 255 0 0 255
-0.11373 0.437452 2.075 0.0897932 0.0543164 0.994478 255 0 0 255
-0.108064 0.437461 2.075 0.0594406 -0.0338816 0.997657 255 0 0 255
-0.102397 0.43747 2.075 0.0718595 -0.148825 0.986249 255 0 0 255
-0.096731 0.437478 2.075 0.0860144 -0.19644 0.976736 255 0 0 255
-0.09102 0.437275 2.074 0.157333 -0.245944 0.95643 255 0 0 255
-0.085273 0.43686 2.072 0.148346 -0.110807 0.982708 255 0 0 255
-0.079613 0.436867 2.072 0.145425 -0.0821781 0.985951 255 0 0 255
-0.073918 0.436663 2.071 0.320384 0.0409704 0.946401 255 0 0 255
-0.068161 0.436036 2.068 0.544858 0.102725 0.832212 255 0 0 255
-0.062361 0.434987 2.063 0.502598 0.17702 0.846203 255 0 0 255
-0.05667 0.43457 2.061 0.125016 0.187467 0.974283 255 0 0 255
-0.05104 0.434575 2.061 -0.0618883 0.197469 0.978354 255 0 0 255
-0.045409 0.434579 2.061 -0.0619203 0.21329 0.975025 255 0 0 255
-0.039778 0.434582 2.061 -0.0460228 0.276111 0.960023 255 0 0 255
-0.034164 0.434796 2.062 -0.0613043 0.288803 0.955424 255 0 0 255
-0.028544 0.43501 2.063 -0.209281 0.205073 0.95611 255 0 0 255
-0.022929 0.435433 2.065 -0.151272 0.281949 0.947429 255 0 0 255
-0.017287 0.435435 2.065 -0.120898 0.256694 0.958902 255 0 0 255
-0.011651 0.435647 2.066 -0.152962 0.129746 0.979678 255 0 0 255
-0.006006 0.435648 2.066 -0.0909145 0.0385009 0.995114 255 0 0 255
-0.000361 0.435859 2.067 -0.0613388 0.092192 0.99385 255 0 0 255
0.005287 0.435859 2.067 -0.0601839 0.0820269 0.994811 255 0 0 255
0.01094 0.436069 2.068 -0.089877 0.016668 0.995813 255 0 0 255
0.016582 0.435857 2.067 -0.0604375 -0.0377772 0.997457 255 0 0 255
0.02223 0.435855 2.067 -0.0919409 0.0140346 0.995666 255 0 0 255
0.027891 0.436064 2.068 -0.212051 0.108115 0.97126 255 0 0 255
0.033574 0.436483 2.07 -0.391059 0.126895 0.911576 255 0 0 255
0.039305 0.437324 2.074 -0.414802 0.131911 0.900299 255 0 0 255
0.044993 0.437531 2.075 -0.317179 0.0754761 0.945358 255 0 0 255
0.050711 0.437949 2.077 -0.407161 0.0144069 0.913243 255 0 0 255
0.056466 0.438577 2.08 -0.560948 0.0405997 0.826855 255 0 0 255
0.062298 0.439626 2.085 -0.651594 0.138064 0.745897 255 0 0 255
0.06819 0.440886 2.091 -0.551201 0.139701 0.822594 255 0 0 255
0.073937 0.441091 2.092 -0.310185 0.260263 0.914357 255 0 0 255
0.079727 0.441506 2.094 -0.146835 0.318678 0.936421 255 0 0 255
0.085447 0.4415 2.094 -0.311797 0.404981 0.859519 255 0 0 255
0.091297 0.442125 2.097 -0.599283 0.400437 0.693188 255 0 0 255
0.097302 0.443382 2.103 -0.661325 0.399378 0.634938 255 0 0 255
0.103339 0.444639 2.109 -0.495293 0.496301 0.713001 255 0 0 255
0.109202 0.445052 2.111 -0.26349 0.625879 0.734063 255 0 0 255
0.115075 0.445465 2.113 -0.274916 0.686029 0.673635 255 0 0 255
0.120902 0.445666 2.114 -0.396966 0.618781 0.677885 255 0 0 255
0.126854 0.446288 2.117 -0.56265 0.484211 0.670048 255 0 0 255
0.13301 0.447543 2.123 -0.641851 0.343142 0.685771 255 0 0 255
0.139198 0.448796 2.129 -0.466732 0.347091 0.813443 255 0 0 255
0.145146 0.449207 2.131 -0.151746 0.381156 0.911972 255 0 0 255
0.150962 0.449195 2.131 -0.173539 0.451544 0.87521 255 0 0 255
0.156852 0.449393 2.132 -0.1364 0.455781 0.879579 255 0 0 255
-0.12258 0.532248 2.23231 0.699808 -0.536021 -0.472177 255 255 0 255
-0.110232 0.531145 2.22819 -0.184562 -0.417445 -0.889762 255 255 0 255
-0.094457 0.530356 2.2266 0.488691 -0.453242 -0.745488 255 255 0 255
-0.074408 0.529965 2.22823 -0.0953184 -0.443986 -0.890949 255 255 0 255
-0.05783 0.529283 2.22743 -0.216282 -0.455402 -0.863615 255 255 0 255
-0.044712 0.528305 2.22418 -0.209056 -0.504823 -0.837526 255 255 0 255
-0.030756 0.527416 2.22161 -0.28339 -0.636221 -0.717574 255 255 0 255
-0.014254 0.526773 2.22102 -0.616395 -0.563318 -0.550209 255 255 0 255
-0.014891 0.524565 2.20772 -0.671945 -0.480694 -0.563403 255 255 0 255
-0.005262 0.523306 2.20209 -0.455033 -0.342891 -0.82181 255 255 0 255
0.010332 0.522614 2.20101 0.0201264 -0.394107 -0.918844 255 255 0 255
0.030164 0.522338 2.20323 -0.231197 -0.578175 -0.782472 255 255 0 255
0.037182 0.520867 2.19581 -0.50335 -0.441657 -0.742683 255 255 0 255
0.046747 0.519644 2.19036 -0.351927 -0.500199 -0.791169 255 255 0 255
0.06395 0.519164 2.19083 -0.113137 -0.288159 -0.950876 255 255 0 255
0.076878 0.518288 2.1881 -0.386809 -0.52056 -0.761181 255 255 0 255
0.08809 0.517257 2.1841 -0.475761 -0.619271 -0.624624 255 255 0 255
0.095049 0.515821 2.17684 -0.524984 -0.709363 -0.470315 255 255 0 255
0.102847 0.514472 2.17026 -0.686869 -0.698013 -0.202455 255 255 0 255
0.097105 0.511785 2.15303 0.790233 0.591684 -0.159502 255 255 0 255
-0.238526 0.434883 2.12191 -0.983311 0.16164 -0.0834959 0 255 0 255
-0.255568 0.440215 2.14715 -0.966275 -0.0736823 -0.246746 0 255 0 255
-0.262214 0.443838 2.16437 0.975008 -0.168194 -0.145158 0 255 0 255
-0.254956 0.445211 2.17103 0.757193 -0.261229 -0.598681 0 255 0 255
-0.250304 0.447008 2.17967 0.624735 -0.61445 -0.481828 0 255 0 255
-0.241292 0.448114 2.18506 0.49469 -0.670602 -0.552787 0 255 0 255
-0.232269 0.449228 2.19048 0.60676 -0.633329 -0.48035 0 255 0 255
-0.228476 0.451177 2.19981 0.676261 -0.40212 -0.617227 0 255 0 255
-0.217691 0.45203 2.204 0.338 -0.164112 -0.926727 0 255 0 255
-0.203394 0.452347 2.20567 0.18512 0.00298867 -0.982711 0 255 0 255
-0.188204 0.452542 2.20676 0.612746 -0.0272912 -0.789808 0 255 0 255
-0.187885 0.45506 2.21872 0.705628 0.0227518 -0.708217 0 255 0 255
-0.180557 0.456495 2.22561 0.731879 0.0136384 -0.681298 0 255 0 255
-0.172345 0.457801 2.23188 0.613846 0.0321277 -0.788772 0 255 0 255
-0.160611 0.458578 2.23567 0.765677 -0.0315014 -0.642454 0 255 0 255
-0.159411 0.460969 2.24702 0.771188 -0.233687 -0.592165 0 255 0 255
-0.150297 0.462162 2.25274 0.5481 -0.308259 -0.777537 0 255 0 255
-0.137649 0.462833 2.25602 0.375663 -0.441408 -0.814885 0 255 0 255
-0.12146 0.46299 2.25688 0.0362976 -0.343655 -0.938394 0 255 0 255
-0.10525 0.463163 2.25782 0.055073 -0.539739 -0.840029 0 255 0 255
-0.092548 0.463877 2.26128 -0.100915 -0.442799 -0.890924 0 255 0 255
-0.320309 0.443107 2.132 0.500015 -0.0227958 0.865717 255 0 0 255
-0.314065 0.442505 2.129 0.273592 0.0364003 0.961157 255 0 0 255
-0.308126 0.442319 2.128 0.118681 0.0580931 0.991232 255 0 0 255
-0.302334 0.442341 2.128 0.430044 0.093397 0.897964 255 0 0 255
-0.295844 0.441323 2.123 0.64172 0.187208 0.74374 255 0 0 255
-0.289245 0.440096 2.117 0.663417 0.226281 0.713215 255 0 0 255
-0.282677 0.438869 2.111 0.542113 0.195858 0.817161 255 0 0 255
-0.276666 0.438474 2.109 0.205162 0.019765 0.978528 255 0 0 255
-0.270794 0.438286 2.108 0.144375 -0.0416928 0.988644 255 0 0 255
-0.264926 0.438097 2.107 0.0407418 0.0862709 0.995438 255 0 0 255
-0.259186 0.438116 2.107 -0.207525 0.21099 0.955205 255 0 0 255
-0.253927 0.438967 2.111 -0.167109 0.465805 0.868965 255 0 0 255
-0.247939 0.43857 2.109 0.266536 0.568712 0.778155 255 0 0 255
-0.241733 0.437756 2.105 0.643937 0.394223 0.655693 255 0 0 255
-0.235211 0.436318 2.098 0.487756 0.329821 0.808277 255 0 0 255
-0.229492 0.436336 2.098 0.33482 0.35622 0.872355 255 0 0 255
-0.223346 0.435521 2.094 0.487689 0.323645 0.81081 255 0 0 255
-0.217325 0.434914 2.091 0.456279 0.303423 0.836507 255 0 0 255
-0.21132 0.434306 2.088 0.351458 0.275654 0.894702 255 0 0 255
-0.205528 0.434114 2.087 0.283137 0.272141 0.919659 255 0 0 255
-0.19974 0.433922 2.086 0.424967 0.243164 0.871937 255 0 0 255
-0.193678 0.433105 2.082 0.344753 0.186757 0.919928 255 0 0 255
-0.187909 0.432912 2.081 0.120866 0.08632 0.988909 255 0 0 255
-0.182144 0.432718 2.08 0.229738 0.0332869 0.972683 255 0 0 255
-0.176299 0.432316 2.078 0.35067 0.00136839 0.936498 255 0 0 255
-0.170465 0.431914 2.076 0.37348 0.0219199 0.927379 255 0 0 255
-0.164641 0.431511 2.074 0.124269 0.0472502 0.991123 255 0 0 255
-0.159058 0.431731 2.075 -0.119233 0.0247168 0.992558 255 0 0 255
-0.153468 0.431952 2.076 -0.0880944 -0.0274464 0.995734 255 0 0 255
-0.147802 0.431964 2.076 0.060482 0.0430674 0.99724 255 0 0 255
-0.142067 0.431767 2.075 0.20218 0.0716446 0.976724 255 0 0 255
-0.13627 0.431362 2.073 -0.0905996 0.0679496 0.993567 255 0 0 255
-0.1308 0.431997 2.076 -0.209642 0.0846073 0.974111 255 0 0 255
-0.125132 0.432008 2.076 -0.0298081 0.131299 0.990895 255 0 0 255
-0.119521 0.432226 2.077 0.000822131 0.0468913 0.9989 255 0 0 255
-0.113794 0.432027 2.076 0.119698 0.0308757 0.99233 255 0 0 255
-0.108073 0.431828 2.075 0.17396 -0.0493007 0.983518 255 0 0 255
-0.102307 0.43142 2.073 0.146291 -0.104837 0.983671 255 0 0 255
-0.096599 0.43122 2.072 0.0939046 -0.0900235 0.991503 255 0 0 255
-0.090895 0.43102 2.071 0.101155 0.0144478 0.994766 255 0 0 255
-0.085238 0.431027 2.071 0.0952004 0.0583372 0.993747 255 0 0 255
-0.079581 0.431034 2.071 0.209231 0.006019 0.977848 255 0 0 255
-0.073852 0.430624 2.069 0.304908 -0.0785275 0.949139 255 0 0 255
-0.0682 0.430629 2.069 0.455745 -0.0150487 0.889983 255 0 0 255
-0.062396 0.429594 2.064 0.44352 0.0974376 0.890952 255 0 0 255
-0.05673 0.429391 2.063 0.0915323 0.24548 0.965071 255 0 0 255
-0.051094 0.429395 2.063 -0.091725 0.291865 0.952051 255 0 0 255
-0.045479 0.429607 2.064 -0.092853 0.319209 0.943125 255 0 0 255
-0.039859 0.429819 2.065 -0.0304672 0.337336 0.940891 255 0 0 255
-0.0342 0.429614 2.064 0.000229308 0.311159 0.950358 255 0 0 255
-0.02856 0.429617 2.064 -0.210775 0.260998 0.942048 255 0 0 255
-0.022942 0.430035 2.066 -0.153869 0.191481 0.96936 255 0 0 255
-0.017297 0.430037 2.066 -0.0615139 0.227691 0.971789 255 0 0 255
-0.011657 0.430246 2.067 -0.0305116 0.0965731 0.994858 255 0 0 255
-0.006006 0.430039 2.066 -0.0925289 0.0718019 0.993118 255 0 0 255
-0.000361 0.430455 2.068 -0.121956 0.0917108 0.988289 255 0 0 255
0.005287 0.430247 2.067 -0.0307923 0.181419 0.982924 255 0 0 255
0.010941 0.430454 2.068 -0.000142548 0.115503 0.993307 255 0 0 255
0.016592 0.430453 2.068 -0.000196277 0.123191 0.992383 255 0 0 255
0.022253 0.43066 2.069 -0.212223 0.210669 0.954243 255 0 0 255
0.02792 0.430866 2.07 -0.291581 0.172732 0.940821 255 0 0 255
0.033609 0.431279 2.072 -0.411861 0.198346 0.889399 255 0 0 255
0.039308 0.431693 2.074 -0.390292 0.175652 0.90378 255 0 0 255
0.045018 0.432106 2.076 -0.264461 0.13252 0.955248 255 0 0 255
0.050715 0.43231 2.077 -0.470506 0.183705 0.863062 255 0 0 255
0.056498 0.433138 2.081 -0.630869 0.18545 0.753401 255 0 0 255
0.062333 0.434174 2.086 -0.661087 0.234719 0.712651 255 0 0 255
0.068195 0.435209 2.091 -0.538439 0.204338 0.817514 255 0 0 255
0.074014 0.435828 2.094 -0.310043 0.245951 0.918358 255 0 0 255
0.07981 0.436238 2.096 -0.203645 0.282818 0.937306 255 0 0 255
0.085536 0.436231 2.096 -0.387974 0.379399 0.83996 255 0 0 255
0.091479 0.437264 2.101 -0.631796 0.344353 0.694446 255 0 0 255
0.097449 0.438297 2.106 -0.683906 0.400966 0.609507 255 0 0 255
0.103494 0.439538 2.112 -0.576371 0.515677 0.633935 255 0 0 255
0.109418 0.440153 2.115 -0.328581 0.649176 0.686006 255 0 0 255
0.115303 0.44056 2.117 -0.30704 0.696423 0.64863 255 0 0 255
0.121312 0.441383 2.121 -0.320643 0.67491 0.664593 255 0 0 255
0.127224 0.441789 2.123 -0.483104 0.529701 0.697157 255 0 0 255
0.133208 0.442403 2.126 -0.545252 0.405752 0.733529 255 0 0 255
0.139209 0.443017 2.129 -0.44669 0.267694 0.853702 255 0 0 255
0.145157 0.443421 2.131 -0.229327 0.239308 0.943473 255 0 0 255
0.151045 0.443618 2.132 -0.227077 0.321977 0.919112 255 0 0 255
0.157012 0.444022 2.134 -0.29659 0.437487 0.848905 255 0 0 255
-0.119013 0.521666 2.23606 0.267875 -0.0810674 -0.960037 255 255 0 255
-0.10581 0.520669 2.23255 -0.245651 -0.468665 -0.848533 255 255 0 255
-0.090905 0.519839 2.23035 0.175525 -0.510776 -0.841605 255 255 0 255
-0.070866 0.519498 2.23197 -0.112647 -0.20943 -0.971313 255 255 0 255
-0.055156 0.518777 2.23054 -0.17749 -0.414069 -0.892773 255 255 0 255
-0.043759 0.517667 2.22602 -0.213281 -0.435608 -0.874504 255 255 0 255
-0.026381 0.517131 2.22598 -0.284732 -0.477888 -0.830993 255 255 0 255
-0.017593 0.515798 2.21966 -0.711013 -0.491153 -0.50322 255 255 0 255
-0.014801 0.5139 2.20891 -0.820117 -0.198581 -0.536631 255 255 0 255
-0.003465 0.512823 2.20455 -0.246777 -0.510169 -0.823911 255 255 0 255
0.017242 0.512663 2.20732 0.0559336 -0.495346 -0.866893 255 255 0 255
0.03706 0.512438 2.20955 -0.314579 -0.677166 -0.665196 255 255 0 255
0.044923 0.511063 2.20279 -0.472522 -0.658509 -0.585737 255 255 0 255
0.051925 0.50961 2.1954 -0.267878 -0.639759 -0.720381 255 255 0 255
0.069967 0.509257 2.19652 -0.160508 -0.528068 -0.833895 255 255 0 255
0.07949 0.508073 2.19117 -0.295583 -0.459787 -0.837393 255 255 0 255
0.090697 0.507066 2.18718 -0.464969 -0.590658 -0.65949 255 255 0 255
0.100193 0.505897 2.1819 -0.631008 -0.477541 -0.611378 255 255 0 255
0.109677 0.504735 2.17666 -0.85449 -0.366254 -0.368383 255 255 0 255
0.10647 0.502282 2.16145 0.948395 0.309428 -0.0692867 255 255 0 255
-0.247558 0.425969 2.12995 0.734207 -0.522489 -0.433527 0 255 0 255
-0.255046 0.429778 2.14789 -0.943179 0.0953289 -0.318316 0 255 0 255
-0.259077 0.433002 2.16313 -0.975577 0.0359848 -0.216689 0 255 0 255
-0.257905 0.435363 2.17439 0.839868 -0.473226 -0.265855 0 255 0 255
-0.257606 0.437865 2.18629 0.703352 -0.521482 -0.483067 0 255 0 255
-0.249473 0.439092 2.19232 0.544205 -0.542051 -0.640329 0 255 0 255
-0.237845 0.439762 2.19579 0.683662 -0.349945 -0.640426 0 255 0 255
-0.234055 0.441707 2.20511 0.488778 -0.456444 -0.743475 0 255 0 255
-0.218912 0.441836 2.20608 0.138268 -0.222047 -0.965182 0 255 0 255
-0.204622 0.44212 2.20775 0.0574665 -0.178367 -0.982284 0 255 0 255
-0.187689 0.442003 2.20758 0.561994 0.0960556 -0.821545 0 255 0 255
-0.183865 0.443978 2.21701 0.728652 0.0708977 -0.681205 0 255 0 255
-0.176535 0.445403 2.22391 0.665856 0.202496 -0.718075 0 255 0 255
-0.167444 0.446561 2.22958 0.569992 0.188329 -0.799776 0 255 0 255
-0.157465 0.44759 2.23465 0.754136 0.0721039 -0.652748 0 255 0 255
-0.15626 0.44999 2.24601 0.85203 0.163275 -0.49738 0 255 0 255
-0.15154 0.451847 2.25486 0.642607 0.0741396 -0.7626 0 255 0 255
-0.137139 0.452221 2.25691 0.308881 -0.282914 -0.908049 0 255 0 255
-0.12536 0.453013 2.26087 -0.295584 0.185192 -0.937195 0 255 0 255
-0.111804 0.453549 2.26366 -0.00633439 -0.346315 -0.938097 0 255 0 255
-0.100876 0.454499 2.26833 0.0757406 -0.297964 -0.951567 0 255 0 255
-0.081106 0.454131 2.26696 -0.109835 -0.420337 -0.900696 0 255 0 255
-0.063075 0.454049 2.2669 -0.419324 -0.496801 -0.75984 0 255 0 255
-0.320481 0.437525 2.133 0.535543 0.157495 0.829692 255 0 0 255
-0.313939 0.436521 2.128 0.461359 0.10719 0.880715 255 0 0 255
-0.308148 0.436543 2.128 0.173446 -0.0109996 0.984782 255 0 0 255
-0.302213 0.436359 2.127 0.318222 -0.0629351 0.945925 255 0 0 255
-0.296005 0.435765 2.124 0.55736 0.118806 0.821727 255 0 0 255
-0.289539 0.43476 2.119 0.656662 0.187513 0.730503 255 0 0 255
-0.282831 0.433344 2.112 0.590857 0.209681 0.779052 255 0 0 255
-0.276686 0.432749 2.109 0.353877 0.227078 0.907307 255 0 0 255
-0.270813 0.432563 2.108 0.0214189 0.207598 0.97798 255 0 0 255
-0.265071 0.432583 2.108 -0.184613 0.265156 0.946367 255 0 0 255
-0.259574 0.433012 2.11 -0.474566 0.405184 0.781417 255 0 0 255
-0.254306 0.433852 2.114 -0.266345 0.517136 0.813407 255 0 0 255
-0.248546 0.433871 2.114 0.237693 0.596169 0.766867 255 0 0 255
-0.24221 0.432863 2.109 0.685709 0.336933 0.645197 255 0 0 255
-0.235677 0.431444 2.102 0.595547 0.272231 0.755787 255 0 0 255
-0.229728 0.431051 2.1 0.334744 0.290074 0.896551 255 0 0 255
-0.22379 0.430657 2.098 0.496858 0.251596 0.830561 255 0 0 255
-0.217549 0.429648 2.093 0.494992 0.273531 0.824721 255 0 0 255
-0.21164 0.429253 2.091 0.327349 0.278591 0.902901 255 0 0 255
-0.20574 0.428859 2.089 0.283658 0.198345 0.938188 255 0 0 255
-0.199851 0.428464 2.087 0.484319 0.176174 0.85697 255 0 0 255
-0.193693 0.427452 2.082 0.43222 0.140229 0.890799 255 0 0 255
-0.188014 0.427467 2.082 0.200878 0.0453548 0.978566 255 0 0 255
-0.182158 0.427071 2.08 0.25298 0.0304271 0.966993 255 0 0 255
-0.176398 0.426879 2.079 0.304092 0.0117985 0.952569 255 0 0 255
-0.170478 0.426277 2.076 0.311235 0.127369 0.941759 255 0 0 255
-0.164654 0.425879 2.074 0.123768 0.177144 0.976372 255 0 0 255
-0.158994 0.425892 2.074 -0.059978 0.169473 0.983708 255 0 0 255
-0.153407 0.42611 2.075 -0.120322 0.0815916 0.989376 255 0 0 255
-0.147814 0.426327 2.076 0.0310042 0.0619828 0.997596 255 0 0 255
-0.142078 0.426133 2.075 0.202949 0.111927 0.972771 255 0 0 255
-0.136347 0.425939 2.074 -0.0909875 0.0989935 0.99092 255 0 0 255
-0.13081 0.42636 2.076 -0.239599 0.114307 0.964119 255 0 0 255
-0.125142 0.426371 2.076 -0.0602286 0.13137 0.989502 255 0 0 255
-0.119473 0.42638 2.076 0.061853 0.102994 0.992757 255 0 0 255
-0.113803 0.42639 2.076 0.231305 0.0228124 0.972614 255 0 0 255
-0.108029 0.425988 2.074 0.231698 0.0449456 0.971749 255 0 0 255
-0.102315 0.425791 2.073 0.155458 0.15388 0.975784 255 0 0 255
-0.096606 0.425594 2.072 0.019256 0.211503 0.977188 255 0 0 255
-0.09099 0.425807 2.073 0.00751639 0.272039 0.962257 255 0 0 255
-0.085328 0.425814 2.073 0.120842 0.235093 0.964432 255 0 0 255
-0.079626 0.425615 2.072 0.316896 0.0383273 0.947686 255 0 0 255
-0.073858 0.425005 2.069 0.357693 -0.0476483 0.932623 255 0 0 255
-0.06814 0.4246 2.067 0.338531 -0.0250927 0.94062 255 0 0 255
-0.062432 0.424195 2.065 0.278847 0.114853 0.953443 255 0 0 255
-0.056762 0.423994 2.064 0.0608705 0.253373 0.965452 255 0 0 255
-0.051147 0.424204 2.065 -0.0915686 0.257843 0.961838 255 0 0 255
-0.045527 0.424413 2.066 -0.10575 0.15044 0.982947 255 0 0 255
-0.039881 0.424417 2.066 -0.0379073 0.181731 0.982617 255 0 0 255
-0.034236 0.42442 2.066 0.0910833 0.150119 0.984464 255 0 0 255
-0.028576 0.424217 2.065 -0.12559 0.188114 0.974084 255 0 0 255
-0.022967 0.424835 2.068 -0.0932889 0.039276 0.994864 255 0 0 255
-0.017299 0.424426 2.066 -0.0309025 0.0513345 0.998203 255 0 0 255
-0.011664 0.424838 2.068 -0.0607081 0.0112307 0.998092 255 0 0 255
-0.006007 0.424428 2.066 -0.188142 0.127235 0.973865 255 0 0 255
-0.000361 0.425045 2.069 -0.218617 0.18433 0.958243 255 0 0 255
0.00529 0.424839 2.068 0.0308127 0.204321 0.978419 255 0 0 255
0.010947 0.425044 2.069 0.0307905 0.265443 0.963635 255 0 0 255
0.016585 0.424632 2.067 -0.0938001 0.195596 0.976188 255 0 0 255
0.022255 0.425041 2.069 -0.294356 0.260081 0.919626 255 0 0 255
0.027936 0.42545 2.071 -0.314346 0.316282 0.895071 255 0 0 255
0.033628 0.425858 2.073 -0.383226 0.342048 0.857987 255 0 0 255
0.039349 0.426472 2.076 -0.43836 0.337698 0.832947 255 0 0 255
0.045065 0.426879 2.078 -0.36654 0.467694 0.804308 255 0 0 255
0.050768 0.42708 2.079 -0.435149 0.493737 0.752907 255 0 0 255
0.056612 0.428309 2.085 -0.583697 0.473344 0.65973 255 0 0 255
0.062428 0.429125 2.089 -0.577622 0.414532 0.703218 255 0 0 255
0.068299 0.430147 2.094 -0.516343 0.322391 0.793382 255 0 0 255
0.074055 0.430347 2.095 -0.331518 0.357386 0.873138 255 0 0 255
0.079855 0.430751 2.097 -0.203249 0.359468 0.910754 255 0 0 255
0.085624 0.43095 2.098 -0.448128 0.391804 0.803537 255 0 0 255
0.091573 0.43197 2.103 -0.687544 0.343919 0.639534 255 0 0 255
0.097688 0.433605 2.111 -0.723698 0.411193 0.55424 255 0 0 255
0.103797 0.435035 2.118 -0.549948 0.605381 0.575387 255 0 0 255
0.109737 0.435643 2.121 -0.315616 0.718621 0.619654 255 0 0 255
0.115639 0.436044 2.123 -0.312985 0.6407 0.701102 255 0 0 255
0.121551 0.436445 2.125 -0.345298 0.589791 0.730011 255 0 0 255
0.127474 0.436846 2.127 -0.328054 0.540077 0.775047 255 0 0 255
0.133407 0.437247 2.129 -0.370941 0.45414 0.810036 255 0 0 255
0.139416 0.437852 2.132 -0.287847 0.348502 0.892015 255 0 0 255
0.145305 0.438046 2.133 -0.231206 0.312687 0.921287 255 0 0 255
0.15127 0.438445 2.135 -0.370524 0.359284 0.85652 255 0 0 255
0.157245 0.438843 2.137 -0.405275 0.417625 0.813229 255 0 0 255
0.163917 0.441089 2.148 -0.760502 0.28613 0.582895 255 0 0 255
-0.112862 0.511337 2.24166 -0.279729 -0.605272 -0.74525 255 255 0 255
-0.102251 0.510127 2.2363 0.273108 -0.577816 -0.769117 255 255 0 255
-0.085634 0.509495 2.23534 -0.123408 -0.473125 -0.872309 255 255 0 255
-0.069904 0.508796 2.23383 -0.150862 -0.477371 -0.865655 255 255 0 255
-0.052482 0.508274 2.23364 -0.193536 -0.455339 -0.869028 255 255 0 255
-0.039376 0.507354 2.23038 -0.125719 -0.410113 -0.903328 255 255 0 255
-0.020295 0.507028 2.23161 -0.390836 -0.421694 -0.818182 255 255 0 255
-0.009802 0.50588 2.22657 -0.715586 -0.448375 -0.535627 255 255 0 255
-0.009582 0.50373 2.21392 -0.672704 -0.455334 -0.583216 255 255 0 255
0.004308 0.502932 2.21149 -0.084245 -0.279126 -0.956552 255 255 0 255
0.026706 0.502997 2.21556 0.0311019 -0.378849 -0.924936 255 255 0 255
0.043099 0.502483 2.21521 -0.348597 -0.465291 -0.813624 255 255 0 255
0.050103 0.501038 2.20781 -0.443496 -0.437296 -0.782357 255 255 0 255
0.064752 0.500375 2.20629 -0.243426 -0.458712 -0.854592 255 255 0 255
0.076829 0.499463 2.20287 -0.470295 -0.266185 -0.841408 255 255 0 255
0.08804 0.498475 2.19884 -0.38916 -0.353877 -0.850486 255 255 0 255
0.098388 0.497407 2.1942 -0.488076 -0.335809 -0.805614 255 255 0 255
0.104488 0.495906 2.1863 -0.71494 -0.222285 -0.662911 255 255 0 255
0.109738 0.49432 2.17774 -0.972502 -0.0667296 -0.223132 255 255 0 255
0.10907 0.492112 2.16454 -0.997386 0.00134114 -0.0722512 255 255 0 255
-0.252248 0.416364 2.13467 0.970134 0.103456 -0.219403 0 255 0 255
-0.258864 0.420056 2.15193 -0.903464 0.0863346 -0.419879 0 255 0 255
-0.268103 0.424174 2.1711 -0.916052 0.396284 -0.0617032 0 255 0 255
-0.26259 0.425811 2.17906 0.640553 -0.703565 -0.307714 0 255 0 255
-0.259683 0.427886 2.189 0.618163 -0.449882 -0.644579 0 255 0 255
-0.247202 0.428378 2.19178 0.481728 -0.129781 -0.866658 0 255 0 255
-0.240803 0.429886 2.19915 0.701431 -0.116065 -0.703224 0 255 0 255
-0.233526 0.431257 2.20589 0.598733 -0.342517 -0.724017 0 255 0 255
-0.223625 0.432207 2.21072 0.201224 -0.238722 -0.950011 0 255 0 255
-0.206724 0.432031 2.21048 -0.0287262 -0.216843 -0.975784 0 255 0 255
-0.190674 0.432014 2.21095 0.31912 -0.0588396 -0.945886 0 255 0 255
-0.184227 0.433563 2.21848 0.669859 0.117379 -0.733152 0 255 0 255
-0.175147 0.434697 2.22412 0.595163 0.143735 -0.790646 0 255 0 255
-0.166934 0.435979 2.23043 0.601061 0.138397 -0.787129 0 255 0 255
-0.156957 0.43699 2.23552 0.716506 0.27916 -0.639287 0 255 0 255
-0.153114 0.438981 2.24501 0.755665 0.360662 -0.546711 0 255 0 255
-0.149271 0.440974 2.2545 0.658676 0.328201 -0.677074 0 255 0 255
-0.13839 0.441868 2.25904 0.434903 0.198379 -0.878354 0 255 0 255
-0.125736 0.442498 2.2624 0.711294 0.0196809 -0.702619 0 255 0 255
-0.108661 0.442459 2.26274 -0.00892064 -0.132446 -0.99115 0 255 0 255
-0.098616 0.443525 2.26804 0.155748 -0.157453 -0.975167 0 255 0 255
-0.0815 0.443517 2.26852 0.0423781 -0.374543 -0.926241 0 255 0 255
-0.333344 0.441023 2.179 0.93803 -0.112097 0.327923 255 0 0 255
-0.320954 0.432342 2.136 0.657099 0.211412 0.723551 255 0 0 255
-0.314256 0.431149 2.13 0.555419 0.174633 0.813027 255 0 0 255
-0.308024 0.430564 2.127 0.308341 0.106551 0.94529 255 0 0 255
-0.302092 0.430382 2.126 0.294873 0.0109003 0.955474 255 0 0 255
-0.296026 0.429999 2.124 0.432642 0.0928782 0.896769 255 0 0 255
-0.289833 0.429412 2.121 0.579513 0.20181 0.78958 255 0 0 255
-0.283253 0.428217 2.115 0.59836 0.278731 0.751182 255 0 0 255
-0.276968 0.427428 2.111 0.370164 0.32974 0.868476 255 0 0 255
-0.270961 0.427042 2.109 -0.023523 0.433702 0.900749 255 0 0 255
-0.265468 0.427467 2.111 -0.359825 0.530155 0.767764 255 0 0 255
-0.260085 0.428093 2.114 -0.503198 0.502573 0.703002 255 0 0 255
-0.254806 0.428922 2.118 -0.23068 0.552946 0.800648 255 0 0 255
-0.248917 0.428738 2.117 0.483622 0.423564 0.765966 255 0 0 255
-0.242458 0.427541 2.111 0.726395 0.269846 0.632087 255 0 0 255
-0.235806 0.425939 2.103 0.64689 0.224166 0.728891 255 0 0 255
-0.229745 0.425349 2.1 0.35003 0.206751 0.913637 255 0 0 255
-0.223913 0.425163 2.099 0.461722 0.233696 0.855686 255 0 0 255
-0.21767 0.424167 2.094 0.477385 0.277069 0.833868 255 0 0 255
-0.211757 0.423778 2.092 0.402826 0.195524 0.894149 255 0 0 255
-0.205854 0.423389 2.09 0.425889 0.163453 0.889889 255 0 0 255
-0.199962 0.422999 2.088 0.528272 0.0232958 0.848755 255 0 0 255
-0.193801 0.422001 2.083 0.47229 0.00831097 0.881404 255 0 0 255
-0.188028 0.421813 2.082 0.200606 -0.0308583 0.979186 255 0 0 255
-0.182172 0.421422 2.08 0.199629 -0.0338632 0.979286 255 0 0 255
-0.176412 0.421234 2.079 0.255271 0.0549613 0.965306 255 0 0 255
-0.170574 0.420842 2.077 0.23698 0.189482 0.952857 255 0 0 255
-0.164905 0.420855 2.077 0.0903534 0.268176 0.959124 255 0 0 255
-0.15916 0.420665 2.076 0.0303827 0.285026 0.958038 255 0 0 255
-0.153493 0.420677 2.076 -0.0601307 0.158114 0.985588 255 0 0 255
-0.147897 0.420892 2.077 0.0311133 0.0770754 0.99654 255 0 0 255
-0.142158 0.420701 2.076 0.146959 0.098615 0.984214 255 0 0 255
-0.136424 0.420509 2.075 -0.0602016 0.146291 0.987408 255 0 0 255
-0.130884 0.420925 2.077 -0.179764 0.0579409 0.982002 255 0 0 255
-0.125272 0.421138 2.078 -0.0902684 0.0848496 0.992296 255 0 0 255
-0.119597 0.421147 2.078 0.0921472 0.0450209 0.994727 255 0 0 255
-0.113812 0.420752 2.076 0.233789 0.136303 0.962686 255 0 0 255
-0.108038 0.420355 2.074 0.114229 0.177907 0.977395 255 0 0 255
-0.102373 0.420363 2.074 0.00190342 0.284656 0.958628 255 0 0 255
-0.096707 0.420372 2.074 -0.0600029 0.378144 0.9238 255 0 0 255
-0.091086 0.420582 2.075 0.0640736 0.324022 0.943877 255 0 0 255
-0.085376 0.420386 2.074 0.293949 0.213868 0.931587 255 0 0 255
-0.079633 0.419987 2.072 0.40451 0.0526047 0.91302 255 0 0 255
-0.073864 0.419386 2.069 0.422619 0.00566435 0.90629 255 0 0 255
-0.068112 0.418783 2.066 0.260801 0.0263354 0.965033 255 0 0 255
-0.062467 0.418789 2.066 0.121209 0.141476 0.982493 255 0 0 255
-0.056822 0.418793 2.066 0.12267 0.133482 0.98343 255 0 0 255
-0.051151 0.418595 2.065 0.00134579 0.0471194 0.998888 255 0 0 255
-0.04553 0.418802 2.066 -0.0894268 -0.036998 0.995306 255 0 0 255
-0.039885 0.418805 2.066 -0.119781 -0.0107274 0.992742 255 0 0 255
-0.034255 0.419011 2.067 0.0622227 0.0565329 0.99646 255 0 0 255
-0.028579 0.418608 2.065 0.00107394 0.0248327 0.999691 255 0 0 255
-0.022957 0.419016 2.067 0.000575796 -0.1133 0.993561 255 0 0 255
-0.017292 0.418612 2.065 0.000346623 -0.184156 0.982897 255 0 0 255
-0.011659 0.419019 2.067 -0.086905 -0.148045 0.985155 255 0 0 255
-0.00601 0.419019 2.067 -0.279775 -0.039222 0.959264 255 0 0 255
-0.000362 0.41983 2.071 -0.332389 0.023588 0.942847 255 0 0 255
0.005298 0.41983 2.071 -0.06307 0.192283 0.979311 255 0 0 255
0.010953 0.419627 2.07 0.0310237 0.2313 0.972388 255 0 0 255
0.01661 0.419626 2.07 -0.0932075 0.286985 0.95339 255 0 0 255
0.022289 0.42003 2.072 -0.295061 0.248988 0.922466 255 0 0 255
0.027979 0.420433 2.074 -0.296523 0.237808 0.924944 255 0 0 255
0.033679 0.420836 2.076 -0.442775 0.174115 0.879565 255 0 0 255
0.039409 0.421441 2.079 -0.524116 0.244794 0.815707 255 0 0 255
0.045178 0.422248 2.083 -0.522425 0.41074 0.747239 255 0 0 255
0.050943 0.422853 2.086 -0.553996 0.49998 0.665663 255 0 0 255
0.056752 0.423659 2.09 -0.498194 0.470404 0.72837 255 0 0 255
0.062553 0.424262 2.093 -0.492213 0.436333 0.753219 255 0 0 255
0.068369 0.424865 2.096 -0.421004 0.390668 0.818617 255 0 0 255
0.074202 0.425467 2.099 -0.304337 0.369233 0.878092 255 0 0 255
0.079975 0.425664 2.1 -0.254601 0.389003 0.885356 255 0 0 255
0.085754 0.42586 2.101 -0.473196 0.434033 0.766616 255 0 0 255
0.091711 0.426866 2.106 -0.734459 0.312501 0.602423 255 0 0 255
0.097881 0.428683 2.115 -0.773465 0.410895 0.482615 255 0 0 255
0.10405 0.430296 2.123 -0.642708 0.497388 0.582694 255 0 0 255
0.110005 0.430895 2.126 -0.323794 0.577859 0.749157 255 0 0 255
0.11592 0.431292 2.128 -0.214121 0.543122 0.811894 255 0 0 255
0.121789 0.431485 2.129 -0.291142 0.497517 0.817137 255 0 0 255
0.127784 0.432083 2.132 -0.276001 0.445148 0.851861 255 0 0 255
0.133668 0.432275 2.133 -0.250663 0.228826 0.940642 255 0 0 255
0.139623 0.43267 2.135 -0.184959 0.232631 0.954816 255 0 0 255
0.145385 0.432456 2.134 -0.319308 0.214313 0.9231 255 0 0 255
0.151423 0.433052 2.137 -0.515265 0.284113 0.808568 255 0 0 255
0.157552 0.43385 2.141 -0.728177 0.330231 0.600588 255 0 0 255
0.164083 0.435661 2.15 -0.758018 0.265684 0.595667 255 0 0 255
-0.119056 0.502062 2.25142 0.0868376 -0.323797 -0.942133 255 255 0 255
-0.104992 0.501199 2.24849 -0.129378 -0.461743 -0.877528 255 255 0 255
-0.090949 0.500347 2.24562 -0.0879479 -0.459583 -0.88377 255 255 0 255
-0.076068 0.499592 2.24344 -0.12226 -0.497463 -0.858827 255 255 0 255
-0.058634 0.499102 2.24319 -0.168134 -0.46208 -0.870754 255 255 0 255
-0.044662 0.498287 2.24051 -0.210797 -0.422375 -0.881569 255 255 0 255
-0.034996 0.497057 2.23475 -0.141146 -0.342738 -0.928767 255 255 0 255
-0.017637 0.496607 2.23471 -0.668846 -0.0585529 -0.741092 255 255 0 255
-0.013136 0.494876 2.22522 -0.803026 -0.0298145 -0.595198 255 255 0 255
-0.0112 0.492886 2.21383 -0.502261 0.125674 -0.855535 255 255 0 255
0.005248 0.492379 2.21331 -0.223197 -0.195964 -0.954873 255 255 0 255
0.044875 0.492114 2.21765 -0.244418 -0.15568 -0.957091 255 255 0 255
0.053579 0.490856 2.21154 -0.380455 -0.0725484 -0.921949 255 255 0 255
0.064821 0.489871 2.20741 -0.260537 -0.137631 -0.955604 255 255 0 255
0.076046 0.488895 2.20333 -0.418245 -0.124117 -0.899815 255 255 0 255
0.082168 0.487388 2.19536 -0.423988 0.105028 -0.899557 255 255 0 255
0.095908 0.486699 2.19333 -0.557886 0.112436 -0.822266 255 255 0 255
0.10455 0.485476 2.18739 -0.776058 0.0392913 -0.629437 255 255 0 255
0.107264 0.48362 2.17684 -0.966199 0.123919 -0.226062 255 255 0 255
0.106604 0.481396 2.16363 -0.99841 0.0552069 -0.0113799 255 255 0 255
-0.251737 0.405879 2.13541 -0.947383 -0.248196 -0.202148 0 255 0 255
-0.266148 0.41094 2.1586 -0.87976 0.186078 -0.43749 0 255 0 255
-0.276252 0.41524 2.1784 0.974426 -0.107891 -0.197113 0 255 0 255
-0.272484 0.417161 2.18766 0.764148 -0.19946 -0.613427 0 255 0 255
-0.261761 0.417908 2.1917 0.398075 -0.17765 -0.899987 0 255 0 255
-0.245806 0.417785 2.1919 0.455359 0.309771 -0.834679 0 255 0 255
-0.239406 0.419286 2.19928 0.738774 0.314211 -0.596226 0 255 0 255
-0.23823 0.421665 2.21053 0.64487 0.196855 -0.738506 0 255 0 255
-0.225719 0.422158 2.21344 0.250358 -0.0843175 -0.964475 0 255 0 255
-0.207954 0.421797 2.21257 -0.0378521 -0.0971562 -0.994549 0 255 0 255
-0.187543 0.421023 2.20988 0.322987 -0.0299863 -0.945928 0 255 0 255
-0.179345 0.422279 2.21615 0.68142 0.0553926 -0.729793 0 255 0 255
-0.171138 0.423542 2.22245 0.761344 -0.152601 -0.630133 0 255 0 255
-0.164675 0.425097 2.23003 0.58797 -0.333633 -0.736872 0 255 0 255
-0.153822 0.425949 2.23451 0.563287 -0.166006 -0.809413 0 255 0 255
-0.145589 0.427234 2.2409 0.715024 0.152901 -0.682175 0 255 0 255
-0.143494 0.429512 2.25166 0.712766 0.276128 -0.644762 0 255 0 255
-0.135248 0.430809 2.25808 0.614414 0.25873 -0.745355 0 255 0 255
-0.126115 0.431973 2.26392 0.059339 0.615661 -0.785774 0 255 0 255
-0.110808 0.432172 2.2655 0.0983846 -0.250477 -0.963111 0 255 0 255
-0.099887 0.433079 2.27021 0.299027 -0.249723 -0.920989 0 255 0 255
-0.085424 0.433445 2.27252 0.119919 -0.290956 -0.949191 0 255 0 255
-0.070942 0.433826 2.2749 -0.263738 -0.320004 -0.909967 0 255 0 255
-0.330919 0.431912 2.163 0.93803 -0.112097 0.327923 255 0 0 255
-0.321276 0.426942 2.138 0.664867 0.204718 0.718361 255 0 0 255
-0.314573 0.425765 2.132 0.59363 0.213451 0.775914 255 0 0 255
-0.30819 0.424988 2.128 0.430618 0.146256 0.890605 255 0 0 255
-0.302113 0.42461 2.126 0.298307 0.176799 0.937953 255 0 0 255
-0.296046 0.424231 2.124 0.302282 0.220751 0.927305 255 0 0 255
-0.28999 0.423852 2.122 0.49626 0.265413 0.826609 255 0 0 255
-0.283541 0.422874 2.117 0.532167 0.41717 0.736727 255 0 0 255
-0.277382 0.422295 2.114 0.241465 0.588322 0.771733 255 0 0 255
-0.271495 0.422115 2.113 0.042123 0.468962 0.882213 255 0 0 255
-0.266116 0.422733 2.116 -0.25923 0.480646 0.837723 255 0 0 255
-0.260719 0.423352 2.119 -0.418793 0.35361 0.836404 255 0 0 255
-0.255306 0.42397 2.122 -0.547834 0.346302 0.761547 255 0 0 255
-0.249288 0.423589 2.12 0.701433 0.247236 0.66848 255 0 0 255
-0.24282 0.422408 2.114 0.746746 0.279706 0.603436 255 0 0 255
-0.236048 0.420627 2.105 0.658252 0.328835 0.67718 255 0 0 255
-0.229981 0.420045 2.102 0.371357 0.27257 0.887581 255 0 0 255
-0.224037 0.419662 2.1 0.441035 0.25582 0.860258 255 0 0 255
-0.217998 0.419079 2.097 0.497578 0.209102 0.841838 255 0 0 255
-0.212077 0.418696 2.095 0.503752 0.175042 0.845928 255 0 0 255
-0.20587 0.417712 2.09 0.478775 0.0490954 0.876564 255 0 0 255
-0.199882 0.417128 2.087 0.529117 0.110413 0.841335 255 0 0 255
-0.193723 0.416144 2.082 0.505485 0.0282306 0.862373 255 0 0 255
-0.187862 0.415759 2.08 0.306171 -0.0557406 0.950343 255 0 0 255
-0.182186 0.415773 2.08 0.170098 -0.103955 0.979929 255 0 0 255
-0.176425 0.415587 2.079 0.0940824 -0.0129135 0.995481 255 0 0 255
-0.170669 0.4154 2.078 0.0333184 0.175799 0.983862 255 0 0 255
-0.164998 0.415413 2.078 0.059998 0.231627 0.970953 255 0 0 255
-0.159325 0.415426 2.078 0.148785 0.176127 0.973058 255 0 0 255
-0.153579 0.415238 2.077 0.0619803 0.144923 0.9875 255 0 0 255
-0.147908 0.41525 2.077 0.030112 0.0589192 0.997809 255 0 0 255
-0.142169 0.415062 2.076 0.0895354 0.103363 0.990606 255 0 0 255
-0.1365 0.415072 2.076 -0.029591 0.13488 0.99042 255 0 0 255
-0.130831 0.415083 2.076 -0.151139 0.111427 0.982212 255 0 0 255
-0.125222 0.415293 2.077 -0.149496 0.0661601 0.986546 255 0 0 255
-0.119607 0.415503 2.078 0.0927011 0.10589 0.990047 255 0 0 255
-0.113821 0.415112 2.076 0.182473 0.208872 0.960769 255 0 0 255
-0.108151 0.415121 2.076 0.000972009 0.312656 0.949866 255 0 0 255
-0.102529 0.415329 2.077 -0.0296892 0.380309 0.924383 255 0 0 255
-0.096902 0.415537 2.078 0.00176451 0.287633 0.957739 255 0 0 255
-0.091225 0.415545 2.078 0.219311 0.177386 0.959394 255 0 0 255
-0.085424 0.414952 2.075 0.410669 0.0506438 0.910377 255 0 0 255
-0.079639 0.414359 2.072 0.419466 -0.0273981 0.907358 255 0 0 255
-0.07387 0.413765 2.069 0.403683 0.0256944 0.914538 255 0 0 255
-0.068151 0.413371 2.067 0.20656 0.0528178 0.977007 255 0 0 255
-0.062502 0.413376 2.067 0.090638 0.0619159 0.993957 255 0 0 255
-0.056826 0.413181 2.066 0.178765 0.0532054 0.982452 255 0 0 255
-0.051131 0.412785 2.064 0.0623631 0.0217361 0.997817 255 0 0 255
-0.04549 0.412789 2.064 -0.122281 0.0566447 0.990878 255 0 0 255
-0.039869 0.412993 2.065 -0.211286 0.0790623 0.974222 255 0 0 255
-0.034258 0.413396 2.067 0.0626782 0.0599085 0.996234 255 0 0 255
-0.028581 0.412998 2.065 0.154492 0.0587936 0.986243 255 0 0 255
-0.022937 0.413 2.065 0.0602858 -0.0293238 0.99775 255 0 0 255
-0.017285 0.412802 2.064 -0.0301115 -0.0429944 0.998622 255 0 0 255
-0.011649 0.413003 2.065 -0.150095 -0.0112885 0.988607 255 0 0 255
-0.006005 0.413004 2.065 -0.290796 -0.0851651 0.952987 255 0 0 255
-0.000361 0.413804 2.069 -0.337486 -0.0846003 0.937521 255 0 0 255
0.005296 0.414004 2.07 -0.124508 -0.0121238 0.992145 255 0 0 255
0.010965 0.414403 2.072 -0.000165645 0.0263813 0.999652 255 0 0 255
0.01662 0.414202 2.071 -0.162127 0.134008 0.977628 255 0 0 255
0.022302 0.414601 2.073 -0.295881 0.0978028 0.950205 255 0 0 255
0.027968 0.414599 2.073 -0.3221 0.111377 0.940131 255 0 0 255
0.033666 0.414996 2.075 -0.483825 0.149418 0.862316 255 0 0 255
0.039413 0.415793 2.079 -0.586786 0.195153 0.785874 255 0 0 255
0.045181 0.41659 2.083 -0.617274 0.268957 0.739348 255 0 0 255
0.05102 0.417786 2.089 -0.599865 0.341071 0.723763 255 0 0 255
0.056838 0.418581 2.093 -0.494903 0.374923 0.783903 255 0 0 255
0.062647 0.419176 2.096 -0.417331 0.362739 0.83322 255 0 0 255
0.06844 0.419571 2.098 -0.379111 0.293921 0.877431 255 0 0 255
0.074244 0.419965 2.1 -0.30911 0.237684 0.920846 255 0 0 255
0.080058 0.420359 2.102 -0.284571 0.260568 0.922563 255 0 0 255
