ply
format ascii 1.0
comment VCGLIB generated
element vertex 725
property float x
property float y
property float z
property float nx
property float ny
property float nz
property uchar red
property uchar green
property uchar blue
property uchar alpha
element face 0
property list uchar int vertex_indices
end_header
-0.012661 0.080816 2.237 -0.0822283 0.22333 0.971268 255 0 0 255
-0.006527 0.080816 2.237 -0.264995 0.257304 0.929286 255 0 0 255
-0.000393 0.080924 2.24 -0.319281 0.178847 0.930631 255 0 0 255
0.005755 0.080996 2.242 -0.290018 0.201229 0.935626 255 0 0 255
0.011919 0.081105 2.245 -0.373771 0.234747 0.897323 255 0 0 255
0.018092 0.081177 2.247 -0.463093 0.215023 0.859831 255 0 0 255
0.024308 0.081357 2.252 -0.503027 0.263028 0.823274 255 0 0 255
0.030524 0.081465 2.255 -0.35201 0.272081 0.895579 255 0 0 255
0.036723 0.0815 2.256 -0.210378 0.211457 0.954477 255 0 0 255
0.042928 0.081536 2.257 -0.188101 0.0195694 0.981955 255 0 0 255
0.049139 0.081571 2.258 -0.30259 -0.00113194 0.95312 255 0 0 255
0.055428 0.081714 2.262 -0.474212 0.049851 0.878998 255 0 0 255
0.061684 0.081785 2.264 -0.351917 0.0779581 0.932779 255 0 0 255
0.067951 0.081856 2.266 -0.373689 0.104837 0.92161 255 0 0 255
0.074262 0.081964 2.269 -0.405389 0.19921 0.892174 255 0 0 255
0.080588 0.08207 2.272 -0.239193 0.146258 0.959894 255 0 0 255
0.086893 0.082141 2.274 -0.0861938 0.0776696 0.993246 255 0 0 255
0.093126 0.082139 2.274 -0.219596 0.0621267 0.973611 255 0 0 255
0.099403 0.082174 2.275 -0.455618 0.136424 0.879659 255 0 0 255
0.106009 0.082461 2.283 -0.651452 0.300038 0.696841 255 0 0 255
0.112462 0.082603 2.287 -0.679922 0.459321 0.571604 255 0 0 255
0.1193 0.082998 2.298 -0.739064 0.0822356 0.668597 255 0 0 255
0.126034 0.083285 2.306 -0.726695 0.165068 0.666833 255 0 0 255
0.169365 0.079868 2.212 0.992551 -0.0718642 0.0983732 255 0 0 255
0.173914 0.079179 2.193 0.941417 -0.252023 0.224095 255 0 0 255
0.17844 0.078526 2.175 0.95706 -0.0543675 0.284746 255 0 0 255
0.183037 0.077945 2.159 0.751093 -0.223255 0.621303 255 0 0 255
0.188245 0.077653 2.151 0.553727 -0.344155 0.75825 255 0 0 255
0.19404 0.077614 2.15 0.290304 -0.313002 0.904297 255 0 0 255
0.199737 0.077538 2.148 0.474684 -0.251505 0.843458 255 0 0 255
0.204464 0.077101 2.136 0.820959 -0.0659797 0.567162 255 0 0 255
0.206959 0.07587 2.102 -0.997409 0.00312849 0.071867 255 0 0 255
-0.059127 -0.145767 2.47298 -0.28898 -0.195588 -0.937142 255 255 0 255
-0.047811 -0.145462 2.46762 -0.246666 -0.499529 -0.830437 255 255 0 255
-0.034831 -0.144669 2.46342 -0.19897 -0.727034 -0.65714 255 255 0 255
-0.015994 -0.142188 2.46324 0.251335 -0.68029 -0.688503 255 255 0 255
0.00952 -0.137767 2.46769 -0.158669 -0.452223 -0.877678 255 255 0 255
0.01823 -0.138138 2.46088 -0.671769 -0.411772 -0.615768 255 255 0 255
0.031951 -0.137057 2.45753 -0.864424 -0.253259 -0.434317 255 255 0 255
0.033108 -0.139589 2.44561 -0.671668 -0.0481574 -0.739286 255 255 0 255
0.036777 -0.141397 2.43542 -0.618258 -0.318796 -0.718419 255 255 0 255
0.047119 -0.141265 2.42986 -0.311856 -0.0336954 -0.949532 255 255 0 255
0.063279 -0.139424 2.42843 -0.716799 0.00748857 -0.69724 255 255 0 255
0.07192 -0.139761 2.4218 -0.826362 -0.0211244 -0.562742 255 255 0 255
0.075561 -0.141555 2.41169 -0.0550111 -0.574698 -0.816514 255 255 0 255
-0.194169 -0.238404 2.30272 -0.199257 0.944321 -0.261831 0 255 0 255
-0.201234 -0.232624 2.32017 -0.769005 0.585422 -0.256734 0 255 0 255
-0.209162 -0.226558 2.33814 0.70012 -0.713813 -0.0173858 0 255 0 255
-0.203606 -0.225285 2.34671 0.625607 0.228454 -0.745939 0 255 0 255
-0.192978 -0.225798 2.35181 0.689534 -0.566018 -0.451848 0 255 0 255
-0.192482 -0.22273 2.36389 0.772504 -0.474973 -0.421472 0 255 0 255
-0.191991 -0.219665 2.37596 0.964494 -0.154438 -0.214243 0 255 0 255
-0.201195 -0.209992 2.4069 0.1814 -0.668227 -0.721503 0 255 0 255
-0.188849 -0.21108 2.41093 0.100463 -0.608348 -0.787287 0 255 0 255
-0.173939 -0.213042 2.41332 0.225328 -0.336988 -0.914148 0 255 0 255
-0.166658 -0.212338 2.42085 0.168718 -0.186869 -0.967788 0 255 0 255
-0.145759 -0.216332 2.41943 -0.0280774 -0.331065 -0.94319 0 255 0 255
-0.12568 -0.220009 2.41867 -0.197103 -0.143005 -0.969897 0 255 0 255
0.000877 -0.226845 2.47647 -0.169954 -0.380478 -0.909039 0 255 0 255
-0.011461 -0.219419 2.49671 0.948424 0.0228874 -0.316179 0 255 0 255
-0.004884 -0.218314 2.5053 0.834635 0.155461 -0.528409 0 255 0 255
-0.30721 0.076227 2.287 -0.989747 0.0408947 0.136854 255 0 0 255
-0.305047 0.077265 2.318 -0.536729 0.255586 0.804114 255 0 0 255
-0.299363 0.077436 2.323 -0.42107 0.25319 0.870974 255 0 0 255
-0.293398 0.077541 2.326 -0.246579 0.236835 0.939738 255 0 0 255
-0.287046 0.077545 2.326 -0.258129 0.184982 0.948236 255 0 0 255
-0.281055 0.07765 2.329 -0.619808 -0.0253117 0.784345 255 0 0 255
-0.275754 0.077955 2.338 -0.735358 -0.150074 0.660852 255 0 0 255
-0.243907 0.078009 2.339 -0.990715 0.135949 0.00147825 255 0 0 255
-0.234059 0.076879 2.305 0.689967 -0.0176891 0.723625 255 0 0 255
-0.227657 0.076849 2.304 0.672155 0.0226564 0.740064 255 0 0 255
-0.220586 0.076586 2.296 0.713607 -0.022297 0.700191 255 0 0 255
-0.213745 0.07639 2.29 0.720066 -0.0341551 0.693064 255 0 0 255
-0.206665 0.076093 2.281 0.69092 -0.0593953 0.720487 255 0 0 255
-0.200335 0.076063 2.28 0.567895 -0.175744 0.80412 255 0 0 255
-0.193415 0.075799 2.272 0.675752 -0.0656154 0.734203 255 0 0 255
-0.186619 0.075569 2.265 0.661493 -0.0273732 0.749452 255 0 0 255
-0.179862 0.075339 2.258 0.579529 0.0720065 0.811764 255 0 0 255
-0.173449 0.075242 2.255 0.375987 0.253391 0.891306 255 0 0 255
-0.167127 0.075178 2.253 0.251197 0.391996 0.885008 255 0 0 255
-0.160886 0.075147 2.252 0.177768 0.367709 0.912792 255 0 0 255
-0.154719 0.07515 2.252 0.0780043 0.619766 0.7809 255 0 0 255
-0.148485 0.075119 2.251 0.191702 0.607321 0.770981 255 0 0 255
-0.14213 0.075021 2.248 0.283806 0.397132 0.872777 255 0 0 255
-0.135851 0.074957 2.246 0.316455 0.249962 0.915082 255 0 0 255
-0.129582 0.074893 2.244 0.220116 0.132496 0.966434 255 0 0 255
-0.123434 0.074895 2.244 0.215117 -0.000539151 0.976588 255 0 0 255
-0.11718 0.07483 2.242 0.286848 -0.100222 0.952719 255 0 0 255
-0.110987 0.074799 2.241 0.307974 -0.143084 0.940574 255 0 0 255
-0.104705 0.0747 2.238 0.126042 -0.24112 0.962276 255 0 0 255
-0.098572 0.074702 2.238 -0.0295812 -0.212386 0.976738 255 0 0 255
-0.092479 0.074737 2.239 0.000401951 -0.238747 0.971082 255 0 0 255
-0.086341 0.074739 2.239 0.155343 -0.359822 0.919998 255 0 0 255
-0.080096 0.07464 2.236 0.213329 -0.430458 0.877038 255 0 0 255
-0.073967 0.074642 2.236 0.149794 -0.485399 0.861365 255 0 0 255
-0.067745 0.074543 2.233 0.0975477 -0.442858 0.89127 255 0 0 255
-0.061623 0.074544 2.233 -0.103461 -0.326416 0.939547 255 0 0 255
-0.055526 0.074578 2.234 -0.216438 -0.32945 0.919031 255 0 0 255
-0.049444 0.074646 2.236 -0.168105 -0.380147 0.909521 255 0 0 255
-0.043352 0.074713 2.238 0.00958555 -0.378873 0.925399 255 0 0 255
-0.037199 0.074681 2.237 0.0600174 -0.270617 0.960814 255 0 0 255
-0.031065 0.074681 2.237 0.00105671 -0.00154667 0.999998 255 0 0 255
-0.02493 0.074682 2.237 -0.0608156 0.218277 0.97399 255 0 0 255
-0.018804 0.074716 2.238 -0.14576 0.311587 0.938972 255 0 0 255
-0.012678 0.074783 2.24 -0.105552 0.288869 0.951532 255 0 0 255
-0.006535 0.074783 2.24 -0.196032 0.289692 0.93683 255 0 0 255
-0.000393 0.074883 2.243 -0.263251 0.236989 0.935166 255 0 0 255
0.005758 0.074883 2.243 -0.294509 0.0687225 0.953174 255 0 0 255
0.011925 0.074983 2.246 -0.399334 0.0620953 0.914701 255 0 0 255
0.018108 0.075083 2.249 -0.478374 0.0801433 0.874492 255 0 0 255
0.024308 0.075183 2.252 -0.542381 0.104188 0.833647 255 0 0 255
0.030538 0.075316 2.256 -0.297931 0.185279 0.936434 255 0 0 255
0.036724 0.075315 2.256 -0.110392 0.269601 0.956624 255 0 0 255
0.042929 0.075348 2.257 -0.110275 0.247595 0.962568 255 0 0 255
0.049118 0.075347 2.257 -0.287844 0.211587 0.934011 255 0 0 255
0.055404 0.07548 2.261 -0.440466 0.0961499 0.892605 255 0 0 255
0.061713 0.075612 2.265 -0.351393 0.0591333 0.934358 255 0 0 255
0.067983 0.075678 2.267 -0.437191 0.0657873 0.896959 255 0 0 255
0.074329 0.07581 2.271 -0.390053 0.2307 0.891424 255 0 0 255
0.080625 0.075875 2.273 -0.222702 0.383627 0.896233 255 0 0 255
0.086818 0.075841 2.272 -0.178749 0.364421 0.913918 255 0 0 255
0.093087 0.075872 2.273 -0.184818 0.488449 0.852795 255 0 0 255
0.099448 0.075971 2.276 -0.515548 0.34763 0.783175 255 0 0 255
0.106243 0.07637 2.288 -0.740689 0.0707482 0.668113 255 0 0 255
0.112858 0.076601 2.295 -0.594296 -0.0263942 0.803814 255 0 0 255
0.119355 0.076733 2.299 -0.626563 -0.0152807 0.779221 255 0 0 255
0.125545 0.076664 2.297 -0.274222 -0.308785 0.910744 255 0 0 255
0.17067 0.074374 2.229 0.985647 -0.0995578 0.13634 255 0 0 255
0.173838 0.073137 2.192 0.959399 -0.190084 0.208377 255 0 0 255
0.178443 0.072567 2.175 0.955185 -0.138039 0.261853 255 0 0 255
0.182955 0.071997 2.158 0.753128 -0.221211 0.619567 255 0 0 255
0.188161 0.071727 2.15 0.593017 -0.241503 0.768119 255 0 0 255
0.193773 0.071623 2.147 0.216464 -0.277532 0.936013 255 0 0 255
0.199647 0.07162 2.147 0.485335 -0.292187 0.824061 255 0 0 255
0.204755 0.07135 2.139 0.354284 -0.00314903 0.935133 255 0 0 255
0.207652 0.070346 2.109 0.995812 -0.0664167 0.062829 255 0 0 255
0.217062 0.071543 2.145 0.587761 0.094319 0.803518 255 0 0 255
-0.09473 -0.164399 2.46378 0.584959 -0.29003 -0.757434 255 255 0 255
-0.054749 -0.155892 2.47721 0.0458626 -0.349828 -0.935691 255 255 0 255
-0.032507 -0.152421 2.47912 -0.0372033 -0.768044 -0.639315 255 255 0 255
-0.018706 -0.151349 2.47553 -0.00142599 -0.785906 -0.618344 255 255 0 255
-0.002411 -0.149539 2.47368 0.196701 -0.559274 -0.805308 255 255 0 255
0.012182 -0.148202 2.47078 -0.367542 -0.769507 -0.522276 255 255 0 255
0.024238 -0.147582 2.46624 -0.74391 -0.603183 -0.287694 255 255 0 255
0.020382 -0.151586 2.45089 -0.859384 -0.201793 -0.469829 255 255 0 255
0.030747 -0.151446 2.44526 -0.896655 -0.15307 -0.415427 255 255 0 255
0.040262 -0.151542 2.43909 -0.303858 -0.336612 -0.89127 255 255 0 255
0.056435 -0.149671 2.43759 0.0275245 -0.387396 -0.921502 255 255 0 255
0.067583 -0.14926 2.43267 -0.489524 -0.594792 -0.637643 255 255 0 255
0.092026 -0.144905 2.43716 0.112707 -0.79098 -0.601371 255 255 0 255
-0.214365 -0.239178 2.33064 -0.754268 0.643461 -0.130532 0 255 0 255
-0.218082 -0.234595 2.34565 -0.961245 0.274296 -0.0277414 0 255 0 255
-0.214221 -0.232732 2.35536 0.448933 -0.826055 -0.340724 0 255 0 255
-0.202761 -0.233575 2.35986 0.419294 -0.80045 -0.428336 0 255 0 255
-0.193822 -0.233507 2.36614 0.72801 -0.568002 -0.383896 0 255 0 255
-0.19502 -0.229835 2.37936 0.938466 -0.335176 -0.0832957 0 255 0 255
-0.204689 -0.223177 2.39828 -0.962962 0.12583 -0.238477 0 255 0 255
-0.211839 -0.21743 2.41541 -0.0188406 -0.348968 -0.936945 0 255 0 255
-0.188485 -0.222428 2.41205 0.11366 -0.370079 -0.922021 0 255 0 255
-0.170186 -0.225615 2.41219 0.00395976 -0.126762 -0.991925 0 255 0 255
-0.157807 -0.226703 2.41637 0.101828 -0.00928311 -0.994759 0 255 0 255
-0.14286 -0.228669 2.41892 0.0320654 -0.199353 -0.979403 0 255 0 255
-0.123639 -0.2321 2.41875 0.722604 -0.0334099 -0.690454 0 255 0 255
-0.007408 -0.235711 2.48312 -0.391311 -0.846184 -0.361729 0 255 0 255
-0.011145 -0.231139 2.49805 -0.91321 0.359758 -0.191369 0 255 0 255
-0.007149 -0.229177 2.50823 0.0619088 -0.312328 -0.947955 0 255 0 255
-0.307617 0.070058 2.29 -0.993727 0.029248 0.107939 255 0 0 255
-0.305315 0.07098 2.32 -0.518802 0.199641 0.831257 255 0 0 255
-0.299625 0.071138 2.325 -0.387524 0.133041 0.912209 255 0 0 255
-0.293403 0.071172 2.326 -0.189026 0.0533112 0.980524 255 0 0 255
-0.287051 0.071177 2.326 -0.168382 -0.0541024 0.984236 255 0 0 255
-0.281059 0.071273 2.329 -0.501456 -0.268435 0.822487 255 0 0 255
-0.275522 0.071491 2.336 -0.681593 -0.291456 0.671182 255 0 0 255
-0.24193 0.071021 2.32 0.910433 0.0311242 0.412483 255 0 0 255
-0.234164 0.070596 2.306 0.70992 0.0611176 0.701626 255 0 0 255
-0.227759 0.070569 2.305 0.630542 0.104405 0.769101 255 0 0 255
-0.22059 0.070296 2.296 0.729213 -0.120721 0.673554 255 0 0 255
-0.213749 0.070116 2.29 0.746278 -0.151173 0.648241 255 0 0 255
-0.206396 0.069752 2.278 0.653824 -0.273608 0.705445 255 0 0 255
-0.199899 0.069663 2.275 0.473146 -0.348267 0.809224 255 0 0 255
-0.193247 0.069513 2.27 0.588294 -0.1354 0.797231 255 0 0 255
-0.186787 0.069424 2.267 0.574992 0.123635 0.808764 255 0 0 255
-0.180183 0.069274 2.262 0.460473 0.363299 0.809925 255 0 0 255
-0.173914 0.069246 2.261 0.348781 0.388254 0.853001 255 0 0 255
-0.167501 0.069157 2.258 0.160308 0.577494 0.800501 255 0 0 255
-0.161389 0.06919 2.259 -0.000417858 0.528748 0.848779 255 0 0 255
-0.155134 0.069162 2.258 0.104689 0.496011 0.861983 255 0 0 255
-0.149015 0.069195 2.259 0.318291 0.294665 0.901035 255 0 0 255
-0.142448 0.069013 2.253 0.492638 0.299916 0.81692 255 0 0 255
-0.136095 0.068924 2.25 0.449585 0.240313 0.860304 255 0 0 255
-0.1297 0.068803 2.246 0.338974 0.126434 0.932261 255 0 0 255
-0.123491 0.068775 2.245 0.264251 -0.000540499 0.964454 255 0 0 255
-0.117182 0.068685 2.242 0.329952 -0.0413423 0.943092 255 0 0 255
-0.11089 0.068594 2.239 0.246401 0.025793 0.968825 255 0 0 255
-0.10466 0.068535 2.237 0.131812 0.0823888 0.987845 255 0 0 255
-0.098573 0.068567 2.238 0.039124 0.0831486 0.995769 255 0 0 255
-0.092398 0.068538 2.237 0.082603 -0.0888096 0.992617 255 0 0 255
-0.086227 0.068509 2.236 0.405726 -0.192043 0.893592 255 0 0 255
-0.079954 0.068388 2.232 0.301852 -0.329209 0.89471 255 0 0 255
-0.073835 0.068389 2.232 0.104669 -0.421877 0.900591 255 0 0 255
-0.067656 0.068329 2.23 0.0433199 -0.346633 0.937 255 0 0 255
-0.061597 0.068391 2.232 -0.125864 -0.243737 0.96164 255 0 0 255
-0.055502 0.068423 2.233 -0.217104 -0.0947217 0.971542 255 0 0 255
-0.049423 0.068485 2.235 -0.217964 -0.135396 0.966519 255 0 0 255
-0.043295 0.068486 2.235 -0.0271796 -0.164131 0.986064 255 0 0 255
-0.037166 0.068486 2.235 -0.115634 -0.19761 0.973437 255 0 0 255
-0.031065 0.068548 2.237 -0.302405 -0.00109247 0.953179 255 0 0 255
-0.024953 0.06861 2.239 -0.186136 0.188804 0.964213 255 0 0 255
-0.018821 0.068641 2.24 -0.15235 0.212349 0.965245 255 0 0 255
-0.012684 0.068672 2.241 -0.134326 0.173899 0.975559 255 0 0 255
-0.006538 0.068672 2.241 -0.192315 0.18625 0.963497 255 0 0 255
-0.000393 0.068733 2.243 -0.137848 0.155809 0.978121 255 0 0 255
0.005758 0.068733 2.243 -0.193834 0.101285 0.975792 255 0 0 255
0.011925 0.068825 2.246 -0.43973 0.0424251 0.897127 255 0 0 255
0.018101 0.068886 2.248 -0.495358 0.105304 0.862283 255 0 0 255
0.024319 0.069039 2.253 -0.558038 0.110937 0.822367 255 0 0 255
0.030552 0.069161 2.257 -0.440075 0.189369 0.877766 255 0 0 255
0.03679 0.069252 2.26 -0.211595 0.375966 0.902152 255 0 0 255
0.043006 0.069282 2.261 -0.163595 0.478195 0.862883 255 0 0 255
0.049206 0.069282 2.261 -0.147947 0.461513 0.87471 255 0 0 255
0.055454 0.069342 2.263 -0.341248 0.237437 0.909491 255 0 0 255
0.061714 0.069402 2.265 -0.308802 0.111226 0.9446 255 0 0 255
0.067984 0.069463 2.267 -0.514728 0.131358 0.847231 255 0 0 255
0.074363 0.069615 2.272 -0.581365 0.18787 0.791656 255 0 0 255
0.080769 0.069767 2.277 -0.364732 0.308607 0.878483 255 0 0 255
0.087125 0.069857 2.28 -0.198391 0.499804 0.843111 255 0 0 255
0.093416 0.069886 2.281 -0.186799 0.457318 0.869464 255 0 0 255
0.099668 0.069885 2.281 -0.461253 0.291345 0.838072 255 0 0 255
0.106152 0.070036 2.286 -0.697671 -0.0420837 0.715182 255 0 0 255
0.11281 0.07028 2.294 -0.492706 -0.360004 0.792236 255 0 0 255
0.119149 0.070308 2.295 -0.248331 -0.363842 0.897748 255 0 0 255
0.125601 0.070398 2.298 -0.240914 -0.287772 0.926902 255 0 0 255
0.170213 0.068082 2.223 0.988417 -0.0931275 0.119833 255 0 0 255
0.173682 0.067069 2.19 0.950684 -0.132847 0.280269 255 0 0 255
0.178364 0.066576 2.174 0.903485 -0.290491 0.315165 255 0 0 255
0.182873 0.066053 2.157 0.862073 -0.199509 0.465861 255 0 0 255
0.187989 0.065775 2.148 0.579186 -0.120141 0.806293 255 0 0 255
0.193686 0.06571 2.146 0.348342 -0.312635 0.883695 255 0 0 255
0.199557 0.065707 2.146 0.491716 -0.346766 0.798729 255 0 0 255
0.204758 0.06549 2.139 0.77699 -0.276194 0.565689 255 0 0 255
0.208935 0.064966 2.122 0.970709 0.110646 0.213263 255 0 0 255
0.212816 0.064381 2.103 0.995812 -0.0664167 0.062829 255 0 0 255
-0.100441 -0.177543 2.46139 0.264677 -0.884137 -0.385029 255 255 0 255
-0.053739 -0.166977 2.47922 0.0680978 -0.268492 -0.960872 255 255 0 255
-0.028984 -0.162714 2.48279 -0.0674812 -0.633035 -0.771177 255 255 0 255
-0.009314 -0.159897 2.48312 -0.0377038 -0.823017 -0.566764 255 255 0 255
0.008645 -0.157553 2.48242 0.0862167 -0.884121 -0.459234 255 255 0 255
0.025735 -0.155439 2.48124 -0.194025 -0.935473 -0.295373 255 255 0 255
0.029404 -0.157246 2.47104 -0.397125 -0.915148 -0.0692494 255 255 0 255
0.029728 -0.160039 2.45856 -0.691155 -0.706806 -0.150768 255 255 0 255
0.032565 -0.162095 2.44778 -0.607491 -0.653774 -0.451147 255 255 0 255
0.060431 -0.156731 2.45428 -0.744004 -0.496286 -0.44739 255 255 0 255
0.061576 -0.15927 2.44241 -0.349376 -0.679113 -0.645555 255 255 0 255
0.09436 -0.15238 2.45261 0.224627 -0.593395 -0.772932 255 255 0 255
-0.221099 -0.244722 2.34905 0.598566 -0.762108 -0.2468 0 255 0 255
-0.218925 -0.242255 2.35993 0.4521 -0.796096 -0.402289 0 255 0 255
-0.215909 -0.240093 2.37022 0.504294 -0.77043 -0.390033 0 255 0 255
-0.201072 -0.24217 2.37243 0.351775 -0.0649667 -0.933828 0 255 0 255
-0.193821 -0.241511 2.37989 0.831533 0.172673 -0.527955 0 255 0 255
-0.212314 -0.228431 2.41708 -0.0658253 -0.349018 -0.934801 0 255 0 255
-0.190665 -0.232889 2.41487 0.110281 -0.356485 -0.92777 0 255 0 255
-0.163896 -0.239124 2.40938 0.0446856 -0.478155 -0.877138 0 255 0 255
-0.150666 -0.240536 2.41303 0.263213 -0.339545 -0.90301 0 255 0 255
-0.138268 -0.241636 2.41729 0.283423 -0.606638 -0.742739 0 255 0 255
-0.137758 -0.238544 2.42941 0.61058 -0.779313 -0.140941 0 255 0 255
-0.138104 -0.235157 2.44207 0.750781 -0.631902 -0.192426 0 255 0 255
-0.030281 -0.239567 2.49875 -0.226074 -0.451504 -0.863154 0 255 0 255
-0.021143 -0.23937 2.50572 0.144233 -0.558064 -0.817167 0 255 0 255
0.000906 -0.243539 2.50487 -0.575913 -0.688508 -0.440773 0 255 0 255
-0.308831 0.06404 2.299 -0.994624 0.0718728 0.0745457 255 0 0 255
-0.305451 0.064657 2.321 -0.509222 0.180118 0.841577 255 0 0 255
-0.299629 0.064772 2.325 -0.280313 0.167045 0.945262 255 0 0 255
-0.293407 0.064804 2.326 0.000204508 0.0261737 0.999657 255 0 0 255
-0.287055 0.064808 2.326 -0.0802223 -0.160855 0.983712 255 0 0 255
-0.280822 0.064839 2.327 -0.327968 -0.363485 0.871961 255 0 0 255
-0.274818 0.064927 2.33 -0.60098 -0.407035 0.687856 255 0 0 255
-0.269719 0.065237 2.341 -0.742077 -0.472297 0.475666 255 0 0 255
-0.242246 0.064749 2.323 0.949301 -0.0140339 0.314055 255 0 0 255
-0.234574 0.06439 2.31 0.771774 0.169536 0.612881 255 0 0 255
-0.22796 0.06431 2.307 0.724576 0.0648477 0.686138 255 0 0 255
-0.220401 0.063951 2.294 0.791851 -0.136801 0.595195 255 0 0 255
-0.213472 0.063758 2.287 0.767568 -0.287138 0.573055 255 0 0 255
-0.205946 0.063371 2.273 0.563478 -0.440772 0.698722 255 0 0 255
-0.199638 0.063346 2.272 0.295261 -0.552145 0.779716 255 0 0 255
-0.19308 0.063237 2.268 0.227049 -0.636378 0.737206 255 0 0 255
-0.186955 0.063268 2.269 0.45685 -0.348543 0.818417 255 0 0 255
-0.180425 0.063159 2.265 0.311776 -0.390523 0.866192 255 0 0 255
-0.174224 0.063161 2.265 0.367307 -0.101537 0.924541 255 0 0 255
-0.167726 0.063052 2.261 0.224849 0.0255444 0.974059 255 0 0 255
-0.161391 0.062999 2.259 0.168999 -0.0010207 0.985616 255 0 0 255
-0.155136 0.062973 2.258 0.174872 -0.133013 0.975565 255 0 0 255
-0.148886 0.062948 2.257 0.249529 -0.0824848 0.964848 255 0 0 255
-0.142514 0.062866 2.254 0.46631 -0.0719995 0.881686 255 0 0 255
-0.136097 0.062756 2.25 0.492203 0.0967678 0.865085 255 0 0 255
-0.129702 0.062647 2.246 0.430988 0.251898 0.866485 255 0 0 255
-0.123438 0.062593 2.244 0.334911 0.176151 0.925638 255 0 0 255
-0.117184 0.062539 2.242 0.33613 0.189035 0.92265 255 0 0 255
-0.110941 0.062485 2.24 0.168021 0.382243 0.908658 255 0 0 255
-0.104802 0.062486 2.24 0.0544278 0.35213 0.934367 255 0 0 255
-0.098663 0.062488 2.24 0.106034 0.386501 0.916173 255 0 0 255
-0.09244 0.062433 2.238 0.393523 0.0815208 0.915693 255 0 0 255
-0.08619 0.062351 2.235 0.516811 0.0690028 0.853314 255 0 0 255
-0.079884 0.062213 2.23 0.340983 -0.0805032 0.936616 255 0 0 255
-0.07377 0.062214 2.23 0.0301585 0.0271742 0.999176 255 0 0 255
-0.067596 0.062159 2.228 -0.109361 0.11618 0.987189 255 0 0 255
-0.06157 0.062244 2.231 -0.19601 0.168296 0.966052 255 0 0 255
-0.055478 0.062272 2.232 -0.166586 0.0751272 0.983161 255 0 0 255
-0.04938 0.062301 2.233 -0.0695438 0.0558165 0.996016 255 0 0 255
-0.043276 0.06233 2.234 -0.101053 0.0557535 0.993318 255 0 0 255
-0.037133 0.062302 2.233 -0.241902 0.110069 0.964037 255 0 0 255
-0.031079 0.062442 2.238 -0.407325 0.0943426 0.908397 255 0 0 255
-0.024964 0.062498 2.24 -0.229496 0.183962 0.955766 255 0 0 255
-0.01883 0.062527 2.241 -0.143835 0.16093 0.976429 255 0 0 255
-0.01269 0.062555 2.242 -0.081142 0.155011 0.984575 255 0 0 255
-0.006544 0.062583 2.243 -0.142364 0.136262 0.98039 255 0 0 255
-0.000393 0.062639 2.245 -0.170316 0.215455 0.961546 255 0 0 255
0.005758 0.062583 2.243 -0.189734 0.196693 0.961932 255 0 0 255
0.011925 0.062666 2.246 -0.422028 0.180572 0.888418 255 0 0 255
0.018117 0.062778 2.25 -0.558919 0.190593 0.807021 255 0 0 255
0.02433 0.062889 2.254 -0.612447 0.168371 0.772373 255 0 0 255
0.030579 0.063028 2.259 -0.529867 0.263598 0.806075 255 0 0 255
0.036807 0.063084 2.261 -0.302907 0.466999 0.830758 255 0 0 255
0.043064 0.063167 2.264 -0.144038 0.570024 0.808904 255 0 0 255
0.049294 0.063194 2.265 -0.0390721 0.528799 0.847848 255 0 0 255
0.055504 0.063193 2.265 -0.114077 0.475038 0.872539 255 0 0 255
0.061742 0.06322 2.266 -0.247372 0.178402 0.952355 255 0 0 255
0.067985 0.063247 2.267 -0.512629 0.0734836 0.85546 255 0 0 255
0.074462 0.063469 2.275 -0.606137 0.0871559 0.79057 255 0 0 255
0.080805 0.063552 2.278 -0.369842 0.151607 0.916642 255 0 0 255
0.087127 0.063606 2.28 -0.31258 0.0697062 0.94733 255 0 0 255
0.093376 0.063605 2.28 -0.136917 0.103063 0.985206 255 0 0 255
0.099713 0.063659 2.282 -0.291384 0.0509068 0.955251 255 0 0 255
0.106107 0.063742 2.285 -0.444486 -0.0527489 0.894231 255 0 0 255
0.112566 0.063852 2.289 -0.495366 -0.200066 0.845332 255 0 0 255
0.118943 0.063906 2.291 -0.370046 -0.274983 0.887384 255 0 0 255
0.12533 0.06396 2.293 -0.381516 -0.192583 0.904078 255 0 0 255
0.168684 0.061433 2.203 0.958539 -0.259248 0.118294 255 0 0 255
0.172971 0.060817 2.181 0.857845 -0.392858 0.331307 255 0 0 255
0.177874 0.060452 2.168 0.881544 -0.367284 0.296619 255 0 0 255
0.182621 0.060059 2.154 0.776617 -0.291176 0.558644 255 0 0 255
0.187991 0.059889 2.148 0.667396 -0.283948 0.688444 255 0 0 255
0.193508 0.059775 2.144 0.38858 -0.368876 0.844356 255 0 0 255
0.199002 0.059661 2.14 0.659339 -0.341729 0.669696 255 0 0 255
0.203995 0.059407 2.131 0.909686 -0.227538 0.347416 255 0 0 255
0.208446 0.059014 2.117 0.979158 -0.0396022 0.199202 255 0 0 255
0.211199 0.058175 2.087 -0.992527 -0.0549389 0.108956 255 0 0 255
-0.10025 -0.189013 2.46288 0.387931 -0.63055 -0.672247 255 255 0 255
-0.056934 -0.179299 2.47846 0.261183 -0.279127 -0.924052 255 255 0 255
0.013498 -0.164442 2.49967 0.133808 -0.830819 -0.540217 255 255 0 255
0.028073 -0.163033 2.49677 -0.211779 -0.558132 -0.802271 255 255 0 255
0.0376 -0.1631 2.49054 -0.0752263 -0.737689 -0.670937 255 255 0 255
0.048787 -0.162664 2.48548 -0.454886 -0.816965 -0.354468 255 255 0 255
0.048258 -0.165706 2.47249 -0.536625 -0.773615 -0.336976 255 255 0 255
0.057755 -0.165758 2.46634 -0.921498 -0.354262 -0.159188 255 255 0 255
0.055565 -0.169303 2.45218 -0.89585 -0.346451 -0.27825 255 255 0 255
0.060884 -0.170601 2.44318 -0.88799 -0.278549 -0.365901 255 255 0 255
-0.194476 -0.259086 2.35683 0.61051 0.447268 -0.653627 0 255 0 255
-0.19144 -0.256909 2.36719 0.868069 0.485836 -0.102082 0 255 0 255
-0.183337 -0.256561 2.37411 -0.904424 -0.277669 -0.323909 0 255 0 255
-0.193821 -0.249512 2.39363 -0.978841 0.178119 -0.100714 0 255 0 255
-0.203484 -0.242785 2.41249 -0.951713 -0.306175 -0.0223412 0 255 0 255
-0.19454 -0.242744 2.41883 0.124858 -0.475153 -0.870999 0 255 0 255
-0.176262 -0.246026 2.41899 0.0899542 -0.706655 -0.701817 0 255 0 255
-0.166441 -0.246267 2.42486 0.253621 -0.790897 -0.556919 0 255 0 255
-0.15491 -0.247102 2.42965 0.164959 -0.90944 -0.381717 0 255 0 255
-0.156111 -0.24341 2.44284 -0.363684 0.931235 -0.0231455 0 255 0 255
-0.161572 -0.238221 2.45876 -0.25338 -0.967039 -0.025201 0 255 0 255
-0.139807 -0.242643 2.457 -0.786044 -0.61797 -0.0157366 0 255 0 255
-0.020826 -0.25109 2.50707 -0.099815 -0.832979 -0.544226 0 255 0 255
-0.002225 -0.254138 2.50834 0.18964 -0.635896 -0.748113 0 255 0 255
0.007801 -0.254231 2.5149 0.333951 0.928856 -0.160326 0 255 0 255
0.013534 -0.252849 2.5241 0.51253 -0.81108 -0.281892 0 255 0 255
0.013242 -0.249416 2.53692 0.186321 -0.918287 -0.349332 0 255 0 255
-0.3087 0.057721 2.298 -0.994625 0.078178 0.0678905 255 0 0 255
-0.305718 0.058353 2.323 -0.373393 0.0838433 0.923877 255 0 0 255
-0.30002 0.058482 2.328 -0.275897 0.130181 0.952331 255 0 0 255
-0.293411 0.058435 2.326 0.0216752 0.0262308 0.999421 255 0 0 255
-0.286811 0.058388 2.324 -0.0743466 -0.108354 0.991328 255 0 0 255
-0.280584 0.058417 2.325 -0.152375 -0.188773 0.970127 255 0 0 255
-0.274586 0.058496 2.328 -0.401409 -0.331834 0.853673 255 0 0 255
-0.268916 0.05865 2.334 -0.647536 -0.437607 0.623857 255 0 0 255
-0.264113 0.059005 2.348 -0.714041 -0.692528 0.102713 255 0 0 255
-0.242771 0.058512 2.328 -0.98994 0.13457 0.0437081 255 0 0 255
-0.234983 0.058163 2.314 0.840375 0.0355473 0.540838 255 0 0 255
-0.227765 0.057939 2.305 0.781335 -0.0438277 0.622571 255 0 0 255
-0.220019 0.057565 2.29 0.798747 -0.308012 0.516848 255 0 0 255
-0.212728 0.057291 2.279 0.782233 -0.341545 0.521017 255 0 0 255
-0.205315 0.056967 2.266 0.567495 -0.465541 0.679133 255 0 0 255
-0.198762 0.056869 2.262 0.391017 -0.464464 0.794594 255 0 0 255
-0.192487 0.056846 2.261 0.330594 -0.534678 0.777706 255 0 0 255
-0.186133 0.056799 2.259 0.168362 -0.716223 0.677259 255 0 0 255
-0.17987 0.056776 2.258 0.0244545 -0.7127 0.701043 255 0 0 255
-0.173842 0.056828 2.26 -0.0154016 -0.666635 0.745225 255 0 0 255
-0.167654 0.05683 2.26 0.0939002 -0.561118 0.822392 255 0 0 255
-0.161394 0.056807 2.259 0.231248 -0.319319 0.918999 255 0 0 255
-0.155001 0.056734 2.256 0.144034 -0.560804 0.815324 255 0 0 255
-0.148822 0.056736 2.256 0.0531566 -0.537683 0.84147 255 0 0 255
-0.142579 0.056713 2.255 0.235424 -0.390384 0.890043 255 0 0 255
-0.136341 0.056689 2.254 0.38927 -0.0590015 0.919232 255 0 0 255
-0.129934 0.056591 2.25 0.409937 0.0369753 0.911364 255 0 0 255
-0.123604 0.056517 2.247 0.180907 0.32915 0.926786 255 0 0 255
-0.117343 0.056468 2.245 0.0805526 0.599337 0.796434 255 0 0 255
-0.111141 0.056444 2.244 0.109422 0.675698 0.729012 255 0 0 255
-0.104991 0.056446 2.244 0.0913629 0.647108 0.756904 255 0 0 255
-0.098796 0.056422 2.243 0.271699 0.508155 0.817287 255 0 0 255
-0.092524 0.056348 2.24 0.518915 0.230767 0.823088 255 0 0 255
-0.086191 0.056223 2.235 0.544949 0.117246 0.830231 255 0 0 255
-0.079921 0.056124 2.231 0.26039 0.259746 0.929908 255 0 0 255
-0.073805 0.056125 2.231 -0.114197 0.378818 0.918399 255 0 0 255
-0.067749 0.056176 2.233 -0.0683594 0.532594 0.843606 255 0 0 255
-0.061654 0.056202 2.234 -0.0258593 0.319975 0.947073 255 0 0 255
-0.055528 0.056203 2.234 -0.0551888 0.162034 0.985241 255 0 0 255
-0.049425 0.056229 2.235 -0.219375 0.121567 0.968037 255 0 0 255
-0.043315 0.056254 2.236 -0.167563 0.238706 0.956526 255 0 0 255
-0.037184 0.056255 2.236 -0.287381 0.308103 0.906909 255 0 0 255
-0.031094 0.056331 2.239 -0.378238 0.276495 0.883451 255 0 0 255
-0.024976 0.056381 2.241 -0.182408 0.288632 0.939903 255 0 0 255
-0.018847 0.056432 2.243 -0.0866084 0.241179 0.966609 255 0 0 255
-0.01269 0.056407 2.242 -0.0811065 0.217996 0.972574 255 0 0 255
-0.006544 0.056432 2.243 -0.183104 0.187487 0.96505 255 0 0 255
-0.000393 0.056483 2.245 -0.258193 0.204537 0.944193 255 0 0 255
0.005769 0.056533 2.247 -0.207241 0.353664 0.912126 255 0 0 255
0.011936 0.056558 2.248 -0.367103 0.340382 0.865665 255 0 0 255
0.018133 0.056659 2.252 -0.511117 0.162279 0.844053 255 0 0 255
0.024374 0.056809 2.258 -0.589583 0.200727 0.782368 255 0 0 255
0.03062 0.056909 2.262 -0.598653 0.229682 0.767372 255 0 0 255
0.036905 0.057035 2.267 -0.482646 0.242396 0.841604 255 0 0 255
0.043159 0.057085 2.269 -0.184228 0.339384 0.922431 255 0 0 255
0.049425 0.057134 2.271 -0.00434656 0.169726 0.985482 255 0 0 255
0.055554 0.057033 2.267 0.112547 0.0273485 0.99327 255 0 0 255
0.061852 0.057108 2.27 -0.00822575 -0.111958 0.993679 255 0 0 255
0.068076 0.057107 2.27 -0.553063 -0.0963494 0.82755 255 0 0 255
0.074496 0.057257 2.276 -0.556665 -0.0240088 0.83039 255 0 0 255
0.080771 0.057281 2.277 -0.445394 -0.085354 0.891257 255 0 0 255
0.087204 0.057406 2.282 -0.392561 -0.0643091 0.917475 255 0 0 255
0.093501 0.05743 2.283 -0.1903 0.0425465 0.980804 255 0 0 255
0.099802 0.057453 2.284 -0.285803 0.0731203 0.955495 255 0 0 255
0.106062 0.057452 2.284 -0.325582 0.0505155 0.944164 255 0 0 255
0.11247 0.057526 2.287 -0.411768 0.0416359 0.910337 255 0 0 255
0.118893 0.0576 2.29 -0.412252 0.110145 0.904387 255 0 0 255
0.125386 0.057699 2.294 -0.5299 -0.0277107 0.847607 255 0 0 255
0.160461 0.056757 2.257 0.836708 -0.30193 0.456899 255 0 0 255
0.164869 0.056152 2.233 0.96958 -0.227203 0.0910711 255 0 0 255
0.167461 0.054993 2.187 0.927386 -0.338669 0.158928 255 0 0 255
0.172101 0.054563 2.17 0.841722 -0.452909 0.293901 255 0 0 255
0.177138 0.054285 2.159 0.816329 -0.40863 0.408201 255 0 0 255
0.182285 0.054056 2.15 0.721642 -0.379955 0.578677 255 0 0 255
0.187556 0.053878 2.143 0.524046 -0.386078 0.759157 255 0 0 255
0.19324 0.053825 2.141 0.485417 -0.250445 0.837644 255 0 0 255
0.198819 0.053747 2.138 0.726642 -0.0977045 0.680033 255 0 0 255
0.204094 0.053594 2.132 0.707805 -0.183861 0.682061 255 0 0 255
0.207168 0.052887 2.104 0.989289 0.0665028 0.129939 255 0 0 255
0.214542 0.053287 2.12 0.979158 -0.0396021 0.199202 255 0 0 255
-0.05508 -0.190158 2.48103 0.122672 -0.238633 -0.963331 255 255 0 255
-0.001794 -0.177285 2.5035 0.621068 -0.233237 -0.748248 255 255 0 255
0.019512 -0.173854 2.50499 -0.252085 0.123345 -0.959812 255 255 0 255
0.027373 -0.17441 2.4976 -0.386084 -0.32813 -0.862131 255 255 0 255
0.041921 -0.172955 2.49474 -0.249309 0.139996 -0.958251 255 255 0 255
0.060626 -0.170232 2.4948 -0.622922 -0.677374 -0.391322 255 255 0 255
0.061759 -0.172777 2.48297 -0.887576 -0.376794 -0.26502 255 255 0 255
0.0654 -0.174569 2.47285 -0.969487 0.00862637 -0.244991 255 255 0 255
0.06404 -0.177876 2.45928 -0.804594 -0.464277 -0.370236 255 255 0 255
0.074345 -0.177646 2.45377 -0.706605 -0.57993 -0.40545 255 255 0 255
-0.180136 -0.272336 2.36081 -0.904424 -0.277669 -0.323909 0 255 0 255
-0.177932 -0.269844 2.37179 -0.90222 -0.26566 -0.339742 0 255 0 255
-0.202763 -0.257533 2.40102 -0.882363 0.424556 -0.202947 0 255 0 255
-0.214115 -0.250158 2.42099 -0.243757 -0.464198 -0.85153 0 255 0 255
-0.197566 -0.252894 2.42221 0.524008 -0.645619 -0.555511 0 255 0 255
-0.19031 -0.252255 2.42971 0.22198 -0.775045 -0.591634 0 255 0 255
-0.179656 -0.252829 2.43499 0.0774015 -0.853719 -0.514949 0 255 0 255
-0.165594 -0.254611 2.43808 0.308473 -0.748729 -0.586728 0 255 0 255
-0.148117 -0.257593 2.43901 0.390768 -0.512714 -0.764477 0 255 0 255
-0.148463 -0.254191 2.45165 0.619888 0.54929 -0.560373 0 255 0 255
-0.142861 -0.252912 2.46041 0.708529 0.651592 -0.270951 0 255 0 255
-0.136403 -0.251931 2.46863 0.607246 0.783016 -0.134676 0 255 0 255
0.010966 -0.260327 2.53987 0.266293 -0.526359 -0.807486 0 255 0 255
-0.308032 0.051318 2.293 -0.980941 0.129402 0.144947 255 0 0 255
-0.305721 0.051992 2.323 -0.34488 -0.0677369 0.936199 255 0 0 255
-0.300023 0.052108 2.328 -0.192777 -0.0696065 0.978771 255 0 0 255
-0.293288 0.052044 2.325 0.137099 -0.142925 0.980192 255 0 0 255
-0.286938 0.052047 2.325 0.0139611 -0.215515 0.976401 255 0 0 255
-0.280587 0.05205 2.325 -0.0737158 -0.291723 0.953658 255 0 0 255
-0.274353 0.052075 2.326 -0.328123 -0.385029 0.862605 255 0 0 255
-0.268228 0.052123 2.328 -0.473244 -0.335917 0.814371 255 0 0 255
-0.262316 0.052215 2.332 -0.456352 -0.259383 0.851154 255 0 0 255
-0.258905 0.052823 2.359 -0.382789 0.625466 0.679901 255 0 0 255
-0.25267 0.05287 2.361 -0.845411 -0.533712 0.0207621 255 0 0 255
-0.242982 0.052179 2.33 0.997716 -0.0673022 0.00575821 255 0 0 255
-0.234884 0.051801 2.313 0.842018 -0.126165 0.524489 255 0 0 255
-0.227274 0.051512 2.3 0.832852 -0.250481 0.493575 255 0 0 255
-0.219638 0.051201 2.286 0.804736 -0.286112 0.520134 255 0 0 255
-0.21245 0.05098 2.276 0.805539 -0.192436 0.560424 255 0 0 255
-0.205408 0.05078 2.267 0.705457 -0.182303 0.684906 255 0 0 255
-0.198853 0.050693 2.263 0.384485 -0.157206 0.909647 255 0 0 255
-0.192489 0.050651 2.261 0.413712 -0.215638 0.884501 255 0 0 255
-0.185724 0.050496 2.254 0.525661 -0.269714 0.806805 255 0 0 255
-0.179314 0.050431 2.251 0.127273 -0.468655 0.874165 255 0 0 255
-0.173305 0.050478 2.253 -0.0941422 -0.626036 0.774091 255 0 0 255
-0.167285 0.050524 2.255 -0.0436229 -0.428912 0.902292 255 0 0 255
-0.160967 0.050481 2.253 0.155903 -0.536641 0.829283 255 0 0 255
-0.154522 0.050394 2.249 0.234829 -0.355276 0.904784 255 0 0 255
-0.148296 0.050373 2.248 0.0534392 -0.491631 0.869162 255 0 0 255
-0.142264 0.050419 2.25 -0.0212867 -0.470149 0.88233 255 0 0 255
-0.13604 0.050399 2.249 0.0849554 -0.379652 0.92122 255 0 0 255
-0.129878 0.0504 2.249 0.172871 -0.198708 0.964692 255 0 0 255
-0.123606 0.050357 2.247 -0.172143 0.0157508 0.984946 255 0 0 255
-0.11771 0.05047 2.252 -0.140821 0.523456 0.840335 255 0 0 255
-0.111538 0.050472 2.252 0.235638 0.39192 0.889311 255 0 0 255
-0.10532 0.05045 2.251 0.298447 0.450691 0.841313 255 0 0 255
-0.098974 0.050362 2.247 0.480688 0.191829 0.855653 255 0 0 255
-0.092567 0.050229 2.241 0.523389 0.231237 0.820118 255 0 0 255
-0.086269 0.05014 2.237 0.283565 0.560696 0.777953 255 0 0 255
-0.080029 0.050074 2.234 0.0559955 0.618207 0.784018 255 0 0 255
-0.074004 0.050142 2.237 -0.0482213 0.689603 0.72258 255 0 0 255
-0.067901 0.050165 2.238 0.257576 0.411798 0.874115 255 0 0 255
-0.06171 0.050121 2.236 0.189146 0.235081 0.953394 255 0 0 255
-0.055529 0.050077 2.234 -0.0553229 0.100087 0.99344 255 0 0 255
-0.049425 0.0501 2.235 -0.242482 0.201383 0.949025 255 0 0 255
-0.043355 0.050168 2.238 -0.400491 0.373553 0.836699 255 0 0 255
-0.037251 0.050213 2.24 -0.244901 0.580531 0.776536 255 0 0 255
-0.031136 0.050258 2.242 -0.202185 0.609891 0.766259 255 0 0 255
-0.024999 0.050281 2.243 -0.100096 0.581778 0.807165 255 0 0 255
-0.018864 0.050326 2.245 -0.030504 0.496902 0.867271 255 0 0 255
-0.012702 0.050304 2.244 -0.0127126 0.39822 0.917202 255 0 0 255
-0.006553 0.050349 2.246 -0.110983 0.197135 0.974074 255 0 0 255
-0.000394 0.050371 2.247 -0.407885 0.103525 0.907145 255 0 0 255
0.005779 0.050461 2.251 -0.419119 0.204693 0.884556 255 0 0 255
0.011952 0.050461 2.251 -0.259912 0.164144 0.951579 255 0 0 255
0.01815 0.050528 2.254 -0.507866 -0.00198396 0.861434 255 0 0 255
0.024331 0.050528 2.254 -0.502602 -0.393795 0.769622 255 0 0 255
0.030594 0.050662 2.26 -0.613854 -0.243487 0.750931 255 0 0 255
0.036889 0.050796 2.266 -0.333492 -0.308035 0.891009 255 0 0 255
0.043141 0.05084 2.268 -0.282667 -0.26339 0.922347 255 0 0 255
0.04936 0.05084 2.268 0.159094 -0.430196 0.888606 255 0 0 255
0.055457 0.050727 2.263 -0.00332133 -0.382114 0.924109 255 0 0 255
0.061744 0.050794 2.266 -0.328371 -0.168023 0.929484 255 0 0 255
0.067957 0.050793 2.266 -0.437526 -0.0184794 0.899016 255 0 0 255
0.074398 0.050949 2.273 -0.514333 -0.101048 0.851617 255 0 0 255
0.080666 0.050971 2.274 -0.426517 -0.233599 0.873793 255 0 0 255
0.087129 0.051104 2.28 -0.488393 -0.140773 0.861194 255 0 0 255
0.09342 0.051125 2.281 -0.283652 -0.105289 0.953129 255 0 0 255
0.09976 0.051169 2.283 -0.337423 0.119416 0.933748 255 0 0 255
0.106156 0.051235 2.286 -0.352186 0.138709 0.925594 255 0 0 255
0.112569 0.051301 2.289 -0.397023 0.159963 0.903761 255 0 0 255
0.118946 0.051345 2.291 -0.46206 0.13148 0.877048 255 0 0 255
0.125443 0.051433 2.295 -0.391398 0.0795798 0.916774 255 0 0 255
0.167004 0.048865 2.181 0.66125 -0.629231 0.408433 255 0 0 255
0.171706 0.048504 2.165 0.839371 -0.44337 0.31445 255 0 0 255
0.176648 0.048233 2.153 0.780468 -0.425736 0.457842 255 0 0 255
0.182033 0.048097 2.147 0.562535 -0.424346 0.709567 255 0 0 255
0.187559 0.048005 2.143 0.438819 -0.389121 0.809952 255 0 0 255
0.193242 0.047958 2.141 0.33046 -0.270095 0.904347 255 0 0 255
0.198728 0.047867 2.137 0.65647 -0.156692 0.737899 255 0 0 255
0.203904 0.047708 2.13 0.721551 -0.144617 0.67709 255 0 0 255
-0.093978 -0.210226 2.46974 0.127557 -0.330932 -0.934994 255 255 0 255
-0.043985 -0.19825 2.48969 0.0114457 -0.294629 -0.955543 255 255 0 255
-0.014234 -0.192274 2.49657 -0.628671 0.459846 -0.627148 255 255 0 255
-0.007174 -0.193087 2.4885 -0.628671 0.459846 -0.627148 255 255 0 255
0.008253 -0.191368 2.48607 -0.117582 0.337254 -0.934042 255 255 0 255
0.032019 -0.187102 2.48936 -0.0927548 0.472183 -0.876607 255 255 0 255
0.055741 -0.182814 2.49276 -0.468053 0.331326 -0.819237 255 255 0 255
0.056048 -0.185624 2.48035 -0.931317 0.298789 -0.208266 255 255 0 255
0.058029 -0.187929 2.46906 -0.963535 0.25576 -0.0786614 255 255 0 255
0.059181 -0.19049 2.45719 -0.868134 0.397373 -0.297384 255 255 0 255
0.080306 -0.186919 2.45915 -0.088212 -0.697524 -0.711111 255 255 0 255
-0.202903 -0.272014 2.39009 -0.829165 -0.141301 -0.540851 0 255 0 255
-0.231495 -0.25501 2.43402 0.0623676 -0.571766 -0.818043 0 255 0 255
-0.209047 -0.259956 2.43125 0.103865 -0.595304 -0.796759 0 255 0 255
-0.195878 -0.26149 2.43479 0.712348 -0.545591 -0.441465 0 255 0 255
-0.197092 -0.257788 2.4479 0.661506 -0.713776 -0.230072 0 255 0 255
-0.172876 -0.263295 2.44426 0.123253 -0.572428 -0.810638 0 255 0 255
-0.138773 -0.269031 2.44677 0.607865 -0.030686 -0.793447 0 255 0 255
-0.134012 -0.267447 2.45612 0.683872 0.382725 -0.621161 0 255 0 255
-0.128398 -0.266166 2.46493 0.740418 0.371798 -0.559954 0 255 0 255
-0.121075 -0.26549 2.47266 0.880889 0.312046 -0.355896 0 255 0 255
-0.116302 -0.263897 2.48205 0.761305 0.0474468 -0.646656 0 255 0 255
0.012134 -0.27243 2.54075 -0.0206036 -0.402589 -0.915149 0 255 0 255
-0.310319 0.045374 2.31 -0.983976 -0.023459 0.176749 255 0 0 255
-0.305592 0.045613 2.322 -0.677067 -0.200256 0.708151 255 0 0 255
-0.299897 0.045714 2.327 -0.126141 -0.290967 0.948381 255 0 0 255
-0.293165 0.045657 2.324 0.104791 -0.315157 0.943236 255 0 0 255
-0.286571 0.045621 2.322 0.0731027 -0.30056 0.950957 255 0 0 255
-0.280107 0.045604 2.321 -0.0996251 -0.303046 0.947754 255 0 0 255
-0.274002 0.045646 2.323 -0.300891 -0.282167 0.910959 255 0 0 255
-0.268231 0.045747 2.328 -0.562696 -0.145344 0.813787 255 0 0 255
-0.262431 0.045848 2.333 -0.581798 -0.141304 0.800965 255 0 0 255
-0.25792 0.046184 2.35 -0.76369 -0.633825 0.122657 255 0 0 255
-0.252673 0.046403 2.361 -0.91313 -0.39667 0.0940511 255 0 0 255
-0.242672 0.045737 2.327 0.932451 0.101301 0.346804 255 0 0 255
-0.234278 0.045346 2.307 0.851635 -0.144283 0.503885 255 0 0 255
-0.226683 0.045093 2.294 0.817089 -0.0765636 0.571405 255 0 0 255
-0.219063 0.04482 2.28 0.823737 0.0224688 0.566526 255 0 0 255
-0.211799 0.044606 2.269 0.714961 0.0754511 0.695081 255 0 0 255
-0.204957 0.04447 2.262 0.540141 -0.0218221 0.841292 255 0 0 255
-0.198503 0.044413 2.259 0.520557 -0.0625118 0.851536 255 0 0 255
-0.192236 0.044396 2.258 0.496069 -0.0608045 0.866152 255 0 0 255
-0.185726 0.044319 2.254 0.565396 0.0348599 0.824082 255 0 0 255
-0.179077 0.044203 2.248 0.159423 0.0887179 0.983216 255 0 0 255
-0.173077 0.044244 2.25 -0.205705 0.0590655 0.97683 255 0 0 255
-0.16699 0.044265 2.251 -0.21603 0.058733 0.974619 255 0 0 255
-0.160969 0.044306 2.253 0.348151 0.0569483 0.935707 255 0 0 255
-0.154523 0.044229 2.249 0.236694 0.108204 0.96554 255 0 0 255
-0.148363 0.044231 2.249 -0.0540637 0.0679345 0.996224 255 0 0 255
-0.142266 0.044252 2.25 0.032025 0.0271611 0.999118 255 0 0 255
-0.135981 0.044214 2.248 0.151792 -0.168432 0.973956 255 0 0 255
-0.129764 0.044195 2.247 0.123754 -0.0893342 0.988284 255 0 0 255
-0.123717 0.044236 2.249 -0.244859 -0.322927 0.9142 255 0 0 255
-0.117816 0.044336 2.254 -0.198809 -0.285411 0.937558 255 0 0 255
-0.111589 0.044317 2.253 0.113949 -0.366719 0.923327 255 0 0 255
-0.105227 0.04424 2.249 0.438763 -0.0457793 0.897436 255 0 0 255
-0.098975 0.044201 2.247 0.453914 -0.125556 0.882155 255 0 0 255
-0.092692 0.044143 2.244 0.466219 0.073335 0.881625 255 0 0 255
-0.086502 0.044125 2.243 -0.0747672 0.0714776 0.994636 255 0 0 255
-0.080353 0.044125 2.243 0.00961782 0.37058 0.928751 255 0 0 255
-0.074236 0.044146 2.244 0.154314 0.362114 0.919272 255 0 0 255
-0.067993 0.044088 2.241 0.46721 -0.0315063 0.883585 255 0 0 255
-0.061655 0.043951 2.234 0.378315 0.0221489 0.925412 255 0 0 255
-0.05553 0.043951 2.234 -0.261642 0.090285 0.960933 255 0 0 255
-0.049448 0.043991 2.236 -0.461018 0.248802 0.851798 255 0 0 255
-0.043433 0.04411 2.242 -0.489549 0.315843 0.812764 255 0 0 255
-0.037351 0.044189 2.246 -0.367735 0.334766 0.867585 255 0 0 255
-0.031233 0.044248 2.249 -0.261779 0.407102 0.875066 255 0 0 255
-0.025066 0.044248 2.249 -0.177943 0.283665 0.942269 255 0 0 255
-0.018906 0.044268 2.25 0.103132 0.310834 0.944852 255 0 0 255
-0.012719 0.044209 2.247 0.113355 0.16131 0.980372 255 0 0 255
-0.006553 0.04419 2.246 0.000100098 0.07883 0.996888 255 0 0 255
-0.000393 0.04417 2.245 -0.384206 0.0649716 0.920959 255 0 0 255
0.005781 0.044308 2.252 -0.380415 -0.0832759 0.921059 255 0 0 255
0.011968 0.044347 2.254 -0.167204 -0.0654385 0.983748 255 0 0 255
0.018142 0.044327 2.253 -0.213272 -0.384501 0.89815 255 0 0 255
0.024277 0.044248 2.249 -0.131388 -0.469112 0.87331 255 0 0 255
0.030499 0.044327 2.253 -0.432596 -0.529677 0.729591 255 0 0 255
0.036792 0.044464 2.26 -0.421708 -0.528175 0.737017 255 0 0 255
0.043084 0.044562 2.265 -0.0978498 -0.535734 0.838698 255 0 0 255
0.049252 0.044522 2.263 0.19892 -0.22143 0.954673 255 0 0 255
0.055433 0.044502 2.262 -0.107382 -0.189489 0.975993 255 0 0 255
0.061744 0.04458 2.266 -0.396878 0.16784 0.902396 255 0 0 255
0.068017 0.044619 2.268 -0.483489 0.0496588 0.873941 255 0 0 255
0.074399 0.044716 2.273 -0.431317 0.140542 0.891187 255 0 0 255
0.080666 0.044735 2.274 -0.346255 -0.103553 0.932408 255 0 0 255
0.087053 0.044813 2.278 -0.518314 -0.18328 0.835319 255 0 0 255
0.093462 0.044891 2.282 -0.471654 -0.0427209 0.880748 255 0 0 255
0.099804 0.044929 2.284 -0.529801 0.114616 0.840342 255 0 0 255
0.106297 0.045027 2.289 -0.422525 0.270158 0.865152 255 0 0 255
0.11257 0.045025 2.289 -0.285665 0.235915 0.928837 255 0 0 255
0.119103 0.045123 2.294 -0.398349 0.0635139 0.915032 255 0 0 255
0.125499 0.045161 2.296 -0.702776 0.0395197 0.710312 255 0 0 255
0.132479 0.045395 2.308 -0.860178 0.175216 0.47895 255 0 0 255
0.162584 0.043302 2.202 0.93414 -0.348351 0.0776765 255 0 0 255
0.166317 0.04271 2.172 0.823135 -0.525899 0.214194 255 0 0 255
0.171153 0.042433 2.158 0.784173 -0.508475 0.355706 255 0 0 255
0.176158 0.042215 2.147 0.697146 -0.468937 0.542297 255 0 0 255
0.181611 0.042115 2.142 0.40958 -0.563348 0.717553 255 0 0 255
0.187123 0.042035 2.138 0.262813 -0.551581 0.791636 255 0 0 255
0.193064 0.042052 2.139 0.265315 -0.503455 0.822278 255 0 0 255
0.19873 0.042011 2.137 0.509584 -0.315396 0.800531 255 0 0 255
0.204002 0.041891 2.131 0.632649 -0.268154 0.726532 255 0 0 255
-0.175631 -0.234165 2.47062 -0.16611 0.872878 -0.458794 255 255 0 255
-0.03542 -0.207047 2.49669 -0.0153583 -0.209042 -0.977786 255 255 0 255
-0.017432 -0.20455 2.49578 -0.546648 0.395925 -0.737848 255 255 0 255
-0.022936 -0.209182 2.47931 -0.643779 -0.44413 -0.623135 255 255 0 255
-0.005823 -0.206923 2.47794 -0.0906594 0.331479 -0.939097 255 255 0 255
0.016277 -0.203114 2.48004 0.022206 0.28939 -0.956954 255 255 0 255
0.041677 -0.198259 2.48451 -0.246542 -0.014668 -0.969021 255 255 0 255
0.052014 -0.198005 2.47887 -0.162715 -0.465533 -0.869944 255 255 0 255
0.058169 -0.19903 2.47043 -0.746756 -0.553555 -0.368689 255 255 0 255
0.052664 -0.203661 2.45396 0.974913 -0.163327 -0.151222 255 255 0 255
-0.22521 -0.26849 2.43115 -0.0325747 -0.603173 -0.796945 0 255 0 255
-0.204459 -0.272868 2.42955 0.428773 -0.220473 -0.876097 0 255 0 255
-0.198057 -0.271947 2.43761 0.958276 -0.262558 -0.113006 0 255 0 255
-0.198422 -0.268542 2.45016 0.961551 -0.187838 -0.200343 0 255 0 255
-0.195404 -0.26638 2.46046 0.496073 -0.493991 -0.714062 0 255 0 255
-0.169486 -0.272555 2.45581 -0.170549 -0.434629 -0.884314 0 255 0 255
-0.139283 -0.280243 2.44853 0.500435 -0.454279 -0.737018 0 255 0 255
-0.133673 -0.278972 2.45733 0.600214 -0.497879 -0.625986 0 255 0 255
-0.123806 -0.279234 2.46342 0.787443 -0.293741 -0.541894 0 255 0 255
-0.122438 -0.27642 2.47498 0.908464 -0.150506 -0.389924 0 255 0 255
-0.003044 -0.278847 2.5514 0.175025 -0.317529 -0.931956 0 255 0 255
-0.310456 0.039066 2.311 -0.791829 -0.1951 0.578743 255 0 0 255
-0.305463 0.039238 2.321 -0.551691 -0.260292 0.792392 255 0 0 255
-0.299384 0.039274 2.323 -0.12786 -0.25464 0.958546 255 0 0 255
-0.292915 0.03926 2.322 0.143501 -0.328369 0.933585 255 0 0 255
-0.28645 0.039245 2.321 0.036117 -0.264106 0.963817 255 0 0 255
-0.279989 0.039231 2.32 -0.1878 -0.0887865 0.978186 255 0 0 255
-0.274005 0.039284 2.323 -0.365642 -0.133955 0.921066 255 0 0 255
-0.267888 0.03932 2.325 -0.610653 -0.11784 0.783082 255 0 0 255
-0.262208 0.039423 2.331 -0.744383 -0.120029 0.656877 255 0 0 255
-0.256825 0.039578 2.34 -0.61692 -0.317781 0.720018 255 0 0 255
-0.253959 0.040138 2.373 -0.770039 -0.115187 0.627512 255 0 0 255
-0.242883 0.039396 2.329 0.722626 -0.0578416 0.688815 255 0 0 255
-0.233975 0.038975 2.304 0.879583 -0.0387498 0.474164 255 0 0 255
-0.226685 0.038808 2.294 0.823698 0.0879771 0.560163 255 0 0 255
-0.219258 0.038607 2.282 0.760745 0.183736 0.622502 255 0 0 255
-0.212548 0.038524 2.277 0.730586 0.272547 0.626069 255 0 0 255
-0.205502 0.038373 2.268 0.692989 0.261785 0.671741 255 0 0 255
-0.198769 0.038273 2.262 0.611374 0.174272 0.771914 255 0 0 255
-0.192152 0.038191 2.257 0.472997 0.146363 0.868822 255 0 0 255
-0.18581 0.038158 2.255 0.456286 0.151336 0.87687 255 0 0 255
-0.179398 0.038109 2.252 0.199374 0.296186 0.93409 255 0 0 255
-0.173386 0.038145 2.254 -0.126387 0.349593 0.928338 255 0 0 255
-0.167288 0.038163 2.255 -0.0212335 0.0637513 0.99774 255 0 0 255
-0.161042 0.038147 2.254 0.211525 0.109116 0.971262 255 0 0 255
-0.154594 0.038081 2.25 0.214971 0.0803504 0.97331 255 0 0 255
-0.148431 0.038082 2.25 0.0286098 0.0100398 0.99954 255 0 0 255
-0.142267 0.038084 2.25 0.0915797 0.026854 0.995436 255 0 0 255
-0.135982 0.038051 2.248 0.250059 0.00937622 0.968185 255 0 0 255
-0.129592 0.037984 2.244 0.0121543 0.120795 0.992603 255 0 0 255
-0.123498 0.038003 2.245 -0.293049 -0.0411877 0.95521 255 0 0 255
-0.117503 0.038054 2.248 -0.118566 -0.246541 0.961852 255 0 0 255
-0.111392 0.038072 2.249 0.0992089 -0.519706 0.848566 255 0 0 255
-0.105041 0.038006 2.245 0.299271 -0.369023 0.87992 255 0 0 255
-0.098888 0.038006 2.245 0.195236 -0.198015 0.960559 255 0 0 255
-0.09261 0.037957 2.242 0.244948 -0.107552 0.963552 255 0 0 255
-0.086425 0.03794 2.241 0.114798 -0.0568747 0.991759 255 0 0 255
-0.080318 0.037958 2.242 0.0630316 -0.225569 0.972186 255 0 0 255
-0.074105 0.037925 2.24 0.260975 -0.347013 0.900819 255 0 0 255
-0.067902 0.037892 2.238 0.554481 -0.244792 0.795379 255 0 0 255
-0.061601 0.037791 2.232 0.223864 -0.147869 0.963338 255 0 0 255
-0.05558 0.037859 2.236 -0.524885 0.13927 0.839702 255 0 0 255
-0.049537 0.037927 2.24 -0.506735 0.268986 0.819064 255 0 0 255
-0.043452 0.037978 2.243 -0.416053 0.229927 0.879792 255 0 0 255
-0.037351 0.038029 2.246 -0.347217 0.0881812 0.93363 255 0 0 255
-0.031192 0.03803 2.246 -0.190564 -0.0306449 0.981196 255 0 0 255
-0.025055 0.038064 2.248 0.0106534 -0.196821 0.980381 255 0 0 255
-0.01889 0.038064 2.248 0.0965776 -0.113058 0.988884 255 0 0 255
