ply
format ascii 1.0
comment VCGLIB generated
element vertex 727
property float x
property float y
property float z
property float nx
property float ny
property float nz
property uchar red
property uchar green
property uchar blue
property uchar alpha
element face 0
property list uchar int vertex_indices
end_header
0.122841 0.046539 2.366 0.10511 0.138046 0.984833 255 0 0 255
0.129161 0.046479 2.363 0.18683 -0.0011356 0.982392 255 0 0 255
0.135464 0.046418 2.36 -0.0577579 -0.138906 0.98862 255 0 0 255
0.14205 0.046456 2.362 -0.285505 -0.22952 0.930488 255 0 0 255
0.148835 0.046553 2.367 -0.404801 -0.122627 0.906145 255 0 0 255
0.155516 0.04661 2.37 0.126316 0.133264 0.982998 255 0 0 255
0.161597 0.046491 2.364 0.10582 0.100166 0.989327 255 0 0 255
-0.190969 -0.232627 2.48727 0.0172696 -0.742339 -0.669802 255 255 0 255
-0.175267 -0.231008 2.48405 -0.334627 -0.56609 -0.75337 255 255 0 255
-0.15706 -0.228621 2.48252 -0.205861 -0.665092 -0.717826 255 255 0 255
-0.149002 -0.229247 2.47456 -0.128342 -0.630047 -0.765878 255 255 0 255
-0.054722 -0.236914 2.37996 0.836967 -0.401929 -0.371402 255 255 0 255
-0.065912 -0.243419 2.35909 0.415612 0.908485 -0.0438418 255 255 0 255
-0.056304 -0.243474 2.3526 -0.553228 0.44297 -0.70549 255 255 0 255
-0.047539 -0.243781 2.34555 -0.259962 -0.214527 -0.941487 255 255 0 255
-0.028009 -0.240708 2.34613 -0.559851 0.407743 -0.721327 255 255 0 255
-0.025901 -0.243079 2.3345 -0.925589 -0.305583 -0.223391 255 255 0 255
-0.013865 -0.242325 2.32991 -0.698485 -0.0512947 -0.713784 255 255 0 255
-0.015066 -0.245737 2.31592 -0.680869 -0.27472 -0.678931 255 255 0 255
-0.2117 -0.273474 2.42208 0.986876 -0.112713 -0.115639 0 255 0 255
-0.21122 -0.270381 2.43407 -0.972428 0.0088622 -0.233036 0 255 0 255
-0.210746 -0.267291 2.44604 0.997111 0.0252468 -0.0716342 0 255 0 255
-0.199642 -0.264833 2.46325 0.931984 0.322947 -0.164654 0 255 0 255
-0.205957 -0.259275 2.47963 0.797803 0.600386 -0.0552007 0 255 0 255
-0.202102 -0.257429 2.48934 0.911697 -0.0793186 -0.403135 0 255 0 255
-0.206743 -0.252504 2.50454 0.853652 -0.0214255 -0.520403 0 255 0 255
-0.19864 -0.252197 2.5115 0.920118 0.391633 -0.00238159 0 255 0 255
-0.153445 -0.261974 2.50711 -0.311998 -0.174395 -0.93394 0 255 0 255
-0.111186 -0.273855 2.4927 -0.294362 -0.499979 -0.814476 0 255 0 255
-0.344301 0.03661 2.167 -0.350787 -0.369014 0.860684 255 0 0 255
-0.338864 0.036663 2.17 -0.452992 -0.310658 0.835637 255 0 0 255
-0.333563 0.036733 2.174 -0.324515 -0.0711772 0.943199 255 0 0 255
-0.327786 0.036753 2.175 0.199019 0.0810107 0.976641 255 0 0 255
-0.321412 0.036705 2.172 0.149421 0.0967906 0.984025 255 0 0 255
-0.315633 0.036724 2.173 -0.544523 0.0732494 0.835541 255 0 0 255
-0.310419 0.036811 2.178 -0.769285 -0.00392671 0.638894 255 0 0 255
-0.306434 0.03705 2.192 -0.954038 -0.169012 0.247479 255 0 0 255
-0.276007 0.038673 2.287 0.7802 0.26003 0.568921 255 0 0 255
-0.268579 0.038506 2.277 0.665935 0.0458765 0.744598 255 0 0 255
-0.261781 0.038423 2.272 0.47232 -0.3024 0.82793 255 0 0 255
-0.255347 0.038392 2.27 0.311151 -0.27012 0.911164 255 0 0 255
-0.248703 0.038326 2.266 0.523287 -0.0413215 0.851154 255 0 0 255
-0.241973 0.038244 2.261 0.352274 0.10678 0.929785 255 0 0 255
-0.235895 0.038262 2.262 0.264167 0.0324767 0.96393 255 0 0 255
-0.229507 0.038231 2.26 0.304537 0.0739244 0.949628 255 0 0 255
-0.223425 0.038249 2.261 0.336951 -0.131575 0.932283 255 0 0 255
-0.216663 0.03815 2.255 0.647817 -0.065667 0.758961 255 0 0 255
-0.210028 0.038067 2.25 0.677167 -0.0348595 0.735003 255 0 0 255
-0.203328 0.037967 2.244 0.588948 0.0123405 0.808077 255 0 0 255
-0.196835 0.037901 2.24 0.218064 -0.31328 0.924285 255 0 0 255
-0.19079 0.03792 2.241 0.165539 -0.20848 0.963916 255 0 0 255
-0.184409 0.037871 2.238 0.299447 -0.213604 0.929895 255 0 0 255
-0.178282 0.037872 2.238 0.439005 -0.0407326 0.897561 255 0 0 255
-0.17177 0.037789 2.233 0.532085 -0.00282806 0.846686 255 0 0 255
-0.165359 0.037723 2.229 0.342022 0.196027 0.919018 255 0 0 255
-0.159184 0.037707 2.228 0.283428 0.279558 0.917342 255 0 0 255
-0.152876 0.037658 2.225 0.369378 0.26021 0.892105 255 0 0 255
-0.146782 0.037659 2.225 0.476596 0.150104 0.866213 255 0 0 255
-0.140244 0.037542 2.218 0.488802 -0.107473 0.86575 255 0 0 255
-0.134047 0.037509 2.216 0.14588 -0.0900921 0.985192 255 0 0 255
-0.12786 0.037477 2.214 0.175236 0.195789 0.964862 255 0 0 255
-0.121738 0.037461 2.213 0.387837 0.30354 0.870314 255 0 0 255
-0.115465 0.037394 2.209 0.207298 0.356353 0.911065 255 0 0 255
-0.10946 0.037412 2.21 -0.0567952 0.297846 0.952923 255 0 0 255
-0.103544 0.037464 2.213 -0.495993 0.00279474 0.868322 255 0 0 255
-0.097698 0.037549 2.218 -0.200448 -0.16429 0.965831 255 0 0 255
-0.091495 0.037499 2.215 0.238541 -0.357866 0.90279 255 0 0 255
-0.08523 0.037416 2.21 0.328703 -0.252119 0.91016 255 0 0 255
-0.079135 0.037399 2.209 -0.0783397 -0.354001 0.931958 255 0 0 255
-0.073178 0.037451 2.212 -0.127273 -0.318275 0.939416 255 0 0 255
-0.067114 0.037451 2.212 0.113553 -0.131565 0.984783 255 0 0 255
-0.060993 0.037418 2.21 0.194457 -0.232863 0.95287 255 0 0 255
-0.054909 0.037402 2.209 0.176656 -0.486417 0.855682 255 0 0 255
-0.048807 0.037368 2.207 -0.165141 -0.621381 0.765907 255 0 0 255
-0.042755 0.037369 2.207 -0.00408986 -0.670842 0.741589 255 0 0 255
-0.03667 0.037335 2.205 0.162134 -0.542732 0.824108 255 0 0 255
-0.03065 0.037369 2.207 0.127815 -0.574011 0.808811 255 0 0 255
-0.024542 0.037285 2.202 0.365196 -0.150215 0.918732 255 0 0 255
-0.018486 0.037251 2.2 0.207801 -0.104794 0.972542 255 0 0 255
-0.012447 0.037235 2.199 0.0918828 0.0895099 0.991739 255 0 0 255
-0.006425 0.037285 2.202 -0.00719234 -0.0968396 0.995274 255 0 0 255
-0.000386 0.037269 2.201 0.0802841 -0.422161 0.902959 255 0 0 255
0.005643 0.037218 2.198 0.149945 -0.565752 0.810828 255 0 0 255
0.011655 0.037167 2.195 0.0335902 -0.479285 0.877016 255 0 0 255
0.017683 0.037184 2.196 -0.128588 -0.344732 0.929852 255 0 0 255
0.023727 0.037217 2.198 -0.186888 -0.424244 0.886053 255 0 0 255
0.029796 0.037268 2.201 -0.46829 -0.413198 0.781007 255 0 0 255
0.035897 0.037335 2.205 -0.690425 -0.252133 0.678043 255 0 0 255
0.042096 0.03747 2.213 -0.703622 -0.0993095 0.703601 255 0 0 255
0.048295 0.037572 2.219 -0.730455 -0.0075122 0.682919 255 0 0 255
0.054576 0.037707 2.227 -0.667768 0.107587 0.736553 255 0 0 255
0.060764 0.037757 2.23 -0.770371 0.125172 0.625189 255 0 0 255
0.067268 0.037976 2.243 -0.851839 0.23423 0.468515 255 0 0 255
0.073811 0.038179 2.255 -0.77028 0.474659 0.425873 255 0 0 255
0.080738 0.038534 2.276 -0.810814 0.555011 0.185859 255 0 0 255
0.102995 0.039903 2.357 -0.367867 0.281827 0.886142 255 0 0 255
0.109595 0.039953 2.36 -0.461637 0.22751 0.857398 255 0 0 255
0.11626 0.040019 2.364 -0.227357 0.0829839 0.970269 255 0 0 255
0.122791 0.040035 2.365 0.0784059 0.088952 0.992945 255 0 0 255
0.129108 0.039983 2.362 0.253859 0.207271 0.944772 255 0 0 255
0.135522 0.039965 2.361 0.078295 0.177226 0.981051 255 0 0 255
0.141991 0.039964 2.361 -0.288136 0.228713 0.929875 255 0 0 255
0.148774 0.040047 2.366 -0.460327 0.0729299 0.884749 255 0 0 255
0.155386 0.04008 2.368 0.0497893 0.0708267 0.996245 255 0 0 255
0.161804 0.040061 2.367 -0.034927 0.177333 0.983531 255 0 0 255
-0.206607 -0.239902 2.51852 -0.0817237 -0.985166 -0.150893 255 255 0 255
-0.201881 -0.241555 2.50827 -0.0817237 -0.985166 -0.150893 255 255 0 255
-0.195465 -0.242701 2.49909 0.344009 -0.86107 -0.374455 255 255 0 255
-0.166128 -0.243065 2.47814 -0.272485 -0.720625 -0.637535 255 255 0 255
-0.147104 -0.240367 2.4772 -0.143568 -0.613727 -0.776355 255 255 0 255
-0.038709 -0.243444 2.3923 -0.621264 -0.359999 -0.696012 255 255 0 255
-0.065697 -0.254944 2.36055 0.415612 0.908485 -0.0438417 255 255 0 255
-0.061072 -0.256548 2.35057 0.415612 0.908485 -0.0438417 255 255 0 255
-0.035716 -0.251608 2.35512 -0.182248 -0.493786 -0.850271 255 255 0 255
-0.017862 -0.249003 2.35455 0.680628 0.714479 -0.162062 255 255 0 255
-0.014935 -0.251111 2.34352 -0.750596 -0.362619 -0.55237 255 255 0 255
-0.007047 -0.251641 2.33602 -0.800189 -0.486476 -0.350769 255 255 0 255
-0.003296 -0.253484 2.3256 -0.314693 -0.442795 -0.839584 255 255 0 255
-0.245042 -0.265814 2.47017 -0.794466 0.604975 -0.0531843 0 255 0 255
-0.233151 -0.263726 2.48663 0.545614 -0.426023 -0.721672 0 255 0 255
-0.213212 -0.267814 2.48576 0.416299 -0.636227 -0.649546 0 255 0 255
-0.21021 -0.265663 2.49601 0.852319 -0.362952 -0.376588 0 255 0 255
-0.19617 -0.267547 2.49913 0.864247 0.0983397 -0.493363 0 255 0 255
-0.19401 -0.26508 2.50995 0.512562 0.635168 -0.57779 0 255 0 255
-0.172287 -0.269727 2.50828 -0.0559845 0.0787614 -0.99532 0 255 0 255
-0.148828 -0.274968 2.50563 -0.117471 -0.390667 -0.913006 0 255 0 255
-0.343827 0.030638 2.164 -0.684047 -0.168569 0.709693 255 0 0 255
-0.338554 0.030697 2.168 -0.675282 -0.0922995 0.731761 255 0 0 255
-0.333565 0.030784 2.174 -0.452618 -0.0949507 0.886635 255 0 0 255
-0.327638 0.030786 2.174 0.143517 0.0272442 0.989273 255 0 0 255
-0.321414 0.03076 2.172 0.150526 0.0552377 0.987062 255 0 0 255
-0.31549 0.030762 2.172 -0.484793 0.10103 0.868774 255 0 0 255
-0.310421 0.030849 2.178 -0.826605 -0.0515787 0.560414 255 0 0 255
-0.305877 0.030993 2.188 -0.907839 -0.270596 0.320322 255 0 0 255
-0.302647 0.031278 2.208 -0.918979 -0.300402 0.255416 255 0 0 255
-0.277336 0.032565 2.298 0.925608 0.0957387 0.366176 255 0 0 255
-0.268227 0.032227 2.274 0.694662 -0.128209 0.707819 255 0 0 255
-0.261437 0.032158 2.269 0.278244 -0.403207 0.871783 255 0 0 255
-0.254899 0.032117 2.266 0.214631 -0.038679 0.975929 255 0 0 255
-0.249034 0.032161 2.269 0.317709 0.0836836 0.944488 255 0 0 255
-0.242189 0.032078 2.263 0.308939 0.192971 0.931299 255 0 0 255
-0.236314 0.032122 2.266 0.195799 0.272796 0.941937 255 0 0 255
-0.229509 0.032039 2.26 0.408034 0.0936336 0.908153 255 0 0 255
-0.22313 0.032012 2.258 0.494405 -0.0375489 0.86842 255 0 0 255
-0.216473 0.031943 2.253 0.619026 -0.0153415 0.78522 255 0 0 255
-0.209749 0.031859 2.247 0.575988 0.0314596 0.816853 255 0 0 255
-0.203239 0.031804 2.243 0.532689 0.235554 0.81287 255 0 0 255
-0.196661 0.031734 2.238 0.429266 0.229242 0.873601 255 0 0 255
-0.190366 0.031707 2.236 0.179932 0.103458 0.978224 255 0 0 255
-0.184246 0.031709 2.236 0.127703 0.0607319 0.989951 255 0 0 255
-0.178204 0.031724 2.237 0.253748 -0.0019515 0.967268 255 0 0 255
-0.171695 0.031654 2.232 0.506929 0.0564328 0.860139 255 0 0 255
-0.165435 0.031627 2.23 0.215802 0.157945 0.963578 255 0 0 255
-0.1594 0.031643 2.231 0.187732 0.28535 0.939857 255 0 0 255
-0.153152 0.031615 2.229 0.406295 0.185178 0.894781 255 0 0 255
-0.146519 0.031503 2.221 0.685897 0.0623755 0.725021 255 0 0 255
-0.139992 0.031405 2.214 0.252951 0.178604 0.95085 255 0 0 255
-0.134048 0.031434 2.216 -0.0413782 0.321467 0.946016 255 0 0 255
-0.128092 0.031464 2.218 0.0605428 0.341354 0.937983 255 0 0 255
-0.121959 0.03145 2.217 0.191737 0.539164 0.820085 255 0 0 255
-0.115675 0.031394 2.213 0.260015 0.486932 0.83384 255 0 0 255
-0.109461 0.031353 2.21 0.0665802 0.350108 0.93434 255 0 0 255
-0.103545 0.031396 2.213 -0.0660747 -0.249935 0.966005 255 0 0 255
-0.097479 0.031397 2.213 -6.42296e-05 -0.483378 0.875412 255 0 0 255
-0.09133 0.031369 2.211 0.382175 -0.315592 0.86853 255 0 0 255
-0.085153 0.031327 2.208 0.15899 -0.333377 0.929291 255 0 0 255
-0.079064 0.031314 2.207 -0.153345 -0.195536 0.968633 255 0 0 255
-0.073113 0.031357 2.21 -0.304078 -0.0344262 0.952025 255 0 0 255
-0.067053 0.031357 2.21 0.0875662 0.010151 0.996107 255 0 0 255
-0.060966 0.031344 2.209 0.369129 -0.071447 0.926628 255 0 0 255
-0.054835 0.031301 2.206 0.419027 -0.239994 0.875682 255 0 0 255
-0.048719 0.031259 2.203 0.208858 -0.357899 0.910103 255 0 0 255
-0.042678 0.03126 2.203 -0.0506266 -0.475195 0.878423 255 0 0 255
-0.03662 0.031246 2.202 0.0865779 -0.440261 0.893686 255 0 0 255
-0.030609 0.031274 2.204 0.00819945 -0.0933112 0.995603 255 0 0 255
-0.024542 0.031246 2.202 0.0203756 0.159838 0.986933 255 0 0 255
-0.01852 0.031275 2.204 0.0924536 0.212778 0.972717 255 0 0 255
-0.01247 0.031261 2.203 0.197664 0.195619 0.960553 255 0 0 255
-0.006422 0.031232 2.201 0.312087 -0.0903695 0.945746 255 0 0 255
-0.000385 0.031176 2.197 0.226158 -0.517313 0.825373 255 0 0 255
0.005635 0.031147 2.195 0.0656535 -0.292093 0.954134 255 0 0 255
0.011666 0.031176 2.197 -0.0519033 -0.125323 0.990758 255 0 0 255
0.017683 0.031161 2.196 -0.115868 0.0279275 0.992872 255 0 0 255
0.023706 0.031161 2.196 -0.146389 -0.0644772 0.987123 255 0 0 255
0.029742 0.031175 2.197 -0.459196 -0.158134 0.874147 255 0 0 255
0.035881 0.031274 2.204 -0.745547 -0.0856217 0.660931 255 0 0 255
0.042058 0.031373 2.211 -0.765579 -0.0597639 0.640561 255 0 0 255
0.048295 0.031486 2.219 -0.766184 0.0320051 0.641823 255 0 0 255
0.054552 0.031585 2.226 -0.681647 0.042234 0.730461 255 0 0 255
0.060819 0.03167 2.232 -0.783046 0.108186 0.612483 255 0 0 255
0.067359 0.031868 2.246 -0.889047 0.267988 0.371184 255 0 0 255
0.074204 0.032166 2.267 -0.861274 0.446726 0.242164 255 0 0 255
0.081697 0.032676 2.303 -0.905749 0.390705 0.164218 255 0 0 255
0.103346 0.033553 2.365 -0.0881305 0.379057 0.921167 255 0 0 255
0.109689 0.03351 2.362 -0.0168187 0.260751 0.96526 255 0 0 255
0.11631 0.033552 2.365 -0.17722 0.0263087 0.98382 255 0 0 255
0.122844 0.033565 2.366 -0.119474 0.197942 0.972905 255 0 0 255
0.129327 0.033564 2.366 -0.00628549 0.519232 0.85461 255 0 0 255
0.135753 0.033549 2.365 0.061034 0.587353 0.807026 255 0 0 255
0.142233 0.033548 2.365 -0.0347859 0.509863 0.859552 255 0 0 255
0.148901 0.033589 2.368 -0.229022 0.208982 0.950724 255 0 0 255
0.155519 0.033617 2.37 -0.169289 0.0452431 0.984528 255 0 0 255
0.161874 0.033587 2.368 -0.112483 0.268548 0.956676 255 0 0 255
0.166866 0.033288 2.347 0.869299 0.204195 0.450137 255 0 0 255
-0.201298 -0.25012 2.52329 0.920118 0.391634 -0.00238144 255 255 0 255
-0.187261 -0.248958 2.51888 -0.142705 -0.619632 -0.77181 255 255 0 255
-0.170708 -0.247017 2.51612 -0.227771 -0.337957 -0.913184 255 255 0 255
-0.047269 -0.254609 2.40079 -0.750608 -0.287561 -0.594893 255 255 0 255
-0.043499 -0.256461 2.39031 -0.572155 -0.278217 -0.771514 255 255 0 255
-0.058835 -0.264372 2.36661 0.756555 0.591199 -0.27948 255 255 0 255
-0.048408 -0.264122 2.36069 -0.0211988 -0.896204 -0.443136 255 255 0 255
-0.001101 -0.255128 2.36762 -0.771648 -0.625894 -0.113204 255 255 0 255
-0.01804 -0.263595 2.3426 -0.924397 -0.197449 -0.32635 255 255 0 255
-0.005191 -0.26252 2.3386 -0.912404 -0.25608 -0.319283 255 255 0 255
-0.223163 -0.288386 2.44477 -0.839147 -0.1647 -0.518368 0 255 0 255
-0.239589 -0.278975 2.46792 -0.887679 -0.309735 -0.340719 0 255 0 255
-0.245903 -0.273369 2.48425 0.632355 -0.751326 -0.188777 0 255 0 255
-0.234459 -0.27438 2.48887 0.267481 -0.785952 -0.557434 0 255 0 255
-0.236964 -0.266966 2.51477 0.496669 -0.398544 -0.771027 0 255 0 255
-0.18599 -0.279253 2.50623 0.114736 -0.181518 -0.976671 0 255 0 255
-0.16682 -0.283016 2.50623 0.0654947 -0.318592 -0.945626 0 255 0 255
-0.150174 -0.285824 2.50794 0.00754461 -0.409874 -0.912111 0 255 0 255
-0.134356 -0.288304 2.51027 -0.235265 -0.555138 -0.797792 0 255 0 255
-0.348917 0.024658 2.159 -0.774108 -0.214786 0.595503 255 0 0 255
-0.34367 0.024705 2.163 -0.610695 -0.0860448 0.787177 255 0 0 255
-0.338556 0.024764 2.168 -0.738992 -0.11884 0.66315 255 0 0 255
-0.333567 0.024834 2.174 -0.352974 -0.180641 0.91803 255 0 0 255
-0.327489 0.024825 2.173 0.101352 -0.219785 0.970269 255 0 0 255
-0.321564 0.024826 2.173 0.0636559 -0.126976 0.989861 255 0 0 255
-0.315492 0.024817 2.172 -0.484393 -0.0707083 0.871988 255 0 0 255
-0.310423 0.024887 2.178 -0.62813 -0.1231 0.768309 255 0 0 255
-0.305459 0.024968 2.185 -0.82883 -0.314051 0.463048 255 0 0 255
-0.30169 0.025153 2.201 -0.900091 -0.384887 0.204204 255 0 0 255
-0.267403 0.025918 2.267 0.462716 0.0645652 0.884152 255 0 0 255
-0.261554 0.025954 2.27 0.314435 0.234169 0.919943 255 0 0 255
-0.2549 0.02591 2.266 0.17572 0.194905 0.964953 255 0 0 255
-0.249036 0.025945 2.269 0.155603 0.207396 0.965802 255 0 0 255
-0.242405 0.025901 2.265 0.152658 0.200037 0.967823 255 0 0 255
-0.236212 0.025902 2.265 0.276549 0.177535 0.944458 255 0 0 255
-0.229713 0.025869 2.262 0.522597 0.115495 0.844721 255 0 0 255
-0.223131 0.025825 2.258 0.545575 0.0212218 0.837793 255 0 0 255
-0.216474 0.025769 2.253 0.522778 0.134817 0.841741 255 0 0 255
-0.210031 0.025736 2.25 0.401177 0.390934 0.828389 255 0 0 255
-0.203693 0.025714 2.248 0.300055 0.600336 0.741326 255 0 0 255
-0.197453 0.025704 2.247 0.328714 0.689191 0.645727 255 0 0 255
-0.190963 0.025659 2.243 0.391815 0.478327 0.785929 255 0 0 255
-0.184412 0.025603 2.238 0.33241 0.325016 0.885363 255 0 0 255
-0.178285 0.025604 2.238 0.404883 0.209576 0.890027 255 0 0 255
-0.171773 0.025548 2.233 0.428212 0.239107 0.871471 255 0 0 255
-0.165584 0.025538 2.232 0.162116 0.356553 0.920102 255 0 0 255
-0.159401 0.025527 2.231 0.116461 0.336084 0.934604 255 0 0 255
-0.153222 0.025517 2.23 0.413339 0.216179 0.884544 255 0 0 255
-0.146718 0.025449 2.224 0.683807 0.157603 0.712439 255 0 0 255
-0.140246 0.025381 2.218 0.173166 0.381707 0.907917 255 0 0 255
-0.134291 0.025405 2.22 -0.165955 0.486977 0.857504 255 0 0 255
-0.128266 0.025417 2.221 -0.0399838 0.438503 0.89784 255 0 0 255
-0.122125 0.025406 2.22 0.294515 0.339739 0.893218 255 0 0 255
-0.115937 0.025384 2.218 0.507118 0.152117 0.848347 255 0 0 255
-0.10966 0.025339 2.214 0.316285 0.117911 0.941308 255 0 0 255
-0.103499 0.025317 2.212 0.183611 -0.0828002 0.979506 255 0 0 255
-0.097259 0.025272 2.208 0.222838 -0.143209 0.964279 255 0 0 255
-0.091207 0.025272 2.208 0.160487 0.0631841 0.985013 255 0 0 255
-0.085115 0.025261 2.207 0.0319246 0.299996 0.953406 255 0 0 255
-0.079065 0.025262 2.207 -0.0949093 0.313953 0.944683 255 0 0 255
-0.073113 0.025297 2.21 -0.134118 0.226676 0.964692 255 0 0 255
-0.067115 0.02532 2.212 0.0877801 -0.000396285 0.99614 255 0 0 255
-0.060994 0.025297 2.21 0.383246 -0.029008 0.923191 255 0 0 255
-0.05481 0.02524 2.205 0.552156 -0.014764 0.83361 255 0 0 255
-0.048697 0.025206 2.202 0.0813352 -0.122268 0.989159 255 0 0 255
-0.042659 0.025207 2.202 -0.142481 0.154978 0.977589 255 0 0 255
-0.036637 0.025218 2.203 -0.0931811 0.256268 0.962104 255 0 0 255
-0.030595 0.025219 2.203 -0.00623114 0.236084 0.971713 255 0 0 255
-0.024576 0.025242 2.205 -0.021066 0.0285689 0.99937 255 0 0 255
-0.018537 0.025253 2.206 0.0671132 -0.125853 0.989776 255 0 0 255
-0.012476 0.02523 2.204 0.402696 -0.0588448 0.91344 255 0 0 255
-0.006411 0.02515 2.197 0.504171 -0.420375 0.754385 255 0 0 255
-0.000384 0.025082 2.191 0.0557416 -0.461951 0.885152 255 0 0 255
0.005628 0.025093 2.192 -0.428592 -0.1103 0.89674 255 0 0 255
0.011655 0.025127 2.195 -0.311988 0.183799 0.932138 255 0 0 255
0.017699 0.025162 2.198 0.0451756 0.227976 0.972618 255 0 0 255
0.023717 0.02515 2.197 0.114933 0.0421275 0.99248 255 0 0 255
0.029742 0.02515 2.197 -0.424673 -0.00234379 0.905344 255 0 0 255
0.035881 0.02523 2.204 -0.773208 -0.017503 0.63391 255 0 0 255
0.042077 0.025321 2.212 -0.805754 0.0358405 0.591165 255 0 0 255
0.048361 0.025435 2.222 -0.763502 0.107814 0.636743 255 0 0 255
0.054576 0.025492 2.227 -0.730078 0.0573081 0.680957 255 0 0 255
0.060901 0.025584 2.235 -0.833793 0.0601586 0.54879 255 0 0 255
0.067599 0.025801 2.254 -0.892312 0.290649 0.345402 255 0 0 255
0.074794 0.026155 2.285 -0.905992 0.379005 0.188503 255 0 0 255
0.103521 0.027114 2.369 0.362195 0.0758326 0.929012 255 0 0 255
0.10969 0.027034 2.362 0.351523 0.236287 0.90587 255 0 0 255
0.116163 0.027033 2.362 -0.250598 0.00874763 0.968052 255 0 0 255
0.122844 0.027078 2.366 -0.421032 0.272333 0.865197 255 0 0 255
0.129547 0.027123 2.37 -0.023445 0.552755 0.833014 255 0 0 255
0.136213 0.027157 2.373 0.11876 0.587079 0.800771 255 0 0 255
0.142414 0.027099 2.368 0.122908 0.570746 0.811876 255 0 0 255
0.148839 0.027086 2.367 0.0462082 0.32735 0.943773 255 0 0 255
0.155388 0.027097 2.368 -0.205583 0.18105 0.961747 255 0 0 255
0.162148 0.027142 2.372 -0.261939 0.215811 0.940645 255 0 0 255
0.167151 0.0269 2.351 0.932752 0.135303 0.334166 255 0 0 255
-0.221317 -0.283591 2.44569 -0.837533 -0.0383078 -0.545043 255 255 0 255
-0.041634 -0.267394 2.3929 -0.71272 -0.0569403 -0.699133 255 255 0 255
-0.037035 -0.268979 2.383 -0.79347 -0.556603 -0.246167 255 255 0 255
-0.022486 -0.267364 2.38002 -0.482606 -0.215931 -0.848802 255 255 0 255
-0.005475 -0.264937 2.37884 -0.0289744 -0.9201 -0.390611 255 255 0 255
-0.006699 -0.268379 2.36495 0.986494 0.147693 -0.0708262 255 255 0 255
-0.004606 -0.270754 2.35336 0.92313 0.104612 -0.369983 255 255 0 255
-0.015721 -0.277423 2.33238 -0.983966 -0.0999949 -0.147692 255 255 0 255
-0.169337 -0.323285 2.39779 0.543863 0.185347 -0.818449 0 255 0 255
-0.205928 -0.306118 2.43465 -0.987933 -0.0294794 -0.15205 0 255 0 255
-0.254812 -0.281143 2.4915 0.640663 -0.378607 -0.667988 0 255 0 255
-0.234923 -0.285356 2.49056 0.731629 0.481478 -0.482595 0 255 0 255
-0.227702 -0.284798 2.498 0.29191 -0.287081 -0.912345 0 255 0 255
-0.220473 -0.284236 2.50547 0.00254557 -0.0328901 -0.999456 0 255 0 255
-0.203908 -0.287138 2.50695 0.190939 -0.119577 -0.974291 0 255 0 255
-0.182228 -0.291913 2.50524 0.0334655 -0.447958 -0.893428 0 255 0 255
-0.174956 -0.29132 2.51286 0.280927 -0.593334 -0.754344 0 255 0 255
-0.165977 -0.291348 2.51942 0.213073 -0.618222 -0.756572 0 255 0 255
-0.14337 -0.296384 2.51743 -0.0353658 -0.58824 -0.807913 0 255 0 255
-0.343195 0.01876 2.16 -0.788877 -0.281009 0.546541 255 0 0 255
-0.338714 0.01884 2.169 -0.602961 -0.23194 0.76331 255 0 0 255
-0.333262 0.018867 2.172 -0.188068 -0.377491 0.906714 255 0 0 255
-0.327039 0.018851 2.17 0.0426664 -0.474713 0.879106 255 0 0 255
-0.321122 0.018852 2.17 0.00686978 -0.365073 0.930954 255 0 0 255
-0.315349 0.018862 2.171 -0.291651 -0.497192 0.817153 255 0 0 255
-0.310139 0.018907 2.176 -0.644358 -0.376931 0.665376 255 0 0 255
-0.304622 0.018934 2.179 -0.727235 -0.377994 0.57293 255 0 0 255
-0.300183 0.019031 2.19 -0.821083 -0.488439 0.295383 255 0 0 255
-0.296087 0.019154 2.204 -0.842798 -0.499442 0.200624 255 0 0 255
-0.268466 0.019787 2.276 0.391944 0.314489 0.864567 255 0 0 255
-0.261786 0.019753 2.272 0.244709 0.451571 0.858022 255 0 0 255
-0.255239 0.019728 2.269 0.23239 0.358126 0.90429 255 0 0 255
-0.249147 0.019738 2.27 0.268342 0.153009 0.951095 255 0 0 255
-0.242727 0.019722 2.268 0.28663 0.0537012 0.956535 255 0 0 255
-0.236421 0.019714 2.267 0.171507 0.173043 0.969867 255 0 0 255
-0.229917 0.019689 2.264 0.439267 0.246291 0.863936 255 0 0 255
-0.223132 0.019638 2.258 0.450173 0.2991 0.841358 255 0 0 255
-0.216764 0.019622 2.256 0.240206 0.506945 0.827833 255 0 0 255
-0.210498 0.019614 2.255 0.228651 0.448863 0.863852 255 0 0 255
-0.204419 0.019623 2.256 0.218948 0.412415 0.884294 255 0 0 255
-0.19807 0.019607 2.254 0.356727 0.348119 0.866925 255 0 0 255
-0.19139 0.019556 2.248 0.621684 0.236466 0.746721 255 0 0 255
-0.184825 0.019513 2.243 0.445828 0.337591 0.829017 255 0 0 255
-0.178445 0.019488 2.24 0.374361 0.389742 0.841401 255 0 0 255
-0.172082 0.019462 2.237 0.335133 0.420112 0.843322 255 0 0 255
-0.165808 0.019446 2.235 0.264357 0.310101 0.91321 255 0 0 255
-0.159687 0.019446 2.235 0.240178 0.257922 0.935837 255 0 0 255
-0.153429 0.01943 2.233 0.41665 0.135604 0.898896 255 0 0 255
-0.146916 0.019378 2.227 0.618858 0.241139 0.747574 255 0 0 255
-0.140436 0.019327 2.221 0.167059 0.41805 0.892931 255 0 0 255
-0.134473 0.019345 2.223 -0.0733029 0.393914 0.91622 255 0 0 255
-0.12844 0.019354 2.224 0.171023 0.193643 0.966051 255 0 0 255
-0.122181 0.019328 2.221 0.488283 0.011745 0.872607 255 0 0 255
-0.115833 0.019285 2.216 0.488594 0.10971 0.865586 255 0 0 255
-0.109611 0.01926 2.213 0.343735 0.0354544 0.938397 255 0 0 255
-0.103452 0.019243 2.211 0.184521 0.306346 0.933865 255 0 0 255
-0.097348 0.019235 2.21 0.0114494 0.450283 0.892812 255 0 0 255
-0.091331 0.019244 2.211 -0.0430043 0.559894 0.827448 255 0 0 255
-0.085347 0.019262 2.213 0.0522009 0.516851 0.854482 255 0 0 255
-0.079244 0.019253 2.212 0.0272977 0.449778 0.892723 255 0 0 255
-0.073147 0.019245 2.211 -0.256621 0.187602 0.94813 255 0 0 255
-0.067115 0.019254 2.212 0.0429657 0.284723 0.957646 255 0 0 255
-0.060967 0.019228 2.209 0.564075 0.162192 0.809638 255 0 0 255
-0.054761 0.019176 2.203 0.423019 0.0560801 0.904384 255 0 0 255
-0.048653 0.01915 2.2 0.131241 0.151967 0.979634 255 0 0 255
-0.042717 0.019194 2.205 -0.245456 0.200209 0.948508 255 0 0 255
-0.03672 0.01922 2.208 0.100179 0.067285 0.992692 255 0 0 255
-0.030623 0.019194 2.205 0.251763 -0.193439 0.94826 255 0 0 255
-0.024554 0.019177 2.203 0.097559 -0.319537 0.942538 255 0 0 255
-0.018512 0.019177 2.203 0.22087 -0.446028 0.867338 255 0 0 255
-0.012447 0.019142 2.199 0.483258 -0.531159 0.69594 255 0 0 255
-0.006399 0.01909 2.193 0.275437 -0.547169 0.790405 255 0 0 255
-0.000384 0.019064 2.19 -0.15 -0.341857 0.927704 255 0 0 255
0.005638 0.019116 2.196 -0.5065 0.0403084 0.861297 255 0 0 255
0.011682 0.019151 2.2 -0.438587 0.0356277 0.897982 255 0 0 255
0.017716 0.019151 2.2 -0.121941 0.169658 0.97793 255 0 0 255
0.023717 0.019125 2.197 0.0848588 0.233228 0.968713 255 0 0 255
0.029728 0.019116 2.196 -0.319945 0.265833 0.909378 255 0 0 255
0.035881 0.019185 2.204 -0.765777 0.0928127 0.636374 255 0 0 255
0.042077 0.019255 2.212 -0.810998 0.0933583 0.577552 255 0 0 255
0.048361 0.019342 2.222 -0.746852 0.118836 0.654286 255 0 0 255
0.054528 0.019368 2.225 -0.702916 0.105781 0.703363 255 0 0 255
0.060901 0.019454 2.235 -0.826754 0.134556 0.546235 255 0 0 255
0.067659 0.019637 2.256 -0.934513 0.19935 0.294865 255 0 0 255
0.103565 0.020627 2.37 0.762424 0.353555 0.54195 255 0 0 255
0.109783 0.020574 2.364 0.467876 0.172363 0.866823 255 0 0 255
0.116262 0.020574 2.364 -0.520898 0.122793 0.844741 255 0 0 255
0.12326 0.02066 2.374 -0.658242 0.511963 0.551916 255 0 0 255
0.130477 0.020773 2.387 -0.320657 0.830304 0.455823 255 0 0 255
0.13719 0.020798 2.39 -0.278333 0.885254 0.372633 255 0 0 255
0.142956 0.020685 2.377 0.6452 0.556119 0.523878 255 0 0 255
0.148965 0.020614 2.369 0.0775741 0.324626 0.942656 255 0 0 255
0.15552 0.020622 2.37 -0.281993 0.138912 0.949307 255 0 0 255
0.162286 0.020657 2.374 -0.344134 0.152455 0.92646 255 0 0 255
0.168788 0.020656 2.374 -0.386424 0.19825 0.900763 255 0 0 255
-0.144026 -0.268388 2.50966 -0.117471 -0.390667 -0.913006 255 255 0 255
-0.053137 -0.276499 2.4125 -0.463716 -0.507044 -0.726549 255 255 0 255
-0.047698 -0.277817 2.40314 -0.503031 -0.419189 -0.755805 255 255 0 255
-0.046415 -0.280473 2.39093 -0.565372 -0.454943 -0.688027 255 255 0 255
-0.028533 -0.277759 2.39018 -0.429639 -0.705009 -0.564245 255 255 0 255
0.012107 -0.270668 2.39241 -0.774752 -0.615154 -0.146098 255 255 0 255
-0.001538 -0.278166 2.36985 0.595683 0.73283 -0.32882 255 255 0 255
-0.014319 -0.285412 2.34777 0.787278 0.571863 -0.230579 255 255 0 255
0.003094 -0.285847 2.33393 0.672327 0.487699 -0.55689 255 255 0 255
-0.262462 -0.292605 2.4858 -0.404029 -0.0943134 -0.909871 0 255 0 255
-0.229088 -0.302005 2.47592 -0.00544733 0.241611 -0.970358 0 255 0 255
-0.21172 -0.305293 2.47674 0.873158 -0.316143 -0.371011 0 255 0 255
-0.219708 -0.298989 2.49419 0.68711 0.576499 -0.442187 0 255 0 255
-0.209086 -0.299708 2.4995 0.879901 0.115533 -0.460898 0 255 0 255
-0.195062 -0.301689 2.50266 0.522246 -0.316026 -0.792077 0 255 0 255
-0.186955 -0.301434 2.5097 0.553728 -0.728986 -0.402448 0 255 0 255
-0.187329 -0.298003 2.52219 0.331051 -0.824613 -0.458715 0 255 0 255
-0.171564 -0.300588 2.52441 0.0946657 -0.617896 -0.78054 0 255 0 255
-0.154927 -0.303474 2.52618 0.124587 -0.693992 -0.709122 0 255 0 255
-0.137415 -0.306658 2.5275 -0.104929 -0.518636 -0.848532 0 255 0 255
-0.125841 -0.30762 2.53262 -0.0595166 -0.49565 -0.866481 0 255 0 255
-0.349405 0.012861 2.162 -0.770834 -0.341217 0.537946 255 0 0 255
-0.341766 0.012796 2.151 -0.888499 -0.421701 0.180936 255 0 0 255
-0.338246 0.012886 2.166 -0.381821 -0.358171 0.852013 255 0 0 255
-0.332649 0.012899 2.168 -0.0308364 -0.506676 0.861585 255 0 0 255
-0.326588 0.012894 2.167 0.0427244 -0.475727 0.878555 255 0 0 255
-0.320531 0.012889 2.166 -0.0486218 -0.367896 0.928595 255 0 0 255
-0.314769 0.012896 2.167 -0.275765 -0.505056 0.817846 255 0 0 255
-0.309427 0.012921 2.171 -0.450814 -0.500874 0.738845 255 0 0 255
-0.304064 0.012945 2.175 -0.639508 -0.436894 0.632576 255 0 0 255
-0.299225 0.012994 2.183 -0.757919 -0.492831 0.427406 255 0 0 255
-0.29461 0.013054 2.193 -0.787384 -0.540356 0.296718 255 0 0 255
-0.291519 0.013186 2.215 -0.857611 -0.493516 0.144722 255 0 0 255
-0.262248 0.013554 2.276 0.390608 0.398116 0.830017 255 0 0 255
-0.255802 0.013543 2.274 0.306172 0.334671 0.891209 255 0 0 255
-0.249038 0.013514 2.269 0.356057 0.119336 0.926813 255 0 0 255
-0.242621 0.013502 2.267 0.187435 0.0269058 0.981908 255 0 0 255
-0.236214 0.013491 2.265 0.0109914 0.192458 0.981244 255 0 0 255
-0.230324 0.01351 2.268 0.132511 0.304491 0.943253 255 0 0 255
-0.223627 0.013481 2.263 0.385707 0.469191 0.794412 255 0 0 255
-0.217245 0.013469 2.261 0.431386 0.32656 0.84099 255 0 0 255
-0.210872 0.013458 2.259 0.300227 0.0570697 0.952159 255 0 0 255
-0.204601 0.013453 2.258 0.318874 -0.0814326 0.944292 255 0 0 255
-0.19807 0.01343 2.254 0.519322 -0.26922 0.811064 255 0 0 255
-0.191561 0.013406 2.25 0.523513 -0.142555 0.840007 255 0 0 255
-0.185072 0.013383 2.246 0.387996 0.0609916 0.919641 255 0 0 255
-0.178765 0.013372 2.244 0.349123 0.249369 0.903287 255 0 0 255
-0.17239 0.013354 2.241 0.477276 0.226891 0.848957 255 0 0 255
-0.165883 0.013325 2.236 0.336272 0.191443 0.922101 255 0 0 255
-0.159688 0.01332 2.235 0.319393 0.150894 0.935532 255 0 0 255
-0.153292 0.013296 2.231 0.490591 0.126308 0.862187 255 0 0 255
-0.146983 0.013279 2.228 0.44222 0.250359 0.861256 255 0 0 255
-0.140627 0.013255 2.224 0.191518 0.413745 0.89002 255 0 0 255
-0.134594 0.013262 2.225 0.127514 0.314389 0.940691 255 0 0 255
-0.128498 0.013262 2.225 0.288731 0.0575689 0.955678 255 0 0 255
-0.122181 0.013239 2.221 0.541492 -0.00906293 0.840657 255 0 0 255
-0.115833 0.013209 2.216 0.470617 -0.0748292 0.879159 255 0 0 255
-0.109711 0.013204 2.215 -0.0285026 0.160368 0.986646 255 0 0 255
-0.103593 0.013198 2.214 -0.0890107 0.564086 0.820905 255 0 0 255
-0.097613 0.01321 2.216 -0.0781963 0.663713 0.743889 255 0 0 255
-0.091497 0.013205 2.215 -0.036496 0.655995 0.753882 255 0 0 255
-0.085463 0.013211 2.216 0.188341 0.49094 0.850591 255 0 0 255
-0.079245 0.013187 2.212 0.347906 0.175004 0.921051 255 0 0 255
-0.073213 0.013194 2.213 -0.0631452 0.0886092 0.994063 255 0 0 255
-0.067237 0.013212 2.216 0.0349796 0.13179 0.99066 255 0 0 255
-0.061078 0.013194 2.213 0.301674 0.127585 0.944836 255 0 0 255
-0.054885 0.013164 2.208 0.573255 0.251716 0.779755 255 0 0 255
-0.04872 0.013135 2.203 0.123715 0.34526 0.930318 255 0 0 255
-0.042717 0.013147 2.205 -0.29686 0.0281924 0.954505 255 0 0 255
-0.036687 0.013153 2.206 0.176322 -0.259162 0.949603 255 0 0 255
-0.030568 0.013123 2.201 0.550997 -0.306064 0.776355 255 0 0 255
-0.024498 0.013105 2.198 0.274497 -0.567668 0.776147 255 0 0 255
-0.018462 0.013099 2.197 0.324294 -0.630987 0.704762 255 0 0 255
-0.012396 0.013058 2.19 0.466805 -0.479817 0.742879 255 0 0 255
-0.006381 0.01304 2.187 -0.089157 -0.166343 0.982029 255 0 0 255
-0.000383 0.013034 2.186 -0.125318 -0.0614197 0.990214 255 0 0 255
0.00563 0.013076 2.193 -0.638083 0.00234725 0.769964 255 0 0 255
0.011661 0.013094 2.196 -0.387955 0.0229681 0.921392 255 0 0 255
0.017708 0.013111 2.199 -0.151475 0.0285246 0.98805 255 0 0 255
0.02376 0.013123 2.201 -0.0301084 0.260269 0.965066 255 0 0 255
0.029796 0.013123 2.201 -0.384183 0.324331 0.864415 255 0 0 255
0.03593 0.013159 2.207 -0.715255 0.184143 0.674167 255 0 0 255
0.042116 0.0132 2.214 -0.825664 0.157177 0.541825 255 0 0 255
0.048427 0.013266 2.225 -0.756405 0.19286 0.625026 255 0 0 255
0.054552 0.013272 2.226 -0.707005 0.242154 0.664459 255 0 0 255
0.060956 0.013337 2.237 -0.823632 0.198179 0.531372 255 0 0 255
0.06787 0.013492 2.263 -0.946937 0.108784 0.302449 255 0 0 255
0.104134 0.014206 2.383 -0.266973 0.340618 0.901502 255 0 0 255
0.109783 0.014092 2.364 0.357522 0.229238 0.905333 255 0 0 255
0.116263 0.014092 2.364 -0.487862 0.235509 0.840551 255 0 0 255
0.12352 0.014181 2.379 -0.804607 0.486722 0.340162 255 0 0 255
0.131078 0.014294 2.398 -0.740915 0.54485 0.392661 255 0 0 255
0.137994 0.014329 2.404 0.739274 0.562899 0.369619 255 0 0 255
0.143378 0.01421 2.384 0.731913 0.477178 0.486421 255 0 0 255
0.149154 0.014138 2.372 0.496124 0.488524 0.717778 255 0 0 255
0.155521 0.014125 2.37 -0.0894808 0.344366 0.934562 255 0 0 255
0.162218 0.014143 2.373 -0.277684 0.158153 0.947565 255 0 0 255
0.169002 0.014166 2.377 -0.40918 0.262912 0.873756 255 0 0 255
-0.056261 -0.289072 2.4117 0.678128 -0.375954 -0.631507 255 255 0 255
-0.034194 -0.284978 2.41369 -0.334827 -0.849605 -0.407507 255 255 0 255
-0.028773 -0.286282 2.40437 -0.314916 -0.787277 -0.530116 255 255 0 255
-0.029161 -0.289482 2.39105 -0.43914 -0.717041 -0.541302 255 255 0 255
-0.001373 -0.283448 2.39727 0.086637 -0.781055 -0.618424 255 255 0 255
0.008983 -0.283104 2.39151 -0.190188 0.0394609 -0.980954 255 255 0 255
0.021805 -0.281934 2.38752 0.742044 0.533998 -0.405236 255 255 0 255
0.016046 -0.289959 2.35747 -0.654674 -0.738339 -0.162043 255 255 0 255
0.018131 -0.292338 2.34592 0.789948 0.500646 -0.354029 255 255 0 255
-0.249427 -0.308711 2.47854 -0.143336 0.155552 -0.977373 0 255 0 255
-0.221967 -0.315935 2.47262 0.831541 -0.431149 -0.350215 0 255 0 255
-0.216426 -0.31475 2.48122 0.880578 -0.29711 -0.369199 0 255 0 255
-0.2168 -0.31131 2.49369 0.833007 -0.485581 -0.265161 0 255 0 255
-0.207025 -0.311729 2.49957 0.535119 -0.500806 -0.680324 0 255 0 255
-0.204861 -0.309253 2.5104 0.486167 -0.651259 -0.582669 0 255 0 255
-0.193374 -0.310299 2.51525 0.82661 -0.33124 -0.454968 0 255 0 255
-0.194599 -0.306541 2.52825 0.953838 -0.0319096 -0.298621 0 255 0 255
-0.1746 -0.310765 2.52779 0.316897 -0.443968 -0.838134 0 255 0 255
-0.164772 -0.311145 2.53385 0.163999 -0.608068 -0.776761 0 255 0 255
-0.137067 -0.318194 2.52876 -0.0105334 -0.432095 -0.901766 0 255 0 255
-0.340654 0.006888 2.144 -0.879967 -0.378177 0.287473 255 0 0 255
-0.337622 0.006946 2.162 -0.644057 -0.109779 0.75706 255 0 0 255
-0.332189 0.006956 2.165 -0.237082 -0.243389 0.940507 255 0 0 255
-0.326136 0.006953 2.164 -0.0897391 -0.290345 0.952705 255 0 0 255
-0.320235 0.006954 2.164 -0.0826634 -0.132594 0.987717 255 0 0 255
-0.314479 0.006958 2.165 -0.296389 -0.144637 0.944052 255 0 0 255
-0.309001 0.006968 2.168 -0.479591 -0.208144 0.852449 255 0 0 255
-0.303505 0.006978 2.171 -0.565945 -0.273324 0.777817 255 0 0 255
-0.298403 0.006998 2.177 -0.687994 -0.449312 0.569898 255 0 0 255
-0.293536 0.007024 2.185 -0.775162 -0.508328 0.375135 255 0 0 255
-0.289414 0.007069 2.199 -0.852949 -0.491932 0.174589 255 0 0 255
-0.262248 0.007319 2.276 0.330774 0.374162 0.866367 255 0 0 255
-0.255803 0.007313 2.274 0.378037 0.439212 0.814973 255 0 0 255
-0.249258 0.007304 2.271 0.409094 0.260776 0.874436 255 0 0 255
-0.242728 0.007295 2.268 0.131858 0.359693 0.923707 255 0 0 255
-0.236423 0.007292 2.267 -0.00921458 0.551195 0.834326 255 0 0 255
-0.23063 0.007305 2.271 0.0275382 0.572061 0.819749 255 0 0 255
-0.224023 0.007293 2.267 0.416492 0.453046 0.788216 255 0 0 255
-0.217245 0.007274 2.261 0.562627 0.192856 0.803901 255 0 0 255
-0.210593 0.007258 2.256 0.500202 0.0406842 0.864953 255 0 0 255
-0.204239 0.007252 2.254 0.528577 -0.211609 0.822088 255 0 0 255
-0.197456 0.00723 2.247 0.485628 -0.180879 0.855247 255 0 0 255
-0.191136 0.007224 2.245 0.189576 -0.11341 0.975294 255 0 0 255
-0.18499 0.007224 2.245 0.233878 0.0337352 0.971681 255 0 0 255
-0.178845 0.007224 2.245 0.217421 0.0267403 0.975712 255 0 0 255
-0.172467 0.007215 2.242 0.495721 0.164707 0.85272 255 0 0 255
-0.165957 0.007199 2.237 0.352567 0.224311 0.908505 255 0 0 255
-0.159831 0.007199 2.237 0.296858 0.253591 0.920634 255 0 0 255
-0.153361 0.007183 2.232 0.318931 0.429762 0.844741 255 0 0 255
-0.147181 0.00718 2.231 0.255807 0.654226 0.711724 255 0 0 255
-0.14088 0.007171 2.228 0.255508 0.590799 0.765293 255 0 0 255
-0.134776 0.007171 2.228 0.326275 0.479662 0.814536 255 0 0 255
-0.128383 0.007155 2.223 0.560115 0.106775 0.821505 255 0 0 255
-0.122071 0.007143 2.219 0.624205 -0.0292159 0.780714 255 0 0 255
-0.115625 0.00712 2.212 0.359985 0.128492 0.924067 255 0 0 255
-0.109711 0.00713 2.215 -0.364606 0.379674 0.850241 255 0 0 255
-0.103781 0.00714 2.218 -0.290175 0.615399 0.73286 255 0 0 255
-0.097921 0.007156 2.223 -0.0197553 0.612149 0.790495 255 0 0 255
-0.091786 0.007153 2.222 0.386456 0.377935 0.841318 255 0 0 255
-0.085579 0.007144 2.219 0.42303 0.303227 0.853873 255 0 0 255
-0.079317 0.007128 2.214 0.302252 0.164687 0.938894 255 0 0 255
-0.073147 0.007118 2.211 -0.0566844 0.118569 0.991327 255 0 0 255
-0.067146 0.007125 2.213 -0.0872736 0.0867336 0.992401 255 0 0 255
-0.06105 0.007122 2.212 0.123536 0.259908 0.957699 255 0 0 255
-0.054935 0.007115 2.21 0.419058 0.406911 0.811673 255 0 0 255
-0.048764 0.007099 2.205 0.310598 0.371267 0.875037 255 0 0 255
-0.042756 0.007106 2.207 0.0784796 0.0942103 0.992454 255 0 0 255
-0.036654 0.007096 2.204 0.363207 -0.229878 0.902905 255 0 0 255
-0.03054 0.00708 2.199 0.581243 -0.364755 0.7274 255 0 0 255
-0.024442 0.007061 2.193 0.351864 -0.471278 0.808758 255 0 0 255
-0.018428 0.007061 2.193 0.407896 -0.37608 0.831976 255 0 0 255
-0.012385 0.007045 2.188 0.158384 -0.123058 0.979679 255 0 0 255
-0.006387 0.007048 2.189 -0.0928759 0.12564 0.987719 255 0 0 255
-0.000384 0.007051 2.19 -0.545926 0.170708 0.820258 255 0 0 255
0.005638 0.007071 2.196 -0.483762 0.084204 0.871139 255 0 0 255
0.011666 0.007074 2.197 -0.478881 0.168107 0.861634 255 0 0 255
0.017716 0.007084 2.2 -0.358506 0.241172 0.901837 255 0 0 255
0.023749 0.007084 2.2 -0.238803 0.283241 0.928842 255 0 0 255
0.029823 0.007093 2.203 -0.396734 0.368791 0.840592 255 0 0 255
0.035914 0.007103 2.206 -0.675654 0.230936 0.700114 255 0 0 255
0.042135 0.007132 2.215 -0.813303 0.170715 0.556233 255 0 0 255
0.048427 0.007164 2.225 -0.742306 0.192315 0.64187 255 0 0 255
0.0547 0.007186 2.232 -0.732118 0.271341 0.624802 255 0 0 255
0.061065 0.007215 2.241 -0.758458 0.194573 0.622 255 0 0 255
0.0679 0.007289 2.264 -0.938342 0.0333041 0.344099 255 0 0 255
0.103959 0.007659 2.379 0.863949 0.293858 0.408949 255 0 0 255
0.10997 0.007623 2.368 0.592814 0.381987 0.708983 255 0 0 255
0.116411 0.00762 2.367 -0.680942 0.25066 0.688104 255 0 0 255
0.12378 0.007674 2.384 -0.843635 0.345883 0.410663 255 0 0 255
0.131407 0.007738 2.404 0.808813 0.337902 0.481294 255 0 0 255
0.138453 0.007764 2.412 0.808813 0.337902 0.481294 255 0 0 255
0.143859 0.007699 2.392 0.843417 0.322194 0.42993 255 0 0 255
0.149532 0.007654 2.378 0.546163 0.389105 0.741824 255 0 0 255
0.155718 0.007638 2.373 0.0671885 0.516878 0.853418 255 0 0 255
0.162355 0.007644 2.375 -0.247534 0.368081 0.896239 255 0 0 255
-0.188076 -0.296398 2.52423 0.282949 -0.949799 -0.133496 255 255 0 255
-0.178295 -0.296432 2.51717 -0.15298 -0.925091 -0.347568 255 255 0 255
-0.041917 -0.295952 2.42278 0.12743 0.0521437 -0.990476 255 255 0 255
-0.041472 -0.298892 2.41003 -0.241257 -0.0951664 -0.965784 255 255 0 255
-0.014467 -0.293084 2.4155 -0.191432 -0.850284 -0.490276 255 255 0 255
-0.016524 -0.296838 2.40108 -0.695684 -0.0312589 -0.717668 255 255 0 255
-0.009461 -0.29758 2.39295 -0.315881 0.207617 -0.925805 255 255 0 255
0.00752 -0.295021 2.39177 -0.335166 0.398908 -0.853544 255 255 0 255
0.025297 -0.292172 2.39124 -0.465876 0.241005 -0.851397 255 255 0 255
0.019111 -0.297303 2.37392 0.995512 0.0374742 -0.0869035 255 255 0 255
0.011297 -0.302997 2.35536 0.956798 -0.280609 -0.0761361 255 255 0 255
0.021625 -0.302618 2.34966 0.956798 -0.280609 -0.0761361 255 255 0 255
0.037696 -0.300294 2.34813 0.956798 -0.280609 -0.0761361 255 255 0 255
-0.244378 -0.318535 2.48875 0.70674 -0.101178 -0.700201 0 255 0 255
-0.226194 -0.322243 2.48901 0.629604 -0.711875 -0.311179 0 255 0 255
-0.220658 -0.321068 2.49761 0.800157 -0.50779 -0.319216 0 255 0 255
-0.215963 -0.319566 2.50677 0.737055 -0.514709 -0.437977 0 255 0 255
-0.209572 -0.318709 2.51485 0.523319 -0.3794 -0.763016 0 255 0 255
-0.19894 -0.319461 2.52025 0.420964 -0.0395324 -0.906215 0 255 0 255
-0.184902 -0.321492 2.52352 0.433336 0.103527 -0.895266 0 255 0 255
-0.180181 -0.319971 2.53278 0.12082 -0.477895 -0.870068 0 255 0 255
-0.165263 -0.322301 2.53562 0.438055 0.0967388 -0.893728 0 255 0 255
-0.146924 -0.325898 2.53641 -0.0944887 -0.395947 -0.913399 0 255 0 255
-0.125155 -0.330756 2.53518 0.0465633 -0.422269 -0.905274 0 255 0 255
-0.340496 0.00102 2.143 -0.961706 -0.0851066 0.260535 255 0 0 255
-0.337154 0.001028 2.159 -0.650392 0.136068 0.747313 255 0 0 255
-0.331729 0.00103 2.162 -0.194294 0.127195 0.972662 255 0 0 255
-0.326136 0.001031 2.164 -0.0498497 0.0596336 0.996975 255 0 0 255
-0.320384 0.001031 2.165 -0.181645 0.0866414 0.97954 255 0 0 255
-0.314624 0.001032 2.166 -0.24236 0.0288167 0.969758 255 0 0 255
-0.309001 0.001033 2.168 -0.304424 -0.0287112 0.952104 255 0 0 255
-0.303365 0.001034 2.17 -0.449762 -0.272488 0.850567 255 0 0 255
-0.298129 0.001036 2.175 -0.567857 -0.46166 0.681475 255 0 0 255
-0.292865 0.001039 2.18 -0.721206 -0.509009 0.469865 255 0 0 255
-0.288362 0.001044 2.191 -0.839777 -0.47158 0.269048 255 0 0 255
-0.285344 0.001055 2.214 -0.885886 -0.44404 0.134291 255 0 0 255
-0.26294 0.001088 2.282 0.306647 0.335429 0.890761 255 0 0 255
-0.256591 0.001087 2.281 0.424354 0.311331 0.850292 255 0 0 255
-0.249917 0.001085 2.277 0.469199 0.24903 0.847252 255 0 0 255
-0.243371 0.001084 2.274 0.0218831 0.485482 0.873973 255 0 0 255
-0.236944 0.001083 2.272 -0.10824 0.556628 0.82368 255 0 0 255
-0.231138 0.001085 2.276 0.156662 0.468239 0.869603 255 0 0 255
-0.224419 0.001083 2.271 0.577742 0.229344 0.783336 255 0 0 255
-0.217534 0.001079 2.264 0.668122 0.158962 0.726873 255 0 0 255
-0.210686 0.001076 2.257 0.513844 0.1457 0.84542 255 0 0 255
-0.204239 0.001075 2.254 0.573475 0.135687 0.807908 255 0 0 255
-0.197544 0.001072 2.248 0.514028 0.226777 0.827253 255 0 0 255
-0.191306 0.001072 2.247 0.231392 0.489554 0.840711 255 0 0 255
-0.184991 0.001071 2.245 0.201033 0.294064 0.934405 255 0 0 255
-0.178845 0.001071 2.245 0.291118 0.210393 0.933266 255 0 0 255
-0.172467 0.001069 2.242 0.414314 0.262474 0.871465 255 0 0 255
-0.166106 0.001068 2.239 0.184542 0.516205 0.836347 255 0 0 255
-0.159974 0.001068 2.239 0.0224338 0.705733 0.708122 255 0 0 255
-0.153773 0.001068 2.238 0.0863093 0.758792 0.645589 255 0 0 255
-0.147841 0.001069 2.241 0.256491 0.711332 0.654385 255 0 0 255
-0.141386 0.001067 2.236 0.25058 0.686558 0.68253 255 0 0 255
-0.135018 0.001065 2.232 0.472295 0.565534 0.676098 255 0 0 255
-0.128498 0.001061 2.225 0.567503 0.251268 0.784095 255 0 0 255
-0.122182 0.00106 2.221 0.393957 0.221248 0.892102 255 0 0 255
-0.115834 0.001057 2.216 0.159518 0.497889 0.852444 255 0 0 255
-0.109959 0.001059 2.22 -0.269883 0.627148 0.73065 255 0 0 255
-0.104108 0.001062 2.225 -0.432528 0.438044 0.788059 255 0 0 255
-0.098142 0.001063 2.228 0.1818 0.288738 0.939989 255 0 0 255
-0.091745 0.00106 2.221 0.475917 0.121434 0.871067 255 0 0 255
-0.085541 0.001058 2.218 0.390156 0.250529 0.88601 255 0 0 255
-0.079353 0.001057 2.215 0.27883 0.486679 0.827887 255 0 0 255
-0.073247 0.001056 2.214 0.194826 0.398935 0.896043 255 0 0 255
-0.067176 0.001056 2.214 -0.0113345 0.505229 0.862911 255 0 0 255
-0.061161 0.001057 2.216 0.0577629 0.383734 0.921635 255 0 0 255
-0.055059 0.001057 2.215 0.277559 0.423159 0.862495 255 0 0 255
-0.048875 0.001055 2.21 0.515687 0.2966 0.803801 255 0 0 255
-0.042698 0.001052 2.204 0.625371 0.0665797 0.777482 255 0 0 255
-0.036554 0.001049 2.198 0.637172 -0.0850416 0.766015 255 0 0 255
-0.030485 0.001047 2.195 0.666838 -0.183466 0.722265 255 0 0 255
-0.024398 0.001045 2.189 0.410735 -0.274152 0.869562 255 0 0 255
-0.018403 0.001045 2.19 0.257327 -0.183147 0.94881 255 0 0 255
-0.012374 0.001043 2.186 0.127593 -0.0749076 0.988994 255 0 0 255
-0.006384 0.001044 2.188 -0.148087 0.1312 0.980233 255 0 0 255
-0.000384 0.001046 2.191 -0.524351 0.364825 0.769388 255 0 0 255
0.005641 0.001048 2.197 -0.515163 0.361003 0.777357 255 0 0 255
0.011682 0.00105 2.2 -0.382838 0.373117 0.845115 255 0 0 255
0.017756 0.001052 2.205 -0.172396 0.360462 0.916704 255 0 0 255
0.023803 0.001052 2.205 -0.246474 0.232552 0.940835 255 0 0 255
0.029891 0.001054 2.208 -0.503981 0.293634 0.81227 255 0 0 255
0.035995 0.001055 2.211 -0.699285 0.241204 0.67292 255 0 0 255
0.04223 0.001059 2.22 -0.795452 0.123412 0.593317 255 0 0 255
0.048514 0.001064 2.229 -0.782419 -0.00108825 0.622752 255 0 0 255
0.054798 0.001067 2.236 -0.703167 -0.0692567 0.707644 255 0 0 255
0.06112 0.00107 2.243 -0.854267 -0.00451854 0.519815 255 0 0 255
0.06784 0.001079 2.262 -0.942148 -0.0809068 0.325287 255 0 0 255
0.103916 0.001135 2.378 0.817734 0.369435 0.441395 255 0 0 255
0.110062 0.001131 2.37 0.615976 0.594737 0.516586 255 0 0 255
0.116657 0.001132 2.372 -0.602971 0.661176 0.446399 255 0 0 255
0.12404 0.00114 2.389 -0.850669 0.215776 0.479378 255 0 0 255
0.131571 0.001148 2.407 -0.746494 0.15978 0.645923 255 0 0 255
0.138396 0.00115 2.411 0.838848 0.00622697 0.54433 255 0 0 255
0.143919 0.001142 2.393 0.796703 0.244502 0.552705 255 0 0 255
0.149784 0.001136 2.382 0.696703 0.263945 0.667036 255 0 0 255
0.155981 0.001134 2.377 0.0397698 0.557118 0.829481 255 0 0 255
0.162765 0.001136 2.381 -0.179423 0.584624 0.791215 255 0 0 255
-0.195108 -0.30733 2.53452 0.953838 -0.0319096 -0.298621 255 255 0 255
-0.187852 -0.308156 2.52584 -0.18908 -0.329823 -0.924914 255 255 0 255
-0.173853 -0.306827 2.52142 -0.00792172 -0.629732 -0.776772 255 255 0 255
-0.169992 -0.308719 2.51068 0.471869 -0.422599 -0.77379 255 255 0 255
-0.053722 -0.314517 2.403 -0.253566 0.145854 -0.956259 255 255 0 255
-0.022567 -0.307262 2.41125 -0.479512 0.0439128 -0.876436 255 255 0 255
-0.014228 -0.310667 2.39094 -0.739842 0.0224845 -0.672405 255 255 0 255
-0.002207 -0.309733 2.38626 -0.2416 0.104327 -0.964751 255 255 0 255
0.015575 -0.306846 2.38569 -0.769601 0.182895 -0.611771 255 255 0 255
0.020954 -0.308117 2.37649 0.973485 0.0454324 -0.224193 255 255 0 255
0.020562 -0.311338 2.3632 -0.987251 -0.159125 -0.00372659 255 255 0 255
0.008656 -0.318471 2.34167 0.486299 -0.351717 -0.79988 255 255 0 255
-0.236047 -0.336274 2.47243 -0.931008 0.0486962 -0.361736 0 255 0 255
-0.233046 -0.334127 2.48268 0.766428 0.485877 -0.420132 0 255 0 255
-0.224985 -0.333946 2.48961 0.859943 0.177887 -0.478387 0 255 0 255
-0.224514 -0.330816 2.50152 0.876052 -0.105405 -0.470555 0 255 0 255
-0.215596 -0.330953 2.50795 0.818593 0.0153325 -0.574169 0 255 0 255
-0.213435 -0.328475 2.51876 0.473676 -0.02786 -0.880258 0 255 0 255
-0.191802 -0.333481 2.51711 0.312659 0.039276 -0.949053 0 255 0 255
-0.18878 -0.331318 2.52744 0.613109 0.265832 -0.743929 0 255 0 255
-0.169643 -0.335316 2.52757 0.426608 -0.0953878 -0.899392 0 255 0 255
-0.162362 -0.334762 2.53527 0.703445 0.129028 -0.69894 0 255 0 255
-0.151675 -0.335495 2.54087 -0.0287041 -0.376941 -0.925793 0 255 0 255
-0.133321 -0.339122 2.54175 0.131338 -0.468015 -0.873906 0 255 0 255
-0.339709 -0.004751 2.102 0.998039 -0.0416097 0.0467585 255 0 0 255
-0.341767 -0.004862 2.151 -0.970713 0.0139182 0.239838 255 0 0 255
-0.337935 -0.004892 2.164 -0.277523 0.150436 0.948868 255 0 0 255
-0.332343 -0.004896 2.166 -0.316866 0.22032 0.922526 255 0 0 255
-0.326287 -0.004895 2.165 -0.0523206 0.149699 0.987346 255 0 0 255
-0.320236 -0.004893 2.164 -0.113249 0.000127277 0.993567 255 0 0 255
-0.314769 -0.0049 2.167 -0.166706 -0.115165 0.979258 255 0 0 255
-0.308858 -0.0049 2.167 -0.22037 -0.198515 0.955002 255 0 0 255
-0.303226 -0.004905 2.169 -0.232103 -0.385142 0.893193 255 0 0 255
-0.297444 -0.004908 2.17 -0.347356 -0.568131 0.746037 255 0 0 255
-0.292059 -0.004917 2.174 -0.547568 -0.572954 0.609831 255 0 0 255
-0.287177 -0.004935 2.182 -0.784965 -0.511307 0.34985 255 0 0 255
-0.283797 -0.004981 2.202 -0.884246 -0.44611 0.138187 255 0 0 255
-0.262824 -0.005161 2.281 0.662739 0.101357 0.74196 255 0 0 255
-0.256366 -0.005157 2.279 0.511327 -0.00244391 0.859383 255 0 0 255
