ply
format ascii 1.0
comment VCGLIB generated
element vertex 740
property float x
property float y
property float z
property float nx
property float ny
property float nz
property uchar red
property uchar green
property uchar blue
property uchar alpha
element face 0
property list uchar int vertex_indices
end_header
-0.049521 0.667503 2.007 -0.399964 0.296871 0.86712 255 0 0 255
-0.04408 0.667839 2.008 -0.344671 0.271577 0.898581 255 0 0 255
-0.038652 0.668507 2.01 0.226176 0.156844 0.961376 255 0 0 255
-0.033098 0.666847 2.005 0.650264 0.0463427 0.758294 255 0 0 255
-0.027598 0.665851 2.002 0.719012 0.0784953 0.690551 255 0 0 255
-0.011698 0.692463 2.082 -0.990629 0.11884 0.067309 255 0 0 255
-0.164393 0.662593 2.009 -0.583728 -0.21364 0.783339 255 0 0 255
-0.159244 0.663923 2.013 -0.116845 -0.0481849 0.991981 255 0 0 255
-0.153691 0.663604 2.012 0.39635 0.114149 0.910976 255 0 0 255
-0.147922 0.662294 2.008 0.505212 0.235217 0.830321 255 0 0 255
-0.142245 0.661314 2.005 0.342174 0.284896 0.895405 255 0 0 255
-0.136722 0.660994 2.004 0.286559 0.268817 0.919577 255 0 0 255
-0.131137 0.660343 2.002 0.287216 0.312637 0.905409 255 0 0 255
-0.125627 0.660022 2.001 0.105512 0.36683 0.924285 255 0 0 255
-0.120241 0.66036 2.002 0.173526 0.295718 0.939382 255 0 0 255
-0.114678 0.659709 2 0.559673 0.133278 0.817926 255 0 0 255
-0.109017 0.658397 1.996 0.623532 0.0875313 0.776883 255 0 0 255
-0.103377 0.657085 1.992 0.221258 0.0760455 0.972246 255 0 0 255
-0.098054 0.657751 1.994 -0.422924 0.0717444 0.90332 255 0 0 255
-0.092766 0.658747 1.997 -0.537045 0.186582 0.82266 255 0 0 255
-0.087418 0.659413 1.999 -0.202889 0.309841 0.928889 255 0 0 255
-0.081936 0.65909 1.998 -0.201794 0.428355 0.88079 255 0 0 255
-0.076612 0.660085 2.001 -0.504709 0.29105 0.812748 255 0 0 255
-0.071272 0.66108 2.004 -0.533319 0.321145 0.782583 255 0 0 255
-0.065915 0.662074 2.007 -0.310431 0.509272 0.802667 255 0 0 255
-0.060482 0.662408 2.008 0.0936059 0.612575 0.78485 255 0 0 255
-0.054961 0.661753 2.006 -0.132395 0.561604 0.816745 255 0 0 255
-0.049549 0.662416 2.008 -0.284906 0.285184 0.915149 255 0 0 255
-0.044105 0.662749 2.009 -0.309434 0.271005 0.911486 255 0 0 255
-0.038693 0.663742 2.012 0.239227 0.281691 0.929204 255 0 0 255
-0.033133 0.662095 2.007 0.572559 0.0306781 0.81929 255 0 0 255
-0.011716 0.687833 2.085 -0.990629 0.11884 0.067309 255 0 0 255
-0.163913 0.655206 2.003 -0.910712 -0.119531 0.395368 255 0 0 255
-0.159175 0.65816 2.012 -0.395602 0.17124 0.902317 255 0 0 255
-0.153777 0.658498 2.013 0.260101 0.326715 0.908628 255 0 0 255
-0.148079 0.657527 2.01 0.452979 0.301574 0.838966 255 0 0 255
-0.142468 0.656882 2.008 0.282456 0.384 0.879069 255 0 0 255
-0.136935 0.656565 2.007 0.22259 0.466737 0.855927 255 0 0 255
-0.131408 0.656247 2.006 0.21749 0.511856 0.831085 255 0 0 255
-0.125886 0.655928 2.005 0.188132 0.509507 0.839648 255 0 0 255
-0.12031 0.655282 2.003 0.324148 0.304436 0.895682 255 0 0 255
-0.114744 0.654636 2.001 0.578551 0.150362 0.801667 255 0 0 255
-0.10897 0.652681 1.995 0.630687 0.163639 0.758589 255 0 0 255
-0.103384 0.651707 1.992 0.320451 0.0399507 0.946422 255 0 0 255
-0.097962 0.651714 1.992 -0.391594 -0.0340774 0.919507 255 0 0 255
-0.092772 0.653357 1.997 -0.61093 0.0855151 0.787053 255 0 0 255
-0.087511 0.654672 2.001 -0.425281 0.240955 0.872397 255 0 0 255
-0.082064 0.654678 2.001 -0.282418 0.514164 0.809862 255 0 0 255
-0.076694 0.655338 2.003 -0.505056 0.476885 0.719374 255 0 0 255
-0.071383 0.656652 2.007 -0.523377 0.462767 0.715488 255 0 0 255
-0.066051 0.657965 2.011 -0.314535 0.454563 0.833331 255 0 0 255
-0.060576 0.65797 2.011 0.132226 0.415062 0.900133 255 0 0 255
-0.055047 0.657319 2.009 0.0360978 0.381636 0.923608 255 0 0 255
-0.049602 0.65765 2.01 -0.281823 0.423595 0.860897 255 0 0 255
-0.044152 0.657981 2.011 -0.282137 0.404447 0.869955 255 0 0 255
-0.038715 0.658638 2.013 0.550738 0.326119 0.768332 255 0 0 255
-0.033086 0.655696 2.004 0.658066 0.0433118 0.751713 255 0 0 255
-0.017243 0.676315 2.067 -0.990629 0.11884 0.067309 255 0 0 255
-0.011739 0.683514 2.089 -0.941931 0.335681 0.00912226 255 0 0 255
-0.16286 0.64558 1.99 -0.817823 -0.355373 0.452632 255 0 0 255
-0.159186 0.652728 2.012 -0.493206 0.344642 0.79873 255 0 0 255
-0.15394 0.653711 2.015 0.0471887 0.344014 0.937778 255 0 0 255
-0.148236 0.652748 2.012 0.323691 0.514558 0.794012 255 0 0 255
-0.14269 0.652434 2.011 0.234997 0.579898 0.78006 255 0 0 255
-0.137149 0.652119 2.01 0.205964 0.596915 0.775417 255 0 0 255
-0.131614 0.651804 2.009 0.149909 0.573484 0.805384 255 0 0 255
-0.126083 0.651489 2.008 0.234009 0.595308 0.768667 255 0 0 255
-0.120498 0.650848 2.006 0.37633 0.528092 0.761245 255 0 0 255
-0.114866 0.649883 2.003 0.673168 0.338626 0.657402 255 0 0 255
-0.109141 0.648269 1.998 0.664622 0.211151 0.716723 255 0 0 255
-0.103495 0.646978 1.994 0.42281 0.238953 0.874147 255 0 0 255
-0.098018 0.646661 1.993 -0.422576 0.168871 0.890456 255 0 0 255
-0.092779 0.647966 1.997 -0.730193 0.201394 0.652885 255 0 0 255
-0.087561 0.649594 2.002 -0.617186 0.336009 0.711462 255 0 0 255
-0.082234 0.650574 2.005 -0.34711 0.605432 0.716217 255 0 0 255
-0.076852 0.651229 2.007 -0.424249 0.569848 0.703766 255 0 0 255
-0.071531 0.652532 2.011 -0.453452 0.417161 0.787628 255 0 0 255
-0.066089 0.652861 2.012 -0.228844 0.337523 0.913076 255 0 0 255
-0.060641 0.65319 2.013 0.130076 0.270115 0.954001 255 0 0 255
-0.055106 0.652546 2.011 -0.067649 0.331727 0.940947 255 0 0 255
-0.04968 0.653198 2.013 -0.362748 0.460658 0.810067 255 0 0 255
-0.044243 0.653851 2.015 -0.214688 0.529752 0.820532 255 0 0 255
-0.038756 0.653854 2.015 0.280892 0.41977 0.863072 255 0 0 255
-0.033138 0.65126 2.007 0.708613 0.214321 0.672261 255 0 0 255
-0.159434 0.64826 2.015 -0.202721 0.495281 0.844749 255 0 0 255
-0.15418 0.649236 2.018 -0.133067 0.573348 0.808434 255 0 0 255
-0.148541 0.648603 2.016 0.226166 0.65605 0.720033 255 0 0 255
-0.143055 0.648613 2.016 0.28795 0.614707 0.734316 255 0 0 255
-0.137364 0.647657 2.013 0.28936 0.59026 0.753568 255 0 0 255
-0.131885 0.647667 2.013 0.157433 0.481217 0.862349 255 0 0 255
-0.126343 0.647354 2.012 0.185873 0.540035 0.820861 255 0 0 255
-0.120807 0.647041 2.011 0.367311 0.567096 0.737214 255 0 0 255
-0.115161 0.646084 2.008 0.711706 0.376055 0.593344 255 0 0 255
-0.109204 0.643196 1.999 0.724367 0.220973 0.653041 255 0 0 255
-0.103503 0.641595 1.994 0.430526 0.27073 0.861018 255 0 0 255
-0.098025 0.641281 1.993 -0.380117 0.292319 0.877531 255 0 0 255
-0.092878 0.643218 1.999 -0.737331 0.244106 0.629885 255 0 0 255
-0.087742 0.645477 2.006 -0.701233 0.335849 0.628871 255 0 0 255
-0.082404 0.646448 2.009 -0.448451 0.532561 0.717824 255 0 0 255
-0.077011 0.647098 2.011 -0.293722 0.52168 0.800985 255 0 0 255
-0.071572 0.647425 2.012 -0.171569 0.375639 0.910747 255 0 0 255
-0.066126 0.647752 2.013 -0.0957998 0.136114 0.98605 255 0 0 255
-0.060645 0.647756 2.013 -0.0321209 0.213214 0.976478 255 0 0 255
-0.055137 0.647439 2.012 -0.269172 0.395149 0.878296 255 0 0 255
-0.049757 0.64873 2.016 -0.454155 0.461368 0.762157 255 0 0 255
-0.044312 0.649377 2.018 -0.126832 0.528882 0.839164 255 0 0 255
-0.038817 0.64938 2.018 -0.0700375 0.443419 0.893574 255 0 0 255
-0.03314 0.645843 2.007 0.762542 0.24844 0.597333 255 0 0 255
-0.159682 0.643775 2.018 -0.235698 0.64554 0.726446 255 0 0 255
-0.154496 0.645062 2.022 -0.213045 0.667998 0.713015 255 0 0 255
-0.14892 0.644754 2.021 0.25766 0.625523 0.736432 255 0 0 255
-0.143349 0.644445 2.02 0.390329 0.541799 0.744377 255 0 0 255
-0.137578 0.643179 2.016 0.379106 0.460138 0.80284 255 0 0 255
-0.132025 0.64287 2.015 0.1873 0.429514 0.883423 255 0 0 255
-0.126478 0.64256 2.014 0.0950851 0.411449 0.906459 255 0 0 255
-0.120996 0.642569 2.014 0.359337 0.384392 0.850365 255 0 0 255
-0.115284 0.641301 2.01 0.681915 0.382081 0.623704 255 0 0 255
-0.109375 0.638756 2.002 0.771597 0.184543 0.608754 255 0 0 255
-0.103718 0.637488 1.998 0.430108 0.319437 0.844374 255 0 0 255
-0.098229 0.637176 1.997 -0.424131 0.415191 0.804816 255 0 0 255
-0.092978 0.638459 2.001 -0.764698 0.276402 0.582098 255 0 0 255
-0.087836 0.6407 2.008 -0.732787 0.30562 0.607964 255 0 0 255
-0.082533 0.641982 2.012 -0.549973 0.402634 0.731721 255 0 0 255
-0.077132 0.642626 2.014 -0.246521 0.548395 0.799056 255 0 0 255
-0.071648 0.642632 2.014 0.103254 0.389261 0.915322 255 0 0 255
-0.066098 0.641998 2.012 0.00148899 0.27234 0.9622 255 0 0 255
-0.06068 0.642641 2.014 -0.241783 0.307744 0.920236 255 0 0 255
-0.055223 0.642965 2.015 -0.464491 0.510668 0.723509 255 0 0 255
-0.049835 0.644245 2.019 -0.479774 0.576755 0.661189 255 0 0 255
-0.044381 0.644887 2.021 0.001356 0.583473 0.812132 255 0 0 255
-0.038839 0.644251 2.019 0.570572 0.352367 0.741812 255 0 0 255
-0.033192 0.641382 2.01 0.800973 0.255105 0.541631 255 0 0 255
-0.16001 0.639591 2.022 -0.410471 0.403439 0.817772 255 0 0 255
-0.154813 0.640867 2.026 -0.244894 0.536474 0.807603 255 0 0 255
-0.149225 0.640562 2.025 0.271553 0.515206 0.81291 255 0 0 255
-0.14343 0.639307 2.021 0.453621 0.47679 0.752927 255 0 0 255
-0.137793 0.638684 2.019 0.425272 0.394212 0.814703 255 0 0 255
-0.1321 0.637745 2.016 0.243624 0.453853 0.857126 255 0 0 255
-0.126613 0.637754 2.016 0.127217 0.409382 0.90345 255 0 0 255
-0.121125 0.637763 2.016 0.384163 0.389387 0.837136 255 0 0 255
-0.115407 0.636506 2.012 0.716357 0.268206 0.644126 255 0 0 255
-0.109329 0.633035 2.001 0.397126 0.446697 0.801719 255 0 0 255
-0.103725 0.632093 1.998 0.325159 0.485778 0.811352 255 0 0 255
-0.098285 0.632101 1.998 -0.37595 0.580704 0.722111 255 0 0 255
-0.093078 0.63369 2.003 -0.717347 0.366149 0.592747 255 0 0 255
-0.087887 0.635595 2.009 -0.722449 0.28472 0.630082 255 0 0 255
-0.082621 0.637183 2.014 -0.606421 0.328529 0.724101 255 0 0 255
-0.077291 0.638454 2.018 -0.256594 0.467909 0.845707 255 0 0 255
-0.07176 0.638143 2.017 0.185125 0.502073 0.844779 255 0 0 255
-0.066202 0.637516 2.015 -0.0318632 0.501065 0.864823 255 0 0 255
-0.060745 0.637837 2.016 -0.407915 0.568243 0.714636 255 0 0 255
-0.055364 0.639107 2.02 -0.526954 0.645047 0.553385 255 0 0 255
-0.049962 0.640376 2.024 -0.238412 0.810526 0.534983 255 0 0 255
-0.044494 0.641013 2.026 0.335856 0.615494 0.712999 255 0 0 255
-0.0389 0.63975 2.022 0.470822 0.40438 0.784094 255 0 0 255
-0.1549 0.63571 2.027 -0.203283 0.316044 0.926711 255 0 0 255
-0.149457 0.636034 2.028 0.216376 0.340556 0.914988 255 0 0 255
-0.143724 0.635104 2.025 0.502129 0.367944 0.782613 255 0 0 255
-0.138007 0.634173 2.022 0.42263 0.386912 0.819563 255 0 0 255
-0.132372 0.633556 2.02 0.191381 0.477254 0.857673 255 0 0 255
-0.12681 0.633251 2.019 0.132605 0.432966 0.891603 255 0 0 255
-0.121194 0.632633 2.017 0.431138 0.378743 0.818947 255 0 0 255
-0.11553 0.631701 2.014 0.719034 0.286208 0.633305 255 0 0 255
-0.109555 0.628886 2.005 0.649245 0.486833 0.584359 255 0 0 255
-0.103992 0.628267 2.003 0.206592 0.682722 0.700864 255 0 0 255
-0.098539 0.628274 2.003 -0.359163 0.682453 0.6366 255 0 0 255
-0.093271 0.629536 2.007 -0.638016 0.522215 0.565886 255 0 0 255
-0.088024 0.631111 2.012 -0.657875 0.364522 0.659032 255 0 0 255
-0.08271 0.632372 2.016 -0.60676 0.292801 0.738992 255 0 0 255
-0.077373 0.633633 2.02 -0.323587 0.336396 0.884381 255 0 0 255
-0.071837 0.633325 2.019 0.0390226 0.384788 0.92218 255 0 0 255
-0.066338 0.63333 2.019 -0.0819281 0.666274 0.741193 255 0 0 255
-0.0609 0.633963 2.021 -0.349927 0.729183 0.588084 255 0 0 255
-0.055506 0.635222 2.025 -0.57359 0.612534 0.543871 255 0 0 255
-0.050114 0.636794 2.03 -0.412865 0.675967 0.610419 255 0 0 255
-0.044585 0.636798 2.03 0.545565 0.53865 0.642039 255 0 0 255
-0.038903 0.634291 2.022 0.522889 0.395945 0.75486 255 0 0 255
-0.154682 0.629303 2.024 -0.547139 -0.141721 0.824957 255 0 0 255
-0.149615 0.631179 2.03 0.0671431 0.361923 0.929787 255 0 0 255
-0.143806 0.629946 2.026 0.484823 0.353594 0.799949 255 0 0 255
-0.138086 0.629024 2.023 0.39964 0.391837 0.828705 255 0 0 255
-0.132447 0.628412 2.021 0.225525 0.448337 0.864946 255 0 0 255
-0.127071 0.629043 2.023 0.320224 0.261838 0.910438 255 0 0 255
-0.121383 0.628119 2.02 0.415128 0.268809 0.869143 255 0 0 255
-0.115711 0.627195 2.017 0.514359 0.348251 0.783681 255 0 0 255
-0.109837 0.625027 2.01 0.46993 0.718156 0.513242 255 0 0 255
-0.104208 0.624102 2.007 0.0566707 0.792176 0.607656 255 0 0 255
-0.098792 0.624421 2.008 -0.105653 0.814089 0.571049 255 0 0 255
-0.093463 0.625361 2.011 -0.555366 0.526935 0.643356 255 0 0 255
-0.088162 0.626612 2.015 -0.531151 0.433096 0.728221 255 0 0 255
-0.082757 0.62724 2.017 -0.478519 0.27776 0.832988 255 0 0 255
-0.077417 0.62849 2.021 -0.285128 0.13728 0.948608 255 0 0 255
-0.071913 0.628496 2.021 -0.31206 0.347716 0.884145 255 0 0 255
-0.066508 0.629434 2.024 -0.416486 0.521435 0.744745 255 0 0 255
-0.061025 0.62975 2.025 -0.436662 0.631756 0.640477 255 0 0 255
-0.055647 0.631309 2.03 -0.573555 0.568192 0.590079 255 0 0 255
-0.050192 0.632246 2.033 -0.416822 0.628366 0.656822 255 0 0 255
-0.044699 0.632872 2.035 0.437982 0.73999 0.510477 255 0 0 255
-0.038963 0.629765 2.025 0.629438 0.511106 0.585302 255 0 0 255
-0.154388 0.622603 2.02 -0.62061 0.11274 0.775973 255 0 0 255
-0.1497 0.626005 2.031 -0.582256 0.31605 0.749059 255 0 0 255
-0.144029 0.625399 2.029 0.404157 0.443686 0.799875 255 0 0 255
-0.138301 0.624485 2.026 0.386001 0.527148 0.757046 255 0 0 255
-0.132719 0.624187 2.025 0.378782 0.424109 0.822591 255 0 0 255
-0.127017 0.623272 2.022 0.453622 0.220475 0.863491 255 0 0 255
-0.121332 0.622356 2.019 0.363244 0.157977 0.918203 255 0 0 255
-0.115834 0.622365 2.019 0.409022 0.3486 0.843314 255 0 0 255
-0.110282 0.622065 2.018 0.365327 0.607705 0.705146 255 0 0 255
-0.104631 0.621149 2.015 0.292818 0.680486 0.671711 255 0 0 255
-0.099045 0.62054 2.013 -0.126663 0.630259 0.765983 255 0 0 255
-0.093656 0.621164 2.015 -0.444542 0.453254 0.772621 255 0 0 255
-0.0883 0.622095 2.018 -0.382408 0.379651 0.842395 255 0 0 255
-0.082845 0.62241 2.019 -0.318379 0.184106 0.929914 255 0 0 255
-0.077385 0.622724 2.02 -0.332456 0.055248 0.941499 255 0 0 255
-0.071919 0.623039 2.021 -0.532745 0.245215 0.80997 255 0 0 255
-0.066611 0.624894 2.027 -0.588515 0.425842 0.687248 255 0 0 255
-0.06115 0.625515 2.029 -0.531204 0.577684 0.619761 255 0 0 255
-0.055733 0.626753 2.033 -0.565795 0.588654 0.577376 255 0 0 255
-0.05027 0.627682 2.036 -0.443604 0.618497 0.648595 255 0 0 255
-0.04479 0.62861 2.039 -0.220832 0.649887 0.727242 255 0 0 255
-0.039024 0.625222 2.028 0.625185 0.518392 0.583449 255 0 0 255
-0.154705 0.618369 2.024 -0.764365 0.268063 0.58642 255 0 0 255
-0.149858 0.62113 2.033 -0.57146 0.382645 0.725959 255 0 0 255
-0.144324 0.621141 2.033 0.153377 0.718267 0.678652 255 0 0 255
-0.138652 0.620541 2.031 0.244775 0.80115 0.546117 255 0 0 255
-0.132926 0.619634 2.028 0.494774 0.60307 0.625703 255 0 0 255
-0.12709 0.618116 2.023 0.477714 0.36288 0.800067 255 0 0 255
-0.121401 0.617209 2.02 0.223706 0.529696 0.818156 255 0 0 255
-0.1159 0.617218 2.02 0.107318 0.607239 0.787238 255 0 0 255
-0.110345 0.616921 2.019 0.276218 0.661784 0.696954 255 0 0 255
-0.104691 0.616012 2.016 0.32035 0.55465 0.767945 255 0 0 255
-0.099201 0.61602 2.016 0.0644069 0.532289 0.844109 255 0 0 255
-0.09371 0.616028 2.016 -0.336224 0.482185 0.808981 255 0 0 255
-0.088351 0.616951 2.019 -0.351051 0.383038 0.854427 255 0 0 255
-0.082811 0.616652 2.018 -0.296569 0.448151 0.843331 255 0 0 255
-0.077429 0.617575 2.021 -0.37726 0.41214 0.829346 255 0 0 255
-0.071995 0.618192 2.023 -0.555913 0.448737 0.699711 255 0 0 255
-0.066682 0.620031 2.029 -0.650603 0.428298 0.627117 255 0 0 255
-0.061276 0.621258 2.033 -0.606609 0.555292 0.568925 255 0 0 255
-0.055875 0.622791 2.038 -0.59943 0.607073 0.521676 255 0 0 255
-0.050422 0.624017 2.042 -0.212962 0.884489 0.415123 255 0 0 255
-0.044903 0.624632 2.044 -0.286303 0.815705 0.502649 255 0 0 255
-0.03922 0.622802 2.038 0.476358 0.795807 0.373864 255 0 0 255
-0.155022 0.614113 2.028 -0.727026 0.395232 0.561449 255 0 0 255
-0.150091 0.616547 2.036 -0.420881 0.827192 0.372306 255 0 0 255
-0.144831 0.61777 2.04 0.165257 0.935987 0.310834 255 0 0 255
-0.13914 0.617175 2.038 0.222754 0.887901 0.402509 255 0 0 255
-0.133395 0.616276 2.035 0.388776 0.837884 0.38315 255 0 0 255
-0.127414 0.614166 2.028 0.383875 0.801407 0.45868 255 0 0 255
-0.121771 0.61357 2.026 0.144195 0.848799 0.508672 255 0 0 255
-0.116368 0.614185 2.028 0.154106 0.87764 0.453871 255 0 0 255
-0.110681 0.613285 2.025 0.340417 0.784031 0.519049 255 0 0 255
-0.104959 0.612082 2.021 0.398176 0.615747 0.679935 255 0 0 255
-0.099356 0.611484 2.019 0.116258 0.641135 0.758571 255 0 0 255
-0.093857 0.611491 2.019 -0.270585 0.569454 0.776213 255 0 0 255
-0.088489 0.612407 2.022 -0.416788 0.585396 0.695413 255 0 0 255
-0.083063 0.61302 2.024 -0.412015 0.690461 0.594565 255 0 0 255
-0.077665 0.613934 2.027 -0.375874 0.765041 0.522905 255 0 0 255
-0.072179 0.614243 2.028 -0.417244 0.755551 0.505025 255 0 0 255
-0.066786 0.61546 2.032 -0.602808 0.629893 0.489753 255 0 0 255
-0.061401 0.61698 2.037 -0.601863 0.654311 0.457862 255 0 0 255
-0.056016 0.618801 2.043 -0.522729 0.769483 0.366946 255 0 0 255
-0.050574 0.62032 2.048 -0.491366 0.801086 0.34179 255 0 0 255
-0.045083 0.621535 2.052 -0.4753 0.822529 0.312309 255 0 0 255
-0.039608 0.623356 2.058 -0.319367 0.926955 0.196872 255 0 0 255
-0.156333 0.613737 2.045 -0.208059 0.958874 0.19306 255 0 0 255
-0.15106 0.614949 2.049 0.128016 0.943226 0.306492 255 0 0 255
-0.145694 0.61586 2.052 0.228271 0.893446 0.386843 255 0 0 255
-0.139766 0.614371 2.047 0.409074 0.835799 0.366195 255 0 0 255
-0.133864 0.61288 2.042 0.382509 0.794248 0.472077 255 0 0 255
-0.128052 0.61169 2.038 0.286648 0.885999 0.36447 255 0 0 255
-0.122321 0.610799 2.035 0.221054 0.902039 0.370756 255 0 0 255
-0.116722 0.610508 2.034 0.269344 0.876836 0.398262 255 0 0 255
-0.110909 0.609016 2.029 0.400475 0.764766 0.504731 255 0 0 255
-0.105174 0.607824 2.025 0.358673 0.714769 0.600382 255 0 0 255
-0.09956 0.607231 2.023 0.187777 0.745844 0.639106 255 0 0 255
-0.09405 0.607239 2.023 -0.113915 0.733525 0.670049 255 0 0 255
-0.088671 0.608146 2.026 -0.398474 0.748534 0.530014 255 0 0 255
-0.083316 0.609354 2.03 -0.334576 0.864901 0.374173 255 0 0 255
-0.077939 0.610561 2.034 -0.292702 0.869701 0.397423 255 0 0 255
-0.072469 0.611167 2.036 -0.322074 0.866979 0.380285 255 0 0 255
-0.067054 0.612373 2.04 -0.453496 0.800141 0.392576 255 0 0 255
-0.061647 0.613879 2.045 -0.566477 0.777355 0.273537 255 0 0 255
-0.056295 0.616286 2.053 -0.500322 0.836871 0.222092 255 0 0 255
-0.0508 0.617491 2.057 -0.460409 0.859491 0.222034 255 0 0 255
-0.045306 0.618995 2.062 -0.480697 0.863049 0.155169 255 0 0 255
-0.040053 0.624702 2.081 -0.616899 0.786982 0.00977667 255 0 0 255
-0.035193 0.639415 2.13 -0.909485 0.414819 0.0276019 255 0 0 255
-0.029831 0.649024 2.162 -0.406619 0.281581 0.869122 255 0 0 255
-0.159097 0.618919 2.081 0.604181 0.793791 0.0697163 255 0 0 255
-0.153284 0.618336 2.079 0.604181 0.793791 0.0697163 255 0 0 255
-0.146842 0.615076 2.068 0.566393 0.822675 0.0490359 255 0 0 255
-0.140391 0.611517 2.056 0.528416 0.824553 0.202208 255 0 0 255
-0.134267 0.609149 2.048 0.519225 0.706953 0.480231 255 0 0 255
-0.128501 0.608266 2.045 0.373282 0.700977 0.607694 255 0 0 255
-0.122811 0.607681 2.043 0.335503 0.718049 0.609789 255 0 0 255
-0.11719 0.607393 2.042 0.419741 0.642846 0.640755 255 0 0 255
-0.111354 0.605915 2.037 0.561376 0.608428 0.560957 255 0 0 255
-0.105546 0.604436 2.032 0.350609 0.783977 0.512302 255 0 0 255
-0.099814 0.603254 2.028 0.120911 0.833306 0.539428 255 0 0 255
-0.094336 0.603559 2.029 -0.171028 0.8928 0.416723 255 0 0 255
-0.089072 0.605351 2.035 -0.542924 0.71888 0.434103 255 0 0 255
-0.083692 0.606548 2.039 -0.37233 0.776619 0.508167 255 0 0 255
-0.078214 0.607149 2.041 -0.36421 0.822609 0.436653 255 0 0 255
-0.072689 0.607453 2.042 -0.384602 0.815578 0.432336 255 0 0 255
-0.067322 0.609243 2.048 -0.503792 0.810183 0.299661 255 0 0 255
-0.061953 0.611331 2.055 -0.565993 0.803758 0.183372 255 0 0 255
-0.056546 0.613418 2.062 -0.531514 0.833023 0.15351 255 0 0 255
-0.051076 0.615207 2.068 -0.480649 0.868256 0.122918 255 0 0 255
-0.045683 0.618483 2.079 -0.602267 0.797995 0.0218671 255 0 0 255
-0.040673 0.628601 2.113 0.834334 -0.551131 0.0118722 255 0 0 255
-0.035592 0.640802 2.154 -0.730197 -0.0104361 0.683157 255 0 0 255
-0.029875 0.644077 2.165 -0.406619 0.281581 0.869122 255 0 0 255
-0.168418 0.62684 2.127 -0.296441 0.857136 0.421236 255 0 0 255
-0.162321 0.625674 2.123 0.441796 0.72025 0.534842 255 0 0 255
-0.156023 0.623623 2.116 0.482062 0.812905 0.326805 255 0 0 255
-0.148486 0.616267 2.091 -0.634551 -0.772721 0.0157421 255 0 0 255
-0.141221 0.6095 2.068 0.677292 0.730397 0.088288 255 0 0 255
-0.134671 0.605384 2.054 0.624066 0.69936 0.348478 255 0 0 255
-0.128763 0.60392 2.049 0.458621 0.68856 0.56174 255 0 0 255
-0.123001 0.603046 2.046 0.485464 0.557251 0.673644 255 0 0 255
-0.117256 0.602171 2.043 0.466642 0.507787 0.724153 255 0 0 255
-0.111527 0.601296 2.04 0.554121 0.497958 0.667074 255 0 0 255
-0.105762 0.600125 2.036 0.319534 0.717697 0.618716 255 0 0 255
-0.100167 0.599839 2.035 -0.0821023 0.819449 0.567241 255 0 0 255
-0.094669 0.600141 2.036 -0.243968 0.797975 0.551103 255 0 0 255
-0.089298 0.601328 2.04 -0.474206 0.579549 0.662761 255 0 0 255
-0.083863 0.602219 2.043 -0.515891 0.608966 0.602509 255 0 0 255
-0.078411 0.603109 2.046 -0.505351 0.678831 0.532738 255 0 0 255
-0.072979 0.604295 2.05 -0.522371 0.73535 0.431727 255 0 0 255
-0.067624 0.606364 2.057 -0.625032 0.752996 0.205747 255 0 0 255
-0.06232 0.609317 2.067 -0.612758 0.779028 0.132828 255 0 0 255
-0.056907 0.61168 2.075 -0.578848 0.808734 0.104327 255 0 0 255
-0.051401 0.613453 2.081 -0.592608 0.800701 0.0877149 255 0 0 255
-0.046126 0.618763 2.099 0.727332 -0.685897 0.0230933 255 0 0 255
-0.041157 0.630263 2.138 -0.931615 0.352466 0.0886688 255 0 0 255
-0.035727 0.637341 2.162 -0.576086 0.387041 0.719947 255 0 0 255
-0.029891 0.638523 2.166 0.199321 0.186594 0.962005 255 0 0 255
-0.023977 0.638231 2.165 0.387195 0.0801402 0.918509 255 0 0 255
-0.168827 0.622553 2.132 -0.647861 0.545013 0.5322 255 0 0 255
-0.163251 0.623442 2.135 -0.351415 0.73317 0.582212 255 0 0 255
-0.157437 0.623454 2.135 -0.376071 0.772798 0.511228 255 0 0 255
-0.150486 0.618794 2.119 0.586155 0.809421 0.0354896 255 0 0 255
-0.142666 0.610044 2.089 0.609172 0.792887 0.0154688 255 0 0 255
-0.135468 0.603338 2.066 0.646833 0.753546 0.117371 255 0 0 255
-0.129213 0.600429 2.056 0.592297 0.739219 0.320531 255 0 0 255
-0.123251 0.598686 2.05 0.550681 0.643852 0.53123 255 0 0 255
-0.117438 0.597527 2.046 0.448525 0.522323 0.725261 255 0 0 255
-0.111755 0.596952 2.044 0.489606 0.549427 0.677064 255 0 0 255
-0.105978 0.595793 2.04 0.282502 0.672651 0.68391 255 0 0 255
-0.100421 0.595801 2.04 -0.0844622 0.708627 0.70051 255 0 0 255
-0.094816 0.595517 2.039 -0.221268 0.685035 0.694095 255 0 0 255
-0.089436 0.596692 2.043 -0.444768 0.590603 0.673327 255 0 0 255
-0.084034 0.597867 2.047 -0.583041 0.579013 0.569919 255 0 0 255
-0.078648 0.599334 2.052 -0.583163 0.639146 0.501411 255 0 0 255
-0.073199 0.600509 2.056 -0.605992 0.743791 0.282042 255 0 0 255
-0.067958 0.603727 2.067 -0.66458 0.738364 0.114685 255 0 0 255
-0.062687 0.607237 2.079 -0.604373 0.789785 0.104753 255 0 0 255
-0.057268 0.609871 2.088 -0.593249 0.802334 0.0656988 255 0 0 255
-0.051825 0.612796 2.098 -0.614065 0.788598 0.0322152 255 0 0 255
-0.046569 0.618934 2.119 -0.794986 0.599395 0.0933951 255 0 0 255
-0.041372 0.6277 2.149 -0.946421 0.208415 0.246678 255 0 0 255
-0.035813 0.632961 2.167 -0.181188 0.168933 0.968831 255 0 0 255
-0.02988 0.63238 2.165 0.400475 0.144002 0.904922 255 0 0 255
-0.023935 0.631213 2.161 0.656775 0.0621964 0.751517 255 0 0 255
-0.184682 0.631229 2.182 0.559443 -0.58869 0.583496 255 0 0 255
-0.17612 0.621986 2.15 0.69867 0.373806 0.610025 255 0 0 255
-0.16884 0.616792 2.132 -0.477172 0.372138 0.796128 255 0 0 255
-0.163416 0.618251 2.137 -0.703916 0.273746 0.655413 255 0 0 255
-0.158112 0.620288 2.144 -0.415422 0.532975 0.737131 255 0 0 255
-0.151918 0.618854 2.139 0.416497 0.797268 0.436913 255 0 0 255
-0.144726 0.613079 2.119 0.686254 0.725041 0.0580687 255 0 0 255
-0.136987 0.60441 2.089 -0.621181 -0.782567 0.0415068 255 0 0 255
-0.13004 0.598634 2.069 0.587704 0.79874 0.128912 255 0 0 255
-0.123802 0.595751 2.059 0.537746 0.803976 0.253876 255 0 0 255
-0.117734 0.593446 2.051 0.45511 0.778462 0.432287 255 0 0 255
-0.111982 0.592587 2.048 0.456599 0.754257 0.471819 255 0 0 255
-0.106195 0.591438 2.044 0.212818 0.842065 0.495616 255 0 0 255
-0.100626 0.591446 2.044 -0.0141972 0.911378 0.411326 255 0 0 255
-0.095056 0.591454 2.044 -0.168334 0.861555 0.478944 255 0 0 255
-0.089618 0.59233 2.047 -0.385989 0.7853 0.484064 255 0 0 255
-0.084164 0.593205 2.05 -0.561909 0.723364 0.401253 255 0 0 255
-0.078846 0.595237 2.057 -0.584756 0.771071 0.252013 255 0 0 255
-0.073596 0.598137 2.067 -0.639694 0.755759 0.140067 255 0 0 255
-0.068325 0.601326 2.078 -0.658028 0.748582 0.0813921 255 0 0 255
-0.063024 0.604803 2.09 -0.607258 0.791594 0.0679497 255 0 0 255
-0.057657 0.608281 2.102 -0.606716 0.793887 0.0404843 255 0 0 255
-0.052225 0.611758 2.114 -0.677494 0.721897 0.14095 255 0 0 255
-0.046837 0.616681 2.131 -0.921167 0.330249 0.205881 255 0 0 255
-0.041452 0.623052 2.153 -0.940087 0.163229 0.299321 255 0 0 255
-0.035832 0.627396 2.168 -0.393536 0.0825143 0.915599 255 0 0 255
-0.029937 0.627688 2.169 0.498566 0.0531215 0.865223 255 0 0 255
-0.023926 0.625085 2.16 0.655973 -0.198295 0.728271 255 0 0 255
-0.017997 0.62364 2.155 0.594396 0.0870329 0.799449 255 0 0 255
-0.190463 0.624744 2.18 0.499842 -0.625196 0.599406 255 0 0 255
-0.183173 0.620173 2.164 0.736525 0.106915 0.667907 255 0 0 255
-0.175969 0.615602 2.148 0.827427 0.0927199 0.553866 255 0 0 255
-0.169011 0.611603 2.134 -0.400523 0.36906 0.838675 255 0 0 255
-0.163582 0.613049 2.139 -0.718868 0.239209 0.652693 255 0 0 255
-0.158272 0.615067 2.146 -0.602094 0.213263 0.769417 255 0 0 255
-0.152498 0.615366 2.147 0.452841 0.536928 0.711789 255 0 0 255
-0.145967 0.612512 2.137 0.642912 0.537955 0.545223 255 0 0 255
-0.138703 0.606217 2.115 0.643351 0.762275 0.0709667 255 0 0 255
-0.131747 0.600782 2.096 -0.552796 -0.833045 0.0212693 255 0 0 255
-0.125015 0.595919 2.079 -0.448907 -0.892957 0.0333311 255 0 0 255
-0.118662 0.592489 2.067 0.408764 0.912635 0.00309162 255 0 0 255
-0.112593 0.590205 2.059 0.395089 0.894284 0.210145 255 0 0 255
-0.106723 0.588781 2.054 0.202538 0.926767 0.316355 255 0 0 255
-0.101126 0.588789 2.054 0.0340708 0.977557 0.207896 255 0 0 255
-0.095529 0.588797 2.054 -0.20368 0.941772 0.267544 255 0 0 255
-0.090019 0.589378 2.056 -0.354363 0.884466 0.303557 255 0 0 255
-0.084663 0.591105 2.062 -0.512308 0.834774 0.201725 255 0 0 255
-0.079312 0.593118 2.069 -0.501644 0.865037 0.00795536 255 0 0 255
-0.074136 0.596851 2.082 -0.547126 0.837046 0.00267694 255 0 0 255
-0.068857 0.600297 2.094 -0.556582 0.830718 0.0111174 255 0 0 255
-0.063572 0.604316 2.108 -0.544431 0.831263 0.112232 255 0 0 255
-0.058073 0.606901 2.117 -0.612137 0.724648 0.316501 255 0 0 255
-0.05255 0.609772 2.127 -0.835517 0.500103 0.227612 255 0 0 255
-0.047039 0.613503 2.14 -0.928097 0.177671 0.327213 255 0 0 255
-0.041475 0.617521 2.154 -0.905398 0.0674826 0.419167 255 0 0 255
-0.035786 0.620677 2.165 -0.740938 -0.0335693 0.670734 255 0 0 255
-0.029926 0.62154 2.168 0.515865 -0.0547213 0.854921 255 0 0 255
-0.023917 0.618962 2.159 0.701717 -0.129632 0.700563 255 0 0 255
-0.017965 0.61667 2.151 0.0785879 -0.70019 0.709618 255 0 0 255
-0.01209 0.616098 2.149 -0.183294 -0.736143 0.651534 255 0 0 255
-0.203091 0.621092 2.188 0.403088 -0.670781 0.622554 255 0 0 255
-0.195873 0.617133 2.174 0.421221 -0.57383 0.702348 255 0 0 255
-0.189604 0.616013 2.17 0.647963 -0.341606 0.680771 255 0 0 255
-0.182933 0.613472 2.161 0.736735 0.0618016 0.673352 255 0 0 255
-0.176229 0.610647 2.151 0.841399 0.27867 0.463023 255 0 0 255
-0.16942 0.607254 2.139 -0.374187 0.406874 0.833329 255 0 0 255
-0.163518 0.606983 2.138 -0.410111 0.176317 0.89483 255 0 0 255
-0.158211 0.608983 2.145 -0.505539 -0.114818 0.85513 255 0 0 255
-0.152581 0.609847 2.148 -0.371235 -0.0309518 0.928023 255 0 0 255
-0.146525 0.609007 2.145 0.496999 0.506794 0.70438 255 0 0 255
-0.139829 0.605327 2.132 0.714293 0.651394 0.255873 255 0 0 255
-0.133266 0.601931 2.12 0.605808 0.771895 0.192805 255 0 0 255
-0.126889 0.599102 2.11 0.435631 0.897689 0.0661771 255 0 0 255
-0.120336 0.595137 2.096 -0.365773 -0.927589 0.0760922 255 0 0 255
-0.114024 0.592023 2.085 -0.222862 -0.971988 0.074648 255 0 0 255
-0.10803 0.590328 2.079 -0.097921 -0.988917 0.111598 255 0 0 255
-0.102365 0.590337 2.079 -0.0599233 -0.996702 0.0547209 255 0 0 255
-0.096793 0.590913 2.081 0.117833 -0.988239 0.0974644 255 0 0 255
-0.091121 0.59092 2.081 0.117833 -0.988239 0.0974644 255 0 0 255
-0.085696 0.592631 2.087 0.298431 -0.953565 0.0406516 255 0 0 255
-0.080277 0.594626 2.094 0.363342 -0.93046 0.0471871 255 0 0 255
-0.074997 0.59804 2.106 -0.363607 0.931145 0.0275622 255 0 0 255
-0.069487 0.600034 2.113 -0.411985 0.885196 0.216093 255 0 0 255
-0.063909 0.601743 2.119 -0.377345 0.825545 0.419626 255 0 0 255
-0.058215 0.6026 2.122 -0.581899 0.565916 0.584065 255 0 0 255
-0.052629 0.604876 2.13 -0.742911 0.366361 0.560234 255 0 0 255
-0.047086 0.608288 2.142 -0.916534 0.192273 0.350708 255 0 0 255
-0.041517 0.612267 2.156 -0.787416 -0.0218657 0.616034 255 0 0 255
-0.035789 0.614827 2.165 -0.72534 -0.149649 0.671928 255 0 0 255
-0.029928 0.615681 2.168 0.475911 -0.278312 0.834297 255 0 0 255
-0.023896 0.612559 2.157 0.744438 -0.302733 0.595117 255 0 0 255
-0.017908 0.608869 2.144 0.386051 -0.652101 0.652479 255 0 0 255
-0.012052 0.608303 2.142 -0.493197 -0.581833 0.646705 255 0 0 255
-0.006268 0.613699 2.161 -0.572818 -0.781318 0.247834 255 0 0 255
-0.214431 0.613459 2.182 0.28727 -0.680261 0.67433 255 0 0 255
-0.208013 0.612069 2.177 0.298596 -0.694706 0.654388 255 0 0 255
-0.2019 0.611522 2.175 0.275356 -0.454131 0.847316 255 0 0 255
-0.195617 0.610413 2.171 0.273082 -0.409958 0.870265 255 0 0 255
-0.189531 0.609865 2.169 0.580465 -0.118606 0.805601 255 0 0 255
-0.183201 0.608474 2.164 0.615635 -0.0495209 0.786474 255 0 0 255
-0.176816 0.606801 2.158 0.764433 0.236239 0.599861 255 0 0 255
-0.169988 0.60344 2.146 0.673298 0.221743 0.705337 255 0 0 255
-0.163531 0.601204 2.138 0.0287895 -0.12703 0.991481 255 0 0 255
-0.158002 0.602341 2.142 -0.596699 -0.206637 0.775404 255 0 0 255
-0.152593 0.604041 2.148 -0.405139 -0.157624 0.900565 255 0 0 255
-0.146878 0.604615 2.15 0.292053 0.0390933 0.955603 255 0 0 255
-0.140496 0.602377 2.142 0.752464 0.472304 0.45905 255 0 0 255
-0.134031 0.599575 2.132 0.661367 0.654287 0.366747 255 0 0 255
-0.127801 0.597617 2.125 0.506464 0.799638 0.322605 255 0 0 255
-0.121609 0.595659 2.118 0.364203 0.906242 0.214666 255 0 0 255
-0.115509 0.593981 2.112 0.180614 0.977476 0.109174 255 0 0 255
-0.109598 0.593146 2.109 0.0357732 0.994271 0.10073 255 0 0 255
-0.1039 0.593436 2.11 -0.0588648 0.97034 0.234466 255 0 0 255
-0.098196 0.593726 2.111 -0.0687818 0.962888 0.260989 255 0 0 255
-0.092486 0.594015 2.112 -0.211691 0.923883 0.318791 255 0 0 255
-0.086853 0.594866 2.115 -0.215603 0.945712 0.243194 255 0 0 255
-0.081165 0.595435 2.117 -0.213251 0.950429 0.226296 255 0 0 255
-0.075537 0.596567 2.121 -0.264741 0.80345 0.533274 255 0 0 255
-0.069822 0.597135 2.123 -0.361345 0.728926 0.581461 255 0 0 255
-0.064155 0.598266 2.127 -0.299246 0.615963 0.728725 255 0 0 255
-0.058357 0.598271 2.127 -0.527236 0.529231 0.664783 255 0 0 255
-0.052707 0.599963 2.133 -0.786048 0.368112 0.49661 255 0 0 255
-0.04709 0.602499 2.142 -0.872359 0.200895 0.445681 255 0 0 255
-0.041501 0.606159 2.155 -0.611526 0.000920297 0.791224 255 0 0 255
-0.035759 0.608412 2.163 -0.587065 -0.251036 0.769633 255 0 0 255
-0.029862 0.608415 2.163 0.518185 -0.23033 0.82367 255 0 0 255
-0.023821 0.604761 2.15 0.793824 -0.340457 0.503918 255 0 0 255
-0.017859 0.601387 2.138 0.601424 -0.298753 0.74097 255 0 0 255
-0.01203 0.601388 2.138 -0.354423 -0.435155 0.827662 255 0 0 255
-0.006248 0.60589 2.154 -0.768032 -0.258911 0.585741 255 0 0 255
-0.000378 0.610672 2.171 -0.519352 -0.64648 0.558872 255 0 0 255
0.005556 0.612359 2.177 -0.40613 -0.709688 0.575675 255 0 0 255
0.011528 0.614327 2.184 -0.250522 -0.754304 0.606848 255 0 0 255
-0.233651 0.611128 2.195 0.345356 -0.761182 0.548937 255 0 0 255
-0.226328 0.607526 2.182 0.375014 -0.696755 0.611472 255 0 0 255
-0.219782 0.605872 2.176 0.316295 -0.610655 0.725987 255 0 0 255
-0.213563 0.605053 2.173 0.25701 -0.573398 0.777921 255 0 0 255
-0.207264 0.603955 2.169 0.171154 -0.486973 0.856483 255 0 0 255
-0.201451 0.604249 2.17 0.193195 -0.471974 0.860184 255 0 0 255
-0.195452 0.603986 2.169 0.189292 -0.412863 0.890905 255 0 0 255
-0.189371 0.603444 2.167 0.336908 -0.318888 0.885891 255 0 0 255
-0.183131 0.602345 2.163 0.509692 -0.0344941 0.859665 255 0 0 255
-0.177076 0.601802 2.161 0.73119 0.182519 0.657304 255 0 0 255
-0.170397 0.599031 2.151 0.842908 0.120318 0.524433 255 0 0 255
-0.16362 0.595702 2.139 0.0662509 -0.200531 0.977445 255 0 0 255
-0.157719 0.595436 2.138 -0.263993 -0.0978713 0.959546 255 0 0 255
-0.15225 0.596841 2.143 -0.452321 -0.419368 0.787107 255 0 0 255
-0.146822 0.598524 2.149 0.227234 0.109239 0.967694 255 0 0 255
-0.140704 0.597421 2.145 0.468373 0.293651 0.833304 255 0 0 255
-0.134482 0.595761 2.139 0.70339 0.481162 0.523188 255 0 0 255
-0.128233 0.593822 2.132 0.639301 0.573587 0.512144 255 0 0 255
-0.122136 0.59244 2.127 0.311178 0.820787 0.479039 255 0 0 255
-0.11623 0.591892 2.125 0.146821 0.765385 0.626601 255 0 0 255
-0.110439 0.591902 2.125 0.157535 0.580639 0.798775 255 0 0 255
-0.104598 0.591632 2.124 0.049195 0.428657 0.902127 255 0 0 255
-0.098855 0.591919 2.125 -0.073649 0.228699 0.970707 255 0 0 255
-0.093063 0.591927 2.125 -0.0914302 0.666963 0.73946 255 0 0 255
-0.087353 0.592491 2.127 -0.0241756 0.578967 0.814992 255 0 0 255
-0.081555 0.592498 2.127 -0.0098355 0.615333 0.788206 255 0 0 255
-0.075722 0.592226 2.126 -0.15911 0.593978 0.78859 255 0 0 255
-0.069926 0.592232 2.126 -0.369304 0.463014 0.80575 255 0 0 255
-0.064191 0.592795 2.128 -0.28768 0.567309 0.771623 255 0 0 255
-0.058389 0.5928 2.128 -0.460669 0.593806 0.659681 255 0 0 255
-0.052761 0.594754 2.135 -0.770892 0.385592 0.506995 255 0 0 255
-0.047116 0.596987 2.143 -0.821227 0.249388 0.513218 255 0 0 255
-0.041505 0.600334 2.155 -0.537149 -0.230034 0.811514 255 0 0 255
-0.035762 0.602565 2.163 -0.411241 -0.325501 0.851428 255 0 0 255
-0.029837 0.602011 2.161 0.318717 -0.323246 0.891028 255 0 0 255
-0.02379 0.598113 2.147 0.749834 -0.295918 0.591761 255 0 0 255
-0.017827 0.594493 2.134 0.126305 -0.149785 0.980618 255 0 0 255
-0.012026 0.59533 2.137 -0.639441 0.00311634 0.768834 255 0 0 255
-0.006234 0.598674 2.149 -0.866782 -0.110268 0.486343 255 0 0 255
-0.000377 0.602017 2.161 -0.588387 -0.505713 0.630916 255 0 0 255
0.005523 0.602853 2.164 -0.392726 -0.629521 0.670425 255 0 0 255
0.011455 0.604524 2.17 -0.215162 -0.702022 0.678875 255 0 0 255
0.01738 0.604801 2.171 -0.204473 -0.763064 0.613127 255 0 0 255
0.023342 0.605914 2.175 -0.263457 -0.785621 0.559812 255 0 0 255
-0.105051 0.698605 2.09064 0.114854 -0.0260197 -0.993042 0 255 0 255
-0.244722 0.602951 2.187 0.313442 -0.74676 0.586604 255 0 0 255
-0.238115 0.601314 2.181 0.281153 -0.748513 0.600567 255 0 0 255
-0.231752 0.600229 2.177 0.249305 -0.617091 0.746355 255 0 0 255
-0.225515 0.599419 2.174 0.287909 -0.543104 0.788763 255 0 0 255
-0.219293 0.598609 2.171 0.214969 -0.448693 0.867446 255 0 0 255
-0.213284 0.59835 2.17 0.219249 -0.40439 0.887918 255 0 0 255
-0.207185 0.597814 2.168 0.196018 -0.370547 0.907894 255 0 0 255
-0.201281 0.59783 2.168 0.183434 -0.408507 0.894133 255 0 0 255
-0.195107 0.597018 2.165 0.2183 -0.456275 0.862646 255 0 0 255
-0.189123 0.596757 2.164 0.241346 -0.451283 0.859125 255 0 0 255
-0.182976 0.595945 2.161 0.26485 -0.462893 0.845922 255 0 0 255
-0.177089 0.595959 2.161 0.533033 -0.272088 0.801152 255 0 0 255
-0.170569 0.593766 2.153 0.743093 -0.130451 0.656349 255 0 0 255
-0.163633 0.589918 2.139 -0.136867 -0.187689 0.972646 255 0 0 255
-0.157584 0.589104 2.136 0.0366965 -0.310316 0.949925 255 0 0 255
-0.152049 0.590219 2.14 -0.55873 -0.368975 0.742751 255 0 0 255
-0.146765 0.592438 2.148 -0.575896 -0.168531 0.799963 255 0 0 255
-0.140978 0.592725 2.149 0.294045 0.192626 0.93618 255 0 0 255
-0.134745 0.591081 2.143 0.646818 0.366801 0.668644 255 0 0 255
-0.128544 0.589437 2.137 0.661622 0.467502 0.586258 255 0 0 255
-0.122433 0.588068 2.132 0.497428 0.54483 0.675074 255 0 0 255
-0.116568 0.587802 2.131 0.219167 0.600798 0.76877 255 0 0 255
-0.110656 0.58726 2.129 0.246691 0.572376 0.782003 255 0 0 255
-0.104705 0.586441 2.126 0.141562 0.523733 0.840038 255 0 0 255
-0.09891 0.586449 2.126 -0.0643927 0.365379 0.928629 255 0 0 255
-0.093159 0.586733 2.127 -0.0939771 0.286679 0.953406 255 0 0 255
-0.087443 0.587292 2.129 -0.153958 0.175601 0.972348 255 0 0 255
-0.081639 0.587299 2.129 0.00131379 0.111266 0.99379 255 0 0 255
-0.075799 0.58703 2.128 -0.0609893 0.196357 0.978634 255 0 0 255
-0.070031 0.587312 2.129 -0.375424 0.377125 0.84666 255 0 0 255
-0.064347 0.588421 2.133 -0.440077 0.517466 0.733867 255 0 0 255
-0.058586 0.588978 2.135 -0.581093 0.593783 0.556554 255 0 0 255
-0.052938 0.590913 2.142 -0.629066 0.510925 0.58586 255 0 0 255
-0.047186 0.592021 2.146 -0.664033 0.130116 0.736295 255 0 0 255
-0.041508 0.594508 2.155 -0.672213 -0.306157 0.674091 255 0 0 255
-0.035715 0.59589 2.16 -0.441247 -0.346197 0.827918 255 0 0 255
-0.029784 0.595065 2.157 0.50368 -0.476855 0.720358 255 0 0 255
-0.023758 0.591481 2.144 0.591763 -0.147476 0.792507 255 0 0 255
-0.017829 0.588724 2.134 -0.234884 -0.244963 0.94065 255 0 0 255
-0.012043 0.590381 2.14 0.0546714 0.0117942 0.998435 255 0 0 255
-0.00624 0.593416 2.151 -0.694255 -0.19562 0.692635 255 0 0 255
-0.000376 0.595348 2.158 -0.529354 -0.327336 0.78271 255 0 0 255
0.005513 0.595899 2.16 -0.163771 -0.528809 0.832791 255 0 0 255
0.011414 0.59645 2.162 -0.163952 -0.623073 0.764787 255 0 0 255
0.017317 0.596725 2.163 -0.125055 -0.687714 0.71513 255 0 0 255
0.023237 0.597275 2.165 -0.182683 -0.719044 0.670524 255 0 0 255
0.029167 0.597824 2.167 -0.228313 -0.728208 0.646209 255 0 0 255
0.035156 0.599201 2.172 -0.269795 -0.773603 0.573366 255 0 0 255
0.041249 0.601681 2.181 -0.280255 -0.787208 0.549327 255 0 0 255
-0.112821 0.686477 2.0852 0.993397 -0.113396 -0.0174422 0 255 0 255
-0.113384 0.688887 2.09806 -0.945467 0.123095 -0.301563 0 255 0 255
-0.256292 0.596179 2.184 0.31656 -0.712019 0.626753 255 0 0 255
-0.24989 0.595106 2.18 0.271375 -0.702296 0.65813 255 0 0 255
-0.243285 0.593487 2.174 0.252405 -0.644774 0.721497 255 0 0 255
-0.23715 0.592959 2.172 0.184745 -0.618215 0.763989 255 0 0 255
-0.231131 0.592703 2.171 0.154327 -0.561905 0.812678 255 0 0 255
-0.225117 0.592448 2.17 0.174581 -0.515088 0.83917 255 0 0 255
-0.219007 0.591918 2.168 0.175001 -0.435345 0.883091 255 0 0 255
-0.213006 0.591662 2.167 0.186917 -0.364844 0.912113 255 0 0 255
-0.206914 0.591132 2.165 0.22355 -0.435571 0.871954 255 0 0 255
-0.200925 0.590875 2.164 0.228112 -0.474226 0.850338 255 0 0 255
-0.194762 0.590071 2.161 0.240591 -0.555415 0.796009 255 0 0 255
-0.188701 0.58954 2.159 0.211463 -0.544167 0.81189 255 0 0 255
-0.182482 0.588462 2.155 0.195398 -0.534007 0.822591 255 0 0 255
-0.176612 0.588476 2.155 0.311937 -0.44062 0.841754 255 0 0 255
-0.170424 0.587398 2.151 0.370062 -0.193203 0.908695 255 0 0 255
-0.16357 0.583861 2.138 0.37543 -0.185129 0.908174 255 0 0 255
-0.157376 0.582508 2.133 0.246107 -0.300736 0.921406 255 0 0 255
-0.151706 0.583067 2.135 -0.469706 -0.436721 0.767236 255 0 0 255
-0.146504 0.585537 2.144 -0.594031 -0.283067 0.752994 255 0 0 255
-0.140989 0.586914 2.149 -0.0932472 0.00930878 0.9956 255 0 0 255
-0.135007 0.586379 2.147 0.350361 0.245151 0.903963 255 0 0 255
-0.128795 0.584751 2.141 0.653969 0.348439 0.671501 255 0 0 255
-0.122672 0.583396 2.136 0.538794 0.377574 0.753086 255 0 0 255
-0.116686 0.582586 2.133 0.285827 0.416086 0.863236 255 0 0 255
-0.110873 0.582595 2.133 0.27791 0.485367 0.828966 255 0 0 255
-0.104911 0.581785 2.13 0.218762 0.578654 0.785686 255 0 0 255
-0.099058 0.58152 2.129 0.120682 0.524932 0.842545 255 0 0 255
-0.093166 0.580982 2.127 0.0695092 0.424022 0.90298 255 0 0 255
-0.087368 0.580989 2.127 0.00399862 0.185918 0.982557 255 0 0 255
-0.081607 0.581269 2.128 0.0321133 0.0911785 0.995317 255 0 0 255
-0.075841 0.581549 2.129 -0.213857 0.204921 0.95513 255 0 0 255
-0.070102 0.582101 2.131 -0.553444 0.240084 0.797533 255 0 0 255
-0.064413 0.5832 2.135 -0.627414 0.388227 0.675005 255 0 0 255
-0.058701 0.584298 2.139 -0.637967 0.43385 0.636217 255 0 0 255
-0.053017 0.585941 2.145 -0.553338 0.429294 0.713809 255 0 0 255
-0.04719 0.586219 2.146 -0.359071 0.310477 0.880155 255 0 0 255
-0.041435 0.587588 2.151 0.00255776 -0.272498 0.962153 255 0 0 255
-0.035602 0.588138 2.153 -0.137862 -0.574688 0.806677 255 0 0 255
-0.029662 0.586775 2.148 0.527332 -0.602282 0.599314 255 0 0 255
-0.023672 0.583499 2.136 -0.119226 -0.418098 0.900544 255 0 0 255
-0.017822 0.582681 2.133 -0.663078 -0.0672944 0.74552 255 0 0 255
-0.012045 0.584594 2.14 -0.746012 0.045556 0.664372 255 0 0 255
-0.006241 0.5876 2.151 -0.713156 -0.166068 0.681051 255 0 0 255
-0.000375 0.58842 2.154 -0.311333 -0.384513 0.869035 255 0 0 255
0.005504 0.588966 2.156 -0.0954743 -0.507318 0.856454 255 0 0 255
0.011383 0.588965 2.156 -0.0247388 -0.545648 0.837649 255 0 0 255
0.017263 0.588964 2.156 -0.0278677 -0.608696 0.792914 255 0 0 255
0.023142 0.588962 2.156 -0.116442 -0.645097 0.755176 255 0 0 255
0.029048 0.589507 2.158 -0.155038 -0.666892 0.728847 255 0 0 255
0.034981 0.590323 2.161 -0.193871 -0.704058 0.683167 255 0 0 255
0.04095 0.591413 2.165 -0.203115 -0.72188 0.661539 255 0 0 255
0.046853 0.591409 2.165 -0.221515 -0.722142 0.655319 255 0 0 255
-0.09564 0.667352 2.0359 -0.906437 0.014217 -0.422101 0 255 0 255
-0.092631 0.669474 2.04622 -0.898621 0.146353 -0.413596 0 255 0 255
-0.109633 0.675766 2.08404 -0.913821 -0.0175402 -0.405738 0 255 0 255
-0.093017 0.679061 2.09661 -0.310447 -0.371283 -0.875084 0 255 0 255
-0.26832 0.590503 2.185 0.431593 -0.724381 0.537587 255 0 0 255
-0.261294 0.58809 2.176 0.300462 -0.709565 0.637369 255 0 0 255
-0.255138 0.587569 2.174 0.218457 -0.673293 0.706366 255 0 0 255
-0.248992 0.587047 2.172 0.244016 -0.629222 0.737927 255 0 0 255
-0.242632 0.585984 2.168 0.191011 -0.582979 0.789715 255 0 0 255
-0.236622 0.585732 2.167 0.120852 -0.580299 0.805387 255 0 0 255
-0.230616 0.585479 2.166 0.0775964 -0.575313 0.814244 255 0 0 255
-0.224615 0.585227 2.165 0.0559181 -0.537683 0.841291 255 0 0 255
-0.218721 0.585244 2.165 0.0597004 -0.489452 0.869984 255 0 0 255
-0.212826 0.58526 2.165 0.127885 -0.424169 0.896508 255 0 0 255
-0.206739 0.584736 2.163 0.263156 -0.419906 0.868578 255 0 0 255
-0.200384 0.5834 2.158 0.3291 -0.51927 0.788702 255 0 0 255
-0.194236 0.582604 2.155 0.251195 -0.549453 0.79687 255 0 0 255
-0.188192 0.582079 2.153 0.117389 -0.545928 0.829568 255 0 0 255
-0.182327 0.582093 2.153 0.081433 -0.473487 0.877028 255 0 0 255
-0.176462 0.582107 2.153 0.204351 -0.343222 0.916755 255 0 0 255
-0.170279 0.58104 2.149 0.577287 -0.351853 0.736844 255 0 0 255
-0.163506 0.577808 2.137 0.642121 -0.114333 0.758029 255 0 0 255
-0.157241 0.576199 2.131 0.296542 -0.32361 0.898521 255 0 0 255
-0.151576 0.576752 2.133 -0.501138 -0.410531 0.761791 255 0 0 255
-0.146447 0.579468 2.143 -0.721385 -0.183349 0.667822 255 0 0 255
-0.141001 0.581102 2.149 -0.369071 -0.0163694 0.929257 255 0 0 255
-0.135081 0.580843 2.148 0.472836 0.220601 0.853089 255 0 0 255
-0.128986 0.579772 2.144 0.635568 0.253136 0.729367 255 0 0 255
-0.122855 0.57843 2.139 0.567288 0.307858 0.763812 255 0 0 255
-0.11686 0.577629 2.136 0.285241 0.375476 0.881848 255 0 0 255
-0.110986 0.577368 2.135 0.147301 0.414365 0.898111 255 0 0 255
-0.105116 0.577106 2.134 0.0917677 0.535318 0.839651 255 0 0 255
-0.099299 0.577115 2.134 0.167347 0.622424 0.764581 255 0 0 255
-0.093393 0.576582 2.132 0.272945 0.588269 0.76121 255 0 0 255
-0.087539 0.576319 2.131 0.26059 0.375117 0.889595 255 0 0 255
-0.081652 0.575785 2.129 0.131533 0.203281 0.970245 255 0 0 255
-0.075847 0.575792 2.129 -0.320917 0.181739 0.929507 255 0 0 255
-0.070174 0.57688 2.133 -0.615589 0.23662 0.751706 255 0 0 255
-0.064539 0.578508 2.139 -0.694458 0.284444 0.660924 255 0 0 255
-0.058871 0.580136 2.145 -0.670282 0.28363 0.685766 255 0 0 255
-0.053096 0.580952 2.148 -0.452694 0.338228 0.825027 255 0 0 255
-0.047238 0.580956 2.148 -0.163641 0.155967 0.974113 255 0 0 255
-0.0414 0.58123 2.149 -0.0153204 -0.159703 0.987046 255 0 0 255
-0.035456 0.579881 2.144 0.516336 -0.481728 0.708051 255 0 0 255
-0.029499 0.57772 2.136 0.535275 -0.595519 0.599031 255 0 0 255
-0.023585 0.575559 2.128 0.0375413 -0.536869 0.84283 255 0 0 255
-0.017807 0.576372 2.131 -0.410052 -0.388232 0.825308 255 0 0 255
-0.012046 0.578807 2.14 -0.804901 -0.0809371 0.587863 255 0 0 255
-0.006235 0.581243 2.149 -0.596813 -0.280129 0.751892 255 0 0 255
-0.000375 0.581784 2.151 -0.171357 -0.416966 0.892623 255 0 0 255
0.005497 0.582324 2.153 -0.0107274 -0.495801 0.86837 255 0 0 255
0.011363 0.582053 2.152 0.0251746 -0.529568 0.847894 255 0 0 255
0.017224 0.581781 2.151 0.0637129 -0.573968 0.816395 255 0 0 255
0.02309 0.58178 2.151 -0.0719458 -0.585855 0.807216 255 0 0 255
0.028983 0.582319 2.153 -0.156522 -0.547037 0.822345 255 0 0 255
0.034871 0.582586 2.154 -0.142759 -0.569461 0.809527 255 0 0 255
0.040764 0.582854 2.155 -0.153994 -0.645636 0.747957 255 0 0 255
0.046662 0.58312 2.156 -0.15025 -0.676339 0.721104 255 0 0 255
0.052664 0.584469 2.161 -0.186744 -0.716253 0.67239 255 0 0 255
0.058665 0.585546 2.165 -0.199026 -0.732739 0.650755 255 0 0 255
-0.095656 0.659233 2.04971 -0.937102 0.262049 -0.230586 0 255 0 255
-0.109445 0.66291 2.07263 0.926187 0.0413578 -0.374788 0 255 0 255
-0.115302 0.665837 2.08949 -0.996753 -0.0640993 -0.0487298 0 255 0 255
-0.113203 0.668029 2.10036 -0.876153 -0.391233 -0.28159 0 255 0 255
-0.116424 0.670702 2.11517 0.961025 0.241976 -0.133714 0 255 0 255
-0.109012 0.672414 2.12209 0.696955 0.66943 -0.257131 0 255 0 255
-0.089724 0.675465 2.13276 0.17738 -0.955382 -0.236183 0 255 0 255
-0.281641 0.587495 2.196 0.468466 -0.722626 0.508282 255 0 0 255
-0.273532 0.582967 2.179 0.437224 -0.676049 0.593121 255 0 0 255
-0.266498 0.580579 2.17 0.33075 -0.642461 0.691266 255 0 0 255
-0.260473 0.58033 2.169 0.242324 -0.631922 0.736175 255 0 0 255
-0.254218 0.579547 2.166 0.155091 -0.637068 0.755044 255 0 0 255
-0.248322 0.579566 2.166 0.159436 -0.596271 0.786792 255 0 0 255
-0.242091 0.578781 2.163 0.158491 -0.496995 0.853157 255 0 0 255
-0.235984 0.578264 2.161 0.138489 -0.460753 0.876657 255 0 0 255
-0.230101 0.578282 2.161 0.078128 -0.465382 0.881655 255 0 0 255
-0.224114 0.578032 2.16 0.0571123 -0.44882 0.891795 255 0 0 255
-0.218333 0.578316 2.161 -0.0172907 -0.461678 0.886879 255 0 0 255
-0.212449 0.578333 2.161 0.0517377 -0.449325 0.891869 255 0 0 255
-0.206373 0.577814 2.159 0.328494 -0.428512 0.841706 255 0 0 255
-0.200028 0.576492 2.154 0.526718 -0.302597 0.794357 255 0 0 255
-0.193801 0.575437 2.15 0.33808 -0.3988 0.852444 255 0 0 255
-0.187769 0.574916 2.148 0.0406045 -0.524189 0.850634 255 0 0 255
-0.182087 0.575466 2.15 -0.0292513 -0.509318 0.860081 255 0 0 255
-0.17623 0.575481 2.15 0.0992295 -0.460146 0.882281 255 0 0 255
-0.170134 0.574691 2.147 0.600445 -0.346698 0.720601 255 0 0 255
-0.163443 0.57176 2.136 0.626561 -0.0924636 0.773868 255 0 0 255
-0.157106 0.569899 2.129 0.352053 -0.298124 0.887232 255 0 0 255
-0.151517 0.570715 2.132 -0.53697 -0.323748 0.779006 255 0 0 255
-0.146322 0.573136 2.141 -0.811651 -0.178736 0.556127 255 0 0 255
-0.141078 0.575557 2.15 -0.476002 -0.0237799 0.879123 255 0 0 255
-0.135155 0.575301 2.149 0.271592 0.0622265 0.960399 255 0 0 255
-0.129057 0.574241 2.145 0.557366 0.257483 0.789333 255 0 0 255
-0.122922 0.572913 2.14 0.54925 0.354937 0.756535 255 0 0 255
