ply
format ascii 1.0
comment VCGLIB generated
element vertex 729
property float x
property float y
property float z
property float nx
property float ny
property float nz
property uchar red
property uchar green
property uchar blue
property uchar alpha
element face 0
property list uchar int vertex_indices
end_header
-0.041092 0.379125 2.127 0.22713 0.299766 0.926581 255 0 0 255
-0.035275 0.379128 2.127 0.0293894 0.347788 0.937113 255 0 0 255
-0.029458 0.37913 2.127 0.0416802 0.502607 0.86351 255 0 0 255
-0.02363 0.378954 2.126 0.0033397 0.586388 0.810023 255 0 0 255
-0.017815 0.378956 2.126 -0.152885 0.604929 0.781465 255 0 0 255
-0.012012 0.379313 2.128 -0.351597 0.520005 0.778444 255 0 0 255
-0.006204 0.380027 2.132 -0.479844 0.515721 0.709776 255 0 0 255
-0.000373 0.380384 2.134 -0.430622 0.553297 0.713041 255 0 0 255
0.005474 0.381097 2.138 -0.49711 0.482995 0.720831 255 0 0 255
0.011342 0.381809 2.142 -0.55586 0.453319 0.696794 255 0 0 255
0.017241 0.382699 2.147 -0.559511 0.430209 0.708426 255 0 0 255
0.023145 0.383232 2.15 -0.475584 0.462114 0.748512 255 0 0 255
0.029065 0.383765 2.153 -0.520103 0.393885 0.757858 255 0 0 255
0.035035 0.384654 2.158 -0.631097 0.370241 0.681644 255 0 0 255
0.04105 0.38572 2.164 -0.710933 0.348257 0.610976 255 0 0 255
0.047142 0.387143 2.172 -0.701963 0.44318 0.55753 255 0 0 255
0.053228 0.388209 2.178 -0.667518 0.475009 0.573399 255 0 0 255
0.059347 0.389274 2.184 -0.681939 0.541052 0.49216 255 0 0 255
0.065558 0.390695 2.192 -0.784387 0.50545 0.359524 255 0 0 255
0.072009 0.393185 2.206 -0.853074 0.466514 0.23373 255 0 0 255
0.078889 0.397457 2.23 -0.868866 0.46514 0.169461 255 0 0 255
0.086054 0.402441 2.258 -0.922265 0.290731 0.25476 255 0 0 255
0.092962 0.405642 2.276 -0.712888 0.49181 0.499914 255 0 0 255
0.137109 0.407363 2.286 0.994894 0.0587032 0.0820986 255 0 0 255
0.141161 0.401116 2.251 0.882194 0.389175 0.265098 255 0 0 255
0.146723 0.399502 2.242 0.831032 0.43679 0.344385 255 0 0 255
0.151894 0.396996 2.228 0.810204 0.423114 0.40564 255 0 0 255
0.157413 0.395559 2.22 0.693004 0.419731 0.58615 255 0 0 255
0.162962 0.3943 2.213 0.339542 0.51551 0.78674 255 0 0 255
0.169236 0.394822 2.216 -0.386961 0.573034 0.722422 255 0 0 255
0.175605 0.395522 2.22 -0.459305 0.512123 0.725788 255 0 0 255
0.181913 0.396043 2.223 -0.296749 0.449256 0.84268 255 0 0 255
0.187983 0.39603 2.223 -0.267269 0.360883 0.893493 255 0 0 255
0.194315 0.39655 2.226 -0.464264 0.23024 0.855248 255 0 0 255
0.200662 0.39707 2.229 -0.568827 0.138693 0.810679 255 0 0 255
0.207211 0.397946 2.234 -0.522243 0.175414 0.834561 255 0 0 255
0.213595 0.398465 2.237 -0.519991 0.0333141 0.853522 255 0 0 255
0.220191 0.39934 2.242 -0.612591 0.0192702 0.790165 255 0 0 255
0.226814 0.400215 2.247 -0.652066 -0.00838181 0.758116 255 0 0 255
0.233463 0.401089 2.252 -0.62965 0.0647463 0.774177 255 0 0 255
0.24014 0.401963 2.257 -0.507076 0.250348 0.824742 255 0 0 255
0.246515 0.402302 2.259 -0.441456 0.205109 0.873526 255 0 0 255
-0.112732 0.41806 2.34433 -0.55287 -0.461455 -0.693826 255 255 0 255
-0.098663 0.417449 2.34119 -0.427192 -0.398926 -0.811397 255 255 0 255
-0.089789 0.416224 2.33452 -0.536532 -0.524204 -0.66132 255 255 0 255
-0.08437 0.414585 2.32547 -0.391975 -0.664943 -0.635772 255 255 0 255
-0.068633 0.414212 2.32368 -0.465486 -0.573831 -0.673825 255 255 0 255
-0.058077 0.413218 2.31833 -0.518195 0.138026 -0.844052 255 255 0 255
-0.049252 0.412019 2.31179 -0.518694 0.362629 -0.774246 255 255 0 255
-0.042154 0.410612 2.30406 -0.45994 0.313772 -0.830664 255 255 0 255
-0.029923 0.409853 2.30004 -0.307799 0.180537 -0.934166 255 255 0 255
-0.014288 0.409534 2.29854 -0.680748 0.00298003 -0.732511 255 255 0 255
-0.014919 0.407175 2.28533 -0.810998 0.276404 -0.515639 255 255 0 255
-0.008711 0.40568 2.27708 -0.928185 0.302096 -0.21728 255 255 0 255
-0.011037 0.403099 2.2626 0.887222 -0.459735 -0.0384872 255 255 0 255
-0.020168 0.399637 2.24307 0.712199 -0.697512 -0.0790557 255 255 0 255
-0.025016 0.396711 2.22661 -0.636897 0.770925 -0.00613461 255 255 0 255
-0.01114 0.396204 2.224 -0.0301644 0.580187 -0.813924 255 255 0 255
0.023949 0.398477 2.23731 -0.154846 0.181795 -0.971068 255 255 0 255
0.075091 0.402896 2.26291 0.710292 0.133843 -0.691065 255 255 0 255
0.134607 0.408483 2.29517 -0.994894 -0.0587032 -0.0820986 255 255 0 255
0.189852 0.411397 2.31238 0.0755544 0.0238989 -0.996855 255 255 0 255
0.195008 0.409899 2.30405 0.0755544 0.0238989 -0.996855 255 255 0 255
-0.278106 0.340862 2.2744 0.341236 0.524272 -0.78019 0 255 0 255
-0.276953 0.343272 2.28552 0.302151 0.32499 -0.896151 0 255 0 255
-0.260151 0.342683 2.28534 -0.0565701 0.396492 -0.916294 0 255 0 255
-0.245066 0.342443 2.28648 -0.234641 -0.196798 -0.951953 0 255 0 255
-0.22996 0.342219 2.2877 0.605287 -0.496649 -0.622066 0 255 0 255
-0.205243 0.340197 2.28217 -0.260535 0.0160072 -0.965332 0 255 0 255
-0.159192 0.336891 2.27394 0.958699 0.275866 -0.0692454 0 255 0 255
-0.16059 0.339849 2.28713 0.952931 0.0850687 -0.29101 0 255 0 255
-0.159371 0.342314 2.29847 0.875126 -0.13316 -0.465212 0 255 0 255
-0.153778 0.343966 2.30677 0.803418 -0.295643 -0.516832 0 255 0 255
-0.14818 0.345622 2.31507 0.785475 -0.313416 -0.533666 0 255 0 255
-0.139946 0.346799 2.32158 0.66398 -0.276735 -0.694657 0 255 0 255
-0.132582 0.348143 2.32873 0.324065 -0.186242 -0.927521 0 255 0 255
-0.115546 0.347733 2.32933 0.20544 -0.0858441 -0.974898 0 255 0 255
-0.104642 0.348457 2.33417 0.413916 0.0630494 -0.908129 0 255 0 255
-0.092844 0.349033 2.33847 0.356211 0.503631 -0.787064 0 255 0 255
-0.082793 0.349937 2.34399 0.199276 0.416183 -0.887176 0 255 0 255
-0.069203 0.350219 2.3472 -0.413978 -0.0207229 -0.910051 0 255 0 255
-0.052949 0.350042 2.34873 0.191312 -0.28733 -0.938531 0 255 0 255
-0.345046 0.39496 2.254 0.915366 -0.223719 0.334745 255 0 0 255
-0.3344 0.389725 2.224 0.807315 0.084522 0.584036 255 0 0 255
-0.326869 0.387994 2.214 0.304497 0.350954 0.885502 255 0 0 255
-0.320695 0.38784 2.213 0.0383148 0.196199 0.979815 255 0 0 255
-0.314811 0.388036 2.214 -0.283347 0.229299 0.931202 255 0 0 255
-0.309199 0.388582 2.217 -0.254997 0.173174 0.951308 255 0 0 255
-0.30316 0.388603 2.217 -0.28125 0.147675 0.948204 255 0 0 255
-0.297522 0.389149 2.22 0.198107 0.301326 0.932714 255 0 0 255
-0.290816 0.388292 2.215 0.541458 0.303989 0.783845 255 0 0 255
-0.283751 0.386909 2.207 0.558502 0.505268 0.65786 255 0 0 255
-0.276981 0.385876 2.201 -0.0411732 0.592746 0.804336 255 0 0 255
-0.271843 0.387122 2.208 -0.677218 0.461584 0.572989 255 0 0 255
-0.266786 0.388543 2.216 -0.803062 0.28644 0.522536 255 0 0 255
-0.261567 0.389789 2.223 -0.755939 0.288126 0.587827 255 0 0 255
-0.25608 0.390683 2.228 -0.739227 0.366867 0.564758 255 0 0 255
-0.251125 0.392455 2.238 -0.787598 0.213638 0.57797 255 0 0 255
-0.245021 0.392472 2.238 0.613983 0.261585 0.744713 255 0 0 255
-0.237314 0.389858 2.223 0.747872 -0.191225 0.635704 255 0 0 255
-0.228856 0.385841 2.2 0.827909 0.361781 0.42858 255 0 0 255
-0.221739 0.383928 2.189 0.79373 0.402529 0.456029 255 0 0 255
-0.215173 0.382891 2.183 0.670685 0.518462 0.530452 255 0 0 255
-0.208544 0.381678 2.176 0.690104 0.511217 0.512263 255 0 0 255
-0.201674 0.379939 2.166 0.738995 0.502843 0.44837 255 0 0 255
-0.194857 0.378199 2.156 0.663712 0.505868 0.550984 255 0 0 255
-0.18862 0.377511 2.152 0.338365 0.625054 0.703432 255 0 0 255
-0.182574 0.377173 2.15 0.122118 0.680405 0.72259 255 0 0 255
-0.176785 0.377362 2.151 0.28018 0.584276 0.761657 255 0 0 255
-0.170513 0.376497 2.146 0.475001 0.332168 0.814886 255 0 0 255
-0.164575 0.376334 2.145 0.169845 0.291045 0.941512 255 0 0 255
-0.158641 0.376171 2.144 -0.0870087 0.289755 0.953138 255 0 0 255
-0.152927 0.376533 2.146 -0.228919 0.261358 0.937704 255 0 0 255
-0.147132 0.37672 2.147 -0.174382 0.231518 0.957074 255 0 0 255
-0.141332 0.376906 2.148 -0.0284258 0.140931 0.989611 255 0 0 255
-0.135462 0.376916 2.148 -0.0281823 0.125993 0.991631 255 0 0 255
-0.129653 0.377101 2.149 0.00173526 0.173789 0.984781 255 0 0 255
-0.123722 0.376935 2.148 -0.11754 0.203277 0.972041 255 0 0 255
-0.117906 0.37712 2.149 -0.05814 0.218191 0.974173 255 0 0 255
-0.11198 0.376953 2.148 0.350363 0.192559 0.916606 255 0 0 255
-0.10596 0.376435 2.145 0.527722 0.269353 0.80558 255 0 0 255
-0.099863 0.375565 2.14 0.466877 0.388255 0.794534 255 0 0 255
-0.093925 0.375221 2.138 0.381975 0.261101 0.886522 255 0 0 255
-0.087956 0.374701 2.135 0.387237 0.174851 0.905248 255 0 0 255
-0.08208 0.374532 2.134 0.443033 0.280897 0.851363 255 0 0 255
-0.076138 0.374012 2.131 0.285669 0.39389 0.873638 255 0 0 255
-0.070311 0.374017 2.131 0.0375451 0.524507 0.850578 255 0 0 255
-0.064423 0.373671 2.129 0.0215049 0.48461 0.874466 255 0 0 255
-0.058656 0.374027 2.131 0.00133828 0.392563 0.919724 255 0 0 255
-0.052778 0.37368 2.129 0.0609956 0.281463 0.957631 255 0 0 255
-0.047 0.374035 2.131 0.0605582 0.200686 0.977782 255 0 0 255
-0.041114 0.373512 2.128 0.146699 0.295213 0.944102 255 0 0 255
-0.035294 0.373515 2.128 -0.114881 0.388972 0.914059 255 0 0 255
-0.029488 0.373693 2.129 -0.093795 0.475543 0.874678 255 0 0 255
-0.023676 0.37387 2.13 -0.0897989 0.562702 0.821768 255 0 0 255
-0.017858 0.374047 2.131 -0.162818 0.577038 0.800324 255 0 0 255
-0.012041 0.3744 2.133 -0.386609 0.588721 0.709888 255 0 0 255
-0.006222 0.375278 2.138 -0.519666 0.5705 0.635985 255 0 0 255
-0.000374 0.375805 2.141 -0.391593 0.657745 0.643449 255 0 0 255
0.005487 0.376156 2.143 -0.386621 0.583295 0.714347 255 0 0 255
0.011364 0.376682 2.146 -0.513302 0.477958 0.712796 255 0 0 255
0.017274 0.377558 2.151 -0.564598 0.40997 0.716348 255 0 0 255
0.0232 0.378259 2.155 -0.474174 0.463072 0.748815 255 0 0 255
0.029122 0.378608 2.157 -0.513557 0.426982 0.744275 255 0 0 255
0.035086 0.379307 2.161 -0.635791 0.401834 0.659014 255 0 0 255
0.04111 0.380358 2.167 -0.716005 0.39026 0.578821 255 0 0 255
0.047189 0.381583 2.174 -0.717145 0.412067 0.562053 255 0 0 255
0.053305 0.382808 2.181 -0.667127 0.51383 0.53937 255 0 0 255
0.05946 0.384032 2.188 -0.722193 0.51545 0.461247 255 0 0 255
0.065802 0.386134 2.2 -0.805627 0.480349 0.346743 255 0 0 255
0.072373 0.389112 2.217 -0.871821 0.449286 0.195118 255 0 0 255
0.07932 0.393494 2.242 -0.902244 0.394158 0.174915 255 0 0 255
0.086289 0.397349 2.264 -0.852553 0.179888 0.490706 255 0 0 255
0.092969 0.399448 2.276 -0.842187 0.285473 0.457413 255 0 0 255
0.1373 0.401669 2.289 0.950199 0.244984 0.192627 255 0 0 255
0.141673 0.396395 2.259 0.924354 0.310345 0.221935 255 0 0 255
0.146995 0.394103 2.246 0.855528 0.379208 0.352523 255 0 0 255
0.152314 0.391986 2.234 0.816919 0.473679 0.329046 255 0 0 255
0.15785 0.390571 2.226 0.60921 0.592131 0.527489 255 0 0 255
0.16349 0.389507 2.22 0.256108 0.730588 0.632969 255 0 0 255
0.169554 0.389494 2.22 -0.266609 0.60601 0.749447 255 0 0 255
0.176013 0.390359 2.225 -0.390287 0.288134 0.874445 255 0 0 255
0.182172 0.390521 2.226 -0.206924 0.326634 0.922222 255 0 0 255
0.188335 0.390683 2.227 -0.167999 0.218551 0.961255 255 0 0 255
0.194503 0.390845 2.228 -0.385645 0.23282 0.892789 255 0 0 255
0.200947 0.391532 2.232 -0.5242 0.118897 0.843254 255 0 0 255
0.207411 0.392219 2.236 -0.507899 0.0680181 0.858727 255 0 0 255
0.213801 0.39273 2.239 -0.454433 0.0259035 0.890404 255 0 0 255
0.220207 0.393241 2.242 -0.554344 -0.0535435 0.830564 255 0 0 255
0.22683 0.394102 2.247 -0.691997 0.0101285 0.721829 255 0 0 255
0.233791 0.395489 2.255 -0.703106 0.194769 0.683891 255 0 0 255
0.240689 0.3967 2.262 -0.522708 0.146673 0.839799 255 0 0 255
0.246969 0.396858 2.263 -0.578528 0.313636 0.752953 255 0 0 255
-0.095106 0.406989 2.34488 0.369729 -0.280477 -0.885795 255 255 0 255
-0.084514 0.405994 2.33941 -0.0615889 -0.207724 -0.976247 255 255 0 255
-0.073936 0.405007 2.33397 -0.415848 -0.42142 -0.805901 255 255 0 255
-0.066811 0.403597 2.32617 -0.872166 -0.135785 -0.469988 255 255 0 255
-0.061412 0.401973 2.31717 -0.847325 -0.0644094 -0.527154 255 255 0 255
-0.059448 0.399916 2.30574 -0.654293 0.205703 -0.727727 255 255 0 255
-0.048054 0.399061 2.30103 -0.452504 0.191548 -0.870947 255 255 0 255
-0.033252 0.398653 2.29882 -0.347343 -0.116858 -0.930428 255 255 0 255
-0.018472 0.398257 2.29668 -0.738156 -0.147039 -0.658411 255 255 0 255
-0.016532 0.396214 2.28532 -0.867346 0.223223 -0.44484 255 255 0 255
-0.012882 0.394392 2.27519 -0.996845 -0.066784 -0.0428989 255 255 0 255
-0.019462 0.391232 2.25758 0.897531 -0.216346 -0.384229 255 255 0 255
-0.03113 0.38739 2.23615 0.784509 -0.594599 -0.17606 255 255 0 255
-0.040214 0.383869 2.21652 0.773393 -0.511813 -0.374045 255 255 0 255
-0.028875 0.383046 2.21196 0.801676 -0.577214 -0.155368 255 255 0 255
0.015556 0.386652 2.23216 0.0564012 0.490427 -0.869655 255 255 0 255
0.088732 0.394171 2.27423 0.843706 -0.254864 -0.472446 255 255 0 255
0.133805 0.397994 2.29564 -0.950199 -0.244984 -0.192627 255 255 0 255
0.184802 0.400477 2.30957 -0.644259 0.166083 -0.746557 255 255 0 255
0.192498 0.399328 2.30316 -0.282171 0.154219 -0.946888 255 255 0 255
-0.264563 0.327859 2.26571 0.48114 -0.864095 -0.147799 0 255 0 255
-0.263395 0.330284 2.27687 0.908495 -0.0601746 -0.413541 0 255 0 255
-0.255279 0.331355 2.28301 0.551401 -0.536338 -0.638982 0 255 0 255
-0.244545 0.331926 2.28731 0.302462 -0.524106 -0.796134 0 255 0 255
-0.226833 0.331164 2.28668 0.108453 -0.114208 -0.987519 0 255 0 255
-0.192541 0.327238 2.27437 -0.0526031 0.0398277 -0.997821 0 255 0 255
-0.166044 0.324855 2.26779 -0.954002 0.233171 -0.188445 0 255 0 255
-0.154344 0.32533 2.27178 -0.954002 0.233171 -0.188445 0 255 0 255
-0.162723 0.329633 2.28988 -0.991137 0.125393 -0.0438615 0 255 0 255
-0.159754 0.331772 2.3 0.954813 -0.168142 -0.245072 0 255 0 255
-0.155911 0.333747 2.30951 0.836184 -0.289176 -0.466019 0 255 0 255
-0.152067 0.335724 2.31902 0.751799 -0.321363 -0.575781 0 255 0 255
-0.142085 0.336557 2.32433 0.610202 -0.232179 -0.757461 0 255 0 255
-0.133847 0.337725 2.33088 0.251983 -0.238052 -0.937996 0 255 0 255
-0.115063 0.336949 2.3303 0.167497 -0.203621 -0.964616 0 255 0 255
-0.103282 0.337489 2.33456 0.166647 -0.186706 -0.968178 0 255 0 255
-0.083571 0.336587 2.33356 0.159628 0.298602 -0.940933 0 255 0 255
-0.077916 0.338283 2.34206 0.873949 0.404694 -0.26914 0 255 0 255
-0.069614 0.339501 2.34882 0.455753 -0.24981 -0.854332 0 255 0 255
-0.056893 0.339927 2.35269 0.128553 -0.329349 -0.935416 0 255 0 255
-0.342466 0.385898 2.237 0.889525 -0.171969 0.423288 255 0 0 255
-0.334271 0.383504 2.223 0.736182 -0.00762045 0.676741 255 0 0 255
-0.32748 0.382663 2.218 0.597712 0.0782726 0.797881 255 0 0 255
-0.321006 0.382166 2.215 0.122461 0.202479 0.9716 255 0 0 255
-0.315116 0.38236 2.216 -0.283905 0.140749 0.948466 255 0 0 255
-0.309219 0.382552 2.217 -0.310641 0.139964 0.940166 255 0 0 255
-0.303453 0.382918 2.219 -0.281063 0.189726 0.940749 255 0 0 255
-0.297675 0.383283 2.221 0.108458 0.156436 0.981715 255 0 0 255
-0.291361 0.382957 2.219 0.407884 0.270937 0.871908 255 0 0 255
-0.284542 0.381941 2.213 0.391538 0.420383 0.818521 255 0 0 255
-0.278006 0.38127 2.209 0.0674365 0.632929 0.771268 255 0 0 255
-0.272477 0.381979 2.213 -0.450209 0.364497 0.81514 255 0 0 255
-0.267165 0.383033 2.219 -0.756896 0.196322 0.623351 255 0 0 255
-0.261938 0.384259 2.226 -0.810641 0.221322 0.542106 255 0 0 255
-0.256557 0.385312 2.232 -0.827838 0.228701 0.512231 255 0 0 255
-0.251592 0.387056 2.242 -0.467727 0.466927 0.750473 255 0 0 255
-0.245585 0.387246 2.243 0.0216862 0.431587 0.90181 255 0 0 255
-0.238078 0.385019 2.23 0.707989 0.545251 0.448836 255 0 0 255
-0.2296 0.381064 2.207 0.833522 0.458973 0.307546 255 0 0 255
-0.222362 0.379008 2.195 0.763836 0.458329 0.454411 255 0 0 255
-0.215583 0.377642 2.187 0.660631 0.532907 0.52875 255 0 0 255
-0.208847 0.376275 2.179 0.66598 0.554122 0.499419 255 0 0 255
-0.202153 0.374908 2.171 0.706907 0.543128 0.453094 255 0 0 255
-0.195503 0.373541 2.163 0.583283 0.646946 0.491164 255 0 0 255
-0.189247 0.372864 2.159 0.357995 0.72913 0.583274 255 0 0 255
-0.183096 0.372359 2.156 0.296234 0.708074 0.640997 255 0 0 255
-0.177126 0.3722 2.155 0.470471 0.553031 0.687614 255 0 0 255
-0.170764 0.371176 2.149 0.539718 0.387669 0.747273 255 0 0 255
-0.164663 0.37067 2.146 0.244994 0.364614 0.898351 255 0 0 255
-0.158801 0.370681 2.146 -0.0864376 0.338392 0.937027 255 0 0 255
-0.153009 0.370866 2.147 -0.227109 0.322817 0.918809 255 0 0 255
-0.147212 0.371049 2.148 -0.0871938 0.257751 0.962269 255 0 0 255
-0.141342 0.37106 2.148 0.0904205 0.149769 0.984578 255 0 0 255
-0.135409 0.370897 2.147 -0.0278488 0.0813826 0.996294 255 0 0 255
-0.129662 0.371253 2.149 -0.08743 0.118444 0.989104 255 0 0 255
-0.123731 0.371089 2.148 -0.117504 0.181125 0.976415 255 0 0 255
-0.118024 0.371616 2.151 -0.0282425 0.151647 0.988031 255 0 0 255
-0.11204 0.371279 2.149 0.299978 0.169252 0.938812 255 0 0 255
-0.106067 0.370942 2.147 0.45977 0.206536 0.863686 255 0 0 255
-0.100057 0.370431 2.144 0.515347 0.228962 0.825829 255 0 0 255
-0.094063 0.36992 2.141 0.50898 0.186074 0.840426 255 0 0 255
-0.088086 0.369409 2.138 0.363083 0.145849 0.920271 255 0 0 255
-0.082163 0.369069 2.136 0.286072 0.186272 0.939929 255 0 0 255
-0.076215 0.368557 2.133 0.123208 0.279336 0.952256 255 0 0 255
-0.070415 0.368735 2.134 0.114661 0.424941 0.89793 255 0 0 255
-0.064518 0.368395 2.132 0.0573973 0.429931 0.901035 255 0 0 255
-0.058715 0.368572 2.133 0.0604449 0.348009 0.93554 255 0 0 255
-0.052807 0.368058 2.13 0.0603041 0.368942 0.927494 255 0 0 255
-0.047004 0.368235 2.131 0.0623733 0.3295 0.942093 255 0 0 255
-0.041156 0.368065 2.13 0.144162 0.37952 0.913883 255 0 0 255
-0.035346 0.368241 2.131 -0.141879 0.392554 0.90872 255 0 0 255
-0.029545 0.368589 2.133 -0.198799 0.379792 0.903458 255 0 0 255
-0.023711 0.368591 2.133 -0.195848 0.433057 0.879833 255 0 0 255
-0.017885 0.368765 2.134 -0.191731 0.532281 0.82457 255 0 0 255
-0.012053 0.368939 2.135 -0.434788 0.516165 0.737925 255 0 0 255
-0.006231 0.369977 2.141 -0.592398 0.428484 0.682251 255 0 0 255
-0.000375 0.370668 2.145 -0.372244 0.57694 0.727031 255 0 0 255
0.0055 0.371186 2.148 -0.289541 0.515051 0.806777 255 0 0 255
0.011376 0.371186 2.148 -0.400407 0.501267 0.767076 255 0 0 255
0.017291 0.372049 2.153 -0.569997 0.355529 0.740745 255 0 0 255
0.023213 0.372566 2.156 -0.526953 0.439273 0.727571 255 0 0 255
0.029178 0.373428 2.161 -0.534173 0.477581 0.69755 255 0 0 255
0.035137 0.373944 2.164 -0.616807 0.464845 0.635192 255 0 0 255
0.041189 0.37515 2.171 -0.700065 0.471425 0.536347 255 0 0 255
0.047301 0.376529 2.179 -0.728597 0.464385 0.503481 255 0 0 255
0.053456 0.377908 2.187 -0.667004 0.557707 0.494034 255 0 0 255
0.0596 0.37894 2.193 -0.754452 0.522829 0.396801 255 0 0 255
0.066017 0.381355 2.207 -0.802666 0.537807 0.257861 255 0 0 255
0.072803 0.385324 2.23 -0.88625 0.410654 0.214298 255 0 0 255
0.079715 0.389292 2.253 -0.955761 0.119063 0.268968 255 0 0 255
0.086562 0.392396 2.271 -0.843706 0.254864 0.472446 255 0 0 255
0.093099 0.393772 2.279 -0.829267 0.246797 0.501406 255 0 0 255
0.142123 0.391456 2.266 0.895159 0.436884 0.0884498 255 0 0 255
0.147137 0.388336 2.248 0.853612 0.424164 0.302376 255 0 0 255
0.152871 0.387288 2.242 0.756163 0.426131 0.496619 255 0 0 255
0.158358 0.385722 2.233 0.686275 0.585824 0.431089 255 0 0 255
0.164164 0.38502 2.229 0.411611 0.724931 0.552315 255 0 0 255
0.169872 0.384144 2.224 0.150243 0.620618 0.769585 255 0 0 255
0.176105 0.384477 2.226 -0.165871 0.0373869 0.985439 255 0 0 255
0.182103 0.384291 2.225 -0.120932 -0.0396766 0.991868 255 0 0 255
0.188349 0.384623 2.227 -0.281884 0.00845091 0.959411 255 0 0 255
0.194517 0.384782 2.228 -0.384203 0.020227 0.923027 255 0 0 255
0.200871 0.385286 2.231 -0.506494 0.0337918 0.861581 255 0 0 255
0.207333 0.385962 2.235 -0.480985 -0.0194037 0.876514 255 0 0 255
0.213721 0.386466 2.238 -0.390944 -0.0331273 0.919818 255 0 0 255
0.220026 0.386795 2.24 -0.56355 -0.0311191 0.825496 255 0 0 255
0.226745 0.387816 2.246 -0.710515 -0.0323136 0.70294 255 0 0 255
0.233808 0.389354 2.255 -0.77189 0.230438 0.592523 255 0 0 255
0.240812 0.390718 2.263 -0.567394 0.441856 0.694857 255 0 0 255
0.246658 0.390183 2.26 -0.836995 0.2902 0.463922 255 0 0 255
-0.109056 0.396649 2.34933 0.740801 -0.538111 -0.402058 255 255 0 255
-0.092413 0.396429 2.34797 -0.115663 -0.605717 -0.787228 255 255 0 255
-0.081825 0.395456 2.34249 -0.145092 -0.180248 -0.972861 255 255 0 255
-0.071251 0.394491 2.33706 -0.355925 -0.501812 -0.788354 255 255 0 255
-0.061552 0.393422 2.33106 -0.882308 -0.425663 -0.200859 255 255 0 255
-0.058733 0.391473 2.32025 -0.94738 -0.209395 -0.242125 255 255 0 255
-0.055054 0.389635 2.31005 -0.897277 -0.0320944 -0.4403 255 255 0 255
-0.043666 0.388804 2.30534 -0.330834 0.0214558 -0.943445 255 255 0 255
-0.027162 0.388656 2.30436 -0.506092 -0.134283 -0.851962 255 255 0 255
-0.015813 0.387846 2.29976 -0.581544 -0.317243 -0.749108 255 255 0 255
-0.018142 0.385232 2.28531 -0.895199 -0.323701 -0.306327 255 255 0 255
-0.014488 0.383408 2.27518 0.966031 0.0299592 -0.256684 255 255 0 255
-0.022763 0.379987 2.25632 0.872903 -0.0590158 -0.484311 255 255 0 255
-0.039525 0.375408 2.23113 0.874369 -0.369364 -0.314721 255 255 0 255
-0.048592 0.371843 2.21147 0.773393 -0.511813 -0.374045 255 255 0 255
0.084561 0.383073 2.27219 0.88288 -0.217271 -0.416313 255 255 0 255
0.126232 0.386553 2.291 -0.490917 0.203325 -0.847148 255 255 0 255
0.187364 0.390576 2.31257 -0.142384 -0.101952 -0.984547 255 255 0 255
0.191681 0.388967 2.30357 0.10538 -0.149231 -0.983171 255 255 0 255
-0.255627 0.321015 2.28445 0.364049 -0.374392 -0.852818 0 255 0 255
-0.244896 0.321565 2.28876 0.00933248 -0.107166 -0.994197 0 255 0 255
-0.225452 0.320419 2.2869 0.973663 -0.12083 -0.193343 0 255 0 255
-0.191177 0.316403 2.27463 -0.277602 -0.398172 -0.874298 0 255 0 255
-0.160334 0.313105 2.265 -0.968931 0.247297 -0.00415711 0 255 0 255
-0.153867 0.314573 2.2727 -0.968931 0.247297 -0.00415714 0 255 0 255
-0.161363 0.318742 2.29018 -0.983594 0.0530549 -0.172418 0 255 0 255
-0.161014 0.321387 2.30214 0.947242 0.0397869 -0.31804 0 255 0 255
-0.158919 0.323695 2.31286 0.824608 0.176983 -0.537306 0 255 0 255
-0.153326 0.325336 2.32117 0.713128 0.173917 -0.679118 0 255 0 255
-0.142473 0.325982 2.32588 0.586906 0.0620551 -0.807273 0 255 0 255
-0.132482 0.326804 2.33124 0.356877 -0.174713 -0.917668 0 255 0 255
-0.11897 0.326975 2.33426 0.235848 -0.425076 -0.873892 0 255 0 255
-0.106318 0.327324 2.33792 0.253238 -0.420511 -0.87123 0 255 0 255
-0.078327 0.327569 2.34366 0.971337 0.154375 -0.180756 0 255 0 255
-0.070027 0.328773 2.35043 0.640226 -0.323131 -0.69692 0 255 0 255
-0.057311 0.329171 2.35432 0.309885 -0.376136 -0.873208 0 255 0 255
-0.341722 0.378964 2.232 0.793301 -0.1015 0.600309 255 0 0 255
-0.334443 0.377628 2.224 0.702589 -0.0206784 0.711295 255 0 0 255
-0.327354 0.37646 2.217 0.541258 0.142019 0.828776 255 0 0 255
-0.321027 0.376141 2.215 0.177311 0.153534 0.972105 255 0 0 255
-0.314994 0.376162 2.215 -0.313654 0.111089 0.943017 255 0 0 255
-0.309519 0.376861 2.219 -0.390211 0.203367 0.897985 255 0 0 255
-0.30361 0.377051 2.22 -0.251949 0.28664 0.924316 255 0 0 255
-0.297829 0.37741 2.222 0.0648046 0.183687 0.980846 255 0 0 255
-0.29138 0.37692 2.219 0.463894 0.178509 0.867719 255 0 0 255
-0.284818 0.37626 2.215 0.490713 0.288333 0.822232 255 0 0 255
-0.278528 0.375939 2.213 0.0804916 0.394224 0.915483 255 0 0 255
-0.272741 0.376297 2.215 -0.570684 0.268986 0.775865 255 0 0 255
-0.267304 0.377165 2.22 -0.742532 0.176874 0.646036 255 0 0 255
-0.261956 0.378202 2.226 -0.826346 0.0309179 0.562314 255 0 0 255
-0.256575 0.379239 2.232 -0.739935 0.315296 0.594209 255 0 0 255
-0.251833 0.381296 2.244 -0.738401 0.444101 0.507482 255 0 0 255
-0.246478 0.382502 2.251 -0.619118 0.656624 0.430741 255 0 0 255
-0.239482 0.381159 2.243 0.430495 0.709575 0.557832 255 0 0 255
-0.231177 0.377607 2.222 -0.853976 -0.514992 0.0742233 255 0 0 255
-0.223087 0.374224 2.202 0.723984 0.595478 0.348214 255 0 0 255
-0.216091 0.37254 2.192 0.65135 0.577282 0.492432 255 0 0 255
-0.209437 0.371365 2.185 0.626107 0.561309 0.541223 255 0 0 255
-0.203006 0.37053 2.18 0.637269 0.604759 0.477655 255 0 0 255
-0.196331 0.369184 2.172 0.601451 0.641873 0.475664 255 0 0 255
-0.189874 0.368178 2.166 0.521816 0.635953 0.56857 255 0 0 255
-0.183619 0.367511 2.162 0.450488 0.528275 0.719713 255 0 0 255
-0.177385 0.366844 2.158 0.581664 0.445263 0.680741 255 0 0 255
-0.171014 0.365837 2.152 0.566696 0.386721 0.727532 255 0 0 255
-0.164905 0.365339 2.149 0.312339 0.430948 0.846598 255 0 0 255
-0.15896 0.36518 2.148 -0.0561643 0.437223 0.897598 255 0 0 255
-0.153234 0.365532 2.15 -0.197413 0.37281 0.906665 255 0 0 255
-0.147428 0.365712 2.151 -0.0569572 0.370275 0.927174 255 0 0 255
-0.141484 0.365553 2.15 0.172827 0.305143 0.936493 255 0 0 255
-0.135482 0.365223 2.148 0.0625674 0.24939 0.96638 255 0 0 255
-0.129672 0.365403 2.149 -0.087682 0.173894 0.980853 255 0 0 255
-0.123855 0.365582 2.15 -0.116537 0.158924 0.980389 255 0 0 255
-0.118033 0.365761 2.151 0.00160899 0.106866 0.994272 255 0 0 255
-0.112101 0.365599 2.15 0.273314 0.0777274 0.95878 255 0 0 255
-0.106124 0.365267 2.148 0.36978 0.137702 0.918859 255 0 0 255
-0.100111 0.364765 2.145 0.493031 0.0722174 0.867009 255 0 0 255
-0.094026 0.363922 2.14 0.536966 0.145036 0.831043 255 0 0 255
-0.08801 0.363248 2.136 0.380164 0.0361572 0.924212 255 0 0 255
-0.082169 0.363254 2.136 0.257252 0.156034 0.953664 255 0 0 255
-0.076292 0.36309 2.135 0.00139783 0.219144 0.975691 255 0 0 255
-0.070519 0.363436 2.137 0.0307091 0.343774 0.93855 255 0 0 255
-0.064584 0.362931 2.134 0.0892064 0.338174 0.936846 255 0 0 255
-0.058775 0.363105 2.135 0.0586806 0.412903 0.908883 255 0 0 255
-0.05291 0.362939 2.134 0.0171973 0.522859 0.852246 255 0 0 255
-0.047095 0.363113 2.135 0.0596629 0.444846 0.893618 255 0 0 255
-0.041217 0.362776 2.133 0.0729222 0.475698 0.876581 255 0 0 255
-0.035382 0.362779 2.133 -0.0871322 0.334732 0.938276 255 0 0 255
-0.029561 0.362952 2.134 -0.20001 0.270566 0.941695 255 0 0 255
-0.023746 0.363294 2.136 -0.25683 0.274571 0.926633 255 0 0 255
-0.01792 0.363636 2.138 -0.308386 0.363482 0.879078 255 0 0 255
-0.012082 0.363977 2.14 -0.515557 0.392221 0.761816 255 0 0 255
-0.006243 0.364828 2.145 -0.614195 0.374029 0.694886 255 0 0 255
-0.000376 0.365509 2.149 -0.498238 0.350109 0.793211 255 0 0 255
0.005511 0.366019 2.152 -0.255417 0.366565 0.894646 255 0 0 255
0.011398 0.366018 2.152 -0.403863 0.346499 0.84666 255 0 0 255
0.017317 0.366697 2.156 -0.582841 0.373447 0.721689 255 0 0 255
0.023258 0.367376 2.16 -0.58903 0.397507 0.703585 255 0 0 255
0.029234 0.368224 2.165 -0.605805 0.456697 0.651482 255 0 0 255
0.035237 0.369072 2.17 -0.643904 0.487903 0.589354 255 0 0 255
0.041306 0.37026 2.177 -0.731549 0.47996 0.484226 255 0 0 255
0.047456 0.371787 2.186 -0.738965 0.524953 0.42232 255 0 0 255
0.053631 0.373144 2.194 -0.667953 0.632968 0.391396 255 0 0 255
0.059877 0.374671 2.203 -0.726275 0.624726 0.286779 255 0 0 255
0.066351 0.377217 2.218 -0.792165 0.563326 0.234815 255 0 0 255
0.073102 0.380783 2.239 -0.898184 0.286069 0.333812 255 0 0 255
0.079898 0.384009 2.258 -0.926592 0.240445 0.289159 255 0 0 255
0.086645 0.386554 2.273 -0.828839 0.278603 0.485187 255 0 0 255
0.093269 0.388248 2.283 -0.823088 0.265683 0.501936 255 0 0 255
0.147082 0.382047 2.247 0.777115 0.49382 0.390171 255 0 0 255
0.153291 0.382206 2.248 0.766659 0.478963 0.427585 255 0 0 255
0.158795 0.380664 2.239 0.710946 0.481867 0.512211 255 0 0 255
0.164545 0.379803 2.234 0.717188 0.369961 0.590568 255 0 0 255
0.170037 0.37843 2.226 0.542762 0.288614 0.788741 255 0 0 255
0.175959 0.378078 2.224 0.201861 0.0760221 0.976459 255 0 0 255
0.181952 0.377895 2.223 -0.030558 -0.112829 0.993145 255 0 0 255
0.188193 0.378222 2.225 -0.22613 -0.134278 0.964798 255 0 0 255
0.194531 0.378718 2.228 -0.387398 -0.0805039 0.918391 255 0 0 255
0.200885 0.379214 2.231 -0.461285 -0.0564777 0.885453 255 0 0 255
0.207348 0.37988 2.235 -0.480196 -0.0391935 0.876285 255 0 0 255
0.213736 0.380375 2.238 -0.447116 -0.0556727 0.892742 255 0 0 255
0.220041 0.3807 2.24 -0.589558 0.129724 0.797241 255 0 0 255
0.226963 0.382044 2.248 -0.772281 0.247415 0.585122 255 0 0 255
0.234446 0.384237 2.261 -0.671352 0.438134 0.597768 255 0 0 255
0.241573 0.38575 2.27 -0.594647 0.46587 0.655256 255 0 0 255
0.245911 0.382844 2.253 -0.62653 0.459617 0.629455 255 0 0 255
-0.106356 0.386053 2.35243 0.567444 -0.383015 -0.728908 255 255 0 255
-0.085413 0.386432 2.35403 -0.285295 -0.404273 -0.869005 255 255 0 255
-0.073973 0.385595 2.34916 -0.330388 -0.530108 -0.780916 255 255 0 255
-0.063409 0.384654 2.34374 0.0147794 -0.284464 -0.958573 255 255 0 255
-0.059731 0.382816 2.33354 -0.964954 -0.232236 -0.122186 255 255 0 255
-0.05777 0.38075 2.32213 -0.999274 -0.0355743 -0.0136081 255 255 0 255
-0.060947 0.378 2.30707 -0.847476 0.146404 -0.510246 255 255 0 255
-0.050412 0.377074 2.30172 -0.427268 0.0608964 -0.902072 255 255 0 255
-0.033905 0.376961 2.3007 -0.0689123 -0.0632579 -0.995615 255 255 0 255
-0.01657 0.376978 2.30038 -0.547462 -0.233457 -0.803606 255 255 0 255
-0.011213 0.375387 2.29149 -0.856096 -0.434418 -0.279966 255 255 0 255
-0.00586 0.373799 2.2826 0.92828 0.371663 -0.0127874 255 255 0 255
-0.014137 0.370345 2.26377 0.901411 0.242868 -0.358432 255 255 0 255
-0.035149 0.365121 2.2355 0.874369 -0.369364 -0.314721 255 255 0 255
-0.039112 0.362224 2.21962 0.874369 -0.369364 -0.314721 255 255 0 255
0.111053 0.37398 2.28064 0.193232 0.00635326 -0.981133 255 255 0 255
0.182325 0.379596 2.30978 -0.123198 -0.186422 -0.974715 255 255 0 255
0.202674 0.380281 2.31302 0.117529 -0.157062 -0.980571 255 255 0 255
-0.26409 0.309624 2.27974 0.0787527 -0.26039 -0.962286 0 255 0 255
-0.260317 0.311537 2.28902 -0.794161 0.240996 -0.55788 0 255 0 255
-0.250463 0.312236 2.29395 -0.0366592 -0.728154 -0.684433 0 255 0 255
-0.231901 0.311212 2.29271 -0.634698 -0.207866 -0.744279 0 255 0 255
-0.202871 0.308137 2.28415 -0.174314 -0.10112 -0.979484 0 255 0 255
-0.172924 0.304922 2.27513 0.0435296 -0.431855 -0.900892 0 255 0 255
-0.163854 0.305859 2.28097 0.89932 -0.4153 -0.136932 0 255 0 255
-0.164371 0.308686 2.29354 0.87822 0.150372 -0.454002 0 255 0 255
-0.157907 0.310145 2.30124 0.819812 0.26588 -0.507165 0 255 0 255
-0.152313 0.311779 2.30956 0.745013 0.359466 -0.561907 0 255 0 255
-0.145839 0.313248 2.31728 0.733114 0.33067 -0.594307 0 255 0 255
-0.13936 0.314721 2.32503 0.817905 0.0388689 -0.574039 0 255 0 255
-0.134627 0.316536 2.33399 0.668926 -0.427505 -0.608093 0 255 0 255
-0.125506 0.317515 2.33999 0.432219 -0.594488 -0.678065 0 255 0 255
-0.117253 0.318669 2.34661 0.264951 -0.516906 -0.814008 0 255 0 255
-0.101085 0.31833 2.34796 0.365782 -0.394325 -0.843037 0 255 0 255
-0.087532 0.318507 2.35114 0.115527 -0.728805 -0.674905 0 255 0 255
-0.073081 0.318531 2.3538 -0.915061 0.0308499 -0.402134 0 255 0 255
-0.058611 0.31857 2.35653 0.401862 0.358588 -0.842569 0 255 0 255
-0.341744 0.372893 2.232 0.776584 -0.16845 0.607076 255 0 0 255
-0.334314 0.37141 2.223 0.662061 -0.01084 0.749372 255 0 0 255
-0.32767 0.370763 2.219 0.489725 0.0605679 0.869771 255 0 0 255
-0.321192 0.370282 2.216 0.141759 0.138349 0.980186 255 0 0 255
-0.315299 0.37047 2.217 -0.393669 0.16196 0.904872 255 0 0 255
-0.309818 0.371158 2.221 -0.409093 0.248597 0.877976 255 0 0 255
-0.30404 0.371512 2.223 -0.141712 0.212931 0.966736 255 0 0 255
-0.297983 0.371532 2.223 0.176788 0.101127 0.97904 255 0 0 255
-0.291793 0.371384 2.222 0.406147 0.0651059 0.911486 255 0 0 255
-0.285351 0.370901 2.219 0.370942 0.182677 0.910511 255 0 0 255
-0.279302 0.37092 2.219 0.108528 0.252633 0.961456 255 0 0 255
-0.273006 0.370604 2.217 -0.493826 0.180369 0.850648 255 0 0 255
-0.267563 0.371458 2.222 -0.743448 0.160601 0.649224 255 0 0 255
-0.262209 0.372479 2.228 -0.858654 0.242367 0.451631 255 0 0 255
-0.257052 0.373834 2.236 -0.852192 0.234077 0.467949 255 0 0 255
-0.252412 0.376024 2.249 -0.889826 0.352028 0.29032 255 0 0 255
-0.2477 0.378215 2.262 -0.640401 0.725405 0.252338 255 0 0 255
-0.241421 0.378064 2.261 0.26297 0.936446 0.232197 255 0 0 255
-0.233066 0.374569 2.24 0.798642 0.536275 0.273093 255 0 0 255
-0.224419 0.370404 2.215 0.75066 0.595613 0.285927 255 0 0 255
-0.217092 0.368246 2.202 0.671878 0.645392 0.363385 255 0 0 255
-0.210218 0.366755 2.193 0.611425 0.650132 0.451097 255 0 0 255
-0.203765 0.365934 2.188 0.605783 0.639075 0.473932 255 0 0 255
-0.196977 0.364442 2.179 0.634791 0.615501 0.467118 255 0 0 255
-0.190501 0.363453 2.173 0.62054 0.568591 0.540032 255 0 0 255
-0.184057 0.362462 2.167 0.653616 0.376491 0.656537 255 0 0 255
-0.177727 0.361639 2.162 0.660658 0.327204 0.675625 255 0 0 255
-0.171344 0.360647 2.156 0.581161 0.343628 0.73768 255 0 0 255
-0.165147 0.35999 2.152 0.238277 0.477956 0.845448 255 0 0 255
-0.159194 0.359834 2.151 -0.0279376 0.425421 0.904564 255 0 0 255
-0.153388 0.360013 2.152 -0.15499 0.396299 0.904945 255 0 0 255
-0.147576 0.360191 2.153 -0.143718 0.423612 0.89437 255 0 0 255
-0.141692 0.360201 2.153 0.0403506 0.5638 0.824925 255 0 0 255
-0.135681 0.359877 2.151 0.162701 0.505534 0.847327 255 0 0 255
-0.129802 0.359886 2.151 0.0961225 0.367456 0.92506 255 0 0 255
-0.123922 0.359895 2.151 0.0953896 0.182806 0.978511 255 0 0 255
-0.118042 0.359904 2.151 0.115262 -0.0416747 0.992461 255 0 0 255
-0.112109 0.359745 2.15 0.246118 -0.0838957 0.965602 255 0 0 255
-0.106132 0.359419 2.148 0.343591 -0.0382397 0.938341 255 0 0 255
-0.100165 0.359092 2.146 0.49604 -0.0222596 0.868014 255 0 0 255
-0.094121 0.358429 2.142 0.550622 0.0322202 0.834133 255 0 0 255
-0.08814 0.357934 2.139 0.313564 0.14543 0.938364 255 0 0 255
-0.082214 0.357606 2.137 0.117364 0.157729 0.980483 255 0 0 255
-0.076333 0.357444 2.136 -0.0878228 0.261595 0.961174 255 0 0 255
-0.070557 0.357784 2.138 0.00100618 0.298116 0.954529 255 0 0 255
-0.064679 0.357622 2.137 0.0440614 0.291262 0.955628 255 0 0 255
-0.058862 0.357794 2.138 -0.0287503 0.337868 0.940754 255 0 0 255
-0.052989 0.35763 2.137 0.000531902 0.297327 0.954776 255 0 0 255
-0.047165 0.357801 2.138 0.0883609 0.330481 0.939667 255 0 0 255
-0.041278 0.35747 2.136 0.197368 0.322587 0.925734 255 0 0 255
-0.035418 0.357306 2.135 0.0285834 0.353769 0.934896 255 0 0 255
-0.029577 0.357308 2.135 -0.172328 0.250727 0.952596 255 0 0 255
-0.023759 0.357645 2.137 -0.305559 0.249283 0.918962 255 0 0 255
-0.017929 0.357981 2.139 -0.424239 0.253227 0.869423 255 0 0 255
-0.012095 0.358484 2.142 -0.554788 0.255251 0.79187 255 0 0 255
-0.006246 0.359154 2.146 -0.582268 0.264851 0.768646 255 0 0 255
-0.000376 0.359991 2.151 -0.446838 0.248719 0.859345 255 0 0 255
0.005511 0.360158 2.152 -0.278697 0.272673 0.920857 255 0 0 255
0.011409 0.360492 2.154 -0.396914 0.239081 0.886171 255 0 0 255
0.017334 0.361161 2.158 -0.601319 0.314285 0.734603 255 0 0 255
0.023303 0.362164 2.164 -0.625107 0.312612 0.715202 255 0 0 255
0.029277 0.362831 2.168 -0.681598 0.32821 0.65399 255 0 0 255
0.035321 0.364 2.175 -0.703 0.441856 0.557274 255 0 0 255
0.041404 0.365169 2.182 -0.770859 0.456492 0.444288 255 0 0 255
0.047633 0.367174 2.194 -0.742836 0.584959 0.325603 255 0 0 255
0.053904 0.369011 2.205 -0.715531 0.639098 0.282081 255 0 0 255
0.060207 0.37068 2.215 -0.733716 0.603495 0.312177 255 0 0 255
0.066655 0.372851 2.228 -0.853142 0.4169 0.313597 255 0 0 255
0.073238 0.375356 2.243 -0.901676 0.227739 0.367579 255 0 0 255
0.079975 0.378195 2.26 -0.92509 0.17236 0.33838 255 0 0 255
0.086766 0.380867 2.276 -0.826846 0.265703 0.495709 255 0 0 255
0.09348 0.382868 2.288 -0.867642 0.317589 0.382537 255 0 0 255
0.148337 0.379108 2.266 0.890779 0.445032 0.0919728 255 0 0 255
0.153848 0.377424 2.256 0.852484 0.469345 0.230189 255 0 0 255
0.159091 0.375238 2.243 0.83205 0.282811 0.477191 255 0 0 255
0.164704 0.374055 2.236 0.776968 0.236356 0.583487 255 0 0 255
0.170278 0.372872 2.229 0.689202 0.28828 0.664752 255 0 0 255
0.176051 0.372191 2.225 0.337446 0.249812 0.907593 255 0 0 255
0.182047 0.372011 2.224 0.112418 0.0561223 0.992075 255 0 0 255
0.188122 0.371998 2.224 -0.292156 -0.0793946 0.953069 255 0 0 255
0.194458 0.372486 2.227 -0.476599 -0.0896368 0.874539 255 0 0 255
0.200809 0.372974 2.23 -0.487149 0.0147432 0.873195 255 0 0 255
0.207177 0.373462 2.233 -0.583629 0.0556751 0.81011 255 0 0 255
0.213655 0.374116 2.237 -0.53298 0.207063 0.8204 255 0 0 255
0.220253 0.374937 2.242 -0.678098 0.318892 0.662187 255 0 0 255
0.227686 0.377095 2.255 -0.775545 0.511038 0.370635 255 0 0 255
0.234981 0.378919 2.266 -0.703263 0.406642 0.58315 255 0 0 255
0.242016 0.38024 2.274 -0.528792 0.480993 0.699303 255 0 0 255
-0.128078 0.374595 2.35167 0.608643 0.548815 -0.573023 255 255 0 255
-0.10538 0.375235 2.35434 0.26772 0.217429 -0.938643 255 255 0 255
-0.083583 0.37578 2.35652 -0.486944 0.0532929 -0.871806 255 255 0 255
-0.073008 0.374852 2.35105 -0.243575 0.00579716 -0.969865 255 255 0 255
-0.058151 0.374508 2.34862 -0.318415 -0.158538 -0.9346 255 255 0 255
-0.057053 0.372324 2.33662 0.856486 0.502583 -0.117653 255 255 0 255
-0.057664 0.369906 2.3234 -0.988194 -0.153195 -0.00217376 255 255 0 255
-0.059123 0.367366 2.30955 -0.922504 -0.135488 -0.361427 255 255 0 255
-0.047735 0.366579 2.30481 -0.373621 -0.255608 -0.891668 255 255 0 255
-0.032946 0.366271 2.30257 -0.0209883 -0.249024 -0.96827 255 255 0 255
-0.014764 0.366447 2.30284 -0.328542 -0.253816 -0.909746 255 255 0 255
-0.006849 0.365217 2.2958 -0.690073 -0.54084 -0.480927 255 255 0 255
-0.000647 0.363755 2.28754 -0.822786 -0.531148 -0.202247 255 255 0 255
-0.007219 0.360505 2.26998 0.912003 0.269646 -0.309098 255 255 0 255
-0.041828 0.353291 2.23174 0.851062 -0.31467 -0.420329 255 255 0 255
0.121265 0.364963 2.28941 -0.25242 -0.369895 -0.894126 255 255 0 255
0.184888 0.36968 2.31277 0.0796109 -0.20614 -0.975279 255 255 0 255
0.196798 0.369184 2.30957 -0.108509 -0.207248 -0.972252 255 255 0 255
-0.268774 0.300165 2.28431 -0.0339793 -0.28981 -0.956481 0 255 0 255
-0.262402 0.301543 2.29171 -0.167622 -0.133964 -0.976707 0 255 0 255
-0.249947 0.301693 2.29478 0.247485 0.530733 -0.810601 0 255 0 255
-0.234001 0.301152 2.29542 -0.468216 0.0410843 -0.882658 0 255 0 255
-0.180279 0.295753 2.28157 0.555847 0.0951533 -0.825821 0 255 0 255
-0.164248 0.295276 2.28249 0.756596 -0.00292253 -0.653876 0 255 0 255
-0.15953 0.297072 2.29141 0.907485 0.0158656 -0.419786 0 255 0 255
-0.156554 0.299218 2.30156 0.804131 0.0282169 -0.593782 0 255 0 255
-0.148338 0.300329 2.30808 0.861486 -0.0835983 -0.500852 0 255 0 255
-0.14361 0.302135 2.31703 0.891497 -0.180859 -0.415358 0 255 0 255
-0.140629 0.304286 2.32719 0.859531 -0.452617 -0.237368 0 255 0 255
-0.140275 0.306951 2.33913 0.711693 -0.579247 -0.397449 0 255 0 255
-0.130284 0.307739 2.34453 0.48568 -0.565431 -0.666636 0 255 0 255
-0.117651 0.308027 2.34819 0.204572 -0.310858 -0.92818 0 255 0 255
-0.10149 0.307651 2.34956 0.318026 -0.405225 -0.857119 0 255 0 255
-0.087942 0.307797 2.35275 0.429391 -0.189158 -0.883087 0 255 0 255
-0.077894 0.30863 2.35834 -0.430604 -0.260773 -0.864047 0 255 0 255
-0.061674 0.308299 2.3599 0.307759 -0.0586432 -0.949655 0 255 0 255
-0.354074 0.373372 2.272 -0.749395 0.30742 0.58643 255 0 0 255
-0.341152 0.366162 2.228 0.699882 -0.250402 0.668928 255 0 0 255
-0.334184 0.365197 2.222 0.486194 -0.0421809 0.872832 255 0 0 255
-0.327543 0.364561 2.218 0.385298 0.205877 0.899533 255 0 0 255
-0.321358 0.364417 2.217 0.144307 0.254756 0.956177 255 0 0 255
-0.315319 0.364437 2.217 -0.265144 0.232859 0.935668 255 0 0 255
-0.309977 0.365279 2.222 -0.438054 0.0455914 0.897792 255 0 0 255
-0.304196 0.365627 2.224 -0.0792408 -0.0139738 0.996758 255 0 0 255
-0.297868 0.365318 2.222 0.116378 -0.0317087 0.992699 255 0 0 255
-0.29155 0.365008 2.22 0.26189 0.0659886 0.962839 255 0 0 255
-0.285113 0.364533 2.217 0.278469 0.223504 0.934078 255 0 0 255
-0.278943 0.364387 2.216 0.136993 0.292952 0.946262 255 0 0 255
-0.272901 0.364406 2.216 -0.424304 0.295138 0.856073 255 0 0 255
-0.267701 0.365574 2.223 -0.741818 0.202132 0.639413 255 0 0 255
-0.262344 0.366579 2.229 -0.866794 0.0924057 0.490029 255 0 0 255
-0.257299 0.368076 2.238 -0.902249 0.153113 0.403117 255 0 0 255
-0.252653 0.370232 2.251 -0.918489 0.280484 0.278759 255 0 0 255
-0.248373 0.373045 2.268 -0.820538 0.461929 0.336658 255 0 0 255
-0.242612 0.373719 2.272 0.583451 0.551786 0.595917 255 0 0 255
-0.234643 0.370939 2.255 0.720804 0.621879 0.306118 255 0 0 255
-0.225853 0.366678 2.229 0.851844 0.433514 0.293987 255 0 0 255
-0.21829 0.364225 2.214 0.78163 0.531353 0.326678 255 0 0 255
-0.211287 0.362595 2.204 0.727327 0.541261 0.421939 255 0 0 255
-0.204524 0.361293 2.196 0.71833 0.468446 0.514354 255 0 0 255
-0.197714 0.359826 2.187 0.719432 0.492411 0.489847 255 0 0 255
-0.19104 0.358523 2.179 0.738104 0.461944 0.491742 255 0 0 255
-0.184409 0.35722 2.171 0.70339 0.386541 0.596513 255 0 0 255
-0.177822 0.355917 2.163 0.676817 0.286765 0.678 255 0 0 255
-0.171515 0.355106 2.158 0.523757 0.401159 0.751499 255 0 0 255
-0.165389 0.354624 2.155 0.27643 0.50521 0.817526 255 0 0 255
-0.159427 0.354471 2.154 0.0441329 0.542543 0.838868 255 0 0 255
-0.15347 0.354318 2.153 -0.139177 0.460573 0.876643 255 0 0 255
-0.147792 0.354822 2.156 -0.179603 0.49036 0.852813 255 0 0 255
-0.141965 0.354997 2.157 0.0285852 0.505923 0.862105 255 0 0 255
-0.136069 0.355007 2.157 0.167837 0.529499 0.831542 255 0 0 255
-0.129992 0.354523 2.154 0.348268 0.274533 0.896293 255 0 0 255
-0.123989 0.354203 2.152 0.367548 0.091487 0.925494 255 0 0 255
-0.117941 0.353717 2.149 0.267374 -0.184508 0.945763 255 0 0 255
-0.112065 0.353726 2.149 0.255492 -0.236775 0.937369 255 0 0 255
-0.106041 0.35324 2.146 0.277463 -0.240374 0.93018 255 0 0 255
-0.100126 0.353083 2.145 0.365414 -0.145545 0.919396 255 0 0 255
-0.09404 0.352267 2.14 0.425341 -0.0149905 0.904909 255 0 0 255
-0.088105 0.351944 2.138 0.262058 0.201458 0.94379 255 0 0 255
-0.082258 0.35195 2.138 0.116681 0.24391 0.962753 255 0 0 255
-0.07641 0.351956 2.138 -0.0876466 0.228548 0.969579 255 0 0 255
-0.070595 0.352126 2.139 -0.0584449 0.254386 0.965335 255 0 0 255
-0.064714 0.351966 2.138 0.0294546 0.323717 0.945696 255 0 0 255
-0.058893 0.352135 2.139 0.0295556 0.220927 0.974842 255 0 0 255
-0.053042 0.352139 2.139 0.0292047 0.13368 0.990594 255 0 0 255
-0.047191 0.352143 2.139 0.0586472 0.166194 0.984348 255 0 0 255
-0.04132 0.351982 2.138 0.144406 0.214679 0.96595 255 0 0 255
-0.035454 0.35182 2.137 0.0285282 0.353097 0.935152 255 0 0 255
-0.029607 0.351822 2.137 -0.141815 0.347144 0.927027 255 0 0 255
-0.023772 0.351989 2.138 -0.278079 0.314931 0.907464 255 0 0 255
-0.017939 0.35232 2.14 -0.44202 0.287881 0.849554 255 0 0 255
-0.012112 0.353144 2.145 -0.550599 0.275214 0.788098 255 0 0 255
-0.006255 0.353803 2.149 -0.566111 0.259557 0.782399 255 0 0 255
-0.000376 0.354297 2.152 -0.467274 0.283067 0.837573 255 0 0 255
0.005514 0.354462 2.153 -0.408559 0.356828 0.840091 255 0 0 255
0.011421 0.354955 2.156 -0.461733 0.447955 0.765598 255 0 0 255
0.017352 0.355613 2.16 -0.569587 0.385467 0.725938 255 0 0 255
0.023315 0.356434 2.165 -0.634079 0.263066 0.727145 255 0 0 255
0.029306 0.357255 2.17 -0.699459 0.297823 0.64966 255 0 0 255
0.035373 0.35857 2.178 -0.768746 0.393091 0.504489 255 0 0 255
0.041521 0.360214 2.188 -0.802141 0.437722 0.406165 255 0 0 255
0.047811 0.362515 2.202 -0.767914 0.576884 0.27841 255 0 0 255
0.054177 0.364816 2.216 -0.768808 0.52191 0.36952 255 0 0 255
0.060511 0.366458 2.226 -0.769154 0.489071 0.411354 255 0 0 255
0.066899 0.3681 2.236 -0.838862 0.275718 0.469351 255 0 0 255
0.073342 0.369741 2.246 -0.894553 0.187513 0.405727 255 0 0 255
0.080051 0.372369 2.262 -0.927354 0.0753242 0.366524 255 0 0 255
0.086886 0.375162 2.279 -0.890937 0.212286 0.401455 255 0 0 255
0.093773 0.377789 2.295 -0.910118 0.271569 0.312946 255 0 0 255
0.149526 0.3759 2.284 0.833438 0.50441 0.225725 255 0 0 255
0.154677 0.373256 2.268 0.873008 0.466066 0.143665 255 0 0 255
0.159315 0.369624 2.246 0.876754 0.161109 0.453152 255 0 0 255
0.164789 0.368131 2.237 0.755558 0.209677 0.620619 255 0 0 255
0.170519 0.367297 2.232 0.656511 0.324182 0.681101 255 0 0 255
0.176143 0.366297 2.226 0.544376 0.305445 0.781254 255 0 0 255
0.18206 0.365956 2.224 0.311642 0.150096 0.93827 255 0 0 255
0.187966 0.365614 2.222 -0.179282 -0.0508129 0.982485 255 0 0 255
0.194471 0.366423 2.227 -0.525253 0.0621286 0.848675 255 0 0 255
0.200913 0.367067 2.231 -0.610103 0.105266 0.785299 255 0 0 255
0.207377 0.367711 2.235 -0.626835 0.282096 0.726292 255 0 0 255
0.214243 0.369013 2.243 -0.702845 0.486748 0.518734 255 0 0 255
0.221349 0.370643 2.253 -0.724692 0.594563 0.348307 255 0 0 255
0.229014 0.373095 2.268 -0.472921 0.670872 0.571205 255 0 0 255
0.235619 0.373737 2.272 -0.231686 0.297348 0.926232 255 0 0 255
0.241394 0.373063 2.268 0.667977 -0.249674 0.701049 255 0 0 255
-0.085198 0.364659 2.35663 -0.4261 0.255621 -0.867811 255 255 0 255
-0.076342 0.363515 2.34996 -0.235248 0.153413 -0.959751 255 255 0 255
-0.057191 0.363792 2.3505 0.0381168 -0.162577 -0.985959 255 255 0 255
-0.053516 0.361955 2.3403 0.986142 -0.0941663 -0.136593 255 255 0 255
-0.057555 0.35905 2.32468 -0.991429 0.0477347 -0.121615 255 255 0 255
-0.05901 0.356494 2.31083 -0.888228 -0.126951 -0.441514 255 255 0 255
-0.047626 0.35573 2.30608 -0.326692 -0.474223 -0.817548 255 255 0 255
-0.030277 0.355815 2.30565 -0.0132917 -0.400871 -0.916038 255 255 0 255
-0.01125 0.356157 2.30653 -0.351925 -0.467935 -0.81067 255 255 0 255
0.000923 0.355547 2.30258 -0.740676 -0.452968 -0.496205 255 255 0 255
0.003711 0.35361 2.29186 -0.967598 -0.244838 -0.0617126 255 255 0 255
-0.009665 0.349354 2.26934 0.909631 0.155767 -0.385109 255 255 0 255
0.074627 0.34993 2.26803 0.89778 -0.0197375 -0.440002 255 255 0 255
0.124706 0.355002 2.29308 -0.2535 -0.362582 -0.896812 255 255 0 255
0.164553 0.358622 2.31073 0.878911 -0.196169 -0.434779 255 255 0 255
0.186608 0.359644 2.31513 -0.00675586 -0.216605 -0.976236 255 255 0 255
0.199355 0.3593 2.31256 -0.111976 -0.185225 -0.976296 255 255 0 255
-0.28674 0.290803 2.28654 0.735457 -0.18617 -0.651494 0 255 0 255
-0.272589 0.290541 2.28826 -0.155256 0.0154869 -0.987753 0 255 0 255
-0.258419 0.290294 2.29004 0.235196 0.0782722 -0.968791 0 255 0 255
-0.2477 0.290777 2.29437 -0.00837015 0.400133 -0.916419 0 255 0 255
-0.233495 0.290557 2.29627 -0.204618 0.0467893 -0.977723 0 255 0 255
-0.20971 0.288395 2.29146 -0.0905029 -0.0035447 -0.99589 0 255 0 255
-0.17458 0.283956 2.27879 0.301612 -0.19551 -0.93317 0 255 0 255
-0.163774 0.284506 2.28341 0.757488 0.0197278 -0.652551 0 255 0 255
-0.160797 0.286651 2.29356 0.90852 -0.0330143 -0.416536 0 255 0 255
-0.158693 0.288972 2.30431 0.921745 -0.171004 -0.348058 0 255 0 255
-0.150481 0.290068 2.31083 0.850792 -0.357181 -0.385454 0 255 0 255
-0.148375 0.292392 2.32159 0.8626 -0.446088 -0.238594 0 255 0 255
-0.145396 0.294542 2.33174 0.871441 -0.471692 -0.134527 0 255 0 255
-0.147668 0.297733 2.34546 0.70994 -0.563742 -0.422114 0 255 0 255
-0.134184 0.297806 2.34847 0.372451 -0.366884 -0.852454 0 255 0 255
-0.121558 0.298065 2.35214 0.205013 -0.287686 -0.935525 0 255 0 255
-0.107162 0.297992 2.35468 0.218249 -0.197884 -0.95562 0 255 0 255
-0.092745 0.297934 2.35729 0.515539 -0.0474063 -0.855554 0 255 0 255
-0.079188 0.298061 2.36054 -0.0758457 -0.376983 -0.923109 0 255 0 255
-0.063855 0.297862 2.3627 0.636162 0.0836405 -0.767008 0 255 0 255
-0.348797 0.361695 2.238 0.794355 -0.235914 0.559772 255 0 0 255
-0.340561 0.359453 2.224 0.193948 -0.204966 0.959361 255 0 0 255
-0.334506 0.359474 2.224 0.348633 -0.118023 0.929799 255 0 0 255
-0.328006 0.359009 2.221 0.278687 0.143177 0.949649 255 0 0 255
-0.321958 0.35903 2.221 0.0517681 0.251532 0.966463 255 0 0 255
-0.315623 0.358726 2.219 -0.0788969 0.128512 0.988565 255 0 0 255
-0.309718 0.358908 2.22 -0.206737 -0.101718 0.973095 255 0 0 255
-0.303942 0.35925 2.222 -0.0832529 -0.219498 0.972054 255 0 0 255
-0.297753 0.359108 2.221 0.00901594 -0.124051 0.992235 255 0 0 255
-0.291962 0.35945 2.223 0.156975 -0.0201053 0.987398 255 0 0 255
-0.285646 0.359145 2.221 0.239854 0.136069 0.961226 255 0 0 255
-0.27959 0.359164 2.221 0.0451779 0.192838 0.98019 255 0 0 255
-0.273411 0.35902 2.22 -0.519884 0.311268 0.795508 255 0 0 255
-0.26796 0.359846 2.225 -0.764325 0.262164 0.589133 255 0 0 255
