ply
format ascii 1.0
comment VCGLIB generated
element vertex 729
property float x
property float y
property float z
property float nx
property float ny
property float nz
property uchar red
property uchar green
property uchar blue
property uchar alpha
element face 0
property list uchar int vertex_indices
end_header
-0.023604 0.397596 2.29298 -0.719107 -0.503454 -0.478977 255 255 0 255
-0.013969 0.396546 2.28718 -0.863418 0.167866 -0.475742 255 255 0 255
-0.013735 0.394281 2.27457 -0.921401 0.353222 -0.162032 255 255 0 255
-0.014347 0.391901 2.26132 -0.860776 0.106462 -0.497726 255 255 0 255
-0.005581 0.39075 2.25494 -0.885614 -0.0754251 -0.458256 255 255 0 255
-0.001931 0.38893 2.24481 -0.712804 -0.340098 -0.613387 255 255 0 255
-0.016127 0.384739 2.22143 0.958513 -0.0513092 -0.280392 255 255 0 255
0.052267 0.389277 2.24687 0.158861 0.499551 -0.851594 255 255 0 255
0.09738 0.393081 2.26817 0.70418 -0.132091 -0.697626 255 255 0 255
0.191654 0.399212 2.30252 0.867973 0.484162 -0.110496 255 255 0 255
0.200185 0.398183 2.29678 0.518219 -0.085275 -0.850986 255 255 0 255
-0.25441 0.331185 2.28239 0.732563 -0.597105 -0.32683 0 255 0 255
-0.246284 0.332264 2.28856 0.54383 -0.78204 -0.304404 0 255 0 255
-0.236409 0.333013 2.29351 -0.415035 -0.469384 -0.779374 0 255 0 255
-0.182613 0.328027 2.2795 -0.0550596 -0.383291 -0.921985 0 255 0 255
-0.1622 0.326828 2.2773 0.161939 -0.336556 -0.927635 0 255 0 255
-0.150493 0.32731 2.28132 0.683485 -0.174411 -0.708823 0 255 0 255
-0.144017 0.328796 2.28904 0.806016 -0.0412183 -0.590456 0 255 0 255
-0.13841 0.330451 2.29739 0.829178 0.093839 -0.551052 0 255 0 255
-0.134551 0.332439 2.30695 0.841559 0.0629005 -0.53649 0 255 0 255
-0.13069 0.334428 2.31652 0.80016 -0.219797 -0.558062 0 255 0 255
-0.123319 0.335767 2.3237 0.747239 -0.50904 -0.427214 0 255 0 255
-0.116819 0.337274 2.3315 0.609076 -0.701262 -0.370483 0 255 0 255
-0.108554 0.338462 2.33812 0.598214 -0.752119 -0.276508 0 255 0 255
-0.100282 0.339657 2.34478 0.271085 -0.736777 -0.619413 0 255 0 255
-0.091121 0.340699 2.35088 0.295437 -0.593724 -0.748471 0 255 0 255
-0.078424 0.341106 2.35468 -0.0523215 -0.473443 -0.879269 0 255 0 255
-0.060421 0.340566 2.35502 -0.387903 -0.452986 -0.802705 0 255 0 255
-0.037979 0.339249 2.35255 -0.638694 -0.690894 -0.338726 0 255 0 255
-0.328366 0.383698 2.224 0.594719 -0.0846425 0.799465 255 0 0 255
-0.321151 0.382339 2.216 0.6238 0.023499 0.78123 255 0 0 255
-0.314405 0.381497 2.211 0.308768 0.201419 0.929566 255 0 0 255
-0.308382 0.381517 2.211 0.00306483 0.179398 0.983772 255 0 0 255
-0.302223 0.381365 2.21 -0.0238428 0.0821129 0.996338 255 0 0 255
-0.296335 0.381557 2.211 0.0295449 -0.0428558 0.998644 255 0 0 255
-0.290179 0.381404 2.21 0.0901721 0.0447733 0.994919 255 0 0 255
-0.284284 0.381596 2.211 0.261275 0.132082 0.956185 255 0 0 255
-0.277754 0.380924 2.207 0.556721 0.229709 0.798308 255 0 0 255
-0.271122 0.38008 2.202 0.550912 0.320805 0.770441 255 0 0 255
-0.264757 0.37958 2.199 0.123504 0.38043 0.916526 255 0 0 255
-0.258997 0.379943 2.201 -0.720623 0.227049 0.655096 255 0 0 255
-0.254028 0.381515 2.21 -0.814883 0.25022 0.522834 255 0 0 255
-0.248674 0.382568 2.216 -0.828461 0.308809 0.467214 255 0 0 255
-0.243614 0.384139 2.225 -0.71289 0.373506 0.593533 255 0 0 255
-0.238291 0.385364 2.232 -0.541132 0.417959 0.729717 255 0 0 255
-0.232305 0.385553 2.233 -0.438964 0.739205 0.510771 255 0 0 255
-0.224591 0.382806 2.217 0.812051 0.518972 0.26691 255 0 0 255
-0.216273 0.37885 2.194 0.692599 0.657498 0.296652 255 0 0 255
-0.208943 0.376448 2.18 0.726452 0.555373 0.404757 255 0 0 255
-0.202247 0.375081 2.172 0.687325 0.540777 0.484917 255 0 0 255
-0.195684 0.373886 2.165 0.608514 0.59325 0.527035 255 0 0 255
-0.189247 0.372864 2.159 0.599654 0.57026 0.561444 255 0 0 255
-0.183011 0.372187 2.155 0.579502 0.58548 0.566913 255 0 0 255
-0.176715 0.371336 2.15 0.558497 0.601499 0.571209 255 0 0 255
-0.170446 0.370485 2.145 0.623701 0.512234 0.590434 255 0 0 255
-0.164126 0.369461 2.139 0.525292 0.470501 0.709012 255 0 0 255
-0.158061 0.368954 2.136 0.256127 0.633569 0.730062 255 0 0 255
-0.152083 0.36862 2.134 0.140076 0.499789 0.854746 255 0 0 255
-0.146321 0.368804 2.135 -0.197274 0.434065 0.879017 255 0 0 255
-0.140553 0.368987 2.136 -0.201688 0.354133 0.913188 255 0 0 255
-0.134778 0.36917 2.137 0.0282206 0.402598 0.914942 255 0 0 255
-0.128878 0.369007 2.136 0.165406 0.425254 0.889832 255 0 0 255
-0.122982 0.368843 2.135 0.195246 0.431087 0.880933 255 0 0 255
-0.117037 0.368507 2.133 0.119807 0.44134 0.889306 255 0 0 255
-0.111206 0.368515 2.133 0.224824 0.433477 0.87267 255 0 0 255
-0.105276 0.368178 2.131 0.290551 0.310743 0.904997 255 0 0 255
-0.09945 0.368185 2.131 0.25875 0.233778 0.937228 255 0 0 255
-0.093492 0.367674 2.128 0.483125 0.164926 0.859878 255 0 0 255
-0.087509 0.36699 2.124 0.58077 0.0677413 0.811245 255 0 0 255
-0.08147 0.365959 2.118 0.528109 0.0891223 0.844487 255 0 0 255
-0.075572 0.365447 2.115 0.328382 0.225096 0.917331 255 0 0 255
-0.069788 0.365452 2.115 0.0885568 0.505829 0.858076 255 0 0 255
-0.064034 0.36563 2.116 -0.140975 0.570114 0.80938 255 0 0 255
-0.05833 0.366153 2.119 -0.300151 0.39809 0.866853 255 0 0 255
-0.052559 0.36633 2.12 -0.0616588 0.218658 0.973852 255 0 0 255
-0.046739 0.366161 2.119 0.291893 0.120397 0.948843 255 0 0 255
-0.040866 0.365473 2.115 0.32935 0.0191119 0.944014 255 0 0 255
-0.035064 0.365303 2.114 0.172309 0.0562369 0.983436 255 0 0 255
-0.029268 0.365133 2.113 0.0963666 0.175509 0.97975 255 0 0 255
-0.023489 0.365135 2.113 0.031062 0.229186 0.972887 255 0 0 255
-0.017701 0.364964 2.112 -0.146211 0.381321 0.912807 255 0 0 255
-0.01194 0.365483 2.115 -0.250216 0.441257 0.861791 255 0 0 255
-0.006158 0.365657 2.116 -0.381394 0.5104 0.770734 255 0 0 255
-0.000371 0.366521 2.121 -0.289796 0.625016 0.724827 255 0 0 255
0.005431 0.366521 2.121 -0.215004 0.689104 0.692033 255 0 0 255
0.011243 0.366866 2.123 -0.252506 0.694925 0.67329 255 0 0 255
0.017067 0.36721 2.125 -0.527171 0.501945 0.685669 255 0 0 255
0.022944 0.368245 2.131 -0.594543 0.376968 0.710221 255 0 0 255
0.028827 0.368935 2.135 -0.494939 0.441282 0.748536 255 0 0 255
0.034715 0.369451 2.138 -0.475054 0.445985 0.758565 255 0 0 255
0.04062 0.369966 2.141 -0.604964 0.380792 0.699297 255 0 0 255
0.046606 0.371 2.147 -0.76951 0.362329 0.525901 255 0 0 255
0.052723 0.372724 2.157 -0.826075 0.344276 0.446177 255 0 0 255
0.058921 0.374621 2.168 -0.802411 0.42172 0.422243 255 0 0 255
0.065179 0.376517 2.179 -0.775823 0.541117 0.324486 255 0 0 255
0.071726 0.379622 2.197 -0.830011 0.527391 0.181495 255 0 0 255
0.078583 0.383763 2.221 -0.895093 0.39317 0.2103 255 0 0 255
0.085533 0.387731 2.244 -0.905999 0.157305 0.392965 255 0 0 255
0.092159 0.389798 2.256 -0.880022 0.169565 0.443633 255 0 0 255
0.098676 0.391173 2.264 -0.779756 0.100326 0.617993 255 0 0 255
0.142374 0.392147 2.27 -0.902345 -0.420531 0.0944875 255 0 0 255
0.146548 0.386781 2.239 0.913685 0.35287 0.201649 255 0 0 255
0.151848 0.384697 2.227 0.879743 0.386554 0.276819 255 0 0 255
0.157153 0.382786 2.216 0.751259 0.485123 0.447509 255 0 0 255
0.162765 0.381738 2.21 0.32529 0.520327 0.789586 255 0 0 255
0.16865 0.38138 2.208 0.0181965 0.381376 0.924241 255 0 0 255
0.174839 0.381713 2.21 0.130372 0.374283 0.918104 255 0 0 255
0.180548 0.38101 2.206 0.342921 0.245239 0.906787 255 0 0 255
0.186488 0.380824 2.205 -0.0622345 0.413231 0.908497 255 0 0 255
0.192597 0.380983 2.206 -0.52193 0.329454 0.786797 255 0 0 255
0.19943 0.382523 2.215 -0.731702 0.153743 0.66406 255 0 0 255
0.205942 0.383372 2.22 -0.590227 0.0429801 0.806093 255 0 0 255
0.212384 0.384048 2.224 -0.494518 -0.123283 0.86038 255 0 0 255
0.218847 0.384723 2.228 -0.495748 -0.25148 0.831259 255 0 0 255
0.225332 0.385398 2.232 -0.568157 -0.216837 0.793838 255 0 0 255
0.231941 0.386246 2.237 -0.638978 -0.158697 0.752677 255 0 0 255
0.238577 0.387093 2.242 -0.663467 -0.101951 0.741227 255 0 0 255
-0.114825 0.39359 2.33248 -0.44611 -0.261624 -0.855885 255 255 0 255
-0.10163 0.392934 2.32874 0.379845 -0.22162 -0.89811 255 255 0 255
-0.079854 0.39339 2.33105 0.0577995 -0.285645 -0.956591 255 255 0 255
-0.061552 0.393422 2.33106 -0.154906 -0.442083 -0.883497 255 255 0 255
-0.048432 0.392805 2.32752 -0.590552 -0.352769 -0.725812 255 255 0 255
-0.041334 0.391418 2.31978 -0.759849 -0.285167 -0.584217 255 255 0 255
-0.033387 0.390147 2.31267 -0.642482 -0.300543 -0.704905 255 255 0 255
-0.021171 0.389443 2.30865 -0.654455 -0.299649 -0.694189 255 255 0 255
-0.014958 0.387959 2.30037 -0.883425 -0.0745583 -0.462602 255 255 0 255
-0.013872 0.385798 2.2884 -0.956218 0.255666 -0.142412 255 255 0 255
-0.0179 0.382954 2.27269 -0.909148 0.337323 -0.244261 255 255 0 255
-0.015947 0.3809 2.2613 -0.669653 0.0474329 -0.741158 255 255 0 255
-0.003776 0.380221 2.25741 -0.669427 -0.358351 -0.650732 255 255 0 255
0.001575 0.378631 2.24853 -0.60932 -0.403432 -0.682622 255 255 0 255
0.026927 0.375157 2.22897 0.104546 -0.739149 -0.665379 255 255 0 255
0.094059 0.382113 2.26675 0.736077 -0.107185 -0.668357 255 255 0 255
0.150907 0.387729 2.29722 0.762901 -0.173886 -0.622692 255 255 0 255
0.206027 0.390976 2.31455 0.241572 -0.3805 -0.892672 255 255 0 255
-0.254196 0.318065 2.27139 0.388828 0.437232 -0.810951 0 255 0 255
-0.243468 0.318612 2.27569 0.784295 0.376761 -0.492882 0 255 0 255
-0.237942 0.320196 2.28377 0.811251 0.0912203 -0.577539 0 255 0 255
-0.236763 0.322637 2.29497 0.052567 -0.641361 -0.765436 0 255 0 255
-0.222525 0.322526 2.29688 -0.0787096 -0.62013 -0.78054 0 255 0 255
-0.193452 0.319547 2.28839 -0.280013 -0.26643 -0.922284 0 255 0 255
-0.171313 0.317953 2.28496 -0.0780648 -0.429002 -0.899924 0 255 0 255
-0.154379 0.317394 2.2853 0.431932 -0.337291 -0.836462 0 255 0 255
-0.147033 0.318701 2.29241 0.728745 -0.223096 -0.647425 0 255 0 255
-0.137931 0.319678 2.29833 0.84112 -0.141178 -0.522098 0 255 0 255
-0.133195 0.321498 2.3073 0.894506 -0.129326 -0.427942 0 255 0 255
-0.129332 0.323487 2.31687 0.930743 -0.255833 -0.261279 0 255 0 255
-0.127222 0.32581 2.32765 0.870921 -0.414007 -0.264754 0 255 0 255
-0.124235 0.327967 2.33783 0.714213 -0.577365 -0.395663 0 255 0 255
-0.12037 0.329959 2.34741 0.79098 -0.500576 -0.351816 0 255 0 255
-0.109472 0.330641 2.35227 0.162316 -0.604325 -0.780029 0 255 0 255
-0.095922 0.330841 2.35542 0.319289 -0.500265 -0.804853 0 255 0 255
-0.078832 0.330404 2.35628 -0.00707044 -0.309214 -0.950966 0 255 0 255
-0.058192 0.329334 2.3549 -0.494277 -0.274127 -0.824951 0 255 0 255
-0.036641 0.328124 2.35303 -0.617705 -0.145083 -0.772911 0 255 0 255
-0.327354 0.37646 2.217 0.590286 -0.229274 0.773948 255 0 0 255
-0.320882 0.375971 2.214 0.269123 0.0470055 0.961958 255 0 0 255
-0.314568 0.375652 2.212 0.259945 0.189285 0.94689 255 0 0 255
-0.308682 0.375842 2.213 0.08467 0.190095 0.978108 255 0 0 255
-0.302379 0.375522 2.211 0.112853 0.0809519 0.990309 255 0 0 255
-0.296355 0.375542 2.211 0.0566064 0.0580698 0.996706 255 0 0 255
-0.290198 0.375392 2.21 0.0893714 0.05938 0.994227 255 0 0 255
-0.284175 0.375411 2.21 0.12256 0.132221 0.983614 255 0 0 255
-0.278151 0.375429 2.21 0.444177 0.186642 0.876283 255 0 0 255
-0.27151 0.374598 2.205 0.52512 0.193095 0.828832 255 0 0 255
-0.265016 0.373937 2.201 0.119266 0.447642 0.886223 255 0 0 255
-0.259132 0.374125 2.202 -0.527369 0.433346 0.730817 255 0 0 255
-0.254161 0.375671 2.211 -0.833148 0.261216 0.487473 255 0 0 255
-0.249028 0.377048 2.219 -0.895239 0.126556 0.427235 255 0 0 255
-0.24385 0.378424 2.227 -0.82226 0.308971 0.477939 255 0 0 255
-0.239055 0.38048 2.239 -0.668494 0.619773 0.411093 255 0 0 255
-0.233674 0.381686 2.246 -0.231371 0.88969 0.393598 255 0 0 255
-0.226531 0.380002 2.236 0.560841 0.764134 0.31868 255 0 0 255
-0.217964 0.375769 2.211 0.773635 0.614738 0.153577 255 0 0 255
-0.210108 0.372555 2.192 0.710798 0.628533 0.315771 255 0 0 255
-0.203192 0.37087 2.182 0.662087 0.652511 0.368605 255 0 0 255
-0.196331 0.369184 2.172 0.650509 0.619949 0.438749 255 0 0 255
-0.189874 0.368178 2.166 0.63321 0.573826 0.519392 255 0 0 255
-0.183364 0.367001 2.159 0.623447 0.527026 0.577545 255 0 0 255
-0.177057 0.366164 2.154 0.647943 0.342641 0.68027 255 0 0 255
-0.170855 0.365497 2.15 0.691162 0.309023 0.6533 255 0 0 255
-0.164522 0.364489 2.144 0.629318 0.272438 0.72783 255 0 0 255
-0.158368 0.36382 2.14 0.406837 0.377718 0.831753 255 0 0 255
-0.152308 0.363321 2.137 0.09558 0.424158 0.90053 255 0 0 255
-0.146468 0.363332 2.137 -0.0866929 0.338963 0.936797 255 0 0 255
-0.140694 0.363513 2.138 -0.175507 0.250175 0.95216 255 0 0 255
-0.134915 0.363693 2.139 0.00109102 0.272307 0.96221 255 0 0 255
-0.129008 0.363532 2.138 0.174854 0.226684 0.958144 255 0 0 255
-0.123164 0.363542 2.138 0.230162 0.244471 0.941944 255 0 0 255
-0.117265 0.36338 2.137 0.15473 0.196679 0.968182 255 0 0 255
-0.111423 0.363389 2.137 0.266849 0.222686 0.937658 255 0 0 255
-0.105383 0.362716 2.133 0.360777 0.083856 0.928875 255 0 0 255
-0.099458 0.362384 2.131 0.380496 0.0836951 0.920987 255 0 0 255
-0.093499 0.361881 2.128 0.506987 -0.00104972 0.861953 255 0 0 255
-0.087516 0.361207 2.124 0.565945 0.0477788 0.823057 255 0 0 255
-0.081553 0.360533 2.12 0.45017 0.18401 0.873778 255 0 0 255
-0.07572 0.360369 2.119 0.118488 0.380318 0.917234 255 0 0 255
-0.069925 0.360375 2.119 -0.0590088 0.501424 0.863187 255 0 0 255
-0.06416 0.36055 2.12 -0.145032 0.390301 0.909193 255 0 0 255
-0.058362 0.360554 2.12 -0.0898574 0.224059 0.970424 255 0 0 255
-0.052538 0.360388 2.119 0.0600292 0.130642 0.989611 255 0 0 255
-0.04672 0.360222 2.118 0.269448 0.164782 0.948812 255 0 0 255
-0.040888 0.359885 2.116 0.294622 0.256556 0.920531 255 0 0 255
-0.035084 0.359718 2.115 0.177842 0.334523 0.925455 255 0 0 255
-0.029284 0.35955 2.114 0.0004728 0.378886 0.925443 255 0 0 255
-0.023524 0.359892 2.116 -0.0577466 0.435449 0.898359 255 0 0 255
-0.017735 0.359894 2.116 -0.160765 0.495761 0.853449 255 0 0 255
-0.011958 0.360235 2.118 -0.232502 0.488344 0.841108 255 0 0 255
-0.00617 0.360576 2.12 -0.476907 0.394816 0.78529 255 0 0 255
-0.000371 0.361256 2.124 -0.483025 0.48448 0.72936 255 0 0 255
0.005444 0.361596 2.126 -0.295758 0.645006 0.704624 255 0 0 255
0.011271 0.361936 2.128 -0.271222 0.697303 0.663481 255 0 0 255
0.017108 0.362275 2.13 -0.358748 0.619173 0.698517 255 0 0 255
0.022978 0.362954 2.134 -0.553398 0.377935 0.742237 255 0 0 255
0.028869 0.363632 2.138 -0.526274 0.334252 0.781865 255 0 0 255
0.034766 0.36414 2.141 -0.535657 0.409302 0.738609 255 0 0 255
0.040699 0.364818 2.145 -0.598029 0.431942 0.67512 255 0 0 255
0.046675 0.365665 2.15 -0.735914 0.440975 0.513782 255 0 0 255
0.0528 0.367362 2.16 -0.830772 0.39004 0.397098 255 0 0 255
0.059061 0.369569 2.173 -0.807096 0.49895 0.315665 255 0 0 255
0.065543 0.372625 2.191 -0.797171 0.575366 0.182954 255 0 0 255
0.072188 0.376022 2.211 -0.861484 0.454174 0.227093 255 0 0 255
0.078907 0.379247 2.23 -0.908426 0.21144 0.360632 255 0 0 255
0.085577 0.381792 2.245 -0.899949 0.170662 0.401206 255 0 0 255
0.092166 0.383656 2.256 -0.86661 0.19757 0.458207 255 0 0 255
0.098684 0.38501 2.264 -0.773062 0.114858 0.623845 255 0 0 255
0.105059 0.385682 2.268 -0.745004 0.0952734 0.660221 255 0 0 255
0.143513 0.389028 2.288 -0.975103 -0.197973 0.099908 255 0 0 255
0.147475 0.383067 2.253 0.929454 0.360397 0.078922 255 0 0 255
0.152473 0.380166 2.236 0.903742 0.371881 0.212025 255 0 0 255
0.15759 0.377774 2.222 0.790038 0.336452 0.512485 255 0 0 255
0.163145 0.376572 2.215 0.724201 0.297746 0.621998 255 0 0 255
0.168891 0.37588 2.211 0.347761 0.110077 0.931099 255 0 0 255
0.17501 0.376038 2.212 0.10215 0.010812 0.99471 255 0 0 255
0.180725 0.375345 2.208 0.119449 0.213143 0.969692 255 0 0 255
0.18684 0.375502 2.209 -0.224873 0.383104 0.895915 255 0 0 255
0.19296 0.375659 2.21 -0.558991 0.381665 0.736113 255 0 0 255
0.199715 0.377005 2.218 -0.569805 0.100758 0.815579 255 0 0 255
0.206049 0.3775 2.221 -0.458395 -0.0554809 0.887015 255 0 0 255
0.212399 0.377995 2.224 -0.443341 -0.0952953 0.891273 255 0 0 255
0.218666 0.37832 2.226 -0.524943 -0.0357659 0.850385 255 0 0 255
0.225146 0.378985 2.23 -0.560788 -0.0893775 0.823121 255 0 0 255
0.231957 0.380158 2.237 -0.699841 0.0249842 0.713862 255 0 0 255
0.2387 0.381162 2.243 -0.617793 0.293261 0.729609 255 0 0 255
-0.123606 0.383826 2.34058 0.00380205 -0.467183 -0.884153 255 255 0 255
-0.115567 0.38252 2.33321 -0.0584945 0.936505 -0.345741 255 255 0 255
-0.099793 0.382228 2.33124 0.216803 0.0225166 -0.975956 255 255 0 255
-0.077165 0.382851 2.33414 0.163211 -0.188587 -0.968399 255 255 0 255
-0.057155 0.383155 2.33535 -0.137641 -0.223349 -0.964972 255 255 0 255
-0.047474 0.382114 2.32939 -0.697918 -0.352974 -0.623153 255 255 0 255
-0.041235 0.380623 2.32104 -0.80766 -0.125175 -0.576208 255 255 0 255
-0.03757 0.378792 2.31087 -0.666987 0.123792 -0.734713 255 255 0 255
-0.023642 0.378341 2.30805 -0.632389 0.37446 -0.678132 255 255 0 255
-0.021696 0.376285 2.29669 -0.851218 0.290721 -0.436931 255 255 0 255
-0.020601 0.374113 2.28469 -0.866344 0.475104 -0.154028 255 255 0 255
-0.024616 0.37124 2.26896 -0.916766 0.0168888 -0.399069 255 255 0 255
-0.014137 0.370345 2.26377 -0.510612 -0.413367 -0.753925 255 255 0 255
0.000582 0.370044 2.26175 -0.575333 -0.594259 -0.562004 255 255 0 255
0.005929 0.368461 2.25288 -0.456238 -0.617332 -0.640897 255 255 0 255
0.088206 0.370754 2.26343 0.681792 -0.0639724 -0.728744 255 255 0 255
0.148414 0.37701 2.29639 0.813306 0.0845316 -0.575664 255 255 0 255
0.188236 0.380438 2.31428 0.241588 -0.317801 -0.916863 255 255 0 255
0.207735 0.381006 2.31689 0.431195 -0.34656 -0.833047 255 255 0 255
-0.250214 0.306827 2.2697 0.291064 0.0452331 -0.955634 0 255 0 255
-0.244693 0.3084 2.27777 0.579769 -0.38084 -0.720297 0 255 0 255
-0.2383 0.309804 2.28523 0.99186 -0.011648 -0.126801 0 255 0 255
-0.243205 0.313464 2.30077 0.0856519 -0.307143 -0.947801 0 255 0 255
-0.232459 0.314007 2.30515 -0.0278606 -0.406705 -0.913135 0 255 0 255
-0.20428 0.311118 2.29727 -0.223288 -0.0977594 -0.969838 0 255 0 255
-0.175187 0.30809 2.28893 -0.0114137 -0.38691 -0.922047 0 255 0 255
-0.154773 0.306805 2.28683 0.250789 -0.148289 -0.956616 0 255 0 255
-0.146556 0.307929 2.29334 0.834701 -0.0821015 -0.544548 0 255 0 255
-0.139203 0.30923 2.30048 0.811991 -0.468449 -0.348175 0 255 0 255
-0.135343 0.311215 2.31006 0.859698 -0.450905 -0.240008 0 255 0 255
-0.133232 0.313539 2.32083 0.774423 -0.616359 -0.142727 0 255 0 255
-0.131998 0.316031 2.3322 0.77388 -0.539986 -0.330946 0 255 0 255
-0.126383 0.317683 2.34058 0.84897 -0.309289 -0.428474 0 255 0 255
-0.119887 0.319171 2.34839 0.719068 0.0288609 -0.69434 0 255 0 255
-0.108113 0.319664 2.35268 0.330516 -0.0787233 -0.940512 0 255 0 255
-0.095445 0.320002 2.35643 0.220502 -0.128679 -0.966861 0 255 0 255
-0.081001 0.320022 2.35906 -0.0969304 -0.430705 -0.897272 0 255 0 255
-0.062134 0.31923 2.35886 -0.345676 -0.409508 -0.844282 0 255 0 255
-0.038833 0.317636 2.35584 -0.287594 -0.314065 -0.904794 0 255 0 255
-0.327227 0.370261 2.216 0.432025 -0.223121 0.873826 255 0 0 255
-0.321192 0.370282 2.216 0.178191 -0.172487 0.96876 255 0 0 255
-0.31473 0.369801 2.213 0.120853 0.068259 0.990321 255 0 0 255
-0.308702 0.369821 2.213 0.113041 0.0564649 0.991985 255 0 0 255
-0.302536 0.369674 2.212 0.165301 0.0522008 0.984861 255 0 0 255
-0.296374 0.369526 2.211 0.00258278 0.0579215 0.998318 255 0 0 255
-0.290349 0.369545 2.211 0.0332856 0.167612 0.985291 255 0 0 255
-0.284065 0.36923 2.209 0.0594547 0.236771 0.969745 255 0 0 255
-0.278169 0.369416 2.21 0.399692 0.173288 0.900121 255 0 0 255
-0.271651 0.368765 2.206 0.494786 0.172572 0.851708 255 0 0 255
-0.265395 0.368449 2.204 0.00890934 0.418336 0.908249 255 0 0 255
-0.25962 0.368801 2.206 -0.539284 0.469703 0.698965 255 0 0 255
-0.254523 0.370155 2.214 -0.824297 0.240177 0.512689 255 0 0 255
-0.249381 0.37151 2.222 -0.889736 0.31712 0.328336 255 0 0 255
-0.244305 0.373032 2.231 -0.800728 0.395323 0.45006 255 0 0 255
-0.239712 0.375389 2.245 -0.842439 0.450336 0.295793 255 0 0 255
-0.235043 0.377746 2.259 -0.658772 0.610568 0.439574 255 0 0 255
-0.22827 0.376759 2.253 0.615559 0.733709 0.287678 255 0 0 255
-0.219852 0.372928 2.23 0.863966 0.448757 0.228428 255 0 0 255
-0.211464 0.36893 2.206 0.851675 0.42664 0.30435 255 0 0 255
-0.204324 0.366937 2.194 0.767964 0.494246 0.407372 255 0 0 255
-0.197339 0.365111 2.183 0.772586 0.494375 0.398377 255 0 0 255
-0.190676 0.363787 2.175 0.752376 0.462809 0.468762 255 0 0 255
-0.183972 0.362295 2.166 0.739372 0.435462 0.51352 255 0 0 255
-0.17748 0.361137 2.159 0.728001 0.264862 0.632347 255 0 0 255
-0.170947 0.359811 2.151 0.713369 0.186717 0.675456 255 0 0 255
-0.164533 0.358652 2.144 0.617948 0.268269 0.739034 255 0 0 255
-0.158454 0.358162 2.141 0.39095 0.263226 0.881969 255 0 0 255
-0.152532 0.358005 2.14 0.160089 0.339868 0.926748 255 0 0 255
-0.146616 0.357849 2.139 0.0609306 0.256555 0.964607 255 0 0 255
-0.140836 0.358026 2.14 -0.117195 0.148708 0.981912 255 0 0 255
-0.13505 0.358204 2.141 0.00222191 0.129601 0.991564 255 0 0 255
-0.129138 0.358046 2.14 0.144287 0.0804574 0.98626 255 0 0 255
-0.123173 0.35772 2.138 0.203138 0.128867 0.970633 255 0 0 255
-0.117219 0.357395 2.136 0.153185 0.152227 0.976402 255 0 0 255
-0.111379 0.357403 2.136 0.313998 0.0710014 0.946765 255 0 0 255
-0.105391 0.356909 2.133 0.460476 0.0509493 0.886209 255 0 0 255
-0.099465 0.356582 2.131 0.427287 -0.0514072 0.902654 255 0 0 255
-0.093462 0.355919 2.127 0.47664 0.0263528 0.878704 255 0 0 255
-0.087522 0.355424 2.124 0.432525 0.121355 0.893418 255 0 0 255
-0.081598 0.354928 2.121 0.180041 0.388161 0.903834 255 0 0 255
-0.075833 0.355101 2.122 0.000730641 0.459302 0.88828 255 0 0 255
-0.069996 0.354939 2.121 0.0653327 0.499246 0.863994 255 0 0 255
-0.064195 0.354944 2.121 0.072933 0.378325 0.922795 255 0 0 255
-0.058394 0.354949 2.121 0.117151 0.210176 0.970619 255 0 0 255
-0.052592 0.354953 2.121 0.0300684 0.241409 0.969958 255 0 0 255
-0.04679 0.354956 2.121 0.0635356 0.299022 0.952129 255 0 0 255
-0.040969 0.354792 2.12 0.121556 0.444725 0.887381 255 0 0 255
-0.035153 0.354628 2.119 0.0660505 0.636511 0.768434 255 0 0 255
-0.029342 0.354463 2.118 0.0126378 0.623465 0.781749 255 0 0 255
-0.023559 0.354632 2.119 -0.0460982 0.583803 0.810585 255 0 0 255
-0.017762 0.354634 2.119 -0.134835 0.515012 0.846512 255 0 0 255
-0.01197 0.354802 2.12 -0.205571 0.48802 0.848279 255 0 0 255
-0.006176 0.355138 2.122 -0.461283 0.361478 0.810279 255 0 0 255
-0.000372 0.355975 2.127 -0.556208 0.324861 0.764917 255 0 0 255
0.005457 0.356644 2.131 -0.463256 0.404417 0.788569 255 0 0 255
0.011303 0.357145 2.134 -0.312041 0.51919 0.795658 255 0 0 255
0.017149 0.357312 2.135 -0.248261 0.480974 0.840851 255 0 0 255
0.023001 0.357478 2.136 -0.442587 0.363346 0.819815 255 0 0 255
0.028899 0.358145 2.14 -0.562356 0.283769 0.776679 255 0 0 255
0.034818 0.358812 2.144 -0.609517 0.377793 0.696966 255 0 0 255
0.040797 0.359813 2.15 -0.663562 0.454378 0.594328 255 0 0 255
0.046808 0.360814 2.156 -0.742504 0.491448 0.455156 255 0 0 255
0.052999 0.362819 2.168 -0.811764 0.511715 0.281403 255 0 0 255
0.059365 0.365492 2.184 -0.803218 0.558561 0.207003 255 0 0 255
0.065937 0.368835 2.204 -0.841579 0.482083 0.2436 255 0 0 255
0.072487 0.371507 2.22 -0.854297 0.341085 0.392222 255 0 0 255
0.079019 0.373677 2.233 -0.895491 0.206451 0.394303 255 0 0 255
0.08566 0.376014 2.247 -0.897059 0.0882078 0.433018 255 0 0 255
0.092336 0.378183 2.26 -0.741288 0.244991 0.624877 255 0 0 255
0.098865 0.379514 2.268 -0.632747 0.0967289 0.768293 255 0 0 255
0.14873 0.380112 2.272 -0.984486 -0.168349 0.0494521 255 0 0 255
0.152757 0.374747 2.24 0.903742 0.371881 0.212025 255 0 0 255
0.157743 0.372059 2.224 0.787998 0.259169 0.558471 255 0 0 255
0.163231 0.37071 2.216 0.774304 0.26017 0.576857 255 0 0 255
0.16875 0.369527 2.209 0.405624 0.104894 0.908002 255 0 0 255
0.174706 0.369347 2.208 0.145162 0.0648594 0.98728 255 0 0 255
0.180738 0.369335 2.208 -0.103972 0.195889 0.975099 255 0 0 255
0.187107 0.369991 2.212 -0.345033 0.114948 0.931525 255 0 0 255
0.193323 0.370312 2.214 -0.509373 0.016412 0.860389 255 0 0 255
0.199729 0.370967 2.218 -0.496837 0.0701835 0.865001 255 0 0 255
0.205878 0.37112 2.219 -0.387011 -0.0923141 0.917443 255 0 0 255
0.212223 0.371607 2.222 -0.495301 -0.0284106 0.868257 255 0 0 255
0.218583 0.372094 2.225 -0.525345 0.114014 0.843216 255 0 0 255
0.225262 0.373082 2.231 -0.729916 0.15625 0.665439 255 0 0 255
0.232492 0.374906 2.242 -0.719432 0.401081 0.567056 255 0 0 255
0.238929 0.375391 2.245 -0.692408 0.549537 0.467526 255 0 0 255
-0.094514 0.37198 2.33613 0.759833 -0.046268 -0.64847 255 255 0 255
-0.075338 0.372202 2.33663 0.151026 -0.335369 -0.929903 255 255 0 255
-0.054477 0.372671 2.33843 -0.299316 -0.0691492 -0.951645 255 255 0 255
-0.043086 0.371881 2.33368 -0.675089 -0.161176 -0.719915 255 255 0 255
-0.039421 0.37005 2.32351 -0.926896 -0.0492136 -0.372077 255 255 0 255
-0.037467 0.367985 2.31212 -0.832103 0.228442 -0.50539 255 255 0 255
-0.028672 0.366859 2.30562 -0.76774 0.380449 -0.515592 255 255 0 255
-0.027572 0.364677 2.29363 -0.862342 0.397746 -0.313311 255 255 0 255
-0.028173 0.362256 2.28038 -0.946159 0.167035 -0.277278 255 255 0 255
-0.022801 0.360663 2.27144 -0.698081 -0.205541 -0.685883 255 255 0 255
-0.001261 0.361341 2.27433 -0.315968 -0.631156 -0.708383 255 255 0 255
0.009189 0.36048 2.26921 -0.694628 -0.67658 -0.244401 255 255 0 255
0.090818 0.360569 2.26648 0.760244 0.0986811 -0.642099 255 255 0 255
0.145926 0.366265 2.29557 0.461554 -0.312664 -0.830186 255 255 0 255
0.178981 0.368819 2.30828 0.312577 -0.207034 -0.927056 255 255 0 255
0.196798 0.369184 2.30957 0.301742 -0.24866 -0.920391 255 255 0 255
-0.254906 0.297327 2.27428 0.746028 -0.635852 -0.197826 0 255 0 255
-0.251992 0.299421 2.28422 -0.674926 0.677705 -0.291874 0 255 0 255
-0.247343 0.301164 2.29291 -0.506037 -0.115796 -0.854703 0 255 0 255
-0.244428 0.303261 2.30285 0.124934 0.13151 -0.983411 0 255 0 255
-0.229338 0.302905 2.30415 0.0158665 -0.00139814 -0.999873 0 255 0 255
-0.2003 0.299771 2.2957 -0.266251 0.0181033 -0.963734 0 255 0 255
-0.148194 0.294815 2.28349 0.881746 0.421107 -0.212587 0 255 0 255
-0.146082 0.297141 2.29428 0.951671 0.227335 -0.206496 0 255 0 255
-0.146591 0.299984 2.30687 0.907577 -0.341726 -0.243982 0 255 0 255
-0.146232 0.302651 2.31883 -0.832524 0.553977 -0.0037647 0 255 0 255
-0.143253 0.304801 2.32898 0.710863 -0.667393 -0.221946 0 255 0 255
-0.137648 0.306439 2.33734 0.680648 -0.568451 -0.462148 0 255 0 255
-0.126778 0.307058 2.34215 0.594106 -0.328246 -0.734366 0 255 0 255
-0.120283 0.308537 2.34997 0.542494 -0.156728 -0.82531 0 255 0 255
-0.111147 0.309513 2.35603 0.459365 -0.115542 -0.8807 0 255 0 255
-0.096729 0.309485 2.35861 0.382298 0.0245361 -0.923713 0 255 0 255
-0.081412 0.309303 2.36068 -0.00136414 -0.369219 -0.929342 0 255 0 255
-0.060793 0.308131 2.35932 -0.309856 -0.559479 -0.768747 0 255 0 255
-0.041025 0.307148 2.35865 -0.2695 -0.665401 -0.69614 0 255 0 255
-0.334184 0.365197 2.222 0.415999 -0.227931 0.880337 255 0 0 255
-0.326509 0.36341 2.211 0.029165 -0.182312 0.982808 255 0 0 255
-0.320778 0.363759 2.213 0.0113224 -0.140088 0.990074 255 0 0 255
-0.31475 0.363779 2.213 0.11629 -0.0349208 0.992601 255 0 0 255
-0.308721 0.363799 2.213 0.160411 -0.0741102 0.984264 255 0 0 255
-0.302418 0.36349 2.211 0.0445995 -0.0899458 0.994948 255 0 0 255
-0.296393 0.363509 2.211 -0.118218 -0.0040137 0.99298 255 0 0 255
-0.29063 0.363857 2.213 -0.0830811 0.181024 0.979963 255 0 0 255
-0.284598 0.363876 2.213 0.0883881 0.214623 0.972689 255 0 0 255
-0.278439 0.36373 2.212 0.398733 0.154115 0.904025 255 0 0 255
-0.271669 0.362761 2.206 0.386015 0.242997 0.889913 255 0 0 255
-0.265654 0.362779 2.206 -0.166097 0.442383 0.881311 255 0 0 255
-0.259991 0.36329 2.209 -0.574973 0.379884 0.724634 255 0 0 255
-0.25477 0.364458 2.216 -0.818588 0.277791 0.502739 255 0 0 255
-0.249623 0.365791 2.224 -0.912103 0.137915 0.386068 255 0 0 255
-0.244759 0.367617 2.235 -0.874774 0.228451 0.427294 255 0 0 255
-0.240369 0.370265 2.251 -0.840369 0.454595 0.295166 255 0 0 255
-0.235683 0.372584 2.265 -0.673075 0.415991 0.611492 255 0 0 255
-0.228994 0.371777 2.26 -0.673075 0.415991 0.611492 255 0 0 255
-0.220755 0.368338 2.239 0.728949 0.495115 0.472751 255 0 0 255
-0.212246 0.36424 2.214 0.900063 0.285094 0.329558 255 0 0 255
-0.204711 0.361622 2.198 0.817507 0.316516 0.481145 255 0 0 255
-0.197805 0.359991 2.188 0.812442 0.341478 0.472579 255 0 0 255
-0.190865 0.358194 2.177 0.7857 0.329852 0.523329 255 0 0 255
-0.184155 0.356727 2.168 0.772043 0.220275 0.596178 255 0 0 255
-0.177493 0.355258 2.159 0.765192 0.170606 0.620786 255 0 0 255
-0.171039 0.354119 2.152 0.728863 0.161908 0.66524 255 0 0 255
-0.164699 0.353143 2.146 0.607827 0.256049 0.751655 255 0 0 255
-0.158687 0.352825 2.144 0.34045 0.325614 0.882082 255 0 0 255
-0.152686 0.352507 2.142 0.244961 0.335771 0.909534 255 0 0 255
-0.146695 0.352189 2.14 0.17337 0.260842 0.949687 255 0 0 255
-0.14078 0.352034 2.139 0.00191863 0.0777318 0.996972 255 0 0 255
-0.134997 0.352209 2.14 0.0305333 0.0303616 0.999073 255 0 0 255
-0.129087 0.352054 2.139 0.143983 0.0480005 0.988415 255 0 0 255
-0.12324 0.352063 2.139 0.248967 0.0436445 0.967528 255 0 0 255
-0.117282 0.351742 2.137 0.253462 -0.00335092 0.96734 255 0 0 255
-0.111439 0.35175 2.137 0.347273 -0.115984 0.930564 255 0 0 255
-0.105398 0.3511 2.133 0.409487 -0.0884649 0.908017 255 0 0 255
-0.099426 0.350614 2.13 0.37332 -0.0226532 0.927426 255 0 0 255
-0.093469 0.350127 2.127 0.419317 0.086246 0.903734 255 0 0 255
-0.08757 0.349804 2.125 0.333775 0.183003 0.924718 255 0 0 255
-0.081758 0.34981 2.125 0.0319036 0.267514 0.963026 255 0 0 255
-0.075982 0.349981 2.126 -0.0892584 0.343589 0.934869 255 0 0 255
-0.070166 0.349986 2.126 0.11671 0.400701 0.908745 255 0 0 255
-0.064291 0.349661 2.124 0.203638 0.311747 0.928087 255 0 0 255
-0.058425 0.349337 2.122 0.144971 0.240996 0.959638 255 0 0 255
-0.052596 0.349176 2.121 0.000232235 0.230359 0.973106 255 0 0 255
-0.046838 0.349509 2.123 0.000504998 0.145758 0.98932 255 0 0 255
-0.04103 0.349512 2.123 -0.0145473 0.237952 0.971168 255 0 0 255
-0.035238 0.34968 2.124 0.0327388 0.281622 0.958967 255 0 0 255
-0.029413 0.349517 2.123 0.0611663 0.350036 0.934737 255 0 0 255
-0.023594 0.349355 2.122 -0.058117 0.394492 0.91706 255 0 0 255
-0.017797 0.349521 2.123 -0.0819108 0.43085 0.898699 255 0 0 255
-0.011994 0.349687 2.124 -0.221086 0.419751 0.880301 255 0 0 255
-0.006186 0.349852 2.125 -0.334666 0.359919 0.870894 255 0 0 255
-0.000372 0.350511 2.129 -0.559832 0.205227 0.802789 255 0 0 255
0.005463 0.351169 2.133 -0.557531 0.168826 0.812808 255 0 0 255
0.011315 0.351662 2.136 -0.400889 0.293507 0.867838 255 0 0 255
0.017167 0.351826 2.137 -0.194587 0.407023 0.89245 255 0 0 255
0.023014 0.351824 2.137 -0.369476 0.412837 0.832498 255 0 0 255
0.028914 0.352481 2.141 -0.587966 0.36339 0.722664 255 0 0 255
0.034853 0.353302 2.146 -0.694147 0.370688 0.617049 255 0 0 255
0.040895 0.354781 2.155 -0.736415 0.479002 0.477755 255 0 0 255
0.046986 0.356259 2.164 -0.772828 0.528507 0.351307 255 0 0 255
0.053321 0.359054 2.181 -0.839673 0.493813 0.22605 255 0 0 255
0.059804 0.362178 2.2 -0.86191 0.451706 0.230375 255 0 0 255
0.066271 0.364643 2.215 -0.840074 0.364139 0.402093 255 0 0 255
0.072656 0.366284 2.225 -0.830738 0.150627 0.535897 255 0 0 255
0.07906 0.36776 2.234 -0.873906 0.116265 0.471985 255 0 0 255
0.085666 0.369894 2.247 -0.929786 0.0430569 0.365573 255 0 0 255
0.092425 0.372357 2.262 -0.681792 0.0639724 0.728744 255 0 0 255
0.098872 0.373338 2.268 -0.634136 0.146334 0.759248 255 0 0 255
0.150115 0.377381 2.293 -0.813306 -0.0845319 0.575663 255 0 0 255
0.153177 0.369635 2.246 0.936264 0.248537 0.248274 255 0 0 255
0.157896 0.366333 2.226 0.774494 0.328478 0.540612 255 0 0 255
0.163463 0.365169 2.219 0.77693 0.232436 0.585109 255 0 0 255
0.168992 0.364006 2.212 0.479864 0.243022 0.843013 255 0 0 255
0.174877 0.363664 2.21 0.199823 0.27772 0.93965 255 0 0 255
0.180996 0.363816 2.211 -0.126914 0.0739157 0.989156 255 0 0 255
0.18712 0.363968 2.212 -0.338869 -0.0270274 0.940445 255 0 0 255
0.193423 0.364448 2.215 -0.400047 -0.113964 0.909381 255 0 0 255
0.199653 0.364764 2.217 -0.411683 -0.191126 0.89106 255 0 0 255
0.205892 0.365079 2.219 -0.602284 -0.04467 0.797031 255 0 0 255
0.212333 0.365723 2.223 -0.595725 0.254013 0.761964 255 0 0 255
0.218991 0.366695 2.229 -0.709114 0.436687 0.553589 255 0 0 255
0.226187 0.368489 2.24 -0.671412 0.602357 0.431709 255 0 0 255
0.233337 0.370118 2.25 -0.613719 0.680583 0.400195 255 0 0 255
-0.088379 0.36187 2.34161 0.246372 -0.335199 -0.909364 255 255 0 255
-0.072651 0.361669 2.33972 -0.039659 -0.303462 -0.952018 255 255 0 255
-0.05609 0.3616 2.3385 -0.337492 0.0169626 -0.941175 255 255 0 255
-0.043843 0.360951 2.33434 -0.656705 0.00174076 -0.754145 255 255 0 255
-0.040175 0.359118 2.32416 -0.915891 0.147113 -0.373499 255 255 0 255
-0.041639 0.356568 2.31034 -0.915361 0.209852 -0.343624 255 255 0 255
-0.033694 0.355335 2.30321 -0.858784 0.0494973 -0.509942 255 255 0 255
-0.030879 0.353383 2.29242 -0.897218 0.0034427 -0.441575 255 255 0 255
-0.026358 0.351672 2.28286 -0.767027 -0.438437 -0.468448 255 255 0 255
-0.015877 0.350814 2.27763 -0.341294 -0.555344 -0.758361 255 255 0 255
0.009051 0.352038 2.28301 -0.224292 -0.401245 -0.888085 255 255 0 255
0.022037 0.35157 2.27977 0.949928 0.312125 -0.0146651 255 255 0 255
0.106109 0.352259 2.27908 0.740052 0.0462785 -0.670955 255 255 0 255
0.158642 0.357746 2.30626 0.264652 -0.211597 -0.940843 255 255 0 255
0.181547 0.35889 2.31128 0.0108356 0.0253024 -0.999621 255 255 0 255
0.193457 0.358418 2.30805 -0.0229353 0.0862669 -0.996008 255 255 0 255
-0.263927 0.288742 2.28199 -0.226375 -0.818011 -0.528783 0 255 0 255
-0.264487 0.29155 2.2944 0.61964 -0.165928 -0.767147 0 255 0 255
-0.258112 0.292923 2.30183 0.980551 -0.00190143 -0.196256 0 255 0 255
-0.239574 0.291805 2.3006 -0.158008 -0.0312155 -0.986944 0 255 0 255
-0.22014 0.290529 2.29885 0.0342352 -0.199516 -0.979296 0 255 0 255
-0.194588 0.288033 2.2929 -0.266325 0.0363248 -0.963198 0 255 0 255
-0.135526 0.281542 2.27591 -0.795357 -0.115093 -0.595114 0 255 0 255
-0.136889 0.284581 2.28916 -0.942721 0.0205726 -0.332948 0 255 0 255
-0.146116 0.289192 2.30781 -0.95257 0.123709 -0.278041 0 255 0 255
-0.149248 0.292567 2.32219 0.975648 -0.218752 -0.0161089 0 255 0 255
-0.148019 0.295064 2.33353 0.795125 -0.508021 -0.331197 0 255 0 255
-0.141542 0.296519 2.34129 0.637618 -0.608954 -0.471825 0 255 0 255
-0.128928 0.296768 2.34491 0.404713 -0.473513 -0.7823 0 255 0 255
-0.120681 0.297892 2.35155 0.385118 -0.278397 -0.879875 0 255 0 255
-0.108039 0.298164 2.35527 0.23957 -0.152258 -0.958866 0 255 0 255
-0.095379 0.298448 2.35904 0.306606 0.0310925 -0.951329 0 255 0 255
-0.082704 0.298744 2.36287 0.350395 0.00684512 -0.936577 0 255 0 255
-0.069132 0.298883 2.36618 0.0989879 -0.374994 -0.921727 0 255 0 255
-0.050261 0.298018 2.36608 -0.373067 -0.61393 -0.695638 0 255 0 255
-0.032243 0.297341 2.36664 -0.784143 -0.2673 -0.560062 0 255 0 255
-0.333002 0.357857 2.214 0.291202 -0.223372 0.930218 255 0 0 255
-0.326677 0.357555 2.212 -0.110167 0.0556166 0.992356 255 0 0 255
-0.320798 0.357736 2.213 -0.169523 0.0632016 0.983498 255 0 0 255
-0.31477 0.357756 2.213 0.0300952 0.0790711 0.996415 255 0 0 255
-0.308601 0.357614 2.212 0.214651 0.0379411 0.975954 255 0 0 255
-0.302301 0.35731 2.21 0.139634 0.0147115 0.990094 255 0 0 255
-0.296412 0.357491 2.211 -0.167688 -0.000626353 0.98584 255 0 0 255
-0.290649 0.357833 2.213 -0.22475 0.045197 0.973368 255 0 0 255
-0.284745 0.358013 2.214 -0.0616308 0.0523454 0.996725 255 0 0 255
-0.278457 0.357708 2.212 0.367593 0.188907 0.910599 255 0 0 255
-0.272057 0.357241 2.209 0.275465 0.368694 0.887797 255 0 0 255
-0.266033 0.357259 2.209 -0.262427 0.509481 0.819488 255 0 0 255
-0.260361 0.357761 2.212 -0.521515 0.37833 0.76478 255 0 0 255
-0.255017 0.358749 2.218 -0.797613 0.310918 0.51686 255 0 0 255
-0.249976 0.360221 2.227 -0.8636 0.27072 0.425331 255 0 0 255
-0.245214 0.362179 2.239 -0.925375 0.234842 0.297541 255 0 0 255
-0.240706 0.364621 2.254 -0.904453 0.160648 0.395167 255 0 0 255
-0.235803 0.366579 2.266 -0.704386 0.0628623 0.707028 255 0 0 255
-0.229415 0.366271 2.264 -0.613868 0.0123189 0.789313 255 0 0 255
-0.221362 0.363212 2.245 0.933669 0.218032 0.284119 255 0 0 255
-0.21274 0.35902 2.219 0.916125 0.278441 0.288418 255 0 0 255
-0.204911 0.35596 2.2 0.845979 0.216399 0.487331 255 0 0 255
-0.197909 0.354194 2.189 0.831793 0.200674 0.517543 255 0 0 255
-0.191054 0.35259 2.179 0.833873 0.132506 0.535816 255 0 0 255
-0.184337 0.351146 2.17 0.803135 0.0520117 0.593522 255 0 0 255
-0.177752 0.349864 2.162 0.757303 0.0634762 0.649972 255 0 0 255
-0.171289 0.348744 2.155 0.68922 0.13843 0.711205 255 0 0 255
-0.16494 0.347784 2.149 0.572748 0.20644 0.793311 255 0 0 255
-0.158772 0.347148 2.145 0.349409 0.281834 0.893579 255 0 0 255
-0.152839 0.346997 2.144 0.295553 0.306803 0.904721 255 0 0 255
-0.146843 0.346684 2.142 0.322015 0.279021 0.904684 255 0 0 255
-0.140922 0.346532 2.141 0.235405 0.0835215 0.968302 255 0 0 255
-0.135007 0.34638 2.14 0.0912109 -0.0355023 0.995199 255 0 0 255
-0.129157 0.34639 2.14 0.0571215 -0.103059 0.993034 255 0 0 255
-0.123248 0.346237 2.139 0.223238 -0.0717566 0.972119 255 0 0 255
-0.11729 0.345922 2.137 0.347425 -0.122699 0.929646 255 0 0 255
-0.111291 0.345444 2.134 0.390297 -0.226479 0.892399 255 0 0 255
-0.105307 0.344966 2.131 0.289851 -0.242403 0.925866 255 0 0 255
-0.099433 0.344812 2.13 0.232226 -0.0335085 0.972085 255 0 0 255
-0.093564 0.344657 2.129 0.327073 0.100788 0.939609 255 0 0 255
-0.087617 0.344178 2.126 0.228094 0.189752 0.95497 255 0 0 255
-0.081764 0.344022 2.125 -0.0291366 0.156761 0.987207 255 0 0 255
-0.075987 0.344189 2.126 -0.145644 0.192225 0.970483 255 0 0 255
-0.070205 0.344356 2.127 0.119903 0.16576 0.97885 255 0 0 255
-0.064326 0.344037 2.125 0.303647 0.188961 0.933859 255 0 0 255
-0.058485 0.34388 2.124 0.198307 0.230534 0.952643 255 0 0 255
-0.052649 0.343722 2.123 0.0596081 0.178437 0.982144 255 0 0 255
-0.046841 0.343726 2.123 0.0304472 0.089575 0.995515 255 0 0 255
-0.041013 0.343567 2.122 -0.0598852 0.0774144 0.995199 255 0 0 255
-0.035224 0.343732 2.123 -0.117305 0.0415192 0.992228 255 0 0 255
-0.029416 0.343734 2.123 0.00037148 0.153024 0.988222 255 0 0 255
-0.023607 0.343736 2.123 -0.0874559 0.342629 0.935391 255 0 0 255
-0.017806 0.343899 2.124 -0.200681 0.284843 0.937332 255 0 0 255
-0.012006 0.344224 2.126 -0.225263 0.322883 0.919241 255 0 0 255
-0.006192 0.344387 2.127 -0.30564 0.292941 0.905963 255 0 0 255
-0.000372 0.344711 2.129 -0.470072 0.218699 0.855104 255 0 0 255
0.005463 0.345358 2.133 -0.572423 0.157452 0.804699 255 0 0 255
0.011326 0.346167 2.138 -0.488407 0.224284 0.8433 255 0 0 255
0.017192 0.34649 2.14 -0.299975 0.40628 0.863106 255 0 0 255
0.023069 0.346812 2.142 -0.376722 0.477849 0.793562 255 0 0 255
0.02897 0.347296 2.145 -0.59521 0.448211 0.666957 255 0 0 255
0.034937 0.348265 2.151 -0.74384 0.414208 0.524533 255 0 0 255
0.041011 0.349882 2.161 -0.788561 0.444081 0.425399 255 0 0 255
0.04725 0.352307 2.176 -0.855324 0.425548 0.295516 255 0 0 255
0.053667 0.35538 2.195 -0.90268 0.329344 0.27695 255 0 0 255
0.060053 0.357642 2.209 -0.848143 0.307017 0.431734 255 0 0 255
0.066365 0.359095 2.218 -0.805986 0.145218 0.573845 255 0 0 255
0.072694 0.360385 2.226 -0.820448 0.109725 0.561093 255 0 0 255
0.079102 0.361837 2.235 -0.858125 0.0408789 0.511812 255 0 0 255
0.085711 0.363935 2.248 -0.898337 0.00186703 0.439303 255 0 0 255
0.092472 0.366357 2.263 -0.742585 0.0236319 0.669335 255 0 0 255
0.098967 0.367484 2.27 -0.650545 0.0851189 0.754683 255 0 0 255
0.157907 0.36027 2.226 0.73578 0.422823 0.529007 255 0 0 255
0.163696 0.359611 2.222 0.738953 0.415782 0.530164 255 0 0 255
0.169156 0.358305 2.214 0.603834 0.429234 0.671672 255 0 0 255
0.174968 0.357808 2.211 0.50902 0.268537 0.817794 255 0 0 255
0.180845 0.357472 2.209 0.210832 -0.0195808 0.977326 255 0 0 255
0.186879 0.357459 2.209 -0.185396 -0.25936 0.947819 255 0 0 255
0.193088 0.357769 2.211 -0.445295 -0.133159 0.885427 255 0 0 255
0.199216 0.357918 2.212 -0.467964 -0.0534678 0.882129 255 0 0 255
0.205906 0.359037 2.219 -0.694376 0.0723992 0.715961 255 0 0 255
0.212825 0.360478 2.228 -0.710982 0.51702 0.47665 255 0 0 255
0.220087 0.362405 2.24 -0.672581 0.677267 0.298235 255 0 0 255
0.227515 0.364493 2.253 -0.623445 0.681302 0.383594 255 0 0 255
0.234494 0.365772 2.261 -0.463749 0.519743 0.717499 255 0 0 255
-0.102292 0.351362 2.34608 0.534723 -0.690758 -0.486749 255 255 0 255
-0.083108 0.351665 2.34649 0.155469 -0.5447 -0.824094 255 255 0 255
-0.07254 0.35078 2.34101 -0.264878 -0.545616 -0.795074 255 255 0 255
-0.0577 0.350507 2.33858 -0.358855 -0.410526 -0.838267 255 255 0 255
-0.04631 0.349761 2.3338 -0.661451 -0.198275 -0.723305 255 255 0 255
-0.040926 0.34817 2.32482 -0.91054 -0.127478 -0.393276 255 255 0 255
-0.04153 0.345725 2.3116 -0.94467 -0.202825 -0.2578 255 255 0 255
-0.036148 0.344136 2.30263 -0.787048 -0.317523 -0.5289 255 255 0 255
-0.029916 0.342673 2.29428 -0.735388 -0.427501 -0.525784 255 255 0 255
-0.020282 0.341707 2.28841 -0.533576 -0.54594 -0.645946 255 255 0 255
-0.00981 0.340872 2.28319 -0.177373 -0.358519 -0.916517 255 255 0 255
0.015103 0.342164 2.28857 -0.61745 0.0378241 -0.785701 255 255 0 255
0.023832 0.341102 2.28223 -0.985955 -0.0741368 -0.149657 255 255 0 255
0.01643 0.337662 2.26403 0.970369 0.0309181 -0.239643 255 255 0 255
0.120541 0.343904 2.29102 0.518351 -0.0777953 -0.851622 255 255 0 255
-0.269171 0.282102 2.29897 0.402488 -0.0314756 -0.914884 0 255 0 255
-0.255864 0.282012 2.30141 0.5174 0.172025 -0.838275 0 255 0 255
-0.23386 0.280127 2.29774 -0.856358 0.145103 -0.495577 0 255 0 255
-0.210955 0.278085 2.29357 0.623204 -0.461559 -0.631333 0 255 0 255
-0.183669 0.27517 2.28644 -0.049317 0.0372731 -0.998087 0 255 0 255
-0.137681 0.271219 2.27869 -0.869232 0.16965 -0.464386 0 255 0 255
-0.136427 0.273737 2.29011 -0.942721 0.0205726 -0.332948 0 255 0 255
-0.148261 0.278918 2.31057 -0.956688 0.0440297 -0.287768 0 255 0 255
-0.149644 0.281956 2.32374 -0.968804 0.202055 -0.143502 0 255 0 255
-0.151034 0.284989 2.33688 0.88428 -0.422432 -0.198997 0 255 0 255
-0.148933 0.287314 2.34761 0.593406 -0.564153 -0.574108 0 255 0 255
-0.137205 0.287707 2.35182 0.421471 -0.586885 -0.691324 0 255 0 255
-0.125463 0.288112 2.35608 0.185657 -0.356902 -0.915507 0 255 0 255
-0.110198 0.28783 2.35804 0.154457 -0.194887 -0.968588 0 255 0 255
-0.095789 0.287738 2.36065 0.283997 -0.159194 -0.945517 0 255 0 255
-0.084876 0.288354 2.36566 0.521985 -0.193715 -0.830666 0 255 0 255
-0.070432 0.288289 2.36839 0.104084 -0.151883 -0.982903 0 255 0 255
-0.061247 0.289272 2.37465 0.211914 -0.602917 -0.769144 0 255 0 255
-0.047649 0.289405 2.37808 -0.683684 0.13855 -0.716506 0 255 0 255
-0.33227 0.351037 2.209 -0.0203378 0.31719 0.948144 255 0 0 255
-0.32655 0.351375 2.211 -0.129323 0.0859749 0.987868 255 0 0 255
-0.320818 0.351713 2.213 -0.112257 0.116123 0.986871 255 0 0 255
-0.314932 0.351891 2.214 0.0582821 0.152254 0.986621 255 0 0 255
-0.30876 0.351752 2.213 0.239812 0.0671774 0.968492 255 0 0 255
-0.302457 0.351453 2.211 0.112584 0.0774821 0.990617 255 0 0 255
-0.296431 0.351472 2.211 -0.112149 0.0485721 0.992504 255 0 0 255
-0.290536 0.35165 2.212 -0.167413 -0.0155229 0.985765 255 0 0 255
-0.284764 0.351986 2.214 -0.0817662 -0.0204421 0.996442 255 0 0 255
-0.278727 0.352004 2.214 0.154259 0.10576 0.982354 255 0 0 255
-0.272444 0.351704 2.212 0.0976204 0.243963 0.964859 255 0 0 255
-0.266532 0.35188 2.213 -0.273935 0.394615 0.877063 255 0 0 255
-0.260849 0.352374 2.216 -0.652177 0.338089 0.678499 255 0 0 255
-0.255609 0.353504 2.223 -0.818818 0.285041 0.498287 255 0 0 255
-0.250442 0.354793 2.231 -0.885136 0.257786 0.387403 255 0 0 255
-0.245559 0.356559 2.242 -0.868059 0.313399 0.385038 255 0 0 255
-0.240829 0.358642 2.255 -0.903371 -0.0471913 0.426255 255 0 0 255
-0.235611 0.36009 2.264 -0.670177 -0.157152 0.725374 255 0 0 255
-0.229431 0.360105 2.264 -0.408715 -0.140674 0.901756 255 0 0 255
-0.221771 0.357734 2.249 0.868006 0.0769762 0.49055 255 0 0 255
-0.213233 0.353772 2.224 0.90921 0.192136 0.369352 255 0 0 255
-0.205204 0.350446 2.203 0.872479 0.242099 0.424462 255 0 0 255
-0.198194 0.34871 2.192 0.843248 0.194156 0.501234 255 0 0 255
-0.19133 0.347132 2.182 0.850181 0.0900953 0.518724 255 0 0 255
-0.184265 0.345077 2.169 0.813915 -0.0488751 0.578924 255 0 0 255
-0.177682 0.343816 2.161 0.723846 0.00632886 0.689933 255 0 0 255
-0.171301 0.342874 2.155 0.639885 0.0826389 0.764014 255 0 0 255
-0.165105 0.342249 2.151 0.555237 0.0748499 0.828317 255 0 0 255
-0.159005 0.341783 2.148 0.356816 0.136552 0.924141 255 0 0 255
-0.153064 0.341635 2.147 0.282024 0.16594 0.944948 255 0 0 255
-0.14699 0.341168 2.144 0.369569 0.18237 0.911131 255 0 0 255
-0.140932 0.3407 2.141 0.400299 0.0945691 0.911492 255 0 0 255
-0.13489 0.340232 2.138 0.251186 -0.0860448 0.964107 255 0 0 255
-0.129045 0.340242 2.138 0.111451 -0.183326 0.976714 255 0 0 255
-0.123199 0.34025 2.138 0.175321 -0.263629 0.948558 255 0 0 255
-0.117189 0.339781 2.135 0.39595 -0.195795 0.897155 255 0 0 255
-0.111194 0.339312 2.132 0.430731 -0.125485 0.893714 255 0 0 255
-0.105216 0.338842 2.129 0.180699 -0.0684036 0.981157 255 0 0 255
-0.09944 0.339009 2.13 0.0598745 0.00819433 0.998172 255 0 0 255
-0.09357 0.338856 2.129 0.252165 0.0860117 0.963854 255 0 0 255
-0.087665 0.338544 2.127 0.201947 0.169645 0.964592 255 0 0 255
-0.081847 0.338551 2.127 -0.0291352 0.211305 0.976986 255 0 0 255
-0.076028 0.338556 2.127 -0.117238 0.181746 0.976332 255 0 0 255
-0.070276 0.33888 2.129 0.119617 0.143612 0.982378 255 0 0 255
-0.06436 0.338407 2.126 0.228566 0.183155 0.956144 255 0 0 255
-0.058516 0.338252 2.125 0.171197 0.224674 0.959277 255 0 0 255
-0.052678 0.338097 2.124 0.172736 0.210912 0.962122 255 0 0 255
-0.046844 0.337941 2.123 0.204748 0.130879 0.970025 255 0 0 255
-0.041016 0.337785 2.122 -0.0293711 0.0514552 0.998243 255 0 0 255
-0.035243 0.338106 2.124 -0.23383 0.124038 0.964333 255 0 0 255
-0.029445 0.338268 2.125 -0.14682 0.1737 0.973793 255 0 0 255
-0.023642 0.338429 2.126 -0.145756 0.252559 0.95654 255 0 0 255
-0.017833 0.33859 2.127 -0.201134 0.263739 0.943391 255 0 0 255
-0.012018 0.33875 2.128 -0.27958 0.278281 0.91891 255 0 0 255
-0.006201 0.339069 2.13 -0.275623 0.324046 0.905001 255 0 0 255
-0.000373 0.339228 2.131 -0.422284 0.275028 0.863733 255 0 0 255
0.005466 0.339706 2.134 -0.617158 0.240586 0.749156 255 0 0 255
0.011332 0.340501 2.139 -0.570238 0.30129 0.764233 255 0 0 255
0.017209 0.340978 2.142 -0.421015 0.452488 0.78613 255 0 0 255
0.023103 0.341454 2.145 -0.415677 0.468704 0.779442 255 0 0 255
0.029013 0.341929 2.148 -0.56935 0.494458 0.656774 255 0 0 255
0.035004 0.343041 2.155 -0.776188 0.388085 0.496912 255 0 0 255
0.041109 0.34479 2.166 -0.847478 0.395862 0.353659 255 0 0 255
0.047405 0.347493 2.183 -0.91121 0.254007 0.324311 255 0 0 255
0.053769 0.350036 2.199 -0.888985 0.125305 0.44046 255 0 0 255
0.060057 0.351624 2.209 -0.858772 0.142909 0.492024 255 0 0 255
0.06637 0.353052 2.218 -0.796923 0.089422 0.597426 255 0 0 255
0.072699 0.35432 2.226 -0.792726 0.0258117 0.609031 255 0 0 255
0.079107 0.355747 2.235 -0.849601 0.0549747 0.524554 255 0 0 255
0.085679 0.357651 2.247 -0.887693 0.0129011 0.460256 255 0 0 255
0.092397 0.359874 2.261 -0.760244 -0.0986811 0.642099 255 0 0 255
0.099017 0.361458 2.271 -0.770883 -0.0160164 0.636775 255 0 0 255
0.153471 0.358036 2.25 0.878262 0.284477 0.384354 255 0 0 255
0.158486 0.35548 2.234 0.845295 0.405887 0.347464 255 0 0 255
0.164223 0.354673 2.229 0.750331 0.461287 0.473516 255 0 0 255
0.169626 0.353229 2.22 0.74624 0.408711 0.525434 255 0 0 255
0.175218 0.352263 2.214 0.692709 0.282566 0.663559 255 0 0 255
0.180775 0.351296 2.208 0.331568 0.134894 0.933738 255 0 0 255
0.186723 0.351124 2.207 -0.0371719 0.0945472 0.994826 255 0 0 255
0.192926 0.351429 2.209 -0.370162 0.216654 0.90335 255 0 0 255
0.1995 0.35237 2.215 -0.769162 0.206013 0.604936 255 0 0 255
0.206663 0.354266 2.227 -0.736966 0.465921 0.489693 255 0 0 255
