ply
format ascii 1.0
comment VCGLIB generated
element vertex 727
property float x
property float y
property float z
property float nx
property float ny
property float nz
property uchar red
property uchar green
property uchar blue
property uchar alpha
element face 0
property list uchar int vertex_indices
end_header
-0.012103 0.433482 2.3105 -0.591983 -0.575476 -0.564255 255 255 0 255
-0.005901 0.431975 2.30227 -0.367106 -0.635339 -0.679395 255 255 0 255
0.0157 0.432322 2.30523 -0.113713 -0.22512 -0.967673 255 255 0 255
0.023585 0.431036 2.29833 -0.486494 -0.232284 -0.84224 255 255 0 255
0.03573 0.430273 2.29458 -0.381974 -0.229367 -0.895258 255 255 0 255
0.046151 0.429312 2.28962 -0.633143 -0.273434 -0.724129 255 255 0 255
0.056558 0.428359 2.2847 -0.860059 0.0526613 -0.50747 255 255 0 255
0.05929 0.426468 2.27413 -0.873325 0.205471 -0.441684 255 255 0 255
0.063725 0.424788 2.26482 -0.544475 0.270721 -0.793887 255 255 0 255
0.079198 0.424487 2.26381 -0.124433 -0.127782 -0.983966 255 255 0 255
0.096344 0.424412 2.26415 -0.229246 -0.0889256 -0.969298 255 255 0 255
0.10668 0.423497 2.25943 -0.515591 -0.150979 -0.843428 255 255 0 255
0.115309 0.422376 2.25345 -0.57229 -0.319123 -0.75541 255 255 0 255
0.123926 0.421261 2.2475 -0.457938 -0.486138 -0.744287 255 255 0 255
0.137602 0.420801 2.24549 -0.668098 -0.33434 -0.664727 255 255 0 255
0.138598 0.418722 2.23374 -0.718332 -0.336153 -0.609098 255 255 0 255
0.148029 0.417733 2.22853 -0.692747 -0.524652 -0.494814 255 255 0 255
0.15408 0.416312 2.22072 -0.77808 -0.273705 -0.5654 255 255 0 255
-0.219421 0.355854 2.25356 0.883615 -0.125059 -0.451203 0 255 0 255
-0.221717 0.358926 2.26732 -0.825079 0.0618845 -0.561618 0 255 0 255
-0.224023 0.361993 2.28104 -0.954811 -0.106035 -0.277657 0 255 0 255
-0.222847 0.364414 2.29225 0.883542 0.340246 -0.321848 0 255 0 255
-0.219052 0.366356 2.30159 0.540296 0.431296 -0.72254 0 255 0 255
-0.201267 0.365761 2.30108 0.28015 0.0356464 -0.959294 0 255 0 255
-0.139867 0.362675 2.29459 0.587446 -0.274839 -0.761164 0 255 0 255
-0.135135 0.364509 2.30352 0.755484 -0.317961 -0.572839 0 255 0 255
-0.125131 0.36541 2.30885 0.732588 -0.259825 -0.629132 0 255 0 255
-0.119509 0.367097 2.31722 0.821964 -0.110798 -0.558658 0 255 0 255
-0.112124 0.368479 2.32441 0.826798 -0.197358 -0.526741 0 255 0 255
-0.109134 0.370639 2.33459 0.744983 -0.325114 -0.582496 0 255 0 255
-0.100857 0.371876 2.34122 0.692828 -0.428929 -0.579663 0 255 0 255
-0.093453 0.373273 2.34847 0.754424 -0.214208 -0.620451 0 255 0 255
-0.08869 0.375136 2.35751 0.233984 -0.266151 -0.935102 0 255 0 255
-0.303243 0.408994 2.263 0.915052 -0.181685 0.360098 255 0 0 255
-0.292221 0.402327 2.226 0.377815 0.252007 0.890926 255 0 0 255
-0.285898 0.401985 2.224 0.25691 0.165544 0.952151 255 0 0 255
-0.279837 0.402005 2.224 -0.140659 0.0560693 0.988469 255 0 0 255
-0.274021 0.402385 2.226 -0.0520791 -0.0693273 0.996234 255 0 0 255
-0.267953 0.402404 2.226 0.172694 0.0251001 0.984656 255 0 0 255
-0.261766 0.402242 2.225 0.289235 0.173955 0.94132 255 0 0 255
-0.255469 0.401899 2.223 0.402949 0.296407 0.865895 255 0 0 255
-0.248846 0.401013 2.218 0.64836 0.309765 0.695467 255 0 0 255
-0.241921 0.399584 2.21 0.452603 0.368342 0.81208 255 0 0 255
-0.235786 0.39942 2.209 -0.485242 0.375424 0.789682 255 0 0 255
-0.230384 0.400521 2.215 -0.714962 0.282556 0.639524 255 0 0 255
-0.224948 0.401623 2.221 -0.64203 0.319829 0.696783 255 0 0 255
-0.219282 0.402362 2.225 -0.676592 0.328561 0.658993 255 0 0 255
-0.21388 0.403644 2.232 -0.737013 0.206386 0.643597 255 0 0 255
-0.208254 0.404563 2.237 0.144614 -0.135655 0.980145 255 0 0 255
-0.201515 0.403312 2.23 0.0203641 0.171368 0.984997 255 0 0 255
-0.193587 0.399529 2.209 0.934151 0.22326 0.278419 255 0 0 255
-0.186113 0.396468 2.192 0.770245 0.412227 0.486613 255 0 0 255
-0.179388 0.394854 2.183 0.708395 0.511979 0.485854 255 0 0 255
-0.17303 0.393962 2.178 0.624413 0.562035 0.542425 255 0 0 255
-0.166545 0.392709 2.171 0.549178 0.619474 0.560941 255 0 0 255
-0.160319 0.391997 2.167 0.395919 0.70398 0.589627 255 0 0 255
-0.154187 0.391466 2.164 0.456761 0.655265 0.601662 255 0 0 255
-0.148138 0.391116 2.162 0.415458 0.658859 0.627136 255 0 0 255
-0.141837 0.390041 2.156 0.573596 0.478083 0.66515 255 0 0 255
-0.135694 0.389328 2.152 0.481151 0.342906 0.80679 255 0 0 255
-0.129693 0.388976 2.15 0.12676 0.299397 0.945671 255 0 0 255
-0.123876 0.389167 2.151 -0.120332 0.200294 0.972318 255 0 0 255
-0.117998 0.389176 2.151 0.0922679 0.0862264 0.991994 255 0 0 255
-0.112015 0.388823 2.149 0.180607 0.121105 0.976071 255 0 0 255
-0.106092 0.38865 2.148 0.0898 0.237865 0.967138 255 0 0 255
-0.100174 0.388477 2.147 -0.0285007 0.244001 0.969356 255 0 0 255
-0.094393 0.388847 2.149 -0.0586046 0.211202 0.975684 255 0 0 255
-0.088478 0.388673 2.148 0.118451 0.149624 0.981622 255 0 0 255
-0.082567 0.388498 2.147 0.118406 0.094563 0.988452 255 0 0 255
-0.076698 0.388504 2.147 0.146353 0.119947 0.981934 255 0 0 255
-0.070795 0.388329 2.146 0.279685 0.133698 0.950737 255 0 0 255
-0.064867 0.387972 2.144 0.32981 0.127943 0.935337 255 0 0 255
-0.058949 0.387615 2.142 0.279218 0.269477 0.92164 255 0 0 255
-0.053043 0.387258 2.14 0.230277 0.323141 0.917907 255 0 0 255
-0.047147 0.3869 2.138 0.424906 0.336836 0.840236 255 0 0 255
-0.041243 0.38636 2.135 0.439932 0.389949 0.808949 255 0 0 255
-0.035388 0.386182 2.134 0.255203 0.287085 0.923284 255 0 0 255
-0.029539 0.386004 2.133 -0.0291637 0.361521 0.931908 255 0 0 255
-0.023717 0.386187 2.134 -0.170288 0.371779 0.912569 255 0 0 255
-0.017881 0.386188 2.134 -3.48099e-05 0.392372 0.919807 255 0 0 255
-0.012045 0.386189 2.134 -0.0284367 0.415324 0.909229 255 0 0 255
-0.006212 0.386371 2.135 0.0572066 0.41519 0.907934 255 0 0 255
-0.000373 0.386009 2.133 0.139908 0.452653 0.880643 255 0 0 255
0.00546 0.386009 2.133 0.115895 0.52231 0.844844 255 0 0 255
0.011288 0.385828 2.132 0.112117 0.592274 0.797898 255 0 0 255
0.017119 0.385827 2.132 0.102914 0.682165 0.723919 255 0 0 255
0.022917 0.385282 2.129 0.0294605 0.567684 0.822719 255 0 0 255
0.028753 0.385461 2.13 -0.362115 0.280319 0.888985 255 0 0 255
0.034642 0.386182 2.134 -0.538723 0.120076 0.833882 255 0 0 255
0.040573 0.387084 2.139 -0.57405 0.15553 0.803914 255 0 0 255
0.046509 0.387805 2.143 -0.482346 0.207378 0.85108 255 0 0 255
0.052417 0.388163 2.145 -0.353554 0.241908 0.903593 255 0 0 255
0.058337 0.388521 2.147 -0.350653 0.251274 0.902166 255 0 0 255
0.064297 0.389059 2.15 -0.280939 0.278895 0.918309 255 0 0 255
0.070175 0.389054 2.15 -0.251566 0.317646 0.914229 255 0 0 255
0.076124 0.38941 2.152 -0.348783 0.409135 0.843184 255 0 0 255
0.082122 0.389947 2.155 -0.43215 0.491008 0.756411 255 0 0 255
0.088177 0.390664 2.159 -0.318572 0.581883 0.748281 255 0 0 255
0.094122 0.390838 2.16 -0.16017 0.5118 0.844042 255 0 0 255
0.100073 0.391011 2.161 -0.310871 0.471507 0.825252 255 0 0 255
0.106126 0.391546 2.164 -0.54869 0.463908 0.695506 255 0 0 255
0.1123 0.392443 2.169 -0.681767 0.447622 0.578644 255 0 0 255
0.118664 0.393881 2.177 -0.55311 0.55463 0.621655 255 0 0 255
0.124785 0.394415 2.18 -0.308647 0.523806 0.793955 255 0 0 255
0.130802 0.394586 2.181 0.211385 0.332033 0.919277 255 0 0 255
0.136573 0.394033 2.178 0.232504 0.368215 0.9002 255 0 0 255
0.142524 0.394023 2.178 -0.190903 0.430409 0.882216 255 0 0 255
0.148678 0.394554 2.181 -0.11579 0.386207 0.915116 255 0 0 255
0.154565 0.394362 2.18 0.316216 0.213422 0.924369 255 0 0 255
0.160373 0.393989 2.178 0.592865 0.0598628 0.803074 255 0 0 255
0.165863 0.392891 2.172 0.331732 0.0656605 0.941086 255 0 0 255
0.171953 0.39324 2.174 -0.344936 0.0926798 0.934039 255 0 0 255
0.178135 0.39377 2.177 -0.571232 0.0542136 0.818996 255 0 0 255
0.184587 0.394842 2.183 -0.552666 -0.05143 0.831815 255 0 0 255
0.190634 0.395009 2.184 -0.365353 -0.210837 0.906678 255 0 0 255
0.196777 0.395356 2.186 -0.344681 -0.262507 0.901269 255 0 0 255
0.203022 0.395884 2.189 -0.478931 -0.147484 0.865375 255 0 0 255
0.209474 0.396774 2.194 -0.517136 0.0328274 0.855274 255 0 0 255
0.215756 0.397301 2.197 -0.494491 0.2098 0.843482 255 0 0 255
0.222054 0.397827 2.2 -0.404544 0.242149 0.881877 255 0 0 255
-0.10654 0.427412 2.33452 -0.53907 -0.425267 -0.727016 255 255 0 255
-0.096794 0.42627 2.32843 0.469099 -0.241198 -0.849571 255 255 0 255
-0.080168 0.425952 2.3272 -0.0924931 -0.177915 -0.979689 255 255 0 255
-0.058406 0.426265 2.32967 0.133191 -0.33372 -0.933216 255 255 0 255
-0.033243 0.42701 2.33468 -0.179976 -0.312636 -0.932667 255 255 0 255
-0.013278 0.427156 2.33615 -0.497551 -0.37662 -0.781409 255 255 0 255
-0.013081 0.424926 2.32364 -0.834144 -0.474766 -0.280715 255 255 0 255
-0.00345 0.423843 2.31787 -0.700553 -0.633374 -0.328728 255 255 0 255
0.001032 0.422138 2.30842 -0.336626 -0.597255 -0.72799 255 255 0 255
0.020052 0.422226 2.30953 -0.356237 -0.243607 -0.902081 255 255 0 255
0.027077 0.420848 2.30201 -0.535663 -0.208148 -0.818376 255 255 0 255
0.039216 0.420113 2.29826 -0.477989 -0.177188 -0.860309 255 255 0 255
0.050484 0.41928 2.29393 -0.584928 -0.0816873 -0.806961 255 255 0 255
0.05322 0.417384 2.28334 -0.8574 0.179043 -0.482503 255 255 0 255
0.053405 0.415165 2.27086 -0.91309 0.307319 -0.267996 255 255 0 255
0.057847 0.413483 2.26153 -0.725707 0.24508 -0.642873 255 255 0 255
0.075869 0.413541 2.2624 0.0674862 0.108579 -0.991795 255 255 0 255
0.096405 0.413941 2.26528 -0.0921381 -0.0669412 -0.993494 255 255 0 255
0.105892 0.412937 2.2599 -0.289049 -0.149981 -0.945493 255 255 0 255
0.117905 0.41227 2.25649 -0.382444 -0.438087 -0.81352 255 255 0 255
0.126519 0.41117 2.25055 -0.581698 -0.517557 -0.627505 255 255 0 255
0.136811 0.410299 2.24593 -0.733459 -0.29728 -0.611279 255 255 0 255
0.141184 0.408656 2.23678 -0.826828 0.00356649 -0.562444 255 255 0 255
0.149769 0.407574 2.23092 -0.701832 0.203969 -0.682517 255 255 0 255
0.161709 0.406946 2.22771 -0.737433 -0.0872934 -0.669755 255 255 0 255
-0.223817 0.348859 2.27003 -0.88994 0.300272 -0.343283 0 255 0 255
-0.225249 0.351778 2.28313 0.995602 0.0256097 -0.090111 0 255 0 255
-0.218836 0.353231 2.29061 0.721051 0.166983 -0.672459 0 255 0 255
-0.213291 0.354851 2.29874 0.376937 0.217176 -0.900419 0 255 0 255
-0.194634 0.354055 2.29765 -0.0356284 0.1318 -0.990636 0 255 0 255
-0.151987 0.351564 2.29207 0.459161 -0.0859757 -0.884183 0 255 0 255
-0.139378 0.351949 2.29552 0.815141 -0.174465 -0.552365 0 255 0 255
-0.137276 0.354257 2.30628 0.768248 -0.150932 -0.622105 0 255 0 255
-0.128153 0.355296 2.31221 0.747438 -0.334144 -0.574181 0 255 0 255
-0.121657 0.356817 2.31998 0.792198 -0.344108 -0.503996 0 255 0 255
-0.115153 0.358344 2.32776 0.822286 -0.276905 -0.497161 0 255 0 255
-0.113044 0.36066 2.33854 0.781773 -0.2035 -0.589423 0 255 0 255
-0.10213 0.361411 2.34339 0.678208 -0.139351 -0.721537 0 255 0 255
-0.092966 0.362485 2.34947 0.582752 -0.101613 -0.806273 0 255 0 255
-0.085555 0.363877 2.35675 0.678867 0.0046187 -0.734247 0 255 0 255
-0.300718 0.399458 2.244 0.904591 -0.176586 0.387985 255 0 0 255
-0.292766 0.396986 2.23 0.59501 0.170448 0.785436 255 0 0 255
-0.286174 0.396294 2.226 0.43158 0.201253 0.879339 255 0 0 255
-0.279856 0.395957 2.224 0.126051 0.0443642 0.991031 255 0 0 255
-0.273917 0.396154 2.225 -0.0489122 -0.138152 0.989203 255 0 0 255
-0.267731 0.395995 2.224 -0.0519944 -0.0988469 0.993743 255 0 0 255
-0.261784 0.396191 2.225 0.0633293 0.0976274 0.993206 255 0 0 255
-0.255602 0.396031 2.224 0.419305 0.11543 0.900477 255 0 0 255
-0.249088 0.395337 2.22 0.645768 0.22075 0.730926 255 0 0 255
-0.242267 0.394107 2.213 0.510759 0.373886 0.774167 255 0 0 255
-0.236336 0.394302 2.214 -0.414816 0.382811 0.825459 255 0 0 255
-0.230816 0.395209 2.219 -0.717639 0.261711 0.64537 255 0 0 255
-0.225369 0.396294 2.225 -0.676841 0.244322 0.694401 255 0 0 255
-0.219593 0.396845 2.228 -0.709905 0.258526 0.655133 255 0 0 255
-0.214183 0.398107 2.235 -0.738387 0.278653 0.614115 255 0 0 255
-0.208362 0.398657 2.238 0.284739 0.298052 0.911092 255 0 0 255
-0.20162 0.397425 2.231 0.689558 0.223226 0.68897 255 0 0 255
-0.193864 0.394054 2.212 0.876613 0.311533 0.366738 255 0 0 255
-0.186636 0.391574 2.198 0.809972 0.434895 0.393461 255 0 0 255
-0.179895 0.389984 2.189 0.691655 0.509704 0.511679 255 0 0 255
-0.173519 0.389106 2.184 0.616236 0.5636 0.550098 255 0 0 255
-0.167017 0.387872 2.177 0.60875 0.551896 0.569942 255 0 0 255
-0.160701 0.386993 2.172 0.497138 0.586203 0.639703 255 0 0 255
-0.154483 0.386292 2.168 0.535988 0.405517 0.740454 255 0 0 255
-0.148423 0.385947 2.166 0.624771 0.318098 0.713075 255 0 0 255
-0.142111 0.384889 2.16 0.685577 0.201147 0.69966 255 0 0 255
-0.135894 0.384008 2.155 0.541153 0.141712 0.828897 255 0 0 255
-0.129824 0.383483 2.152 0.213692 0.206772 0.954768 255 0 0 255
-0.123885 0.383315 2.151 0.0883205 0.0768865 0.99312 255 0 0 255
-0.117952 0.383146 2.15 0.120759 0.11574 0.985911 255 0 0 255
-0.112076 0.383154 2.15 0.031071 0.0843935 0.995948 255 0 0 255
-0.106248 0.383341 2.151 -0.0584262 0.248028 0.96699 255 0 0 255
-0.100369 0.383349 2.151 -0.0865434 0.344885 0.934647 255 0 0 255
-0.094489 0.383356 2.151 0.000864353 0.334957 0.942233 255 0 0 255
-0.088608 0.383363 2.151 0.227315 0.233971 0.945297 255 0 0 255
-0.08265 0.383013 2.149 0.175656 0.191283 0.965689 255 0 0 255
-0.076739 0.382841 2.148 0.0892207 0.143035 0.985688 255 0 0 255
-0.070833 0.382668 2.147 0.173535 0.237956 0.955648 255 0 0 255
-0.064932 0.382495 2.146 0.276068 0.295229 0.914673 255 0 0 255
-0.059009 0.382144 2.144 0.223969 0.389956 0.893181 255 0 0 255
-0.053146 0.382148 2.144 0.202536 0.388672 0.89884 255 0 0 255
-0.047261 0.381973 2.143 0.46151 0.366337 0.807964 255 0 0 255
-0.041304 0.381086 2.138 0.488744 0.282144 0.825544 255 0 0 255
-0.035424 0.380732 2.136 0.229128 0.288959 0.929518 255 0 0 255
-0.029569 0.380556 2.135 -0.116462 0.38017 0.917555 255 0 0 255
-0.023752 0.380915 2.137 -0.197858 0.395657 0.896832 255 0 0 255
-0.017907 0.380917 2.137 -0.0563954 0.462251 0.884954 255 0 0 255
-0.012063 0.380918 2.137 0.000115283 0.436193 0.899853 255 0 0 255
-0.006221 0.381097 2.138 0.144669 0.386995 0.910662 255 0 0 255
-0.000373 0.38074 2.136 0.0577221 0.429963 0.900999 255 0 0 255
0.005471 0.380918 2.137 -0.0577536 0.487492 0.871216 255 0 0 255
0.01131 0.38074 2.136 -0.0530167 0.656172 0.752746 255 0 0 255
0.017168 0.381095 2.138 0.0981069 0.720036 0.686967 255 0 0 255
0.022983 0.380559 2.135 0.119343 0.729642 0.673335 255 0 0 255
0.028822 0.380557 2.135 -0.111857 0.593933 0.7967 255 0 0 255
0.034661 0.380554 2.135 -0.468367 0.36981 0.802418 255 0 0 255
0.040595 0.381443 2.14 -0.555029 0.247039 0.794301 255 0 0 255
0.046512 0.381974 2.143 -0.481745 0.207165 0.851472 255 0 0 255
0.05247 0.382683 2.147 -0.396967 0.265656 0.878546 255 0 0 255
0.058368 0.382857 2.148 -0.350562 0.290441 0.890365 255 0 0 255
0.064302 0.383209 2.15 -0.355468 0.339168 0.870981 255 0 0 255
0.070246 0.38356 2.152 -0.371747 0.449363 0.812329 255 0 0 255
0.076236 0.384089 2.155 -0.460329 0.529428 0.712603 255 0 0 255
0.082281 0.384796 2.159 -0.373484 0.617395 0.692338 255 0 0 255
0.088306 0.385324 2.162 -0.2011 0.625048 0.754237 255 0 0 255
0.09426 0.385496 2.163 -0.0532188 0.545056 0.836709 255 0 0 255
0.100173 0.385488 2.163 -0.256809 0.476669 0.840735 255 0 0 255
0.106282 0.386193 2.167 -0.52152 0.449084 0.725493 255 0 0 255
0.112567 0.387433 2.174 -0.733457 0.440518 0.517673 255 0 0 255
0.119054 0.389206 2.184 -0.482098 0.590918 0.646837 255 0 0 255
0.125023 0.389197 2.184 0.0724271 0.656997 0.750406 255 0 0 255
0.130992 0.389187 2.184 0.29545 0.483372 0.824051 255 0 0 255
0.136709 0.388464 2.18 0.193167 0.471435 0.860486 255 0 0 255
0.142796 0.38881 2.182 -0.0735158 0.418716 0.905137 255 0 0 255
0.148758 0.388799 2.182 0.0870639 0.271559 0.958476 255 0 0 255
0.154648 0.38861 2.181 0.459572 0.0669968 0.88561 255 0 0 255
0.160238 0.387707 2.176 0.5573 0.0324914 0.829676 255 0 0 255
0.165876 0.386983 2.172 0.212609 0.020223 0.976928 255 0 0 255
0.171887 0.387148 2.173 -0.304107 0.162045 0.938755 255 0 0 255
0.178067 0.38767 2.176 -0.360642 0.0351206 0.932043 255 0 0 255
0.184347 0.388369 2.18 -0.374305 -0.197352 0.906062 255 0 0 255
0.190474 0.388712 2.182 -0.236395 -0.3253 0.915586 255 0 0 255
0.196611 0.389054 2.184 -0.470488 -0.222203 0.853971 255 0 0 255
0.203037 0.38993 2.189 -0.542965 -0.0638347 0.837325 255 0 0 255
0.209393 0.390628 2.193 -0.620638 0.00664773 0.784069 255 0 0 255
0.215968 0.391681 2.199 -0.505318 0.161312 0.847722 255 0 0 255
0.222272 0.3922 2.202 -0.428136 0.13857 0.893027 255 0 0 255
-0.113596 0.417956 2.34374 -0.462261 -0.455015 -0.761102 255 255 0 255
-0.102115 0.417033 2.33881 -0.436179 -0.438524 -0.785776 255 255 0 255
-0.094961 0.415597 2.33092 0.272886 0.0312742 -0.961538 255 255 0 255
-0.074898 0.415738 2.33209 -0.0321622 -0.168255 -0.985219 255 255 0 255
-0.05573 0.415792 2.33275 0.155011 -0.335908 -0.929052 255 255 0 255
-0.02972 0.416708 2.33835 -0.202426 -0.228934 -0.952162 255 255 0 255
-0.012341 0.416587 2.33799 -0.42121 -0.0526201 -0.905435 255 255 0 255
-0.006139 0.415093 2.32976 -0.697737 -0.42469 -0.57689 255 255 0 255
5.8e-05 0.413603 2.32154 -0.686067 -0.551061 -0.475019 255 255 0 255
0.00796 0.412331 2.31457 -0.528756 -0.437718 -0.727201 255 255 0 255
0.020127 0.411604 2.31072 -0.572575 -0.17841 -0.800205 255 255 0 255
0.028006 0.410345 2.30382 -0.616045 -0.137474 -0.775622 255 255 0 255
0.035877 0.409091 2.29694 -0.565281 0.120479 -0.816053 255 255 0 255
0.046294 0.40817 2.29196 -0.70472 0.187514 -0.684258 255 255 0 255
0.05159 0.406598 2.28325 -0.846852 0.313941 -0.429282 255 255 0 255
0.053481 0.404587 2.27202 -0.887836 0.234856 -0.395714 255 255 0 255
0.055375 0.402575 2.26078 -0.852843 0.372329 -0.366102 255 255 0 255
0.065758 0.401673 2.2559 -0.231446 0.451847 -0.861549 255 255 0 255
0.090535 0.402678 2.26193 0.0567719 0.0616234 -0.996484 255 255 0 255
0.10934 0.402921 2.26359 -0.0428127 -0.145663 -0.988408 255 255 0 255
0.128112 0.403181 2.26533 -0.383621 -0.291594 -0.876246 255 255 0 255
0.131645 0.401424 2.25553 -0.714326 -0.376864 -0.589671 255 255 0 255
0.139398 0.400235 2.24897 -0.874263 -0.218057 -0.433722 255 255 0 255
0.139555 0.398026 2.23657 -0.959276 0.129496 -0.25104 255 255 0 255
0.143087 0.396271 2.22676 -0.733147 0.384558 -0.560902 255 255 0 255
0.148302 0.394747 2.21827 -0.805347 0.390857 -0.445699 255 255 0 255
-0.22996 0.342219 2.2877 0.621181 -0.696846 -0.358525 0 255 0 255
-0.216577 0.342341 2.29023 0.448071 0.893213 -0.0374653 0 255 0 255
-0.205795 0.34297 2.29466 -0.100851 0.287262 -0.952528 0 255 0 255
-0.187139 0.342134 2.29361 0.0103951 -0.349219 -0.936983 0 255 0 255
-0.16496 0.340665 2.2902 -0.0566643 0.00869589 -0.998356 0 255 0 255
-0.13539 0.340559 2.29402 0.805441 0.403387 -0.434216 0 255 0 255
-0.137664 0.343682 2.30782 0.919554 0.0563728 -0.3889 0 255 0 255
-0.131175 0.345187 2.31557 0.793544 -0.0753785 -0.603827 0 255 0 255
-0.124681 0.346698 2.32333 0.718699 -0.240327 -0.652468 0 255 0 255
-0.115546 0.347733 2.32933 0.759441 -0.171689 -0.627513 0 255 0 255
-0.111676 0.349734 2.33892 0.743241 -0.122733 -0.657669 0 255 0 255
-0.101645 0.350623 2.34438 0.681241 -0.143899 -0.717777 0 255 0 255
-0.093363 0.351839 2.35106 0.727769 -0.363182 -0.581765 0 255 0 255
-0.08419 0.352903 2.35718 0.434154 -0.0364081 -0.900103 0 255 0 255
-0.077654 0.354449 2.36508 0.640167 0.069155 -0.765117 0 255 0 255
-0.066697 0.355215 2.3701 0.247698 -0.327894 -0.911664 0 255 0 255
-0.034127 0.354909 2.37335 -0.361765 -0.44587 -0.818735 0 255 0 255
-0.300068 0.392479 2.239 0.800067 -0.11084 0.589583 255 0 0 255
-0.293179 0.391447 2.233 0.577272 0.0295171 0.816018 255 0 0 255
-0.286451 0.39059 2.228 0.461255 0.15178 0.874189 255 0 0 255
-0.279875 0.389908 2.224 0.270819 0.0947148 0.957959 255 0 0 255
-0.273689 0.389752 2.223 0.0597034 0.0704289 0.995728 255 0 0 255
-0.267749 0.389946 2.224 -0.11107 0.0294393 0.993376 255 0 0 255
-0.26192 0.390315 2.226 -0.0256789 -0.0159656 0.999543 255 0 0 255
-0.255735 0.390157 2.225 0.334332 0.0444542 0.941406 255 0 0 255
-0.249218 0.389473 2.221 0.572284 0.160301 0.804236 255 0 0 255
-0.242503 0.388438 2.215 0.37906 0.428457 0.820206 255 0 0 255
-0.23646 0.388455 2.215 -0.339368 0.32796 0.88163 255 0 0 255
-0.230833 0.389173 2.219 -0.689362 0.139321 0.710894 255 0 0 255
-0.225385 0.390242 2.225 -0.684681 0.150031 0.713234 255 0 0 255
-0.219707 0.390959 2.229 -0.703876 0.260605 0.66079 255 0 0 255
-0.21439 0.392378 2.237 -0.627918 0.349965 0.695157 255 0 0 255
-0.208843 0.393445 2.243 -0.100401 0.769231 0.631033 255 0 0 255
-0.202358 0.392758 2.239 0.0721613 0.563218 0.823151 255 0 0 255
-0.194755 0.389791 2.222 0.814624 0.523515 0.24964 255 0 0 255
-0.187244 0.386822 2.205 0.784037 0.547854 0.291793 255 0 0 255
-0.180401 0.385081 2.195 0.662251 0.592747 0.45834 255 0 0 255
-0.173929 0.384041 2.189 0.616299 0.58922 0.522489 255 0 0 255
-0.167413 0.382826 2.182 0.630665 0.54459 0.552887 255 0 0 255
-0.161009 0.381785 2.176 0.509049 0.581154 0.634924 255 0 0 255
-0.154851 0.38127 2.173 0.630217 0.386164 0.673576 255 0 0 255
-0.148434 0.380053 2.166 0.660607 0.268114 0.701223 255 0 0 255
-0.142121 0.379011 2.16 0.703563 0.173534 0.689119 255 0 0 255
-0.135778 0.377793 2.153 0.479147 0.234066 0.84595 255 0 0 255
-0.129834 0.377628 2.152 0.211021 0.288608 0.933903 255 0 0 255
-0.123895 0.377462 2.151 0.210469 0.274682 0.938218 255 0 0 255
-0.117961 0.377295 2.15 0.0908876 0.316927 0.944085 255 0 0 255
-0.112084 0.377304 2.15 -0.0580039 0.261687 0.963408 255 0 0 255
-0.106256 0.377487 2.151 -0.200345 0.326996 0.923545 255 0 0 255
-0.10047 0.377846 2.153 -0.0860771 0.350033 0.932774 255 0 0 255
-0.094584 0.377854 2.153 0.0854582 0.312544 0.946051 255 0 0 255
-0.088656 0.377685 2.152 0.227245 0.257762 0.939105 255 0 0 255
-0.082657 0.377165 2.149 0.119218 0.384192 0.915524 255 0 0 255
-0.076816 0.377346 2.15 0.0312253 0.431605 0.901522 255 0 0 255
-0.070904 0.377177 2.149 0.194955 0.444255 0.874431 255 0 0 255
-0.065028 0.377182 2.149 0.323316 0.378509 0.867293 255 0 0 255
-0.059069 0.37666 2.146 0.262546 0.230191 0.93706 255 0 0 255
-0.053225 0.37684 2.147 0.204909 0.151059 0.967054 255 0 0 255
-0.047287 0.376317 2.144 0.466408 0.122847 0.875998 255 0 0 255
-0.041346 0.375618 2.14 0.502279 0.161355 0.849518 255 0 0 255
-0.035427 0.374919 2.136 0.202826 0.322341 0.924639 255 0 0 255
-0.029599 0.375097 2.137 -0.145775 0.273815 0.950671 255 0 0 255
-0.023776 0.37545 2.139 -0.202215 0.292076 0.934773 255 0 0 255
-0.017942 0.375803 2.141 -0.0887392 0.286471 0.95397 255 0 0 255
-0.012086 0.375804 2.141 0.0594185 0.297364 0.952914 255 0 0 255
-0.006224 0.375454 2.139 0.116387 0.326766 0.937912 255 0 0 255
-0.000374 0.375278 2.138 1.55786e-05 0.368388 0.929672 255 0 0 255
0.005479 0.375629 2.14 -0.0878292 0.365764 0.926554 255 0 0 255
0.011338 0.375804 2.141 -0.176606 0.335586 0.925307 255 0 0 255
0.017202 0.375978 2.142 -0.0316366 0.442851 0.896037 255 0 0 255
0.023039 0.375626 2.14 0.0838435 0.62727 0.774276 255 0 0 255
0.028892 0.375624 2.14 0.0792479 0.684563 0.724633 255 0 0 255
0.034729 0.375446 2.139 -0.180733 0.658724 0.730355 255 0 0 255
0.040655 0.376145 2.143 -0.486106 0.447316 0.750739 255 0 0 255
0.046559 0.376493 2.145 -0.472287 0.397587 0.786682 255 0 0 255
0.052523 0.377191 2.149 -0.38967 0.415524 0.821886 255 0 0 255
0.058454 0.377538 2.151 -0.269499 0.412136 0.870353 255 0 0 255
0.064426 0.37806 2.154 -0.39174 0.385032 0.835638 255 0 0 255
0.070415 0.378581 2.157 -0.474616 0.457679 0.751845 255 0 0 255
0.076454 0.379278 2.161 -0.511235 0.495819 0.701999 255 0 0 255
0.082516 0.379974 2.165 -0.356863 0.531322 0.76834 255 0 0 255
0.088517 0.380318 2.167 -0.172258 0.592213 0.787153 255 0 0 255
0.094441 0.380312 2.167 -0.094372 0.611391 0.785681 255 0 0 255
0.100319 0.380129 2.166 -0.203789 0.624591 0.753894 255 0 0 255
0.106437 0.380823 2.17 -0.557956 0.515132 0.650634 255 0 0 255
0.112835 0.382394 2.179 -0.761681 0.375624 0.527966 255 0 0 255
0.119281 0.383965 2.188 -0.447497 0.44226 0.777273 255 0 0 255
0.125319 0.384131 2.189 0.0832193 0.462652 0.882626 255 0 0 255
0.131121 0.383595 2.186 0.347305 0.420006 0.838436 255 0 0 255
0.13697 0.383234 2.184 0.10714 0.44678 0.888205 255 0 0 255
0.142938 0.383224 2.184 0.0449303 0.445691 0.894059 255 0 0 255
0.148905 0.383213 2.184 0.348402 0.197296 0.916346 255 0 0 255
0.154588 0.3825 2.18 0.606836 0.0283796 0.79432 255 0 0 255
0.160249 0.381787 2.176 0.37468 -0.0240138 0.926843 255 0 0 255
0.166117 0.381599 2.175 0.0560165 0.16082 0.985393 255 0 0 255
0.172137 0.381762 2.176 -0.227309 0.114349 0.967086 255 0 0 255
0.178162 0.381925 2.177 -0.268219 0.0535622 0.961868 255 0 0 255
0.184191 0.382087 2.178 -0.268993 -0.136046 0.953485 255 0 0 255
0.190226 0.382249 2.179 -0.334433 -0.162035 0.928385 255 0 0 255
0.196355 0.382586 2.181 -0.547213 -0.0760009 0.833536 255 0 0 255
0.202959 0.3838 2.188 -0.645858 0.0510614 0.761748 255 0 0 255
0.209313 0.384486 2.192 -0.645576 0.0495081 0.762089 255 0 0 255
0.216082 0.385874 2.2 -0.578654 0.0627954 0.813152 255 0 0 255
0.222287 0.38621 2.202 -0.418189 0.0775346 0.905045 255 0 0 255
-0.112622 0.407142 2.34564 0.765485 0.224018 -0.603199 255 255 0 255
-0.101144 0.406243 2.34071 -0.424172 -0.461925 -0.778912 255 255 0 255
-0.091406 0.405138 2.33462 -0.195743 -0.239917 -0.950855 255 255 0 255
-0.070493 0.405437 2.33638 0.0688294 -0.428858 -0.900746 255 255 0 255
-0.052195 0.405431 2.33643 0.0861748 -0.45889 -0.884304 255 255 0 255
-0.031352 0.405766 2.33838 -0.0154503 -0.2135 -0.976821 255 255 0 255
-0.013977 0.405685 2.338 -0.29517 -0.0274946 -0.955049 255 255 0 255
-0.00263 0.404853 2.33343 -0.628168 -0.0398659 -0.777056 255 255 0 255
0.005275 0.403591 2.32644 -0.652636 -0.121454 -0.747874 255 255 0 255
0.010605 0.402004 2.31763 -0.631759 -0.190628 -0.75136 255 255 0 255
0.020204 0.400972 2.31192 -0.536988 -0.223597 -0.813417 255 255 0 255
0.028083 0.399725 2.30501 -0.692416 -0.231239 -0.683438 255 255 0 255
0.0351 0.398371 2.2975 -0.754294 -0.199471 -0.625502 255 255 0 255
0.042961 0.397134 2.29063 -0.772323 0.044037 -0.633702 255 255 0 255
0.04656 0.39534 2.28065 -0.899938 0.26653 -0.345071 255 255 0 255
0.049309 0.393433 2.27003 -0.889945 0.37001 -0.266629 255 255 0 255
0.046966 0.390846 2.25561 -0.742774 0.465037 -0.481693 255 255 0 255
0.057356 0.38996 2.25069 -0.621146 0.303073 -0.72272 255 255 0 255
0.082979 0.391139 2.25731 0.249508 0.0681482 -0.965972 255 255 0 255
0.108555 0.392341 2.26406 0.0560995 -0.0972489 -0.993678 255 255 0 255
0.123096 0.392071 2.26258 -0.359096 0.0537852 -0.931749 255 255 0 255
0.130857 0.390889 2.25598 -0.770899 0.114713 -0.626542 255 255 0 255
0.141141 0.390059 2.25136 -0.819865 -0.0325737 -0.571629 255 255 0 255
0.140456 0.387723 2.23831 -0.97239 0.182918 -0.144913 255 255 0 255
0.138939 0.385267 2.22458 -0.85029 0.358313 -0.385511 255 255 0 255
0.145 0.383862 2.21672 -0.853501 0.311121 -0.418019 255 255 0 255
-0.232056 0.332172 2.29041 0.627128 -0.565835 -0.535297 0 255 0 255
-0.220423 0.332599 2.29417 0.382349 -0.872323 -0.304733 0 255 0 255
-0.209647 0.333203 2.29861 -0.259485 -0.743424 -0.616431 0 255 0 255
-0.18402 0.330989 2.29265 -0.151139 -0.407453 -0.900632 0 255 0 255
-0.163597 0.329798 2.29049 -0.0566643 0.0086958 -0.998356 0 255 0 255
-0.138771 0.327803 2.28539 0.306225 -0.0188966 -0.951772 0 255 0 255
-0.12966 0.328803 2.29132 0.872232 0.0854868 -0.481564 0 255 0 255
-0.131048 0.331782 2.30454 0.962557 0.203562 -0.179016 0 255 0 255
-0.13069 0.334428 2.31652 0.850377 0.15935 -0.501465 0 255 0 255
-0.125951 0.336256 2.32549 0.7597 -0.0540531 -0.648023 0 255 0 255
-0.116819 0.337274 2.3315 0.75491 -0.0383521 -0.654706 0 255 0 255
-0.112071 0.339111 2.3405 0.743982 -0.156896 -0.649519 0 255 0 255
-0.1038 0.340304 2.34715 0.759492 -0.191843 -0.621585 0 255 0 255
-0.095522 0.341504 2.35383 0.629066 -0.0480599 -0.775865 0 255 0 255
-0.081948 0.341748 2.35702 0.441366 -0.211214 -0.872115 0 255 0 255
-0.073648 0.342966 2.36377 0.612304 -0.0515288 -0.788941 0 255 0 255
-0.06622 0.34435 2.37113 0.391702 -0.113789 -0.913029 0 255 0 255
-0.052602 0.344628 2.37447 0.139346 -0.281502 -0.949389 0 255 0 255
-0.033663 0.34397 2.37442 -0.161186 -0.268269 -0.949764 0 255 0 255
-0.015581 0.34349 2.37503 0.0504757 -0.417681 -0.907191 0 255 0 255
-0.299552 0.385699 2.235 0.566281 -0.154691 0.809565 255 0 0 255
-0.292805 0.384856 2.23 0.454494 -0.154507 0.877247 255 0 0 255
-0.28647 0.38453 2.228 0.377198 -0.0229321 0.925849 255 0 0 255
-0.280146 0.384204 2.226 0.249066 0.115693 0.961551 255 0 0 255
-0.273831 0.383877 2.224 0.0493288 0.222289 0.973732 255 0 0 255
-0.267767 0.383896 2.224 -0.112657 0.154848 0.981494 255 0 0 255
-0.261821 0.384086 2.225 -0.0514754 0.0816569 0.99533 255 0 0 255
-0.255638 0.383931 2.224 0.24889 0.0924294 0.964111 255 0 0 255
-0.249347 0.383604 2.222 0.451967 0.251121 0.855958 255 0 0 255
-0.242957 0.383103 2.219 0.196972 0.468479 0.861237 255 0 0 255
-0.23701 0.383292 2.22 -0.0819682 0.313947 0.945895 255 0 0 255
-0.231057 0.383481 2.221 -0.617225 0.176401 0.766757 255 0 0 255
-0.225705 0.384706 2.228 -0.721924 0.156707 0.673994 255 0 0 255
-0.220019 0.385412 2.232 -0.803436 0.25077 0.540004 255 0 0 255
-0.214885 0.387154 2.242 -0.745894 0.526537 0.407923 255 0 0 255
-0.209696 0.388896 2.252 -0.35442 0.85962 0.368022 255 0 0 255
-0.203819 0.389429 2.255 -0.205726 0.932337 0.297362 255 0 0 255
-0.19661 0.387371 2.243 0.628018 0.71581 0.305303 255 0 0 255
-0.188616 0.383585 2.221 0.817706 0.517047 0.253021 255 0 0 255
-0.181236 0.380835 2.205 0.718714 0.608903 0.335691 255 0 0 255
-0.174498 0.379294 2.196 0.66584 0.587658 0.459691 255 0 0 255
-0.167886 0.377924 2.188 0.657296 0.557577 0.507021 255 0 0 255
-0.161391 0.376727 2.181 0.529232 0.605232 0.594649 255 0 0 255
-0.155219 0.37622 2.178 0.711205 0.478715 0.5148 255 0 0 255
-0.148582 0.374504 2.168 0.740514 0.272666 0.614242 255 0 0 255
-0.142329 0.373651 2.163 0.68897 0.273675 0.671135 255 0 0 255
-0.135977 0.372452 2.156 0.44207 0.429376 0.787535 255 0 0 255
-0.130145 0.372635 2.157 0.0855404 0.563072 0.821969 255 0 0 255
-0.124134 0.372298 2.155 0.185203 0.596786 0.780734 255 0 0 255
-0.118189 0.372135 2.154 0.108918 0.594452 0.796721 255 0 0 255
-0.112249 0.37197 2.153 0.029856 0.569106 0.821722 255 0 0 255
-0.106413 0.372151 2.154 -0.114203 0.465125 0.877848 255 0 0 255
-0.100617 0.372505 2.156 -0.0279422 0.325402 0.945163 255 0 0 255
-0.094678 0.372339 2.155 0.170079 0.267314 0.948481 255 0 0 255
-0.088745 0.372173 2.154 0.201279 0.27016 0.941542 255 0 0 255
-0.082817 0.372007 2.153 -0.0281421 0.348242 0.936982 255 0 0 255
-0.077001 0.372358 2.155 -0.0556665 0.484419 0.873063 255 0 0 255
-0.071075 0.372191 2.154 0.251383 0.410742 0.876412 255 0 0 255
-0.065093 0.371678 2.151 0.446514 0.267677 0.8538 255 0 0 255
-0.059128 0.371164 2.148 0.3581 0.0914998 0.929189 255 0 0 255
-0.053204 0.370823 2.146 0.280778 0.0738689 0.956926 255 0 0 255
-0.04729 0.370481 2.144 0.416757 0.0376139 0.90824 255 0 0 255
-0.041368 0.369966 2.141 0.464666 0.165225 0.869935 255 0 0 255
-0.035479 0.369623 2.139 0.180183 0.251333 0.950981 255 0 0 255
-0.029642 0.369798 2.14 -0.173481 0.240212 0.955093 255 0 0 255
-0.023789 0.3698 2.14 -0.20111 0.16746 0.965149 255 0 0 255
-0.017944 0.369975 2.141 -0.144217 0.121771 0.982025 255 0 0 255
-0.012087 0.369976 2.141 0.0301223 0.199937 0.979346 255 0 0 255
-0.006228 0.369804 2.14 0.0589365 0.339239 0.938852 255 0 0 255
-0.000374 0.369977 2.141 4.6716e-05 0.400656 0.916228 255 0 0 255
0.00548 0.369804 2.14 -0.0588102 0.33557 0.940178 255 0 0 255
0.011339 0.369976 2.141 -0.145615 0.21177 0.966411 255 0 0 255
0.017211 0.370321 2.143 -0.148201 0.273178 0.950479 255 0 0 255
0.023084 0.370492 2.144 -0.0941913 0.406233 0.908902 255 0 0 255
0.028962 0.370663 2.145 -0.0359446 0.582601 0.811963 255 0 0 255
0.034813 0.370488 2.144 -0.168634 0.618662 0.767346 255 0 0 255
0.040734 0.371003 2.147 -0.326447 0.637453 0.697916 255 0 0 255
0.046671 0.371518 2.15 -0.374552 0.631878 0.678558 255 0 0 255
0.052625 0.372033 2.153 -0.270227 0.674372 0.687168 255 0 0 255
0.05854 0.372201 2.154 -0.227726 0.604742 0.76317 255 0 0 255
0.064461 0.37237 2.155 -0.367529 0.543829 0.754435 255 0 0 255
0.070485 0.373056 2.159 -0.503945 0.397187 0.766995 255 0 0 255
0.076531 0.373741 2.163 -0.545639 0.332889 0.769067 255 0 0 255
0.082598 0.374427 2.167 -0.459516 0.334337 0.822839 255 0 0 255
0.088605 0.374766 2.169 -0.263516 0.459627 0.848117 255 0 0 255
0.094623 0.375104 2.171 -0.130994 0.570851 0.810536 255 0 0 255
0.100605 0.37527 2.172 -0.235653 0.626153 0.743237 255 0 0 255
0.10669 0.375781 2.175 -0.565659 0.486873 0.665571 255 0 0 255
0.112998 0.376982 2.182 -0.721015 0.387028 0.574759 255 0 0 255
0.119345 0.378183 2.189 -0.38928 0.267275 0.881491 255 0 0 255
0.125443 0.378519 2.191 0.115177 0.34129 0.932875 255 0 0 255
0.131251 0.377991 2.188 0.330773 0.310204 0.89127 255 0 0 255
0.137168 0.377809 2.187 0.0926579 0.439387 0.893506 255 0 0 255
0.143145 0.377798 2.187 0.114271 0.41719 0.901607 255 0 0 255
0.149052 0.377615 2.186 0.549465 0.276943 0.788283 255 0 0 255
0.1546 0.376567 2.18 0.689076 0.069608 0.721339 255 0 0 255
0.160187 0.375692 2.175 0.429259 -0.0395192 0.902316 255 0 0 255
0.166053 0.375508 2.174 -0.123897 0.12779 0.984032 255 0 0 255
0.172149 0.375841 2.176 -0.228378 0.166722 0.959191 255 0 0 255
0.178093 0.375828 2.176 -0.0613815 0.0970891 0.993381 255 0 0 255
0.184035 0.375815 2.176 -0.147972 0.0841355 0.985406 255 0 0 255
0.190152 0.376147 2.178 -0.39144 0.102109 0.914521 255 0 0 255
0.196459 0.376824 2.182 -0.653289 0.138012 0.744423 255 0 0 255
0.203159 0.378191 2.19 -0.648189 0.112821 0.753075 255 0 0 255
0.209423 0.378695 2.193 -0.614393 0.102504 0.782314 255 0 0 255
0.216097 0.379888 2.2 -0.567745 0.0185726 0.822995 255 0 0 255
0.222202 0.380046 2.201 -0.453163 -0.010421 0.891367 255 0 0 255
0.228727 0.380893 2.206 -0.556449 -0.0313914 0.830288 255 0 0 255
-0.098447 0.395665 2.3438 0.465396 -0.291202 -0.835828 255 255 0 255
-0.08613 0.394908 2.3395 0.117704 -0.649385 -0.751296 255 255 0 255
-0.060929 0.395812 2.34426 0.0744469 -0.731843 -0.677394 255 255 0 255
-0.041788 0.395965 2.34493 -0.0626102 -0.496291 -0.865895 255 255 0 255
-0.026971 0.39558 2.34266 -0.342513 -0.249072 -0.905896 255 255 0 255
-0.015609 0.394762 2.33802 -0.412028 -0.0113777 -0.9111 255 255 0 255
-0.007689 0.393504 2.33099 -0.51887 0.385142 -0.763178 255 255 0 255
0.002788 0.392589 2.32582 -0.61485 0.0793126 -0.784645 255 255 0 255
0.008977 0.391117 2.31761 -0.353108 -0.119681 -0.927896 255 255 0 255
0.021991 0.390555 2.31436 -0.460547 -0.317273 -0.828996 255 255 0 255
0.032426 0.389662 2.30931 -0.666073 -0.396698 -0.631647 255 255 0 255
0.037735 0.388092 2.30056 -0.736853 -0.296585 -0.607524 255 255 0 255
0.046444 0.386983 2.29432 -0.895494 -0.0252654 -0.444357 255 255 0 255
0.044939 0.384499 2.28057 -0.949606 0.275773 -0.148987 255 255 0 255
0.045143 0.382242 2.26805 -0.914121 0.328903 -0.237077 255 255 0 255
0.042809 0.379633 2.25361 -0.7614 0.194664 -0.618366 255 255 0 255
0.054897 0.378998 2.24995 -0.614461 -0.00643026 -0.788921 255 255 0 255
0.08898 0.381411 2.26292 0.183536 -0.0379347 -0.982281 255 255 0 255
0.108619 0.381863 2.26519 -0.129318 0.0376418 -0.990888 255 255 0 255
0.124 0.381744 2.26433 -0.433761 0.0811458 -0.897367 255 255 0 255
0.129228 0.380219 2.25579 -0.579281 0.153667 -0.800513 255 255 0 255
0.137826 0.379172 2.24986 -0.866538 0.261902 -0.424875 255 255 0 255
0.13378 0.376343 2.23419 -0.877659 0.469093 -0.098321 255 255 0 255
0.132274 0.373867 2.22044 -0.827179 0.526554 -0.196257 255 255 0 255
0.144225 0.373305 2.21715 -0.31855 0.102885 -0.942306 255 255 0 255
-0.242853 0.323832 2.29932 0.727645 -0.456608 -0.5119 0 255 0 255
-0.232103 0.324397 2.30368 0.501573 -0.241795 -0.830638 0 255 0 255
-0.220469 0.324803 2.30748 0.737829 0.0906167 -0.668877 0 255 0 255
-0.200098 0.32353 2.30519 -0.664416 -0.729474 -0.162541 0 255 0 255
-0.175331 0.321437 2.29995 -0.28681 -0.302509 -0.908971 0 255 0 255
-0.148781 0.319036 2.29362 0.310413 -0.254149 -0.915998 0 255 0 255
-0.131809 0.318507 2.29409 0.775847 0.0611208 -0.627953 0 255 0 255
-0.129694 0.320831 2.30488 0.987526 -0.0425005 -0.151614 0 255 0 255
-0.130208 0.323654 2.31748 0.911484 0.100081 -0.398975 0 255 0 255
-0.122838 0.324981 2.32466 0.762169 -0.00390816 -0.647367 0 255 0 255
-0.117215 0.326645 2.33307 0.783009 -0.000831709 -0.62201 0 255 0 255
-0.109832 0.327983 2.3403 0.821118 -0.146005 -0.551768 0 255 0 255
-0.105957 0.329984 2.34991 0.722483 -0.126013 -0.679808 0 255 0 255
-0.096802 0.331005 2.35601 0.552076 -0.160013 -0.818296 0 255 0 255
-0.086756 0.331871 2.36155 0.612734 -0.0634486 -0.787738 0 255 0 255
-0.077579 0.332909 2.36771 0.544785 -0.504993 -0.669471 0 255 0 255
-0.065746 0.33347 2.37217 0.358396 -0.307629 -0.881429 0 255 0 255
-0.053016 0.33388 2.37611 0.252174 -0.2278 -0.940487 0 255 0 255
-0.032318 0.332854 2.37492 -0.228269 -0.197275 -0.953402 0 255 0 255
-0.016011 0.332653 2.3767 0.326719 -0.472869 -0.818322 0 255 0 255
-0.307713 0.382146 2.25 0.827205 -0.233612 0.511036 255 0 0 255
-0.29917 0.379109 2.232 0.524136 -0.150611 0.838211 255 0 0 255
-0.292562 0.378449 2.228 0.467189 -0.0938589 0.879162 255 0 0 255
-0.286232 0.378129 2.226 0.166535 -0.0473307 0.984899 255 0 0 255
-0.28029 0.378317 2.227 0.0919634 0.125396 0.987835 255 0 0 255
-0.274096 0.378166 2.226 0.0589675 0.214803 0.974876 255 0 0 255
-0.268026 0.378184 2.226 -0.0555586 0.259542 0.964132 255 0 0 255
-0.261956 0.378202 2.226 -0.0826489 0.241238 0.96694 255 0 0 255
-0.255885 0.37822 2.226 0.122148 0.329998 0.936046 255 0 0 255
-0.249701 0.378067 2.225 0.3512 0.376749 0.857158 255 0 0 255
-0.243412 0.377744 2.223 0.394545 0.239921 0.887002 255 0 0 255
-0.237027 0.377251 2.22 0.0985017 0.0810558 0.99183 255 0 0 255
-0.230969 0.377267 2.22 -0.519292 0.133679 0.844077 255 0 0 255
-0.225518 0.378303 2.226 -0.773381 0.149751 0.616001 255 0 0 255
-0.220231 0.379678 2.234 -0.856301 0.251643 0.451026 255 0 0 255
-0.215283 0.381733 2.246 -0.871441 0.400396 0.283327 255 0 0 255
-0.210456 0.384127 2.26 -0.625351 0.638801 0.448184 255 0 0 255
-0.204918 0.385332 2.267 0.066647 0.787934 0.612142 255 0 0 255
-0.197939 0.383816 2.258 0.666182 0.678206 0.310223 255 0 0 255
-0.189989 0.38026 2.237 0.84572 0.486192 0.219941 255 0 0 255
-0.182235 0.376874 2.217 0.778966 0.541231 0.316671 255 0 0 255
-0.175147 0.374676 2.204 0.764269 0.519047 0.38273 255 0 0 255
-0.168435 0.373159 2.195 0.6936 0.510155 0.508587 255 0 0 255
-0.161921 0.371981 2.188 0.610687 0.534347 0.58441 255 0 0 255
-0.155657 0.371312 2.184 0.718492 0.477424 0.505803 255 0 0 255
-0.148867 0.369283 2.172 0.744164 0.302147 0.595757 255 0 0 255
-0.142405 0.367933 2.164 0.661417 0.326549 0.675198 255 0 0 255
-0.136239 0.367263 2.16 0.243555 0.615204 0.749803 255 0 0 255
-0.130456 0.367613 2.162 0.089843 0.550359 0.83008 255 0 0 255
-0.124431 0.367282 2.16 0.276715 0.488406 0.82758 255 0 0 255
-0.118527 0.367291 2.16 0.144629 0.500795 0.853397 255 0 0 255
-0.11257 0.36713 2.159 0.0843219 0.514399 0.853396 255 0 0 255
-0.106618 0.366968 2.158 0.0919357 0.418165 0.903707 255 0 0 255
-0.100671 0.366805 2.157 0.213004 0.155939 0.964527 255 0 0 255
-0.094729 0.366643 2.156 0.227031 0.0671973 0.971566 255 0 0 255
-0.088752 0.366309 2.154 0.0318499 0.116993 0.992622 255 0 0 255
-0.0829 0.366486 2.155 -0.202777 0.105559 0.973519 255 0 0 255
-0.077042 0.366662 2.156 -0.0872777 0.209135 0.973984 255 0 0 255
-0.071146 0.366667 2.156 0.244936 0.225243 0.943012 255 0 0 255
-0.065128 0.365992 2.152 0.529305 0.170705 0.831081 255 0 0 255
-0.059133 0.365316 2.148 0.481428 0.104925 0.870183 255 0 0 255
-0.053208 0.36498 2.146 0.376101 0.0443501 0.925516 255 0 0 255
-0.047294 0.364644 2.144 0.349885 0.00825889 0.936756 255 0 0 255
-0.041391 0.364307 2.142 0.31018 0.0834691 0.947007 255 0 0 255
-0.035482 0.3638 2.139 0.0620499 0.244539 0.967652 255 0 0 255
-0.029645 0.363972 2.14 -0.0874609 0.242524 0.966195 255 0 0 255
-0.023802 0.364144 2.141 -0.0869004 0.159076 0.983434 255 0 0 255
-0.017953 0.364316 2.142 -0.115517 0.111243 0.987057 255 0 0 255
-0.012099 0.364487 2.143 -0.149677 0.209128 0.966366 255 0 0 255
-0.00624 0.364658 2.144 -0.114851 0.385831 0.915393 255 0 0 255
-0.000375 0.364658 2.144 0.0560304 0.429436 0.901357 255 0 0 255
0.005488 0.364488 2.143 0.0573599 0.349886 0.935035 255 0 0 255
0.01135 0.364487 2.143 -0.116282 0.287199 0.950786 255 0 0 255
0.017212 0.364486 2.143 -0.279927 0.283628 0.917167 255 0 0 255
0.023107 0.364995 2.146 -0.250879 0.386512 0.887507 255 0 0 255
0.028991 0.365163 2.147 -0.10916 0.482688 0.868963 255 0 0 255
0.03488 0.365331 2.148 -0.224905 0.525383 0.820604 255 0 0 255
0.040813 0.365838 2.151 -0.480164 0.383532 0.788889 255 0 0 255
0.046783 0.366515 2.155 -0.488282 0.366378 0.792053 255 0 0 255
0.052775 0.367192 2.159 -0.364427 0.406511 0.83782 255 0 0 255
0.058708 0.367358 2.16 -0.198655 0.485227 0.851522 255 0 0 255
0.064645 0.367523 2.161 -0.331782 0.431733 0.838766 255 0 0 255
0.070654 0.368028 2.164 -0.467004 0.335855 0.817991 255 0 0 255
0.076678 0.368533 2.167 -0.508181 0.273404 0.816702 255 0 0 255
0.082757 0.369207 2.171 -0.50459 0.239688 0.829421 255 0 0 255
0.088775 0.369541 2.173 -0.416873 0.353298 0.837494 255 0 0 255
0.094804 0.369874 2.175 -0.330291 0.476357 0.814857 255 0 0 255
0.100798 0.370037 2.176 -0.317883 0.593973 0.739017 255 0 0 255
0.106845 0.37037 2.178 -0.497122 0.593997 0.632484 255 0 0 255
0.113214 0.371722 2.186 -0.679887 0.438753 0.587579 255 0 0 255
0.119463 0.372564 2.191 -0.478701 0.372006 0.795272 255 0 0 255
0.125566 0.372895 2.193 0.205052 0.309059 0.928675 255 0 0 255
0.131381 0.372375 2.19 0.282518 0.219079 0.93391 255 0 0 255
0.137366 0.372365 2.19 -0.0013185 0.259231 0.965814 255 0 0 255
0.143351 0.372355 2.19 0.1705 0.313563 0.934135 255 0 0 255
0.149132 0.371835 2.187 0.639552 0.226813 0.734527 255 0 0 255
0.154611 0.370633 2.18 0.742364 0.122426 0.658717 255 0 0 255
0.160199 0.369772 2.175 0.505436 0.0824244 0.858918 255 0 0 255
0.166141 0.36976 2.175 -0.14838 0.0770689 0.985923 255 0 0 255
0.17232 0.370258 2.178 -0.277481 0.0569998 0.959039 255 0 0 255
0.178351 0.370416 2.179 -0.0608364 0.119087 0.991018 255 0 0 255
0.184218 0.370233 2.178 -0.17186 0.190212 0.966584 255 0 0 255
0.19034 0.370559 2.18 -0.465069 0.188788 0.86491 255 0 0 255
0.196653 0.371226 2.184 -0.666303 0.193057 0.720257 255 0 0 255
0.203266 0.372401 2.191 -0.638886 0.139584 0.756533 255 0 0 255
0.209629 0.373067 2.195 -0.554222 0.0793693 0.828577 255 0 0 255
0.216112 0.373901 2.2 -0.494176 -0.0658096 0.866867 255 0 0 255
0.222319 0.374226 2.202 -0.489623 -0.0588811 0.869944 255 0 0 255
0.228847 0.37506 2.207 -0.705245 -0.0743014 0.70506 255 0 0 255
0.235508 0.376064 2.213 -0.723421 -0.0946761 0.683885 255 0 0 255
-0.091443 0.38565 2.34986 0.298362 -0.596203 -0.745333 255 255 0 255
-0.073973 0.385595 2.34916 0.188755 -0.66054 -0.726677 255 255 0 255
-0.052232 0.38612 2.35154 0.0145088 -0.52432 -0.851398 255 255 0 255
-0.033106 0.386324 2.35222 -0.297589 -0.444458 -0.844925 255 255 0 255
-0.026025 0.384954 2.34451 -0.626505 -0.383714 -0.67842 255 255 0 255
-0.018094 0.383703 2.33744 -0.784737 0.0377219 -0.61868 255 255 0 255
-0.017022 0.38154 2.32551 -0.659206 0.284571 -0.696037 255 255 0 255
-0.003971 0.380985 2.32214 -0.365575 0.173514 -0.914466 255 255 0 255
0.009915 0.380556 2.31944 -0.180037 -0.0909508 -0.979446 255 255 0 255
0.026338 0.380485 2.31865 -0.443408 -0.193903 -0.875095 255 255 0 255
0.035062 0.379382 2.31236 -0.807666 -0.0129425 -0.589498 255 255 0 255
0.039516 0.377701 2.30299 -0.830362 0.241075 -0.502376 255 255 0 255
0.043118 0.375905 2.29299 -0.947123 0.259776 -0.188349 255 255 0 255
0.038222 0.372932 2.27673 -0.899973 0.423492 -0.103455 255 255 0 255
0.040984 0.371014 2.26608 -0.78564 0.393205 -0.477661 255 255 0 255
0.044596 0.369214 2.25606 -0.593898 0.0037418 -0.804532 255 255 0 255
0.060067 0.369081 2.25493 -0.614461 -0.00643027 -0.788921 255 255 0 255
0.085667 0.370396 2.26151 0.21496 0.028804 -0.976198 255 255 0 255
0.108685 0.371374 2.26631 -0.0709606 0.131629 -0.988756 255 255 0 255
0.117306 0.370327 2.2603 -0.4258 0.212455 -0.879521 255 255 0 255
0.127603 0.369528 2.25561 -0.614455 0.0957551 -0.783119 255 255 0 255
0.134516 0.368252 2.24837 -0.925787 0.0880647 -0.367645 255 255 0 255
0.129638 0.365276 2.23204 -0.960277 0.277804 -0.0263113 255 255 0 255
0.130663 0.363147 2.22024 -0.643988 0.711813 -0.280359 255 255 0 255
0.140093 0.362242 2.21497 -0.274496 0.749966 -0.601833 255 255 0 255
0.161256 0.363067 2.21893 0.138868 -0.116395 -0.983447 255 255 0 255
-0.241466 0.313117 2.29953 0.658669 -0.354393 -0.663748 0 255 0 255
-0.231589 0.313834 2.30453 0.744733 -0.268257 -0.611074 0 255 0 255
-0.225184 0.315249 2.31203 0.708978 -0.344962 -0.615102 0 255 0 255
-0.210056 0.314953 2.31343 -0.461733 -0.490221 -0.739247 0 255 0 255
-0.189673 0.313646 2.31123 -0.0428833 -0.300586 -0.95279 0 255 0 255
-0.13396 0.30821 2.29685 0.681108 -0.257263 -0.685498 0 255 0 255
-0.12922 0.310029 2.30584 0.994352 -0.000119831 -0.10613 0 255 0 255
-0.129729 0.312863 2.31843 0.935568 -0.202527 -0.289302 0 255 0 255
-0.121484 0.314011 2.32504 0.776242 -0.331956 -0.53596 0 255 0 255
-0.118491 0.316173 2.33523 0.796868 -0.356478 -0.487776 0 255 0 255
-0.111109 0.317499 2.34247 0.839545 -0.402701 -0.364686 0 255 0 255
-0.107234 0.319497 2.35209 0.707988 -0.383678 -0.592912 0 255 0 255
-0.095445 0.320002 2.35643 0.604833 -0.428672 -0.671132 0 255 0 255
-0.0898 0.321678 2.36491 0.752337 -0.562207 -0.343385 0 255 0 255
-0.077987 0.322202 2.36933 0.38237 -0.0510672 -0.922597 0 255 0 255
-0.065276 0.322573 2.37322 0.293205 -0.248147 -0.923284 0 255 0 255
-0.05255 0.322957 2.37717 0.149596 -0.108938 -0.982728 0 255 0 255
-0.036275 0.322699 2.37887 -0.731627 -0.0684711 -0.678258 0 255 0 255
-0.019978 0.322457 2.38066 0.276677 0.322341 -0.905288 0 255 0 255
-0.307049 0.375189 2.245 0.806261 -0.234702 0.543008 255 0 0 255
-0.299457 0.37337 2.234 0.726869 -0.0495958 0.684983 255 0 0 255
-0.29245 0.372219 2.227 0.441095 0.045282 0.896317 255 0 0 255
-0.28638 0.372238 2.227 0.140357 0.0897673 0.986023 255 0 0 255
-0.280183 0.37209 2.226 0.00281603 0.0396412 0.99921 255 0 0 255
-0.27436 0.372443 2.228 -0.053765 0.136045 0.989243 255 0 0 255
-0.268165 0.372294 2.227 -0.112355 0.232712 0.966034 255 0 0 255
-0.262327 0.372646 2.229 -0.128749 0.338049 0.93228 255 0 0 255
-0.256362 0.372831 2.23 0.0297575 0.391782 0.919577 255 0 0 255
-0.250167 0.37268 2.229 0.426821 0.259891 0.866188 255 0 0 255
-0.243538 0.371861 2.224 0.525943 0.131358 0.840315 255 0 0 255
-0.23715 0.371376 2.221 0.202304 0.10096 0.974105 255 0 0 255
-0.231193 0.371559 2.222 -0.634671 0.170718 0.75369 255 0 0 255
-0.225838 0.372746 2.229 -0.841234 0.215294 0.495957 255 0 0 255
-0.220641 0.374266 2.238 -0.866425 0.272215 0.418576 255 0 0 255
-0.215874 0.376623 2.252 -0.909874 0.31625 0.268543 255 0 0 255
-0.211029 0.378979 2.266 -0.716558 0.356312 0.599655 255 0 0 255
-0.205656 0.380499 2.275 0.0219384 0.17807 0.983773 255 0 0 255
-0.198829 0.379342 2.268 0.354208 0.631433 0.689804 255 0 0 255
-0.191106 0.376345 2.25 0.89221 0.337359 0.30025 255 0 0 255
-0.18307 0.372511 2.227 0.872114 0.323029 0.367518 255 0 0 255
-0.175795 0.370015 2.212 0.84302 0.384842 0.375784 255 0 0 255
-0.168908 0.368187 2.201 0.766562 0.398191 0.503812 255 0 0 255
-0.162302 0.36686 2.193 0.688052 0.364418 0.627522 255 0 0 255
-0.155954 0.366035 2.188 0.747278 0.367748 0.553478 255 0 0 255
-0.149152 0.364039 2.176 0.833433 0.224033 0.505172 255 0 0 255
-0.142745 0.362878 2.169 0.686153 0.245449 0.684798 255 0 0 255
-0.136564 0.362219 2.165 0.306945 0.283948 0.908382 255 0 0 255
-0.130707 0.362396 2.166 0.15574 0.284523 0.945934 255 0 0 255
-0.124613 0.361903 2.163 0.256636 0.170552 0.951341 255 0 0 255
-0.118591 0.361577 2.161 0.0889486 0.181577 0.979346 255 0 0 255
-0.112682 0.361586 2.161 0.0894367 0.18899 0.977898 255 0 0 255
-0.106725 0.361427 2.16 0.303451 0.198849 0.931867 255 0 0 255
-0.100679 0.360932 2.157 0.376818 0.12635 0.917629 255 0 0 255
-0.094649 0.360437 2.154 0.279334 0.0904212 0.955927 255 0 0 255
-0.088758 0.360444 2.154 0.00150497 0.0253252 0.999678 255 0 0 255
