ply
format ascii 1.0
comment VCGLIB generated
element vertex 726
property float x
property float y
property float z
property float nx
property float ny
property float nz
property uchar red
property uchar green
property uchar blue
property uchar alpha
element face 0
property list uchar int vertex_indices
end_header
-0.139301 0.584127 2.16764 0.258324 -0.333544 -0.906652 0 255 0 255
-0.131917 0.585733 2.17457 0.321282 -0.304645 -0.896643 0 255 0 255
-0.114796 0.586233 2.17447 0.109781 -0.403941 -0.908174 0 255 0 255
-0.098538 0.586852 2.1751 0.264732 -0.424056 -0.866079 0 255 0 255
-0.075708 0.589237 2.18352 0.698864 -0.712636 -0.0611467 0 255 0 255
-0.066492 0.590694 2.18938 0.239661 -0.513355 -0.824032 0 255 0 255
-0.057265 0.592159 2.19526 -0.0219772 -0.27334 -0.961666 0 255 0 255
-0.044472 0.593241 2.19869 -0.267886 -0.349358 -0.897879 0 255 0 255
-0.35788 0.514206 2.116 0.920208 -0.272138 0.28135 255 0 0 255
-0.346139 0.505481 2.08 0.754799 -0.229009 0.614682 255 0 0 255
-0.339504 0.504045 2.074 0.583965 -0.0747838 0.808327 255 0 0 255
-0.333223 0.503096 2.07 0.668789 0.0533238 0.741537 255 0 0 255
-0.326646 0.50166 2.064 0.61225 0.145874 0.777091 255 0 0 255
-0.320413 0.50071 2.06 0.299127 0.304121 0.904452 255 0 0 255
-0.314964 0.500975 2.061 0.226834 0.150159 0.962288 255 0 0 255
-0.30891 0.500268 2.058 0.377483 0.0316291 0.925476 255 0 0 255
-0.303018 0.499803 2.056 0.40702 0.0252295 0.913071 255 0 0 255
-0.296847 0.498852 2.052 0.347441 0.214279 0.912891 255 0 0 255
-0.291265 0.498873 2.052 0.235971 0.260089 0.936307 255 0 0 255
-0.285404 0.498408 2.05 0.107409 0.101593 0.989011 255 0 0 255
-0.279963 0.498671 2.051 -0.255118 -0.0673073 0.964564 255 0 0 255
-0.27465 0.499178 2.053 -0.300009 -0.0387511 0.953149 255 0 0 255
-0.269194 0.499441 2.054 -0.0869962 -0.0415178 0.995343 255 0 0 255
-0.263603 0.499461 2.054 0.0627604 -0.0259388 0.997692 255 0 0 255
-0.257887 0.499237 2.053 -0.0530089 -0.097335 0.993839 255 0 0 255
-0.252421 0.499499 2.054 -0.0544156 -0.0369496 0.997835 255 0 0 255
-0.247069 0.500005 2.056 -0.268115 -0.0612679 0.961437 255 0 0 255
-0.241706 0.500509 2.058 -0.116097 -0.0986674 0.988325 255 0 0 255
-0.236102 0.500528 2.058 0.26523 -0.119457 0.956757 255 0 0 255
-0.230049 0.499573 2.054 0.242946 -0.232227 0.941832 255 0 0 255
-0.224236 0.499104 2.052 0.0877665 -0.227987 0.969701 255 0 0 255
-0.218753 0.499364 2.053 -0.0267942 -0.127197 0.991516 255 0 0 255
-0.213057 0.499138 2.052 0.00206938 -0.0142707 0.999896 255 0 0 255
-0.207466 0.499154 2.052 0.0389031 0.201835 0.978647 255 0 0 255
-0.201777 0.498927 2.051 0.00362123 0.374914 0.927052 255 0 0 255
-0.196284 0.499186 2.052 -0.025305 0.388061 0.921286 255 0 0 255
-0.190785 0.499445 2.053 0.129043 0.414626 0.900796 255 0 0 255
-0.185009 0.498973 2.051 0.0672787 0.466233 0.8821 255 0 0 255
-0.179419 0.498988 2.051 -0.18101 0.483991 0.856147 255 0 0 255
-0.173998 0.499488 2.053 -0.329782 0.463602 0.822385 255 0 0 255
-0.168647 0.500232 2.056 -0.182984 0.499703 0.846649 255 0 0 255
-0.163042 0.500246 2.056 0.0343514 0.500622 0.864984 255 0 0 255
-0.15736 0.500015 2.055 0.33755 0.509165 0.791714 255 0 0 255
-0.151461 0.499055 2.051 0.538147 0.468855 0.700409 255 0 0 255
-0.145583 0.498094 2.047 0.623941 0.36125 0.692961 255 0 0 255
-0.139591 0.496645 2.041 0.367595 0.34918 0.861944 255 0 0 255
-0.134024 0.496657 2.041 -0.256983 0.0725464 0.963689 255 0 0 255
-0.128835 0.498127 2.047 -0.634211 -0.319411 0.704097 255 0 0 255
-0.123794 0.500328 2.056 -0.56077 -0.582751 0.588165 255 0 0 255
-0.118588 0.502042 2.063 -0.507964 -0.504495 0.698181 255 0 0 255
-0.113124 0.502781 2.066 -0.372588 -0.290198 0.881455 255 0 0 255
-0.107696 0.503764 2.07 -0.254033 -0.26267 0.930844 255 0 0 255
-0.102049 0.503773 2.07 0.123926 -0.1916 0.973618 255 0 0 255
-0.096168 0.502564 2.065 0.533959 -0.467867 0.704264 255 0 0 255
-0.090095 0.500138 2.055 0.619142 -0.488557 0.614797 255 0 0 255
-0.084159 0.498199 2.047 0.502764 -0.329722 0.799069 255 0 0 255
-0.07842 0.497232 2.043 0.0678605 -0.0656336 0.995534 255 0 0 255
-0.072845 0.497238 2.043 -0.260406 0.00459126 0.965488 255 0 0 255
-0.067401 0.498218 2.047 -0.550068 0.171068 0.817411 255 0 0 255
-0.061936 0.499197 2.051 -0.483538 0.387874 0.784695 255 0 0 255
-0.056421 0.499932 2.054 -0.221159 0.673039 0.705767 255 0 0 255
-0.050815 0.499937 2.054 -0.152683 0.75716 0.635135 255 0 0 255
-0.045253 0.500428 2.056 -0.131799 0.723844 0.677258 255 0 0 255
-0.039642 0.500431 2.056 -0.255717 0.610168 0.74987 255 0 0 255
-0.034046 0.500678 2.057 -0.0173876 0.245087 0.969345 255 0 0 255
-0.028432 0.50068 2.057 -0.0615383 0.318446 0.945941 255 0 0 255
-0.022817 0.500683 2.057 -0.15204 0.32653 0.932878 255 0 0 255
-0.017211 0.500928 2.058 -0.396953 0.165633 0.90277 255 0 0 255
-0.011622 0.502146 2.063 -0.715978 0.084831 0.692949 255 0 0 255
-0.006008 0.503607 2.069 -0.62196 -0.00688113 0.783019 255 0 0 255
-0.000361 0.504338 2.072 -0.113741 -0.153643 0.981558 255 0 0 255
0.005292 0.504094 2.071 0.0749365 -0.224016 0.9717 255 0 0 255
0.010945 0.504093 2.071 0.0804412 -0.31335 0.946225 255 0 0 255
0.016589 0.503849 2.07 -0.118732 -0.203375 0.971875 255 0 0 255
0.022261 0.504334 2.072 -0.284021 -0.155458 0.946132 255 0 0 255
0.02793 0.504575 2.073 -0.28166 -0.0882289 0.955449 255 0 0 255
0.033621 0.505059 2.075 -0.48324 -0.076128 0.872172 255 0 0 255
0.039379 0.506273 2.08 -0.392162 0.000627748 0.919896 255 0 0 255
0.045056 0.50627 2.08 -0.321225 0.0550713 0.9454 255 0 0 255
0.05083 0.507239 2.084 -0.395128 0.167797 0.903171 255 0 0 255
0.056545 0.507478 2.085 -0.546987 0.166977 0.820319 255 0 0 255
0.062414 0.508933 2.091 -0.576005 0.070325 0.814415 255 0 0 255
0.068186 0.509415 2.093 -0.290332 0.119096 0.949486 255 0 0 255
0.073933 0.509652 2.094 -0.449334 0.286898 0.846043 255 0 0 255
0.079837 0.510862 2.099 -0.533408 0.322766 0.781856 255 0 0 255
0.085687 0.511585 2.102 -0.695064 0.27069 0.666042 255 0 0 255
0.091945 0.514499 2.114 -0.867038 -0.00287485 0.498234 255 0 0 255
-0.13032 0.645357 2.10766 0.911973 -0.156942 -0.379044 255 255 0 255
-0.129153 0.643353 2.09531 -0.96955 0.223054 -0.101094 255 255 0 255
-0.126261 0.641444 2.08424 0.87822 -0.399889 -0.262334 255 255 0 255
-0.285014 0.557583 2.1077 0.987345 0.0429478 -0.152663 0 255 0 255
-0.279509 0.559285 2.11555 0.733897 -0.396255 -0.551704 0 255 0 255
-0.267887 0.560213 2.1187 0.776534 -0.591705 -0.216519 0 255 0 255
-0.263244 0.562038 2.12727 0.544321 -0.808658 -0.223129 0 255 0 255
-0.245193 0.564602 2.13775 0.246149 -0.901714 -0.355419 0 255 0 255
-0.230895 0.565242 2.13906 0.246149 -0.901714 -0.355419 0 255 0 255
-0.195209 0.573032 2.17322 -0.00894389 -0.423148 -0.906017 0 255 0 255
-0.183471 0.574059 2.17674 -0.00894387 -0.423148 -0.906017 0 255 0 255
-0.158493 0.573516 2.17061 0.105314 -0.445384 -0.889125 0 255 0 255
-0.144067 0.57426 2.17234 0.207719 -0.381878 -0.900567 0 255 0 255
-0.127856 0.57481 2.17284 0.278176 -0.348725 -0.894991 0 255 0 255
-0.119579 0.576311 2.17916 0.227187 -0.465986 -0.855127 0 255 0 255
-0.103331 0.57689 2.17979 0.223393 -0.652332 -0.724264 0 255 0 255
-0.09503 0.578411 2.1862 0.592322 -0.656201 -0.467498 0 255 0 255
-0.082289 0.579428 2.18947 0.346159 -0.337039 -0.875545 0 255 0 255
-0.07308 0.580865 2.19531 0.151437 -0.545407 -0.824377 0 255 0 255
-0.054096 0.581199 2.1943 -0.191472 -0.000980743 -0.981498 0 255 0 255
-0.042193 0.582357 2.19837 -0.104166 -0.0502075 -0.993292 0 255 0 255
-0.353337 0.501985 2.089 0.681773 -0.332253 0.651761 255 0 0 255
-0.346162 0.499845 2.08 0.669913 -0.278491 0.688229 255 0 0 255
-0.339527 0.498427 2.074 0.573 -0.224584 0.788184 255 0 0 255
-0.333246 0.497488 2.07 0.527031 -0.170842 0.832497 255 0 0 255
-0.326985 0.496549 2.066 0.556213 0.0176761 0.830852 255 0 0 255
-0.320746 0.49561 2.062 0.373725 0.0952542 0.922636 255 0 0 255
-0.315139 0.495632 2.062 0.341479 -0.0441461 0.938852 255 0 0 255
-0.308781 0.494452 2.057 0.372043 -0.0744492 0.925225 255 0 0 255
-0.303039 0.494233 2.056 0.243281 0.0202818 0.969744 255 0 0 255
-0.297302 0.494014 2.055 0.241967 0.222438 0.944444 255 0 0 255
-0.29157 0.493795 2.054 0.288032 0.232438 0.928984 255 0 0 255
-0.285564 0.493095 2.051 0.267291 0.132165 0.954509 255 0 0 255
-0.279847 0.492875 2.05 -0.118039 -0.0480599 0.991845 255 0 0 255
-0.274536 0.493376 2.052 -0.19573 -0.122956 0.972919 255 0 0 255
-0.269214 0.493877 2.054 -0.0706701 -0.147761 0.986495 255 0 0 255
-0.263495 0.493656 2.053 0.034543 -0.0683952 0.99706 255 0 0 255
-0.258032 0.493916 2.054 0.00174238 -0.124854 0.992174 255 0 0 255
-0.252317 0.493695 2.053 -0.116124 -0.0990533 0.988283 255 0 0 255
-0.246848 0.493954 2.054 -0.260786 -0.136224 0.955737 255 0 0 255
-0.241372 0.494213 2.055 -0.115867 -0.286217 0.951133 255 0 0 255
-0.235661 0.493991 2.054 0.171592 -0.291467 0.941065 255 0 0 255
-0.229843 0.493527 2.052 0.286356 -0.266174 0.920408 255 0 0 255
-0.224035 0.493064 2.05 0.0464931 -0.280588 0.958702 255 0 0 255
-0.218557 0.493322 2.051 -0.11504 -0.251676 0.96095 255 0 0 255
-0.213073 0.493579 2.052 -0.08462 -0.150933 0.984916 255 0 0 255
-0.207584 0.493836 2.053 -0.119503 -0.0492219 0.991613 255 0 0 255
-0.202186 0.494333 2.055 -0.156726 0.0110417 0.98758 255 0 0 255
-0.196586 0.494349 2.055 -0.126252 0.170111 0.977304 255 0 0 255
-0.190986 0.494364 2.055 0.0775877 0.146235 0.986202 255 0 0 255
-0.185294 0.494139 2.054 0.00725574 0.181574 0.983351 255 0 0 255
-0.179783 0.494394 2.055 -0.189841 0.246964 0.950247 255 0 0 255
-0.174266 0.494649 2.056 -0.313005 0.206607 0.927007 255 0 0 255
-0.168825 0.495144 2.058 -0.18578 0.214647 0.95886 255 0 0 255
-0.163214 0.495157 2.058 -0.0225532 0.215107 0.97633 255 0 0 255
-0.157602 0.49517 2.058 0.252502 0.294535 0.921679 255 0 0 255
-0.151769 0.494461 2.055 0.503326 0.299418 0.810563 255 0 0 255
-0.14588 0.493511 2.051 0.553699 0.431502 0.712196 255 0 0 255
-0.139876 0.492079 2.045 0.490388 0.526335 0.694616 255 0 0 255
-0.134167 0.491609 2.043 -0.0388743 0.466584 0.883622 255 0 0 255
-0.128594 0.49162 2.043 -0.0447495 0.18733 0.981277 255 0 0 255
-0.123262 0.492593 2.047 -0.503575 -0.431837 0.748284 255 0 0 255
-0.11808 0.494287 2.054 -0.585802 -0.561542 0.584386 255 0 0 255
-0.112915 0.496222 2.062 -0.44943 -0.554533 0.700361 255 0 0 255
-0.107549 0.497434 2.067 -0.310968 -0.410055 0.857411 255 0 0 255
-0.101811 0.496962 2.065 0.156378 -0.63574 0.755897 255 0 0 255
-0.095757 0.494804 2.056 0.554863 -0.525021 0.645352 255 0 0 255
-0.08984 0.493127 2.049 0.511735 -0.327216 0.794391 255 0 0 255
-0.084084 0.492172 2.045 0.265459 -0.0271518 0.96374 255 0 0 255
-0.078465 0.491938 2.044 0.134554 0.0694352 0.988471 255 0 0 255
-0.072887 0.491945 2.044 -0.334736 0.210285 0.918549 255 0 0 255
-0.06744 0.492913 2.048 -0.589858 0.204994 0.781054 255 0 0 255
-0.062002 0.494122 2.053 -0.589005 0.15284 0.793545 255 0 0 255
-0.056508 0.49509 2.057 -0.408748 0.198191 0.890868 255 0 0 255
-0.050943 0.495576 2.059 -0.183284 0.210715 0.960212 255 0 0 255
-0.045345 0.495821 2.06 -0.0844358 0.177106 0.980563 255 0 0 255
-0.039684 0.495343 2.058 -0.0430081 0.180317 0.982668 255 0 0 255
-0.034083 0.495587 2.059 -0.12541 0.272255 0.954018 255 0 0 255
-0.028448 0.495349 2.058 -0.0614513 0.340753 0.938142 255 0 0 255
-0.022842 0.495592 2.059 -0.210999 0.377717 0.901559 255 0 0 255
-0.017229 0.495834 2.06 -0.397591 0.381831 0.834342 255 0 0 255
-0.011623 0.496557 2.063 -0.625802 0.174055 0.760314 255 0 0 255
-0.006009 0.498002 2.069 -0.426103 -0.0303218 0.904167 255 0 0 255
-0.000361 0.498484 2.071 -0.025061 -0.154944 0.987605 255 0 0 255
0.00529 0.498243 2.07 -0.00354684 -0.177429 0.984127 255 0 0 255
0.010935 0.498002 2.069 -0.000496371 -0.0628384 0.998024 255 0 0 255
0.016575 0.49776 2.068 -0.192448 0.10881 0.975256 255 0 0 255
0.022252 0.49848 2.071 -0.303333 0.175693 0.936548 255 0 0 255
0.027932 0.498959 2.073 -0.290114 0.0810793 0.953551 255 0 0 255
0.03364 0.499679 2.076 -0.47145 -0.0198276 0.88167 255 0 0 255
0.039382 0.500639 2.08 -0.445787 0.0544337 0.893483 255 0 0 255
0.045081 0.500876 2.081 -0.46408 0.0609991 0.88369 255 0 0 255
0.050859 0.501834 2.085 -0.479207 0.159848 0.863023 255 0 0 255
0.056604 0.502311 2.087 -0.478699 0.122239 0.869428 255 0 0 255
0.06242 0.503269 2.091 -0.493188 0.0511458 0.868418 255 0 0 255
0.068192 0.503745 2.093 -0.384857 0.0868463 0.918881 255 0 0 255
0.07401 0.504461 2.096 -0.606028 0.239856 0.758419 255 0 0 255
0.07992 0.505657 2.101 -0.566413 0.298304 0.768239 255 0 0 255
0.085735 0.506132 2.103 -0.609564 0.262222 0.748112 255 0 0 255
0.091866 0.50829 2.112 -0.667107 -0.0586565 0.742649 255 0 0 255
-0.137126 0.640306 2.14332 0.396862 -0.602515 -0.692442 255 255 0 255
-0.129932 0.638643 2.13549 0.211986 -0.939261 -0.26991 255 255 0 255
-0.127053 0.636734 2.12446 0.494274 -0.859827 -0.128032 255 255 0 255
-0.120729 0.635027 2.11601 -0.456367 0.887696 -0.0610247 255 255 0 255
-0.11699 0.633171 2.10563 0.396193 -0.900329 -0.180109 255 255 0 255
-0.12152 0.628739 2.07571 -0.974153 -0.0307645 -0.223787 255 255 0 255
-0.273411 0.543462 2.08756 -0.886103 -0.412093 -0.212135 0 255 0 255
-0.278352 0.546543 2.10362 0.972842 0.180272 -0.145193 0 255 0 255
-0.273714 0.548358 2.11217 0.886343 -0.166204 -0.432172 0 255 0 255
-0.271692 0.550517 2.12276 0.950118 -0.265774 -0.163218 0 255 0 255
-0.276663 0.553583 2.13871 -0.857716 0.508836 -0.073544 0 255 0 255
-0.274652 0.555738 2.14926 0.639237 -0.327456 -0.695808 0 255 0 255
-0.263891 0.556771 2.15313 0.264662 -0.627756 -0.732036 0 255 0 255
-0.246111 0.556922 2.15174 -0.0576012 -0.645339 -0.761722 0 255 0 255
-0.1973 0.56298 2.17596 0.119609 -0.106887 -0.98705 0 255 0 255
-0.185568 0.563982 2.17948 0.035047 -0.218724 -0.975157 0 255 0 255
-0.16589 0.564024 2.17724 -0.0606045 -0.404878 -0.91236 0 255 0 255
-0.147067 0.564194 2.17574 0.207551 -0.635674 -0.743533 0 255 0 255
-0.133513 0.565026 2.17817 0.298763 -0.569085 -0.766083 0 255 0 255
-0.125242 0.56651 2.18449 0.159231 -0.536222 -0.828922 0 255 0 255
-0.110773 0.567261 2.18638 0.33002 -0.523888 -0.785257 0 255 0 255
-0.098941 0.568343 2.19024 0.205708 -0.734514 -0.646663 0 255 0 255
-0.084437 0.569123 2.19226 0.343186 -0.223142 -0.912377 0 255 0 255
-0.073458 0.570334 2.19685 0.152207 -0.467731 -0.870667 0 255 0 255
-0.056257 0.57083 2.19711 -0.637008 -0.324762 -0.699106 0 255 0 255
-0.041696 0.571654 2.19931 -0.122392 -0.246361 -0.961419 0 255 0 255
-0.352176 0.494662 2.082 0.667732 -0.278816 0.690215 255 0 0 255
-0.345353 0.493022 2.075 0.585836 -0.238437 0.774561 255 0 0 255
-0.338895 0.491857 2.07 0.514159 -0.219409 0.829156 255 0 0 255
-0.332624 0.490929 2.066 0.478698 -0.110935 0.870943 255 0 0 255
-0.326691 0.490476 2.064 0.490363 -0.129499 0.861844 255 0 0 255
-0.320613 0.489786 2.061 0.398677 -0.144231 0.905679 255 0 0 255
-0.314703 0.489332 2.059 0.35006 -0.204421 0.91415 255 0 0 255
-0.308653 0.488641 2.056 0.151814 -0.102747 0.983054 255 0 0 255
-0.303061 0.488663 2.056 0.0603161 -0.0676165 0.995887 255 0 0 255
-0.297468 0.488684 2.056 0.219108 0.027102 0.975324 255 0 0 255
-0.291591 0.48823 2.054 0.354917 -0.0188473 0.934708 255 0 0 255
-0.285724 0.487775 2.052 0.28727 -0.0130769 0.95776 255 0 0 255
-0.279867 0.48732 2.05 -0.0885955 0.00974882 0.99602 255 0 0 255
-0.274556 0.487816 2.052 -0.281256 0.091532 0.955257 255 0 0 255
-0.268971 0.487836 2.052 -0.0901065 0.0765431 0.992986 255 0 0 255
-0.263386 0.487856 2.052 0.00887386 0.0768364 0.997004 255 0 0 255
-0.2578 0.487875 2.052 0.00503898 0.083511 0.996494 255 0 0 255
-0.252213 0.487894 2.052 0.00474533 -0.00944661 0.999944 255 0 0 255
-0.246746 0.488151 2.053 -0.120058 -0.0979667 0.987921 255 0 0 255
-0.24139 0.488645 2.055 -0.0885166 -0.150508 0.984638 255 0 0 255
-0.235679 0.488425 2.054 0.159524 -0.125884 0.979135 255 0 0 255
-0.229749 0.48773 2.051 0.343911 -0.0644638 0.936787 255 0 0 255
-0.223943 0.487272 2.049 0.203877 -0.108384 0.972978 255 0 0 255
-0.218361 0.487289 2.049 -0.0805203 -0.255657 0.963409 255 0 0 255
-0.212882 0.487544 2.05 -0.148451 -0.295919 0.943607 255 0 0 255
-0.207398 0.487798 2.051 -0.223254 -0.272096 0.936014 255 0 0 255
-0.201907 0.488052 2.052 -0.241668 -0.082781 0.966821 255 0 0 255
-0.196411 0.488305 2.053 -0.119517 -0.0438585 0.991863 255 0 0 255
-0.190908 0.488559 2.054 0.00207107 -0.00329684 0.999992 255 0 0 255
-0.185309 0.488574 2.054 -0.0916715 0.0981003 0.990945 255 0 0 255
-0.179885 0.489064 2.056 -0.18873 0.138441 0.972222 255 0 0 255
-0.17428 0.489078 2.056 -0.217603 0.090574 0.971826 255 0 0 255
-0.168838 0.489568 2.058 -0.150029 -0.00274016 0.988678 255 0 0 255
-0.163227 0.489581 2.058 0.00195441 -0.00370498 0.999991 255 0 0 255
-0.157615 0.489594 2.058 0.183403 0.0428046 0.982105 255 0 0 255
-0.151855 0.489131 2.056 0.382854 0.209138 0.899825 255 0 0 255
-0.146105 0.488668 2.054 0.514632 0.270041 0.813776 255 0 0 255
-0.140229 0.487728 2.05 0.474795 0.433536 0.765909 255 0 0 255
-0.134506 0.487263 2.048 0.365532 0.472652 0.801864 255 0 0 255
-0.128668 0.486322 2.044 0.227359 0.31676 0.920853 255 0 0 255
-0.123092 0.486333 2.044 -0.002721 0.0183007 0.999829 255 0 0 255
-0.117803 0.487532 2.049 -0.453711 -0.482017 0.749537 255 0 0 255
-0.11265 0.489445 2.057 -0.458506 -0.642371 0.614111 255 0 0 255
-0.107246 0.490406 2.061 -0.0845488 -0.681298 0.727107 255 0 0 255
-0.101425 0.489463 2.057 0.279081 -0.669811 0.688089 255 0 0 255
-0.095532 0.488044 2.051 0.378418 -0.47802 0.792651 255 0 0 255
-0.08976 0.4871 2.047 0.255067 -0.230849 0.938962 255 0 0 255
-0.084132 0.486869 2.046 0.110878 -0.114227 0.987248 255 0 0 255
-0.078548 0.486876 2.046 -0.0627872 0.134741 0.98889 255 0 0 255
-0.073 0.48712 2.047 -0.416977 0.225647 0.880462 255 0 0 255
-0.067479 0.487602 2.049 -0.572426 0.187995 0.798114 255 0 0 255
-0.062007 0.48856 2.053 -0.523677 0.0651965 0.849418 255 0 0 255
-0.056485 0.489279 2.056 -0.324754 -0.0751714 0.942807 255 0 0 255
-0.050898 0.489521 2.057 -0.218552 -0.129055 0.967254 255 0 0 255
-0.045305 0.489763 2.058 0.00193358 -0.153804 0.9881 255 0 0 255
-0.039668 0.489529 2.057 -0.126846 -0.0590703 0.990162 255 0 0 255
-0.034102 0.490246 2.06 -0.246311 0.0684467 0.966771 255 0 0 255
-0.028478 0.490249 2.06 -0.186714 0.238476 0.953031 255 0 0 255
-0.022877 0.490727 2.062 -0.319463 0.379227 0.868407 255 0 0 255
-0.017264 0.491204 2.064 -0.335939 0.262124 0.904675 255 0 0 255
-0.011641 0.491682 2.066 -0.465519 0.218093 0.857746 255 0 0 255
-0.006009 0.492396 2.069 -0.352689 -0.0953699 0.930868 255 0 0 255
-0.000361 0.492397 2.069 -0.0519376 -0.199527 0.978515 255 0 0 255
0.005287 0.492396 2.069 -0.0211797 -0.177201 0.983947 255 0 0 255
0.010941 0.492634 2.07 -0.192274 0.0528801 0.979916 255 0 0 255
0.016608 0.493109 2.072 -0.332024 0.196448 0.922588 255 0 0 255
0.022276 0.493345 2.073 -0.266717 0.311123 0.912176 255 0 0 255
0.027948 0.493581 2.074 -0.240112 0.168189 0.956064 255 0 0 255
0.033626 0.493816 2.075 -0.46487 0.0932554 0.880454 255 0 0 255
0.039348 0.494527 2.078 -0.53601 0.186413 0.823373 255 0 0 255
0.045085 0.495237 2.081 -0.526865 0.206734 0.824423 255 0 0 255
0.050888 0.496423 2.086 -0.463279 0.195075 0.864476 255 0 0 255
0.056636 0.496894 2.088 -0.392168 0.192041 0.899625 255 0 0 255
0.062425 0.497603 2.091 -0.426888 0.085976 0.900208 255 0 0 255
0.068198 0.498074 2.093 -0.516704 0.134271 0.84557 255 0 0 255
0.074052 0.49902 2.097 -0.662102 0.223632 0.715269 255 0 0 255
0.080041 0.500679 2.104 -0.537146 0.339362 0.77221 255 0 0 255
0.085824 0.50091 2.105 -0.309532 0.23703 0.920873 255 0 0 255
0.091743 0.501854 2.109 -0.551694 0.0736924 0.830784 255 0 0 255
-0.118608 0.628451 2.14506 0.143477 -0.554318 -0.819845 255 255 0 255
-0.112294 0.626755 2.13663 -0.141538 -0.506525 -0.850529 255 255 0 255
-0.280694 0.534229 2.09437 -0.921876 0.371511 -0.110109 0 255 0 255
-0.278668 0.536391 2.10498 0.756987 -0.650009 -0.0667852 0 255 0 255
-0.278388 0.538787 2.11692 0.904837 -0.298762 -0.303332 0 255 0 255
-0.272879 0.540483 2.1248 -0.98848 0.0987997 -0.114654 0 255 0 255
-0.281337 0.544037 2.14343 0.996622 0.047875 -0.0667269 0 255 0 255
-0.280202 0.546309 2.15463 0.87304 -0.23983 -0.424598 0 255 0 255
-0.270324 0.547433 2.15917 0.355074 -0.226403 -0.907009 0 255 0 255
-0.252557 0.547539 2.15777 -0.00763218 -0.259979 -0.965584 0 255 0 255
-0.191479 0.551925 2.17283 0.357721 0.0628591 -0.931711 0 255 0 255
-0.181506 0.553128 2.17768 0.147295 -0.00223845 -0.98909 0 255 0 255
-0.163594 0.553347 2.17676 0.384186 -0.599363 -0.702257 0 255 0 255
-0.156235 0.554904 2.18364 0.3195 -0.628293 -0.709343 0 255 0 255
-0.143577 0.555811 2.1867 0.255775 -0.644484 -0.720569 0 255 0 255
-0.135316 0.557276 2.19299 0.116118 -0.612346 -0.782016 0 255 0 255
-0.117326 0.557555 2.19233 0.227267 -0.196085 -0.953887 0 255 0 255
-0.105503 0.55861 2.19618 0.294474 -0.196066 -0.935331 0 255 0 255
-0.088354 0.559032 2.1963 0.182786 -0.331628 -0.925533 0 255 0 255
-0.074725 0.559899 2.19901 0.318668 -0.213 -0.923625 0 255 0 255
-0.058418 0.560462 2.1999 -0.528376 -0.411927 -0.742385 0 255 0 255
-0.051851 0.562204 2.20772 -0.0114123 -0.732333 -0.680852 0 255 0 255
-0.351523 0.48808 2.078 0.602624 -0.218374 0.767566 255 0 0 255
-0.345376 0.487399 2.075 0.590764 -0.162941 0.79022 255 0 0 255
-0.338918 0.486247 2.07 0.518938 -0.09667 0.849328 255 0 0 255
-0.332808 0.485565 2.067 0.444555 -0.0312346 0.895207 255 0 0 255
-0.326555 0.484648 2.063 0.470732 0.0137069 0.882169 255 0 0 255
-0.320324 0.483731 2.059 0.435713 -0.021515 0.899828 255 0 0 255
-0.314419 0.483283 2.057 0.353274 -0.01858 0.935335 255 0 0 255
-0.308524 0.482835 2.055 0.180339 -0.0197899 0.983405 255 0 0 255
-0.302935 0.482856 2.055 0.0359438 0.0601796 0.99754 255 0 0 255
-0.297345 0.482878 2.055 0.263669 -0.0138575 0.964514 255 0 0 255
-0.291328 0.482194 2.052 0.345914 -0.0695247 0.935687 255 0 0 255
-0.285466 0.481745 2.05 0.0994022 -0.0462443 0.993972 255 0 0 255
-0.279888 0.481765 2.05 -0.186523 0.0493709 0.981209 255 0 0 255
-0.274576 0.482256 2.052 -0.25058 0.176739 0.951826 255 0 0 255
-0.269122 0.482511 2.053 -0.0929818 0.283095 0.954574 255 0 0 255
-0.263662 0.482765 2.054 -1.88431e-05 0.31067 0.950518 255 0 0 255
-0.257945 0.48255 2.053 0.0633998 0.220467 0.973332 255 0 0 255
-0.252478 0.482804 2.054 0.0969713 0.0706128 0.992779 255 0 0 255
-0.246645 0.482353 2.052 0.0197713 -0.10654 0.994112 255 0 0 255
-0.241174 0.482606 2.053 -0.0151461 -0.181047 0.983358 255 0 0 255
-0.235582 0.482625 2.053 0.0980129 -0.161321 0.982023 255 0 0 255
-0.229766 0.482172 2.051 0.326226 -0.0397465 0.944456 255 0 0 255
-0.22396 0.481719 2.049 0.28071 -0.0308564 0.959296 255 0 0 255
-0.218165 0.481266 2.047 -0.00720986 -0.105693 0.994373 255 0 0 255
-0.212691 0.481518 2.048 -0.093452 -0.20634 0.974007 255 0 0 255
-0.207313 0.482005 2.05 -0.229071 -0.198614 0.952932 255 0 0 255
-0.201923 0.482491 2.052 -0.258853 -0.174137 0.95009 255 0 0 255
-0.196522 0.482977 2.054 -0.153351 -0.150716 0.97661 255 0 0 255
-0.190923 0.482993 2.054 -0.0897262 -0.121533 0.988524 255 0 0 255
-0.185324 0.483008 2.054 -0.145901 -0.0943014 0.984794 255 0 0 255
-0.179812 0.483257 2.055 -0.174973 -0.0815948 0.981187 255 0 0 255
-0.174294 0.483507 2.056 -0.174138 -0.0962568 0.980006 255 0 0 255
-0.16877 0.483756 2.057 -0.0850765 -0.146488 0.985547 255 0 0 255
-0.163161 0.483769 2.057 -0.00964493 -0.198316 0.980091 255 0 0 255
-0.157551 0.483782 2.057 0.107526 -0.197176 0.974454 255 0 0 255
-0.151867 0.48356 2.056 0.179629 -0.0607393 0.981857 255 0 0 255
-0.146188 0.483337 2.055 0.282546 0.15104 0.947288 255 0 0 255
-0.140446 0.482878 2.053 0.392396 0.250489 0.885031 255 0 0 255
-0.134714 0.482419 2.051 0.444078 0.23706 0.864059 255 0 0 255
-0.12893 0.481724 2.048 0.416465 0.302589 0.85732 255 0 0 255
-0.123162 0.481029 2.045 0.0846366 -0.00878514 0.996373 255 0 0 255
-0.117583 0.481039 2.045 -0.0686101 -0.203408 0.976687 255 0 0 255
-0.112222 0.481989 2.049 -0.214081 -0.581529 0.784852 255 0 0 255
-0.106787 0.482704 2.052 -0.214124 -0.65613 0.723633 255 0 0 255
-0.101088 0.482242 2.05 0.140954 -0.56091 0.815789 255 0 0 255
-0.095354 0.481545 2.047 0.268368 -0.316791 0.909738 255 0 0 255
-0.089724 0.481317 2.046 0.222842 -0.291781 0.930164 255 0 0 255
-0.084098 0.481089 2.045 0.143017 -0.187839 0.971732 255 0 0 255
-0.078478 0.480861 2.044 -0.149894 -0.146115 0.977846 255 0 0 255
-0.073006 0.481573 2.047 -0.46274 -0.0546967 0.884805 255 0 0 255
-0.06755 0.48252 2.051 -0.533722 -0.0253989 0.845279 255 0 0 255
-0.062042 0.483231 2.054 -0.390235 -0.138554 0.910231 255 0 0 255
-0.056435 0.483236 2.054 -0.201155 -0.152309 0.967646 255 0 0 255
-0.050853 0.483476 2.055 -0.230649 -0.146156 0.961998 255 0 0 255
-0.045265 0.483716 2.056 -0.122698 -0.0432058 0.991503 255 0 0 255
-0.039652 0.483719 2.056 -0.212016 -0.0299993 0.976806 255 0 0 255
-0.034088 0.484428 2.059 -0.285279 -0.0705963 0.955841 255 0 0 255
-0.028495 0.484901 2.061 -0.271882 -0.00462408 0.962319 255 0 0 255
-0.02289 0.485374 2.063 -0.411678 0.059114 0.90941 255 0 0 255
-0.017283 0.486082 2.066 -0.318615 0.0644707 0.945689 255 0 0 255
-0.011642 0.486083 2.066 -0.280364 -0.0103135 0.959838 255 0 0 255
-0.006007 0.486554 2.068 -0.13977 -0.227302 0.963742 255 0 0 255
-0.000361 0.486319 2.067 -0.0682777 -0.223292 0.972358 255 0 0 255
0.005285 0.486554 2.068 -0.134654 -0.150931 0.97933 255 0 0 255
0.010937 0.486789 2.069 -0.389808 0.0139835 0.92079 255 0 0 255
0.016618 0.487729 2.073 -0.426368 0.202322 0.881632 255 0 0 255
0.022299 0.488198 2.075 -0.21031 0.215295 0.953634 255 0 0 255
0.027964 0.488196 2.075 -0.150054 0.229072 0.961774 255 0 0 255
0.033645 0.488428 2.076 -0.468612 0.206299 0.858978 255 0 0 255
0.039408 0.489601 2.081 -0.616113 0.236469 0.751324 255 0 0 255
0.045176 0.490539 2.085 -0.533115 0.329305 0.779325 255 0 0 255
0.050941 0.491241 2.088 -0.356949 0.256984 0.89808 255 0 0 255
0.056668 0.491471 2.089 -0.315411 0.158799 0.935574 255 0 0 255
0.06243 0.491937 2.091 -0.450247 0.0942822 0.887913 255 0 0 255
0.068236 0.492637 2.094 -0.636756 0.21528 0.740403 255 0 0 255
0.074164 0.494043 2.1 -0.700598 0.273877 0.658903 255 0 0 255
0.080086 0.495212 2.105 -0.489112 0.315952 0.812985 255 0 0 255
0.085872 0.495441 2.106 -0.217604 0.247299 0.944188 255 0 0 255
0.09162 0.495433 2.106 -0.217604 0.247299 0.944188 255 0 0 255
-0.093246 0.617129 2.15199 0.110773 -0.852291 -0.511203 255 255 0 255
-0.074922 0.61623 2.15266 -0.155262 -0.821157 -0.549177 255 255 0 255
-0.294058 0.525871 2.10594 0.686478 -0.665706 -0.292548 0 255 0 255
-0.288561 0.52755 2.11379 0.60821 -0.595795 -0.524508 0 255 0 255
-0.282188 0.529113 2.12098 0.713891 -0.496679 -0.493629 0 255 0 255
-0.275811 0.530683 2.12819 0.916484 -0.167546 -0.363298 0 255 0 255
-0.277281 0.533323 2.14144 -0.989882 -0.0663637 -0.125422 0 255 0 255
-0.275267 0.535487 2.15199 0.896279 0.107748 -0.430203 0 255 0 255
-0.271507 0.537417 2.1612 0.486767 -0.0843887 -0.869446 0 255 0 255
-0.254623 0.537597 2.16048 0.0936171 -0.113272 -0.989144 0 255 0 255
-0.186546 0.540938 2.17037 0.446851 -0.0281467 -0.894165 0 255 0 255
-0.179209 0.542467 2.17719 0.511882 -0.263772 -0.817558 0 255 0 255
-0.170105 0.543775 2.18273 0.540384 -0.504806 -0.673169 0 255 0 255
-0.165395 0.545655 2.19152 0.573379 -0.533295 -0.621958 0 255 0 255
-0.155393 0.546866 2.19648 0.37165 -0.514642 -0.772671 0 255 0 255
-0.140968 0.54753 2.1983 0.0360562 -0.222195 -0.974335 0 255 0 255
-0.119459 0.547321 2.1951 0.0237263 -0.0525018 -0.998339 0 255 0 255
-0.104989 0.548019 2.19706 0.272516 -0.0499971 -0.960852 0 255 0 255
-0.089616 0.548622 2.19846 0.332153 -0.109387 -0.936861 0 255 0 255
-0.076878 0.549569 2.2018 0.266618 -0.50283 -0.822239 0 255 0 255
-0.06501 0.550638 2.20582 0.0205247 -0.582774 -0.812375 0 255 0 255
-0.054902 0.551934 2.21114 0.558474 -0.645303 -0.521239 0 255 0 255
-0.047445 0.553564 2.21834 -0.487312 -0.1677 -0.856974 0 255 0 255
-0.370257 0.500069 2.154 0.543545 0.717245 0.436025 255 0 0 255
-0.351547 0.482448 2.078 0.70405 -0.11702 0.700443 255 0 0 255
-0.3449 0.481078 2.072 0.548454 -0.145343 0.823452 255 0 0 255
-0.338613 0.480173 2.068 0.411337 -0.0822722 0.907763 255 0 0 255
-0.33267 0.479731 2.066 0.414386 0.0242098 0.909779 255 0 0 255
-0.326578 0.479057 2.063 0.477971 0.1699 0.861787 255 0 0 255
-0.320501 0.478383 2.06 0.456359 0.205597 0.865717 255 0 0 255
-0.314441 0.477708 2.057 0.353586 0.177672 0.918374 255 0 0 255
-0.308696 0.477498 2.056 0.125955 0.1393 0.982207 255 0 0 255
-0.303104 0.477519 2.056 0.0627968 0.150389 0.98663 255 0 0 255
-0.297366 0.477308 2.055 0.335546 0.0923901 0.937482 255 0 0 255
-0.291349 0.476633 2.052 0.394029 0.0401427 0.918221 255 0 0 255
-0.285626 0.476421 2.051 0.127181 -0.0104443 0.991825 255 0 0 255
-0.280181 0.476674 2.052 -0.279965 0.0883307 0.955938 255 0 0 255
-0.274998 0.477391 2.055 -0.340002 0.126981 0.931813 255 0 0 255
-0.269404 0.477411 2.055 -0.218836 0.224562 0.94957 255 0 0 255
-0.263939 0.477663 2.056 0.0338336 0.294586 0.955026 255 0 0 255
-0.258215 0.47745 2.055 0.185337 0.156079 0.970201 255 0 0 255
-0.252497 0.477237 2.054 0.2657 0.0112145 0.963991 255 0 0 255
-0.246663 0.476791 2.052 0.0999849 -0.186316 0.977389 255 0 0 255
-0.240957 0.476577 2.051 -0.0154141 -0.228846 0.973341 255 0 0 255
-0.2356 0.47706 2.053 0.0582614 -0.204194 0.977195 255 0 0 255
-0.229784 0.476613 2.051 0.229002 -0.0851283 0.969696 255 0 0 255
-0.224087 0.476399 2.05 0.326824 -0.039878 0.944244 255 0 0 255
-0.218182 0.475718 2.047 0.152679 -0.0723547 0.985624 255 0 0 255
-0.212708 0.475968 2.048 -0.177519 -0.0650986 0.981962 255 0 0 255
-0.207127 0.475984 2.048 -0.248335 -0.121737 0.960994 255 0 0 255
-0.201742 0.476465 2.05 -0.313299 -0.131074 0.940566 255 0 0 255
-0.196346 0.476946 2.052 -0.119693 -0.1779 0.976742 255 0 0 255
-0.190752 0.476961 2.052 -0.118176 -0.20285 0.972053 255 0 0 255
-0.185249 0.477208 2.053 -0.131822 -0.146313 0.980416 255 0 0 255
-0.179739 0.477455 2.054 -0.220688 -0.0895121 0.971228 255 0 0 255
-0.174223 0.477702 2.055 -0.112653 -0.0922221 0.989345 255 0 0 255
-0.168702 0.477948 2.056 -0.0560187 -0.152489 0.986716 255 0 0 255
-0.163095 0.477962 2.056 0.0147005 -0.223921 0.974496 255 0 0 255
-0.157411 0.477742 2.055 0.0336991 -0.180285 0.983037 255 0 0 255
-0.151732 0.477522 2.054 0.00438897 0.0109895 0.99993 255 0 0 255
-0.1462 0.477767 2.055 0.0968052 0.176601 0.979511 255 0 0 255
-0.140526 0.477546 2.054 0.374141 0.178647 0.910002 255 0 0 255
-0.134726 0.47686 2.051 0.479506 0.140906 0.866152 255 0 0 255
-0.129004 0.476406 2.049 0.450082 0.0504416 0.891561 255 0 0 255
-0.123233 0.475719 2.046 0.321697 0.0444246 0.9458 255 0 0 255
-0.117592 0.475496 2.045 -0.0252654 -0.25502 0.966606 255 0 0 255
-0.112012 0.475506 2.045 -0.0450275 -0.391626 0.919022 255 0 0 255
-0.106483 0.475747 2.046 -0.0656062 -0.545558 0.835501 255 0 0 255
-0.100949 0.475988 2.047 0.0462263 -0.528287 0.847806 255 0 0 255
-0.095315 0.475764 2.046 0.160592 -0.452307 0.877285 255 0 0 255
-0.089643 0.475307 2.044 0.143046 -0.379036 0.914259 255 0 0 255
-0.084023 0.475082 2.043 0.00123964 -0.37523 0.926931 255 0 0 255
-0.078408 0.474856 2.042 -0.135499 -0.295347 0.945733 255 0 0 255
-0.072941 0.47556 2.045 -0.3013 -0.399452 0.865827 255 0 0 255
-0.067457 0.476263 2.048 -0.52434 -0.265441 0.809079 255 0 0 255
-0.061987 0.477199 2.052 -0.298446 -0.173981 0.938435 255 0 0 255
-0.056385 0.477204 2.052 -0.271371 -0.0460962 0.96137 255 0 0 255
-0.050832 0.477674 2.054 -0.297756 0.0513698 0.953259 255 0 0 255
-0.045268 0.478143 2.056 -0.213207 0.168616 0.962347 255 0 0 255
-0.039674 0.478379 2.057 -0.183344 0.110988 0.976763 255 0 0 255
-0.034075 0.478615 2.058 -0.211532 -0.00613241 0.977352 255 0 0 255
-0.028469 0.47885 2.059 -0.208436 -0.175482 0.962165 255 0 0 255
-0.02287 0.479317 2.061 -0.349562 -0.185284 0.91841 255 0 0 255
-0.017267 0.480017 2.064 -0.21891 -0.261094 0.940164 255 0 0 255
-0.011632 0.480018 2.064 -0.136794 -0.339191 0.930719 255 0 0 255
-0.006002 0.480484 2.066 -0.151458 -0.31848 0.935752 255 0 0 255
-0.00036 0.480484 2.066 -0.139913 -0.227323 0.963716 255 0 0 255
0.005283 0.480717 2.067 -0.317533 -0.0268194 0.947868 255 0 0 255
0.010943 0.481414 2.07 -0.425178 -0.0414651 0.904159 255 0 0 255
0.016619 0.48211 2.073 -0.469979 -0.004768 0.882665 255 0 0 255
0.022312 0.482806 2.076 -0.352585 0.109444 0.929358 255 0 0 255
0.02798 0.482804 2.076 -0.336273 0.295009 0.894366 255 0 0 255
0.033681 0.483266 2.078 -0.529434 0.398226 0.749077 255 0 0 255
0.039449 0.484426 2.083 -0.588349 0.389229 0.708764 255 0 0 255
0.045244 0.485585 2.088 -0.44251 0.272387 0.854395 255 0 0 255
0.05097 0.485814 2.089 -0.207959 0.23535 0.949402 255 0 0 255
0.056673 0.485809 2.089 -0.384325 0.213556 0.898158 255 0 0 255
0.062465 0.486502 2.092 -0.444547 0.258756 0.857568 255 0 0 255
0.068307 0.487427 2.096 -0.656708 0.389503 0.645772 255 0 0 255
0.074311 0.489281 2.104 -0.673347 0.474361 0.567086 255 0 0 255
0.080207 0.490205 2.108 -0.346406 0.544352 0.763991 255 0 0 255
0.085961 0.490198 2.108 -0.117633 0.558573 0.821072 255 0 0 255
0.091758 0.490423 2.109 -0.222671 0.459072 0.860041 255 0 0 255
-0.098836 0.610143 2.17509 0.268936 -0.491726 -0.828178 255 255 0 255
-0.08135 0.609214 2.17502 -0.175505 -0.835126 -0.521309 255 255 0 255
-0.060213 0.606471 2.16481 -0.305582 -0.924342 -0.228499 255 255 0 255
-0.04795 0.605228 2.16106 -0.276543 -0.94446 -0.177539 255 255 0 255
-0.057996 0.602461 2.14049 -0.448819 -0.884774 -0.125444 255 255 0 255
-0.301325 0.516719 2.11273 0.619086 -0.364592 -0.695561 0 255 0 255
-0.292355 0.517898 2.11786 0.582853 -0.393077 -0.711178 0 255 0 255
-0.283374 0.519085 2.12302 0.715446 -0.310321 -0.62597 0 255 0 255
-0.275256 0.520402 2.12888 0.839285 0.00606129 -0.543658 0 255 0 255
-0.27585 0.522937 2.14146 0.984087 0.101865 -0.145588 0 255 0 255
-0.277324 0.525589 2.15469 0.874133 0.299907 -0.382029 0 255 0 255
-0.266576 0.526557 2.15859 0.396731 0.149222 -0.905725 0 255 0 255
-0.249695 0.526701 2.15789 0.238506 -0.132368 -0.962078 0 255 0 255
-0.238041 0.527576 2.16123 0.345653 -0.291782 -0.891845 0 255 0 255
-0.230752 0.529055 2.1679 0.338588 -0.540408 -0.770271 0 255 0 255
-0.218196 0.529833 2.17067 0.221227 -0.642506 -0.733652 0 255 0 255
-0.202993 0.530272 2.17153 0.275474 -0.477571 -0.83429 0 255 0 255
-0.189525 0.530961 2.17376 0.396304 -0.490625 -0.776034 0 255 0 255
-0.181313 0.53236 2.17993 0.524256 -0.714951 -0.462603 0 255 0 255
-0.173972 0.533883 2.18677 0.547034 -0.65248 -0.524426 0 255 0 255
-0.167504 0.535527 2.19427 0.54028 -0.180094 -0.821988 0 255 0 255
-0.156626 0.536604 2.19859 0.273444 -0.208163 -0.939093 0 255 0 255
-0.135152 0.536323 2.19533 -0.0822838 0.00713346 -0.996583 0 255 0 255
-0.116295 0.536406 2.19407 0.160609 -0.138511 -0.977251 0 255 0 255
-0.104478 0.537413 2.19794 0.287077 -0.138905 -0.947783 0 255 0 255
-0.096183 0.538882 2.20438 0.653813 -0.0921483 -0.751024 0 255 0 255
-0.08611 0.540134 2.2096 0.379953 -0.38471 -0.84121 0 255 0 255
-0.072483 0.540951 2.21236 0.158041 -0.380742 -0.911076 0 255 0 255
-0.063269 0.542335 2.21828 -0.00405018 -0.214339 -0.976751 0 255 0 255
-0.361858 0.482987 2.105 0.92833 -0.153165 0.33874 255 0 0 255
-0.351401 0.476586 2.077 0.704528 -0.0818389 0.704942 255 0 0 255
-0.344923 0.475462 2.072 0.569319 -0.0955508 0.816545 255 0 0 255
-0.3388 0.474797 2.069 0.399021 -0.108816 0.910462 255 0 0 255
-0.332853 0.474361 2.067 0.270407 0.00463981 0.962735 255 0 0 255
-0.326917 0.473924 2.065 0.348746 0.154945 0.92432 255 0 0 255
-0.320835 0.473258 2.062 0.470132 0.249101 0.846714 255 0 0 255
-0.314769 0.472592 2.059 0.420204 0.189044 0.88752 255 0 0 255
-0.308868 0.472154 2.057 0.156356 0.171944 0.972619 255 0 0 255
-0.30342 0.472405 2.058 0.124479 0.0784142 0.989119 255 0 0 255
-0.297532 0.471968 2.056 0.361705 0.121617 0.924326 255 0 0 255
-0.291512 0.4713 2.053 0.400346 0.0619702 0.914266 255 0 0 255
-0.285508 0.470632 2.05 0.12514 -0.0392197 0.991364 255 0 0 255
-0.280065 0.470882 2.051 -0.302277 -0.0198736 0.953013 255 0 0 255
-0.274751 0.471362 2.053 -0.416855 0.0336737 0.908349 255 0 0 255
-0.269555 0.47207 2.056 -0.342023 0.145718 0.928325 255 0 0 255
-0.264087 0.47232 2.057 0.0670601 0.18856 0.979769 255 0 0 255
-0.258235 0.47188 2.055 0.365862 0.0972731 0.925572 255 0 0 255
-0.252393 0.47144 2.053 0.393555 -0.0660412 0.916926 255 0 0 255
-0.246441 0.47077 2.05 0.223928 -0.144852 0.963781 255 0 0 255
-0.240858 0.470788 2.05 -0.0550585 -0.121034 0.99112 255 0 0 255
-0.235274 0.470806 2.05 0.00317659 -0.113906 0.993487 255 0 0 255
-0.229689 0.470824 2.05 0.0842698 -0.150834 0.984961 255 0 0 255
-0.223995 0.470612 2.049 0.30365 -0.0439744 0.951768 255 0 0 255
-0.218092 0.46994 2.046 0.154328 -0.0548512 0.986496 255 0 0 255
-0.212621 0.470186 2.047 -0.120794 0.0180586 0.992513 255 0 0 255
-0.207143 0.470433 2.048 -0.238795 -0.0244692 0.970762 255 0 0 255
-0.201856 0.471138 2.051 -0.222636 -0.0962038 0.970143 255 0 0 255
-0.196266 0.471153 2.051 -0.0923977 -0.150739 0.984246 255 0 0 255
-0.190768 0.471398 2.052 -0.0578573 -0.225497 0.972524 255 0 0 255
-0.185173 0.471413 2.052 -0.139287 -0.202162 0.969396 255 0 0 255
-0.179753 0.471887 2.054 -0.228123 -0.176922 0.957423 255 0 0 255
-0.174322 0.472361 2.056 -0.113532 -0.166187 0.979537 255 0 0 255
-0.168633 0.472145 2.055 0.0155616 -0.203395 0.978973 255 0 0 255
-0.162949 0.471929 2.054 -0.030275 -0.203483 0.97861 255 0 0 255
-0.157347 0.471942 2.054 -0.115447 -0.044897 0.992298 255 0 0 255
-0.151892 0.472414 2.056 -0.185853 0.147371 0.971463 255 0 0 255
-0.146283 0.472426 2.056 -0.0306314 0.261287 0.964775 255 0 0 255
-0.140674 0.472438 2.056 0.37701 0.228028 0.897701 255 0 0 255
-0.134737 0.4713 2.051 0.532979 0.1987 0.822467 255 0 0 255
-0.128952 0.470621 2.048 0.501205 0.152181 0.851842 255 0 0 255
-0.123183 0.469942 2.045 0.392066 0.047204 0.918725 255 0 0 255
-0.117545 0.469723 2.044 0.207597 -0.0411696 0.977348 255 0 0 255
-0.111857 0.469273 2.042 0.120942 -0.171294 0.977768 255 0 0 255
-0.106284 0.469282 2.042 0.0502143 -0.379553 0.923806 255 0 0 255
-0.100711 0.46929 2.042 0.010226 -0.460005 0.887858 255 0 0 255
-0.095137 0.469298 2.042 0.0704866 -0.446729 0.891888 255 0 0 255
-0.089475 0.468846 2.04 0.0596949 -0.289971 0.955172 255 0 0 255
-0.083948 0.469084 2.041 0.0338098 -0.119207 0.992294 255 0 0 255
-0.078338 0.468861 2.04 -0.0909529 -0.103428 0.99047 255 0 0 255
-0.07284 0.469327 2.042 -0.365324 -0.164097 0.916303 255 0 0 255
-0.067331 0.469792 2.044 -0.487053 -0.227201 0.843302 255 0 0 255
-0.061932 0.471177 2.05 -0.589319 -0.139414 0.79578 255 0 0 255
-0.056445 0.472101 2.054 -0.426096 -0.0642898 0.90239 255 0 0 255
-0.050886 0.472565 2.056 -0.350381 0.0957027 0.931705 255 0 0 255
-0.045316 0.473029 2.058 -0.244078 0.0739518 0.966932 255 0 0 255
-0.039716 0.473262 2.059 -0.0928114 0.0958429 0.99106 255 0 0 255
-0.034094 0.473266 2.059 -0.0592976 -0.0712527 0.995694 255 0 0 255
-0.028472 0.473268 2.059 -0.0595188 -0.103396 0.992858 255 0 0 255
-0.022849 0.47327 2.059 -0.25071 -0.231564 0.939959 255 0 0 255
-0.017252 0.473962 2.062 -0.202201 -0.377361 0.903722 255 0 0 255
-0.011616 0.473733 2.061 -0.210939 -0.376743 0.901981 255 0 0 255
-0.005996 0.474423 2.064 -0.224395 -0.279589 0.933529 255 0 0 255
-0.00036 0.474424 2.064 -0.319329 -0.0796567 0.94429 255 0 0 255
0.005284 0.475113 2.067 -0.395509 0.0630327 0.916297 255 0 0 255
0.010939 0.475572 2.069 -0.412398 0.0319751 0.910442 255 0 0 255
0.016613 0.47626 2.072 -0.474611 0.0380432 0.879373 255 0 0 255
0.022303 0.476948 2.075 -0.46416 0.107826 0.879164 255 0 0 255
0.028023 0.477866 2.079 -0.515717 0.285541 0.807776 255 0 0 255
0.033765 0.478782 2.083 -0.571234 0.405442 0.713659 255 0 0 255
0.039528 0.479699 2.087 -0.522869 0.372681 0.766627 255 0 0 255
0.04527 0.480155 2.089 -0.300504 0.265824 0.915988 255 0 0 255
0.050998 0.480381 2.09 -0.1775 0.146894 0.973096 255 0 0 255
0.056732 0.480606 2.091 -0.519258 0.265485 0.812336 255 0 0 255
0.06262 0.48198 2.097 -0.678086 0.376203 0.631404 255 0 0 255
0.068508 0.483124 2.102 -0.718893 0.466623 0.515224 255 0 0 255
0.074565 0.485186 2.111 -0.554263 0.588507 0.588601 255 0 0 255
0.080404 0.485639 2.113 -0.246792 0.744742 0.620043 255 0 0 255
0.086172 0.485632 2.113 -0.171714 0.787164 0.592358 255 0 0 255
0.092027 0.486084 2.115 -0.415042 0.757218 0.504342 255 0 0 255
0.098263 0.488375 2.125 -0.597195 0.671753 0.438298 255 0 0 255
-0.07547 0.600954 2.1935 0.039833 -0.748379 -0.662074 255 255 0 255
-0.058875 0.600017 2.19284 -0.138644 -0.84145 -0.522246 255 255 0 255
-0.040365 0.597154 2.18082 -0.384833 -0.876899 -0.288015 255 255 0 255
-0.040135 0.59509 2.16807 -0.455219 -0.872612 -0.176987 255 255 0 255
-0.026187 0.594009 2.16568 -0.460034 -0.856257 -0.23493 255 255 0 255
-0.030237 0.591636 2.14967 -0.427556 -0.903832 -0.0168147 255 255 0 255
-0.296147 0.508257 2.12191 0.465232 -0.214807 -0.85873 0 255 0 255
-0.284562 0.509052 2.12505 0.551219 -0.104753 -0.827759 0 255 0 255
-0.276446 0.510355 2.13092 0.844676 0.0144589 -0.535083 0 255 0 255
-0.271809 0.51216 2.13949 0.914284 0.134597 -0.38206 0 255 0 255
-0.274148 0.514952 2.15339 0.886823 0.262707 -0.380171 0 255 0 255
-0.264273 0.516025 2.15797 0.524713 0.0804976 -0.847465 0 255 0 255
-0.253513 0.516984 2.16193 0.252136 -0.215206 -0.943458 0 255 0 255
-0.241867 0.517833 2.16527 0.503026 -0.43685 -0.745739 0 255 0 255
-0.235457 0.51942 2.17259 0.473472 -0.468731 -0.745732 0 255 0 255
-0.22291 0.520169 2.17535 0.365169 -0.562807 -0.741552 0 255 0 255
-0.208593 0.520691 2.17687 0.251949 -0.720446 -0.646126 0 255 0 255
-0.198645 0.521824 2.18169 0.420292 -0.77466 -0.472501 0 255 0 255
-0.191321 0.523324 2.18848 0.420599 -0.749157 -0.511722 0 255 0 255
-0.186627 0.525184 2.19723 0.421371 -0.518146 -0.744293 0 255 0 255
-0.168733 0.525282 2.19637 0.0971046 -0.196537 -0.975676 0 255 0 255
-0.151695 0.525517 2.19624 -0.0598761 -0.0434151 -0.997261 0 255 0 255
-0.130227 0.525187 2.193 0.0785544 -0.256656 -0.963305 0 255 0 255
-0.116667 0.525925 2.19557 0.236698 -0.186622 -0.953492 0 255 0 255
-0.105737 0.527024 2.20009 0.397275 -0.322744 -0.859074 0 255 0 255
-0.094794 0.528133 2.20465 0.56079 -0.331869 -0.758537 0 255 0 255
-0.085606 0.529482 2.2105 0.256093 -0.1643 -0.952587 0 255 0 255
-0.068443 0.529814 2.21079 0.08456 -0.148816 -0.985243 0 255 0 255
-0.058343 0.531071 2.21611 -0.133108 -0.449015 -0.883554 0 255 0 255
-0.358616 0.472973 2.086 0.760219 0.102154 0.641586 255 0 0 255
-0.351255 0.470729 2.076 0.643422 0.0752206 0.761807 255 0 0 255
-0.344614 0.469392 2.07 0.600315 0.0429922 0.798607 255 0 0 255
-0.338495 0.468734 2.067 0.428427 -0.00634071 0.903554 255 0 0 255
-0.332554 0.468304 2.065 0.106208 -0.0189559 0.994163 255 0 0 255
-0.327256 0.46878 2.067 0.149516 0.224388 0.962962 255 0 0 255
-0.321168 0.468122 2.064 0.472346 0.272702 0.838167 255 0 0 255
-0.314943 0.467236 2.06 0.492823 0.253842 0.83228 255 0 0 255
-0.30889 0.466578 2.057 0.189979 0.218413 0.957185 255 0 0 255
-0.303294 0.466599 2.057 0.132139 0.195872 0.971686 255 0 0 255
-0.297408 0.466167 2.055 0.38441 0.129835 0.913987 255 0 0 255
-0.291533 0.465734 2.053 0.460303 0.117026 0.880015 255 0 0 255
-0.285528 0.465075 2.05 0.135522 0.0375131 0.990064 255 0 0 255
-0.280086 0.465322 2.051 -0.220621 0.107126 0.969459 255 0 0 255
-0.274771 0.465796 2.053 -0.488417 0.0198504 0.872385 255 0 0 255
-0.269706 0.466724 2.057 -0.462804 0.0198327 0.886239 255 0 0 255
-0.264363 0.467197 2.059 0.0706168 0.0532872 0.996079 255 0 0 255
-0.25838 0.466536 2.056 0.41799 0.0425211 0.907456 255 0 0 255
-0.252289 0.465647 2.052 0.457459 0.0512837 0.88775 255 0 0 255
-0.24634 0.464985 2.049 0.213254 0.0152881 0.976877 255 0 0 255
-0.240876 0.465231 2.05 -0.029266 0.0177384 0.999414 255 0 0 255
-0.235292 0.465249 2.05 0.00492697 -0.00358577 0.999982 255 0 0 255
-0.229707 0.465266 2.05 0.091454 -0.0602681 0.993984 255 0 0 255
-0.224012 0.465057 2.049 0.257184 0.000844672 0.966362 255 0 0 255
-0.218216 0.46462 2.047 0.0954327 0.0251992 0.995117 255 0 0 255
-0.212741 0.464864 2.048 -0.120779 0.0180464 0.992515 255 0 0 255
-0.207159 0.46488 2.048 -0.180895 -0.0271263 0.983128 255 0 0 255
-0.201774 0.46535 2.05 -0.084162 -0.170044 0.981836 255 0 0 255
-0.19609 0.465139 2.049 -0.0619638 -0.299496 0.952084 255 0 0 255
-0.190597 0.465381 2.05 -0.0587314 -0.298173 0.952703 255 0 0 255
-0.185007 0.465396 2.05 -0.174077 -0.273746 0.945918 255 0 0 255
-0.179593 0.465864 2.052 -0.207156 -0.278372 0.937868 255 0 0 255
-0.174166 0.466333 2.054 -0.0283482 -0.301701 0.952981 255 0 0 255
-0.168483 0.466119 2.053 0.0119526 -0.27882 0.960269 255 0 0 255
-0.162883 0.466133 2.053 -0.00912534 -0.203398 0.979054 255 0 0 255
-0.15736 0.466373 2.054 -0.249422 -0.0692741 0.965914 255 0 0 255
-0.151978 0.467066 2.057 -0.331532 0.0975311 0.938389 255 0 0 255
-0.146438 0.467306 2.058 -0.0612287 0.168444 0.983808 255 0 0 255
-0.140823 0.467317 2.058 0.355314 0.201537 0.912762 255 0 0 255
-0.134945 0.46642 2.054 0.545099 0.223965 0.807903 255 0 0 255
-0.129088 0.465523 2.05 0.525613 0.25929 0.810247 255 0 0 255
-0.123253 0.464625 2.046 0.459576 0.157406 0.874078 255 0 0 255
-0.117554 0.464181 2.044 0.317162 0.171123 0.932805 255 0 0 255
-0.111921 0.463963 2.043 0.301843 0.103978 0.947671 255 0 0 255
-0.106241 0.463518 2.041 0.245586 -0.0431508 0.968414 255 0 0 255
-0.10062 0.463299 2.04 0.0922597 -0.150998 0.984219 255 0 0 255
-0.095005 0.46308 2.039 0.00327076 -0.107833 0.994164 255 0 0 255
-0.089483 0.463315 2.04 -0.1237 0.00809628 0.992287 255 0 0 255
-0.083955 0.46355 2.041 -0.124052 0.148849 0.981048 255 0 0 255
-0.078383 0.463556 2.041 -0.0620447 0.180731 0.981574 255 0 0 255
-0.07281 0.463563 2.041 -0.24607 0.1611 0.95577 255 0 0 255
-0.067337 0.46425 2.044 -0.541498 0.0419378 0.839655 255 0 0 255
-0.061877 0.465164 2.048 -0.662045 -0.0373403 0.748533 255 0 0 255
-0.05645 0.466532 2.054 -0.504202 -0.074108 0.8604 255 0 0 255
-0.050866 0.466763 2.055 -0.34401 -0.0286681 0.938528 255 0 0 255
-0.04532 0.467449 2.058 -0.235855 -0.0715972 0.969147 255 0 0 255
-0.039681 0.467225 2.057 -0.0901178 -0.0265507 0.995577 255 0 0 255
-0.03408 0.467456 2.058 -0.06026 -0.0352922 0.997559 255 0 0 255
-0.028447 0.467231 2.057 0.0309088 -0.0198833 0.999324 255 0 0 255
-0.022829 0.467233 2.057 -0.124145 -0.0604453 0.990421 255 0 0 255
-0.01722 0.467462 2.058 -0.148788 -0.125706 0.980847 255 0 0 255
-0.011605 0.46769 2.059 -0.288866 -0.125502 0.949108 255 0 0 255
-0.005991 0.468373 2.062 -0.391003 -0.00685647 0.920364 255 0 0 255
-0.00036 0.469054 2.065 -0.444562 0.0823398 0.891956 255 0 0 255
0.005289 0.469963 2.069 -0.416953 0.0841443 0.905025 255 0 0 255
0.010945 0.470189 2.07 -0.392834 0.106517 0.91342 255 0 0 255
0.016622 0.47087 2.073 -0.496315 0.144146 0.856092 255 0 0 255
0.022315 0.471549 2.076 -0.571632 0.219362 0.790644 255 0 0 255
0.028039 0.472456 2.08 -0.6403 0.276647 0.716577 255 0 0 255
0.0338 0.473589 2.085 -0.596118 0.273971 0.754708 255 0 0 255
0.039569 0.474494 2.089 -0.393213 0.295957 0.870513 255 0 0 255
0.045274 0.474491 2.089 -0.150888 0.230431 0.961319 255 0 0 255
0.051003 0.474714 2.09 -0.273373 0.204672 0.939881 255 0 0 255
0.056764 0.475163 2.092 -0.589442 0.264768 0.763188 255 0 0 255
0.062685 0.476748 2.099 -0.726389 0.324479 0.605866 255 0 0 255
0.068644 0.478333 2.106 -0.740911 0.382145 0.552282 255 0 0 255
0.074677 0.480144 2.114 -0.583385 0.474788 0.658967 255 0 0 255
0.080601 0.481046 2.118 -0.404946 0.569394 0.715409 255 0 0 255
0.086465 0.481493 2.12 -0.333519 0.658047 0.675084 255 0 0 255
0.092339 0.48194 2.122 -0.59141 0.577709 0.562571 255 0 0 255
0.098548 0.483976 2.131 -0.666867 0.523695 0.530124 255 0 0 255
-0.087681 0.59144 2.19862 0.423256 -0.586263 -0.69076 255 255 0 255
-0.070207 0.590591 2.19853 0.0485394 -0.46214 -0.885477 255 255 0 255
-0.056203 0.589508 2.19596 -0.0219772 -0.27334 -0.961666 255 255 0 255
-0.041362 0.588499 2.19409 -0.201862 -0.430077 -0.879935 255 255 0 255
-0.027402 0.587439 2.19165 -0.60425 -0.48073 -0.635438 255 255 0 255
-0.027182 0.58537 2.17894 -0.376828 -0.802471 -0.462646 255 255 0 255
-0.017534 0.584005 2.17333 -0.369027 -0.868668 -0.330506 255 255 0 255
-0.006187 0.582777 2.16906 -0.382399 -0.88175 -0.276202 255 255 0 255
-0.302821 0.496587 2.1161 0.325037 -0.335246 -0.884286 0 255 0 255
-0.295593 0.497988 2.12259 0.344378 -0.289416 -0.893108 0 255 0 255
