ply
format ascii 1.0
comment VCGLIB generated
element vertex 727
property float x
property float y
property float z
property float nx
property float ny
property float nz
property uchar red
property uchar green
property uchar blue
property uchar alpha
element face 0
property list uchar int vertex_indices
end_header
0.068218 0.094654 2.275 -0.307353 -0.0291175 0.95115 255 0 0 255
0.074553 0.094777 2.278 -0.306185 -0.0257982 0.951622 255 0 0 255
0.080833 0.094817 2.279 -0.30632 0.015435 0.951804 255 0 0 255
0.087195 0.09494 2.282 -0.351706 -0.000649175 0.93611 255 0 0 255
0.093532 0.095022 2.284 -0.324241 0.130161 0.936977 255 0 0 255
0.099923 0.095144 2.287 -0.620287 0.19718 0.759186 255 0 0 255
0.106608 0.095516 2.296 -0.828608 0.202582 0.52189 255 0 0 255
0.113638 0.096138 2.311 -0.898204 0.0227339 0.43899 255 0 0 255
0.145983 0.092544 2.225 0.985662 -0.0291886 0.166187 255 0 0 255
0.150778 0.091751 2.206 0.938315 -0.125918 0.322039 255 0 0 255
0.155895 0.091207 2.193 0.891938 -0.110741 0.438388 255 0 0 255
0.161161 0.090787 2.183 0.792851 -0.133298 0.594658 255 0 0 255
0.166679 0.090534 2.177 0.484227 -0.279577 0.829072 255 0 0 255
0.172559 0.090489 2.176 0.49118 -0.285579 0.822914 255 0 0 255
0.178105 0.090278 2.171 0.778302 -0.285649 0.559152 255 0 0 255
0.183114 0.089817 2.16 0.923687 -0.210522 0.320128 255 0 0 255
0.187712 0.089189 2.145 0.986438 -0.103257 0.127584 255 0 0 255
-0.164583 -0.143347 2.4401 0.781422 0.428892 -0.453244 255 255 0 255
-0.040065 -0.117772 2.48293 -0.562135 0.0896665 -0.82217 255 255 0 255
-0.030451 -0.117971 2.47653 -0.717074 0.247679 -0.651506 255 255 0 255
-0.018324 -0.117461 2.47185 -0.352129 -0.816539 -0.457459 255 255 0 255
0.000507 -0.115065 2.47175 -0.115032 -0.278186 -0.953614 255 255 0 255
0.008391 -0.115708 2.46435 -0.763213 -0.360177 -0.536449 255 255 0 255
0.022137 -0.114697 2.46098 -0.379261 -0.284541 -0.880453 255 255 0 255
0.034184 -0.114148 2.45652 -0.146081 -0.248613 -0.957524 255 255 0 255
0.053746 -0.111462 2.45729 -0.276127 -0.162198 -0.947336 255 255 0 255
0.059061 -0.112786 2.44833 0.991394 -0.126538 -0.0335606 255 255 0 255
0.052679 -0.117429 2.43124 0.998094 -0.0565584 -0.0247053 255 255 0 255
0.052993 -0.120181 2.41876 -0.933443 -0.336783 -0.123535 255 255 0 255
0.061647 -0.120554 2.41212 -0.829419 -0.375671 -0.413444 255 255 0 255
-0.230895 -0.190178 2.37527 0.7447 0.372843 -0.553543 0 255 0 255
-0.238057 -0.184518 2.39245 0.815048 0.197358 -0.544744 0 255 0 255
-0.218126 -0.188215 2.39109 0.136241 0.348801 -0.927241 0 255 0 255
-0.180722 -0.19467 2.3904 0.346979 0.190167 -0.918391 0 255 0 255
-0.1675 -0.195981 2.39389 0.36087 0.220356 -0.90621 0 255 0 255
-0.131643 -0.201746 2.39485 -0.421936 0.617168 -0.664134 0 255 0 255
-0.126877 -0.200124 2.40418 0.999806 -0.00483068 -0.0191007 0 255 0 255
-0.113584 -0.201382 2.40792 0.745592 0.565531 -0.352515 0 255 0 255
-0.121602 -0.195436 2.42564 0.833876 0.391335 -0.38924 0 255 0 255
-0.113415 -0.194959 2.43276 0.861 0.332242 -0.385091 0 255 0 255
-0.026101 -0.197978 2.47749 0.403072 -0.392709 -0.826627 0 255 0 255
0.002841 -0.204204 2.47219 -0.54435 -0.0427087 -0.83777 0 255 0 255
0.006847 -0.202226 2.48239 -0.490443 -0.871225 -0.0207862 0 255 0 255
-0.314948 0.089168 2.298 0.46492 0.0506541 0.883903 255 0 0 255
-0.308274 0.089057 2.295 -0.418957 -0.0155587 0.907873 255 0 0 255
-0.302273 0.08914 2.297 -0.423033 -0.0333148 0.905502 255 0 0 255
-0.296904 0.089417 2.304 -0.541685 0.148162 0.827421 255 0 0 255
-0.290739 0.089461 2.305 -0.175512 0.293075 0.939842 255 0 0 255
-0.284815 0.089583 2.308 -0.244303 0.0262081 0.969345 255 0 0 255
-0.278511 0.089588 2.308 -0.505759 0.114995 0.854976 255 0 0 255
-0.27315 0.089904 2.316 -0.662729 0.028768 0.748307 255 0 0 255
-0.249437 0.090506 2.331 0.820239 -0.306874 0.482738 255 0 0 255
-0.241292 0.089851 2.314 0.532809 -0.157405 0.831468 255 0 0 255
-0.234457 0.089661 2.309 0.511665 -0.102083 0.853099 255 0 0 255
-0.227747 0.08951 2.305 0.621738 -0.163769 0.765913 255 0 0 255
-0.22077 0.089243 2.298 0.671637 -0.246394 0.698709 255 0 0 255
-0.213831 0.088975 2.291 0.65772 -0.262853 0.705913 255 0 0 255
-0.207019 0.088746 2.285 0.556903 -0.243519 0.794077 255 0 0 255
-0.200416 0.088595 2.281 0.554379 -0.111175 0.824805 255 0 0 255
-0.193833 0.088443 2.277 0.511614 -0.0118455 0.859134 255 0 0 255
-0.187272 0.088292 2.273 0.466848 0.0107489 0.884272 255 0 0 255
-0.180731 0.08814 2.269 0.409199 -0.10148 0.906785 255 0 0 255
-0.174443 0.088104 2.268 0.384332 -0.160759 0.909091 255 0 0 255
-0.168011 0.087991 2.265 0.450186 -0.18542 0.873471 255 0 0 255
-0.161523 0.087839 2.261 0.364568 -0.156933 0.917858 255 0 0 255
-0.155263 0.087803 2.26 0.265181 0.0282748 0.963784 255 0 0 255
-0.148941 0.087729 2.258 0.139393 -0.101873 0.984983 255 0 0 255
-0.142757 0.087732 2.258 0.120417 -0.20436 0.971461 255 0 0 255
-0.136451 0.087657 2.256 0.297529 -0.373803 0.878492 255 0 0 255
-0.130097 0.087543 2.253 0.24881 -0.490629 0.835091 255 0 0 255
-0.123869 0.087507 2.252 0.0342712 -0.469392 0.882325 255 0 0 255
-0.117699 0.087509 2.252 -0.203225 -0.103142 0.973684 255 0 0 255
-0.111726 0.087667 2.256 -0.185317 0.0551195 0.981132 255 0 0 255
-0.105543 0.087669 2.256 0.100302 0.285155 0.953219 255 0 0 255
-0.099229 0.087554 2.253 0.278815 0.349163 0.894621 255 0 0 255
-0.092971 0.087479 2.251 0.116932 0.322163 0.939435 255 0 0 255
-0.086762 0.087442 2.25 0.0257543 0.168447 0.985374 255 0 0 255
-0.080631 0.087482 2.251 0.107502 -0.0297928 0.993758 255 0 0 255
-0.074394 0.087406 2.249 0.21613 -0.0817811 0.972934 255 0 0 255
-0.068198 0.087369 2.248 0.247951 0.0490456 0.96753 255 0 0 255
-0.06198 0.087292 2.246 0.166155 -0.0838312 0.98253 255 0 0 255
-0.055772 0.087216 2.244 0.090889 -0.219092 0.971462 255 0 0 255
-0.049597 0.087178 2.243 -0.0268803 -0.188269 0.98175 255 0 0 255
-0.043467 0.087218 2.244 -0.240614 -0.208682 0.947922 255 0 0 255
-0.037347 0.087296 2.246 -0.0842662 -0.112647 0.990056 255 0 0 255
-0.031174 0.087258 2.245 0.0396523 -0.00303008 0.999209 255 0 0 255
-0.025007 0.08722 2.244 0.0975624 0.1113 0.988986 255 0 0 255
-0.018845 0.087181 2.243 -0.0785076 0.279529 0.956922 255 0 0 255
-0.012706 0.087259 2.245 -0.202916 0.46045 0.864182 255 0 0 255
-0.006553 0.087298 2.246 -0.302354 0.450456 0.840042 255 0 0 255
-0.000394 0.087454 2.25 -0.318802 0.450314 0.834016 255 0 0 255
0.005783 0.08757 2.253 -0.433852 0.290631 0.852822 255 0 0 255
0.011983 0.087726 2.257 -0.472923 0.0904759 0.876446 255 0 0 255
0.01818 0.087764 2.258 -0.419475 -0.0186942 0.907574 255 0 0 255
0.024404 0.08788 2.261 -0.339229 0.002464 0.940701 255 0 0 255
0.030604 0.08788 2.261 -0.317383 0.128704 0.939523 255 0 0 255
0.036885 0.088074 2.266 -0.242865 0.068772 0.967619 255 0 0 255
0.043099 0.088073 2.266 -0.31444 0.105589 0.943387 255 0 0 255
0.049399 0.088227 2.27 -0.338903 0.0310577 0.940309 255 0 0 255
0.055598 0.088187 2.269 -0.462093 0.053808 0.885197 255 0 0 255
0.061956 0.088381 2.274 -0.501132 0.135848 0.854641 255 0 0 255
0.06822 0.088418 2.275 -0.339058 0.244853 0.908343 255 0 0 255
0.074588 0.088572 2.279 -0.227737 0.203702 0.952177 255 0 0 255
0.080835 0.08857 2.279 -0.300586 0.191095 0.934415 255 0 0 255
0.087235 0.088724 2.283 -0.434905 0.139236 0.889647 255 0 0 255
0.093575 0.0888 2.285 -0.361747 0.242527 0.900178 255 0 0 255
0.099969 0.088915 2.288 -0.560407 0.149396 0.814632 255 0 0 255
0.106796 0.089379 2.3 -0.842073 0.00785827 0.539306 255 0 0 255
0.145658 0.086253 2.22 0.967556 0.0433771 0.248904 255 0 0 255
0.150576 0.085589 2.203 0.935031 -0.137928 0.32664 255 0 0 255
0.155756 0.08512 2.191 0.883481 -0.145776 0.445209 255 0 0 255
0.161091 0.084767 2.182 0.785755 -0.148164 0.60053 255 0 0 255
0.166682 0.08457 2.177 0.546586 -0.132584 0.826841 255 0 0 255
0.172483 0.084489 2.175 0.483384 -0.0975297 0.869958 255 0 0 255
0.177944 0.084252 2.169 0.835893 -0.25756 0.484712 255 0 0 255
0.182864 0.083783 2.157 0.903062 -0.205797 0.376997 255 0 0 255
0.187104 0.083041 2.138 0.992575 -0.0803803 0.0912895 255 0 0 255
-0.058818 -0.131424 2.4847 -0.649165 0.660661 -0.376977 255 255 0 255
-0.051709 -0.132324 2.47655 -0.765089 0.254244 -0.591607 255 255 0 255
-0.032822 -0.129911 2.47627 -0.94635 0.314301 -0.0750806 255 255 0 255
-0.013968 -0.127482 2.47607 -0.0374662 -0.0773673 -0.996298 255 255 0 255
0.004013 -0.125273 2.4754 -0.112035 -0.482375 -0.868771 255 255 0 255
0.017767 -0.124238 2.47199 -0.231135 -0.474385 -0.849432 255 255 0 255
0.020601 -0.126287 2.46121 -0.27524 -0.647651 -0.710486 255 255 0 255
0.036834 -0.12452 2.4596 -0.223876 -0.580046 -0.783215 255 255 0 255
0.053041 -0.122739 2.45806 -0.529766 -0.24769 -0.81117 255 255 0 255
0.053343 -0.125494 2.44562 -0.974439 0.082271 -0.209047 255 255 0 255
0.051983 -0.128732 2.432 -0.912177 -0.262204 -0.314932 255 255 0 255
0.057304 -0.130053 2.42301 -0.858248 -0.377485 -0.34773 255 255 0 255
0.070117 -0.129205 2.41931 -0.922006 -0.175987 -0.344868 255 255 0 255
-0.245794 -0.202458 2.36231 0.48282 0.454606 -0.748477 0 255 0 255
-0.230137 -0.204756 2.36375 0.559272 0.431197 -0.708014 0 255 0 255
-0.230518 -0.20142 2.37632 0.560601 0.519106 -0.645179 0 255 0 255
-0.224136 -0.20045 2.38423 0.450721 0.608398 -0.653224 0 255 0 255
-0.207589 -0.20301 2.38524 0.255165 0.361118 -0.896931 0 255 0 255
-0.179513 -0.206317 2.39094 0.402091 0.192097 -0.895222 0 255 0 255
-0.163748 -0.208536 2.39274 0.323347 0.179589 -0.929083 0 255 0 255
-0.147961 -0.210739 2.39462 0.254117 -0.11223 -0.96064 0 255 0 255
-0.124497 -0.215553 2.39151 -0.422813 0.824453 -0.376174 0 255 0 255
-0.123981 -0.212474 2.40367 0.569539 -0.814293 -0.112036 0 255 0 255
-0.131987 -0.206491 2.4214 -0.634095 0.645909 -0.425119 0 255 0 255
-0.120402 -0.207198 2.42627 0.990817 -0.115583 -0.0701637 0 255 0 255
-0.03609 -0.20622 2.48521 0.0752586 -0.322972 -0.943411 0 255 0 255
-0.024374 -0.20683 2.49053 0.489469 -0.556283 -0.671542 0 255 0 255
-0.012642 -0.20743 2.4959 0.126559 -0.770459 -0.624801 0 255 0 255
-0.316324 0.083239 2.308 0.425164 0.368005 0.826927 255 0 0 255
-0.308414 0.082811 2.296 0.463059 0.214647 0.859944 255 0 0 255
-0.302805 0.082997 2.301 -0.7538 0.204711 0.624403 255 0 0 255
-0.297554 0.08329 2.309 -0.399394 0.490495 0.774532 255 0 0 255
-0.291123 0.083259 2.308 -0.100319 0.446789 0.888997 255 0 0 255
-0.284943 0.0833 2.309 -0.102152 0.404264 0.90892 255 0 0 255
-0.278637 0.083305 2.309 -0.432166 0.247028 0.8673 255 0 0 255
-0.273154 0.083563 2.316 -0.697168 0.23692 0.676628 255 0 0 255
-0.24773 0.083545 2.315 0.559778 -0.105741 0.821868 255 0 0 255
-0.241088 0.083441 2.312 0.46417 -0.0203507 0.885512 255 0 0 255
-0.234563 0.083373 2.31 0.54648 -0.095025 0.832063 255 0 0 255
-0.227653 0.083161 2.304 0.678506 -0.151748 0.71875 255 0 0 255
-0.220678 0.082912 2.297 0.708029 -0.184094 0.681766 255 0 0 255
-0.213648 0.082627 2.289 0.695452 -0.16501 0.69937 255 0 0 255
-0.206933 0.08245 2.284 0.567622 -0.1663 0.806318 255 0 0 255
-0.20042 0.082346 2.281 0.416968 -0.134572 0.898904 255 0 0 255
-0.193922 0.082241 2.278 0.418038 -0.0311169 0.907897 255 0 0 255
-0.187358 0.0821 2.274 0.497492 0.0104225 0.867406 255 0 0 255
-0.180894 0.081995 2.271 0.482619 0.0306812 0.875293 255 0 0 255
-0.174369 0.081854 2.267 0.464346 -0.117913 0.87777 255 0 0 255
-0.16794 0.081749 2.264 0.439824 -0.144015 0.886462 255 0 0 255
-0.161526 0.081643 2.261 0.281674 -0.129948 0.95067 255 0 0 255
-0.155266 0.08161 2.26 0.184866 -0.0199214 0.982562 255 0 0 255
-0.14901 0.081577 2.259 0.210426 -0.0394964 0.976812 255 0 0 255
-0.142696 0.081507 2.257 0.287863 -0.0264024 0.957308 255 0 0 255
-0.136332 0.081402 2.254 0.413557 -0.087646 0.90625 255 0 0 255
-0.129984 0.081296 2.251 0.263794 -0.259317 0.929068 255 0 0 255
-0.123762 0.081262 2.25 0.108863 -0.253366 0.961226 255 0 0 255
-0.117649 0.0813 2.251 -0.2089 -0.39087 0.896427 255 0 0 255
-0.111679 0.081447 2.255 -0.341137 -0.277835 0.898016 255 0 0 255
-0.105546 0.081485 2.256 0.186592 -0.203418 0.961147 255 0 0 255
-0.099274 0.081415 2.254 0.281446 -0.329755 0.901138 255 0 0 255
-0.093014 0.081345 2.252 0.196604 -0.316828 0.927883 255 0 0 255
-0.086764 0.081274 2.25 0.150727 -0.214541 0.965015 255 0 0 255
-0.080561 0.081239 2.249 0.157311 -0.301534 0.940389 255 0 0 255
-0.074329 0.081169 2.247 0.161917 -0.367549 0.915801 255 0 0 255
-0.068139 0.081134 2.246 0.162168 -0.205729 0.965079 255 0 0 255
-0.061953 0.081099 2.245 0.236772 -0.175887 0.955512 255 0 0 255
-0.055773 0.081064 2.244 0.122866 -0.243361 0.962122 255 0 0 255
-0.049576 0.080993 2.242 -0.0825346 -0.161902 0.983349 255 0 0 255
-0.043468 0.081066 2.244 -0.433623 -0.0100704 0.901038 255 0 0 255
-0.037364 0.081175 2.247 -0.271632 0.185873 0.944281 255 0 0 255
-0.031203 0.081176 2.247 0.112107 0.200415 0.973276 255 0 0 255
-0.02503 0.08114 2.246 0.108504 0.276015 0.955009 255 0 0 255
-0.018879 0.081177 2.247 -0.125716 0.39363 0.910632 255 0 0 255
-0.012735 0.081285 2.25 -0.345171 0.395042 0.851351 255 0 0 255
-0.006573 0.081394 2.253 -0.288991 0.427587 0.856535 255 0 0 255
-0.000395 0.081466 2.255 -0.262421 0.34526 0.901072 255 0 0 255
0.005786 0.08143 2.254 -0.214865 0.137367 0.966935 255 0 0 255
0.011978 0.081502 2.256 -0.310696 0.0480083 0.949296 255 0 0 255
0.01818 0.081574 2.258 -0.375869 -0.0283711 0.926238 255 0 0 255
0.024416 0.081718 2.262 -0.361819 -0.00721763 0.932221 255 0 0 255
0.030645 0.08179 2.264 -0.336943 0.0217246 0.941274 255 0 0 255
0.036886 0.081861 2.266 -0.267512 0.00898553 0.963513 255 0 0 255
0.0431 0.081861 2.266 -0.317007 0.0281701 0.948005 255 0 0 255
0.0494 0.082004 2.27 -0.336261 0.0056009 0.941752 255 0 0 255
0.055648 0.082039 2.271 -0.514637 0.131213 0.847309 255 0 0 255
0.062066 0.082291 2.278 -0.581495 0.267373 0.768359 255 0 0 255
0.068371 0.082362 2.28 -0.289879 0.485392 0.824842 255 0 0 255
0.07472 0.082469 2.283 -0.206464 0.513464 0.832903 255 0 0 255
0.080872 0.082359 2.28 -0.215114 0.404989 0.888656 255 0 0 255
0.087351 0.082575 2.286 -0.305755 0.329399 0.893314 255 0 0 255
0.093658 0.082609 2.287 -0.301501 0.247398 0.92081 255 0 0 255
0.100102 0.082752 2.291 -0.593701 0.125124 0.794898 255 0 0 255
0.106752 0.083039 2.299 -0.725781 -0.160012 0.669058 255 0 0 255
0.145595 0.080133 2.219 0.96418 -0.088037 0.250212 255 0 0 255
0.15051 0.079516 2.202 0.934703 -0.130388 0.33065 255 0 0 255
0.155688 0.07908 2.19 0.888266 -0.170939 0.426337 255 0 0 255
0.161094 0.078788 2.182 0.756351 -0.157403 0.634946 255 0 0 255
0.166685 0.078605 2.177 0.479027 -0.0927408 0.872887 255 0 0 255
0.172407 0.078493 2.174 0.708901 -0.206165 0.674504 255 0 0 255
0.177456 0.078093 2.163 0.865264 -0.212995 0.453818 255 0 0 255
0.182104 0.077548 2.148 0.914418 -0.26983 0.301714 255 0 0 255
0.187982 0.077545 2.148 0.92748 -0.211136 0.308548 255 0 0 255
-0.063714 -0.14416 2.48283 0.0344786 0.46104 -0.886709 255 255 0 255
-0.04565 -0.141951 2.48189 0.657798 0.753173 -0.00579437 255 255 0 255
-0.032665 -0.14116 2.47769 -0.109668 -0.394922 -0.912146 255 255 0 255
-0.013818 -0.138684 2.47748 0.0887594 -0.467399 -0.879579 255 255 0 255
0.004997 -0.136191 2.47737 -0.0175578 -0.484166 -0.8748 255 255 0 255
0.026295 -0.132961 2.47904 -0.1679 -0.72809 -0.664601 255 255 0 255
0.034987 -0.133323 2.47227 -0.276537 -0.703563 -0.654619 255 255 0 255
0.048689 -0.132233 2.46897 -0.717015 0.00162238 -0.697056 255 255 0 255
0.05401 -0.133548 2.45999 -0.738289 0.191364 -0.646769 255 255 0 255
0.05515 -0.136071 2.44812 -0.961392 0.0457141 -0.271361 255 255 0 255
0.055461 -0.138839 2.43566 -0.934782 -0.052688 -0.351293 255 255 0 255
0.056612 -0.141368 2.42377 0.917749 -0.384023 -0.101306 255 255 0 255
-0.238674 -0.216084 2.35866 0.559272 0.431197 -0.708014 0 255 0 255
-0.233144 -0.21483 2.36714 0.559272 0.431197 -0.708014 0 255 0 255
-0.21494 -0.218045 2.36692 0.464963 0.520355 -0.716268 0 255 0 255
-0.217 -0.214098 2.38067 0.508766 0.510342 -0.693331 0 255 0 255
-0.195376 -0.218476 2.37826 0.306987 0.536956 -0.785772 0 255 0 255
-0.184729 -0.218976 2.38342 0.131869 0.476047 -0.869477 0 255 0 255
-0.166441 -0.22213 2.38349 0.367798 0.190636 -0.910155 0 255 0 255
-0.173578 -0.216399 2.4007 0.0447062 -0.663754 -0.746614 0 255 0 255
-0.156956 -0.218941 2.402 -0.0454918 -0.87917 -0.474331 0 255 0 255
-0.136912 -0.222644 2.40113 0.453339 -0.882582 -0.124632 0 255 0 255
-0.135551 -0.219859 2.4127 0.479944 -0.782188 -0.397285 0 255 0 255
-0.147817 -0.212382 2.43319 -0.635521 -0.281106 -0.719091 0 255 0 255
-0.105572 -0.223666 2.41802 0.943918 -0.327818 -0.0394243 0 255 0 255
-0.034905 -0.218159 2.48599 0.177152 -0.529415 -0.829661 0 255 0 255
-0.031787 -0.21592 2.49662 0.303825 -0.670143 -0.677199 0 255 0 255
-0.019204 -0.216837 2.50146 0.693079 -0.464227 -0.551484 0 255 0 255
-0.017799 -0.214018 2.51318 -0.333581 -0.594244 -0.731846 0 255 0 255
-0.308419 0.076527 2.296 -0.426603 0.22166 0.876856 255 0 0 255
-0.303073 0.076765 2.303 -0.785985 0.23241 0.572899 255 0 0 255
-0.297817 0.077036 2.311 -0.468498 0.411738 0.781653 255 0 0 255
-0.291506 0.077041 2.311 -0.0859999 0.419483 0.90368 255 0 0 255
-0.285442 0.077112 2.313 -0.0850768 0.439222 0.894341 255 0 0 255
-0.279124 0.077117 2.313 -0.368057 0.408549 0.835238 255 0 0 255
-0.273513 0.077321 2.319 -0.76123 0.151138 0.630623 255 0 0 255
-0.267983 0.077559 2.326 -0.615157 0.163985 0.771162 255 0 0 255
-0.264326 0.078363 2.35 -0.918555 -0.388342 0.0738089 255 0 0 255
-0.255379 0.077601 2.327 0.528651 -0.175409 0.830517 255 0 0 255
-0.247841 0.077238 2.316 0.717267 0.0224781 0.696435 255 0 0 255
-0.241092 0.077109 2.312 0.461053 -0.0669904 0.88484 255 0 0 255
-0.234465 0.077012 2.309 0.579504 -0.0845287 0.810574 255 0 0 255
-0.227459 0.076783 2.302 0.699146 -0.186033 0.690353 255 0 0 255
-0.220394 0.07652 2.294 0.690381 -0.154683 0.706716 255 0 0 255
-0.213279 0.076223 2.285 0.632005 0.0495714 0.773377 255 0 0 255
-0.206574 0.07606 2.28 0.525955 -0.00351103 0.850505 255 0 0 255
-0.200072 0.075963 2.277 0.394821 -0.00306075 0.918753 255 0 0 255
-0.19384 0.075966 2.277 0.335309 0.0239912 0.941803 255 0 0 255
-0.187443 0.075903 2.275 0.478538 0.0420352 0.87706 255 0 0 255
-0.180818 0.075739 2.27 0.571517 0.0359935 0.8198 255 0 0 255
-0.174296 0.075609 2.266 0.540181 -0.0943729 0.836241 255 0 0 255
-0.16772 0.075445 2.261 0.410731 -0.0720961 0.908902 255 0 0 255
-0.161458 0.075414 2.26 0.212929 -0.0561652 0.975452 255 0 0 255
-0.1552 0.075383 2.259 0.133627 -0.0300538 0.990576 255 0 0 255
-0.148947 0.075353 2.258 0.211552 0.0290694 0.976934 255 0 0 255
-0.142636 0.075288 2.256 0.331175 -0.00686551 0.943544 255 0 0 255
-0.136335 0.075224 2.254 0.421138 0.0112318 0.906927 255 0 0 255
-0.129929 0.075093 2.25 0.424287 -0.0132602 0.905431 255 0 0 255
-0.123599 0.074995 2.247 0.102543 -0.0660371 0.992534 255 0 0 255
-0.117442 0.074997 2.247 -0.225786 -0.210058 0.951261 255 0 0 255
-0.111482 0.075133 2.251 -0.067038 -0.50663 0.859553 255 0 0 255
-0.105314 0.075134 2.251 -0.00361178 -0.589548 0.807725 255 0 0 255
-0.099056 0.075069 2.249 0.171805 -0.57154 0.802387 255 0 0 255
-0.092809 0.075004 2.247 0.175541 -0.501513 0.847154 255 0 0 255
-0.086611 0.074973 2.246 0.133717 -0.344397 0.929253 255 0 0 255
-0.080419 0.074941 2.245 0.187235 -0.254747 0.948708 255 0 0 255
-0.074231 0.074909 2.244 0.136593 -0.306336 0.942073 255 0 0 255
-0.068079 0.07491 2.244 0.0721396 -0.236579 0.968931 255 0 0 255
-0.061899 0.074878 2.243 0.162316 -0.13061 0.978056 255 0 0 255
-0.0557 0.074812 2.241 0.22151 -0.034766 0.974538 255 0 0 255
-0.049533 0.074779 2.24 -0.0694327 -0.0899285 0.993525 255 0 0 255
-0.043468 0.074914 2.244 -0.504285 0.00861963 0.863495 255 0 0 255
-0.037398 0.075081 2.249 -0.389052 0.120903 0.913247 255 0 0 255
-0.031245 0.075115 2.25 0.0280959 0.173379 0.984454 255 0 0 255
-0.025053 0.075049 2.248 0.0736342 0.214649 0.973912 255 0 0 255
-0.018888 0.075049 2.248 -0.15749 0.223733 0.961842 255 0 0 255
-0.01274 0.07515 2.251 -0.370501 0.202136 0.90657 255 0 0 255
-0.006573 0.075217 2.253 -0.240443 0.212736 0.947064 255 0 0 255
-0.000395 0.07525 2.254 -0.10036 0.215299 0.971378 255 0 0 255
0.005789 0.075284 2.255 -0.13453 0.219385 0.966319 255 0 0 255
0.011978 0.075317 2.256 -0.315746 0.167523 0.933938 255 0 0 255
0.018181 0.075383 2.258 -0.380611 0.165327 0.909836 255 0 0 255
0.024405 0.075483 2.261 -0.361441 0.116904 0.925037 255 0 0 255
0.030632 0.075549 2.263 -0.266388 0.0978 0.958891 255 0 0 255
0.036871 0.075616 2.265 -0.187157 -0.0070026 0.982305 255 0 0 255
0.0431 0.075648 2.266 -0.28731 -0.00699054 0.957812 255 0 0 255
0.049379 0.075748 2.269 -0.374551 -0.0314101 0.926674 255 0 0 255
0.055649 0.075813 2.271 -0.614953 0.0923469 0.783138 255 0 0 255
0.062067 0.076046 2.278 -0.669176 0.0218173 0.742783 255 0 0 255
0.068462 0.076212 2.283 -0.395247 0.227967 0.889838 255 0 0 255
0.074852 0.076344 2.287 -0.115398 0.313993 0.942386 255 0 0 255
0.081015 0.076243 2.284 -0.193316 0.39424 0.898445 255 0 0 255
0.087429 0.076375 2.288 -0.24699 0.408828 0.878553 255 0 0 255
0.093701 0.076373 2.288 -0.231002 0.280129 0.931754 255 0 0 255
0.10006 0.076438 2.29 -0.246167 0.141554 0.958835 255 0 0 255
0.106475 0.076537 2.293 -0.567605 -0.266548 0.778959 255 0 0 255
0.113251 0.076868 2.303 -0.642952 -0.271529 0.71616 255 0 0 255
0.145663 0.074085 2.22 0.964848 -0.0881052 0.247599 255 0 0 255
0.150445 0.073448 2.201 0.936402 -0.143635 0.320189 255 0 0 255
0.155406 0.072945 2.186 0.878767 -0.205801 0.430598 255 0 0 255
0.160801 0.072676 2.178 0.608104 -0.321651 0.725776 255 0 0 255
0.166535 0.072573 2.175 0.432059 -0.389008 0.813633 255 0 0 255
0.172489 0.07257 2.175 0.552776 -0.4214 0.71893 255 0 0 255
0.177459 0.072166 2.163 0.870645 -0.197383 0.450575 255 0 0 255
0.181853 0.071563 2.145 0.950575 -0.161561 0.265153 255 0 0 255
-0.042962 -0.152516 2.48501 -0.0873533 -0.384101 -0.91915 255 255 0 255
-0.020733 -0.149038 2.48695 0.113912 -0.472351 -0.874019 255 255 0 255
0.003976 -0.144814 2.49069 0.0229082 -0.561144 -0.827401 255 255 0 255
0.01857 -0.143477 2.48779 -0.00212503 -0.654416 -0.756131 255 255 0 255
0.023918 -0.144801 2.47872 -0.378545 -0.805365 -0.456169 255 255 0 255
0.045173 -0.141498 2.48047 -0.294425 -0.690336 -0.660871 255 255 0 255
0.036275 -0.146954 2.46176 -0.569647 0.730551 -0.37656 255 255 0 255
0.032418 -0.150957 2.44641 -0.799412 0.458441 -0.388295 255 255 0 255
0.052783 -0.147872 2.44774 -0.651461 0.15884 -0.741868 255 255 0 255
0.038926 -0.154819 2.42543 -0.899231 0.0731526 -0.431315 255 255 0 255
-0.234092 -0.22886 2.35677 0.455015 0.487018 -0.745503 0 255 0 255
-0.206138 -0.232372 2.36218 0.455191 0.521062 -0.722008 0 255 0 255
-0.188752 -0.235308 2.36267 0.626528 0.673689 -0.391926 0 255 0 255
-0.204322 -0.226538 2.38569 -0.843343 -0.536691 -0.0271072 0 255 0 255
-0.185093 -0.22362 2.40978 0.268 -0.868418 -0.417165 0 255 0 255
-0.174429 -0.224127 2.41502 0.055503 -0.839658 -0.540272 0 255 0 255
-0.152211 -0.225408 2.42508 0.301588 -0.861184 -0.409153 0 255 0 255
-0.149164 -0.223221 2.43547 -0.313678 -0.54054 -0.780655 0 255 0 255
-0.126531 -0.227829 2.43311 -0.229814 -0.610071 -0.758287 0 255 0 255
-0.019743 -0.228244 2.50332 0.854569 0.383776 -0.349896 0 255 0 255
-0.017475 -0.225709 2.51452 0.975647 -0.149157 -0.160826 0 255 0 255
-0.308826 0.070333 2.299 0.783276 0.31145 0.538032 255 0 0 255
-0.303472 0.070552 2.306 -0.778361 0.200449 0.594957 255 0 0 255
-0.298208 0.070801 2.314 -0.418313 0.168508 0.892536 255 0 0 255
-0.291889 0.070805 2.314 -0.144227 0.212964 0.966357 255 0 0 255
-0.285693 0.07084 2.315 -0.0841708 0.237175 0.967814 255 0 0 255
-0.27937 0.070844 2.315 -0.299494 0.164694 0.939776 255 0 0 255
-0.273635 0.071001 2.32 -0.584738 -0.0283606 0.810727 255 0 0 255
-0.267987 0.071189 2.326 -0.643673 0.0386615 0.764324 255 0 0 255
-0.263655 0.071744 2.344 -0.918555 -0.388342 0.0738089 255 0 0 255
-0.256261 0.071472 2.335 0.904005 0.126154 0.408486 255 0 0 255
-0.248166 0.070986 2.319 0.750683 0.162795 0.640292 255 0 0 255
-0.240991 0.070745 2.311 0.608609 -0.123862 0.783744 255 0 0 255
-0.234367 0.070657 2.308 0.648865 -0.185543 0.737935 255 0 0 255
-0.226969 0.070324 2.297 0.691112 -0.261641 0.673727 255 0 0 255
-0.220397 0.070235 2.294 0.632996 -0.125967 0.763838 255 0 0 255
-0.213655 0.070085 2.289 0.567549 -0.0177731 0.823148 255 0 0 255
-0.20703 0.069966 2.285 0.524343 0.199993 0.827688 255 0 0 255
-0.200338 0.069816 2.28 0.436798 0.157514 0.885662 255 0 0 255
-0.193928 0.069758 2.278 0.310478 0.0432985 0.949594 255 0 0 255
-0.187529 0.0697 2.276 0.462973 0.00983252 0.886318 255 0 0 255
-0.1809 0.069549 2.271 0.629775 -0.100501 0.770249 255 0 0 255
-0.174221 0.069368 2.265 0.508806 -0.0656852 0.858372 255 0 0 255
-0.167797 0.069279 2.262 0.281025 0.00827908 0.959665 255 0 0 255
-0.16146 0.069221 2.26 0.0867034 0.199002 0.976156 255 0 0 255
-0.155271 0.069223 2.26 0.193931 0.194883 0.961463 255 0 0 255
-0.149015 0.069195 2.259 0.171829 0.253666 0.951908 255 0 0 255
-0.142764 0.069166 2.258 0.224831 0.279276 0.933518 255 0 0 255
-0.136397 0.069077 2.255 0.403714 0.346357 0.846789 255 0 0 255
-0.130104 0.069018 2.253 0.4972 0.281709 0.820629 255 0 0 255
-0.123711 0.068897 2.249 0.411598 0.202381 0.888611 255 0 0 255
-0.117496 0.068868 2.248 0.0879966 0.0849699 0.99249 255 0 0 255
-0.111336 0.06887 2.248 0.0362775 -0.0851511 0.995707 255 0 0 255
-0.105081 0.068811 2.246 0.243089 -0.228921 0.942604 255 0 0 255
-0.098882 0.068782 2.245 0.161952 -0.333804 0.928626 255 0 0 255
-0.092687 0.068753 2.244 0.0769932 -0.242313 0.967138 255 0 0 255
-0.086574 0.068785 2.245 0.0175758 -0.110386 0.993733 255 0 0 255
-0.080384 0.068755 2.244 0.129667 -0.111174 0.985305 255 0 0 255
-0.074199 0.068726 2.243 0.0984527 -0.137228 0.985635 255 0 0 255
-0.06805 0.068727 2.243 -0.0268639 -0.0821677 0.996256 255 0 0 255
-0.0619 0.068728 2.243 0.0418811 0.0269523 0.998759 255 0 0 255
-0.055725 0.068698 2.242 0.0880718 0.189926 0.97784 255 0 0 255
-0.049556 0.068669 2.241 -0.139552 0.14053 0.980192 255 0 0 255
-0.043469 0.068761 2.244 -0.50978 0.0804974 0.85653 255 0 0 255
-0.037382 0.068885 2.248 -0.448788 0.0150338 0.893512 255 0 0 255
-0.031246 0.068946 2.25 -0.112667 0.0995987 0.988629 255 0 0 255
-0.025064 0.068916 2.249 -0.0201236 0.221685 0.974911 255 0 0 255
-0.018897 0.068917 2.249 -0.17131 0.322455 0.930954 255 0 0 255
-0.012752 0.069039 2.253 -0.41481 0.218383 0.883313 255 0 0 255
-0.006582 0.069131 2.256 -0.234737 0.306062 0.922618 255 0 0 255
-0.000396 0.069162 2.257 -0.135675 0.217093 0.966676 255 0 0 255
0.005794 0.069162 2.257 -0.0980537 0.288933 0.952315 255 0 0 255
0.011994 0.069223 2.259 -0.284837 0.220642 0.932837 255 0 0 255
0.018213 0.069315 2.262 -0.339895 0.202729 0.918353 255 0 0 255
0.024427 0.069345 2.263 -0.313728 0.121964 0.941647 255 0 0 255
0.03066 0.069406 2.265 -0.262145 0.100495 0.959782 255 0 0 255
0.036871 0.069406 2.265 -0.265021 0.126795 0.95587 255 0 0 255
0.04312 0.069466 2.267 -0.358516 0.224648 0.90609 255 0 0 255
0.049358 0.069496 2.268 -0.387372 0.208518 0.898033 255 0 0 255
0.055675 0.069618 2.272 -0.523855 0.15266 0.838016 255 0 0 255
0.062095 0.069831 2.279 -0.612491 -0.0750717 0.786905 255 0 0 255
0.068494 0.069983 2.284 -0.523177 -0.210488 0.825821 255 0 0 255
0.074854 0.070074 2.287 -0.537844 0.14399 0.830657 255 0 0 255
0.081123 0.070073 2.287 -0.342248 0.403807 0.848414 255 0 0 255
0.087507 0.070164 2.29 -0.196572 0.543781 0.815881 255 0 0 255
0.093866 0.070223 2.292 -0.00493274 0.418868 0.908034 255 0 0 255
0.100149 0.070222 2.292 -0.0344344 0.121407 0.992005 255 0 0 255
0.106431 0.07022 2.292 -0.23765 0.00313701 0.971346 255 0 0 255
0.112958 0.070372 2.297 -0.662096 -0.230269 0.713166 255 0 0 255
0.141974 0.069167 2.258 0.991786 -0.0843614 0.0961423 255 0 0 255
0.145666 0.068001 2.22 0.962434 -0.0986304 0.25297 255 0 0 255
0.150242 0.067324 2.198 0.935546 -0.160337 0.314714 255 0 0 255
0.155266 0.066893 2.184 0.878481 -0.211245 0.42854 255 0 0 255
0.160509 0.066584 2.174 0.67615 -0.315168 0.665951 255 0 0 255
0.166155 0.066459 2.17 0.35291 -0.363055 0.862349 255 0 0 255
0.171937 0.066395 2.168 0.716216 -0.223858 0.661001 255 0 0 255
0.177215 0.066148 2.16 0.824671 -0.0926702 0.55797 255 0 0 255
0.181686 0.065624 2.143 0.956206 -0.0651642 0.28535 255 0 0 255
0.186413 0.065223 2.13 0.959124 -0.116477 0.257905 255 0 0 255
-0.086963 -0.17365 2.47024 0.524455 -0.239316 -0.817114 255 255 0 255
-0.03691 -0.162102 2.49034 0.225623 -0.168346 -0.959559 255 255 0 255
-0.015536 -0.158807 2.49173 0.143383 -0.365386 -0.919747 255 255 0 255
0.00412 -0.155983 2.4921 -0.088006 -0.187719 -0.978272 255 255 0 255
0.032969 -0.150446 2.49876 -0.353 -0.692262 -0.629416 255 255 0 255
0.047519 -0.149055 2.49595 -0.711231 -0.388771 -0.585668 255 255 0 255
0.042795 -0.153311 2.48013 -0.852883 -0.509397 -0.114478 255 255 0 255
0.028893 -0.160286 2.45799 0.614361 0.785804 -0.0712231 255 255 0 255
0.040916 -0.159626 2.45351 -0.546907 -0.748069 -0.37588 255 255 0 255
0.049585 -0.159946 2.44679 -0.609135 -0.335351 -0.718675 255 255 0 255
0.05491 -0.161252 2.43778 0.966296 -0.246627 -0.0738076 255 255 0 255
-0.189425 -0.25289 2.33955 0.164976 0.838537 -0.519268 0 255 0 255
-0.17879 -0.25344 2.34472 -0.761954 -0.640186 -0.0979181 0 255 0 255
-0.192131 -0.242116 2.37874 -0.757689 0.570954 -0.316099 0 255 0 255
-0.204325 -0.234511 2.39938 -0.872509 0.439504 -0.213458 0 255 0 255
-0.205541 -0.230841 2.41252 0.626307 -0.762815 -0.160788 0 255 0 255
-0.18849 -0.23042 2.42575 0.224163 -0.895977 -0.383375 0 255 0 255
-0.170189 -0.233645 2.42595 0.189038 -0.85029 -0.491193 0 255 0 255
-0.156109 -0.235355 2.42904 0.497137 -0.499821 -0.709249 0 255 0 255
-0.144561 -0.236156 2.43387 0.183023 -0.649479 -0.738025 0 255 0 255
-0.144061 -0.233071 2.44595 -0.10564 -0.831131 -0.54595 0 255 0 255
-0.123123 -0.237129 2.44477 0.0626305 -0.556175 -0.828702 0 255 0 255
-0.015987 -0.241122 2.50256 -0.453464 0.0261278 -0.890892 0 255 0 255
-0.008554 -0.240331 2.51063 0.610636 0.61123 -0.50351 0 255 0 255
-0.013163 -0.23546 2.52603 -0.171479 -0.379546 -0.909143 0 255 0 255
-0.309234 0.064123 2.302 -0.793644 0.0721627 0.604088 255 0 0 255
-0.30374 0.064295 2.308 -0.709997 -0.0310068 0.703522 255 0 0 255
-0.298083 0.064438 2.313 -0.425431 -0.0596014 0.903026 255 0 0 255
-0.291893 0.06447 2.314 -0.133941 -0.162243 0.977618 255 0 0 255
-0.28582 0.064529 2.316 -0.133932 -0.162181 0.97763 255 0 0 255
-0.279494 0.064533 2.316 -0.259194 -0.163933 0.951811 255 0 0 255
-0.273521 0.06462 2.319 -0.41443 -0.285916 0.864002 255 0 0 255
-0.26753 0.064708 2.322 -0.625609 -0.455147 0.633604 255 0 0 255
-0.262197 0.064962 2.331 -0.300507 -0.901099 0.312595 255 0 0 255
-0.255936 0.064993 2.332 0.832383 -0.384302 0.399313 255 0 0 255
-0.248383 0.06469 2.321 0.791746 0.0144385 0.61068 255 0 0 255
-0.240786 0.064359 2.309 0.664956 -0.0805255 0.742529 255 0 0 255
-0.233965 0.064223 2.304 0.74303 -0.0941371 0.662605 255 0 0 255
-0.226675 0.063947 2.294 0.668957 -0.176236 0.722106 255 0 0 255
-0.220209 0.063895 2.292 0.446584 -0.183079 0.875811 255 0 0 255
-0.213565 0.063786 2.288 0.507574 0.0154921 0.861469 255 0 0 255
-0.207033 0.063706 2.285 0.505717 0.0993812 0.856956 255 0 0 255
-0.200429 0.063597 2.281 0.550887 0.0634488 0.832165 255 0 0 255
-0.193846 0.063488 2.277 0.411883 -0.048306 0.909956 255 0 0 255
-0.187449 0.063435 2.275 0.545695 -0.16066 0.822439 255 0 0 255
-0.180584 0.063215 2.267 0.629024 -0.129521 0.76652 255 0 0 255
-0.17407 0.063106 2.263 0.298174 -0.0318101 0.953981 255 0 0 255
-0.167874 0.063108 2.263 0.0432239 0.247482 0.967928 255 0 0 255
-0.161749 0.063138 2.264 0.0103281 0.360643 0.932647 255 0 0 255
-0.155548 0.063141 2.264 0.145174 0.379067 0.913911 255 0 0 255
-0.149084 0.063031 2.26 0.0777204 0.462529 0.883191 255 0 0 255
-0.143083 0.063117 2.263 0.127331 0.536475 0.834255 255 0 0 255
-0.136702 0.063035 2.26 0.20167 0.607109 0.768602 255 0 0 255
-0.130337 0.062954 2.257 0.477255 0.456735 0.750747 255 0 0 255
-0.123823 0.062788 2.251 0.39552 0.380601 0.835886 255 0 0 255
-0.11755 0.062734 2.249 0.285839 0.274704 0.91806 255 0 0 255
-0.111337 0.062708 2.248 0.279023 0.0119298 0.96021 255 0 0 255
-0.105083 0.062654 2.246 0.238643 0.0783033 0.967945 255 0 0 255
-0.098839 0.062599 2.244 0.0952102 0.108465 0.98953 255 0 0 255
-0.092688 0.062601 2.244 -0.0302234 0.13684 0.990132 255 0 0 255
-0.086576 0.06263 2.245 -0.0504856 0.16295 0.985342 255 0 0 255
-0.080421 0.062631 2.245 0.163007 0.110953 0.980366 255 0 0 255
-0.074134 0.062521 2.241 0.132078 0.0548287 0.989722 255 0 0 255
-0.068021 0.06255 2.242 -0.10251 0.0547695 0.993223 255 0 0 255
-0.061901 0.062578 2.243 -0.167871 0.157739 0.973107 255 0 0 255
-0.055776 0.062607 2.244 -0.0253699 0.392138 0.919556 255 0 0 255
-0.049623 0.062608 2.244 -0.0447207 0.392252 0.91877 255 0 0 255
-0.04347 0.062609 2.244 -0.349226 0.218388 0.911234 255 0 0 255
-0.037399 0.062749 2.249 -0.409711 0.0121357 0.912135 255 0 0 255
-0.031246 0.062777 2.25 -0.299267 0.125777 0.945843 255 0 0 255
-0.025109 0.062861 2.253 -0.20345 0.351394 0.913855 255 0 0 255
-0.018914 0.062806 2.251 -0.254517 0.48078 0.83909 255 0 0 255
-0.012763 0.062918 2.255 -0.297726 0.442012 0.846159 255 0 0 255
-0.006582 0.062946 2.256 -0.180567 0.430451 0.884369 255 0 0 255
-0.000396 0.063029 2.259 -0.0533304 0.326109 0.943827 255 0 0 255
0.005797 0.063001 2.258 -0.0949718 0.277332 0.956069 255 0 0 255
0.011994 0.063029 2.259 -0.218768 0.00270125 0.975773 255 0 0 255
0.018206 0.063085 2.261 -0.350783 0.132809 0.926991 255 0 0 255
0.024428 0.06314 2.263 -0.413454 0.118579 0.902771 255 0 0 255
0.030661 0.063196 2.265 -0.37449 0.169247 0.911654 255 0 0 255
0.036904 0.063251 2.267 -0.367679 0.38865 0.844845 255 0 0 255
0.043178 0.063334 2.27 -0.356892 0.505292 0.78569 255 0 0 255
0.049489 0.063445 2.274 -0.208382 0.575761 0.790618 255 0 0 255
0.055749 0.063472 2.275 -0.24886 0.419133 0.873153 255 0 0 255
0.061987 0.063471 2.275 -0.399746 -0.00559993 0.916609 255 0 0 255
0.068315 0.063554 2.278 -0.563633 -0.068322 0.823195 255 0 0 255
0.074822 0.063776 2.286 -0.710572 0.0762411 0.699482 255 0 0 255
0.081337 0.06397 2.293 -0.397077 0.422144 0.814938 255 0 0 255
0.087738 0.064053 2.296 -0.119759 0.367542 0.922264 255 0 0 255
0.093991 0.064024 2.295 0.155287 0.204248 0.966524 255 0 0 255
0.100107 0.063911 2.291 0.0821989 -0.00808254 0.996583 255 0 0 255
0.106386 0.063909 2.291 -0.386623 0.0393243 0.921399 255 0 0 255
0.112812 0.063991 2.294 -0.597832 0.0442191 0.800401 255 0 0 255
0.11967 0.064296 2.305 -0.714749 -0.0185005 0.699137 255 0 0 255
0.141913 0.06295 2.257 0.981824 -0.18308 0.0500437 255 0 0 255
0.145208 0.061721 2.213 0.963739 -0.141474 0.226255 255 0 0 255
0.149903 0.061161 2.193 0.915194 -0.169287 0.365735 255 0 0 255
0.155127 0.060852 2.182 0.891132 -0.14291 0.430652 255 0 0 255
0.16029 0.060543 2.171 0.613659 -0.045426 0.788263 255 0 0 255
0.166157 0.060513 2.17 0.411191 0.0267293 0.911157 255 0 0 255
0.17186 0.060426 2.167 0.591209 0.0243226 0.806151 255 0 0 255
0.1773 0.060257 2.161 0.834539 0.0180651 0.550652 255 0 0 255
0.182028 0.059864 2.147 0.951586 0.03188 0.305726 255 0 0 255
-0.035908 -0.173139 2.49234 0.178125 0.0783352 -0.980885 255 255 0 255
-0.015383 -0.170036 2.49315 0.111519 0.0802887 -0.990514 255 255 0 255
0.024408 -0.161228 2.50695 0.0645476 -0.200716 -0.977521 255 255 0 255
0.030588 -0.162289 2.49846 -0.559902 0.144612 -0.815841 255 255 0 255
0.036762 -0.163348 2.48997 -0.662596 0.436657 -0.608521 255 255 0 255
0.04544 -0.163658 2.48321 -0.714656 0.0610703 -0.696805 255 255 0 255
0.049929 -0.165208 2.47363 -0.891954 -0.339242 -0.298886 255 255 0 255
0.046069 -0.169251 2.45832 -0.651512 -0.751028 -0.107187 255 255 0 255
0.055565 -0.169303 2.45218 -0.9851 -0.168681 -0.0335372 255 255 0 255
0.049223 -0.174106 2.43509 -0.883683 -0.468077 -0.00268509 255 255 0 255
-0.162135 -0.274133 2.32204 0.634845 -0.753924 -0.169027 0 255 0 255
-0.163282 -0.270404 2.3354 0.516223 -0.753078 -0.407905 0 255 0 255
-0.194816 -0.255687 2.36949 -0.92777 0.0120572 -0.372958 0 255 0 255
-0.212418 -0.242818 2.4062 -0.975696 0.0533658 -0.212531 0 255 0 255
-0.213637 -0.239139 2.41932 0.87903 -0.436388 -0.192021 0 255 0 255
-0.21864 -0.23089 2.44718 0.61948 0.753877 -0.218893 0 255 0 255
-0.183407 -0.240223 2.43608 0.44103 -0.856996 -0.266551 0 255 0 255
-0.177834 -0.238958 2.44474 0.0127636 -0.93886 -0.344063 0 255 0 255
-0.16206 -0.241302 2.44673 -0.00962117 -0.961509 -0.274604 0 255 0 255
-0.143711 -0.244533 2.44714 0.137038 -0.650106 -0.747384 0 255 0 255
-0.136402 -0.243844 2.4548 0.947737 0.31456 -0.053361 0 255 0 255
-0.025978 -0.249322 2.51022 -0.0540075 -0.646753 -0.760785 0 255 0 255
-0.002225 -0.254138 2.50834 0.183364 -0.810019 -0.556998 0 255 0 255
0.021283 -0.255487 2.51944 -0.670953 -0.570619 -0.473515 0 255 0 255
-0.303743 0.057976 2.308 -0.600798 -0.126097 0.789393 255 0 0 255
-0.298087 0.058105 2.313 -0.337124 -0.273032 0.901 255 0 0 255
-0.291519 0.058058 2.311 -0.253453 -0.215341 0.943075 255 0 0 255
-0.285454 0.058112 2.313 -0.12914 -0.214592 0.968129 255 0 0 255
-0.279257 0.058141 2.314 -0.189245 -0.317338 0.929238 255 0 0 255
-0.273289 0.058219 2.317 -0.222551 -0.479543 0.848828 255 0 0 255
-0.267188 0.058273 2.319 -0.319559 -0.605946 0.728499 255 0 0 255
-0.261075 0.058326 2.321 -0.221649 -0.804092 0.551641 255 0 0 255
-0.25528 0.058455 2.326 0.529925 -0.278159 0.801129 255 0 0 255
-0.248387 0.058333 2.321 0.520533 -0.0650496 0.85136 255 0 0 255
-0.240998 0.058084 2.311 0.761643 0.0516053 0.645939 255 0 0 255
-0.233968 0.057911 2.304 0.77789 0.00464983 0.628383 255 0 0 255
-0.22658 0.057638 2.293 0.678607 -0.168146 0.714996 255 0 0 255
-0.220115 0.05759 2.291 0.47194 -0.230079 0.85108 255 0 0 255
-0.213475 0.057492 2.287 0.51257 -0.347472 0.785197 255 0 0 255
-0.207036 0.057445 2.285 0.472939 -0.472093 0.743947 255 0 0 255
-0.200432 0.057347 2.281 0.471231 -0.383156 0.794438 255 0 0 255
-0.193679 0.057198 2.275 0.377349 -0.320888 0.868699 255 0 0 255
-0.187369 0.057176 2.274 0.537344 -0.182605 0.823357 255 0 0 255
-0.180587 0.057002 2.267 0.479931 -0.03167 0.876735 255 0 0 255
-0.174226 0.056954 2.265 0.134287 0.0564915 0.989331 255 0 0 255
-0.168025 0.056956 2.265 0.0539318 0.0579272 0.996863 255 0 0 255
-0.161894 0.056983 2.266 0.0905254 -0.231379 0.968643 255 0 0 255
-0.155619 0.05696 2.265 0.228763 -0.198117 0.953109 255 0 0 255
-0.149284 0.056912 2.263 -0.162532 -0.107976 0.980778 255 0 0 255
-0.143338 0.057015 2.267 0.0329459 0.129065 0.991089 255 0 0 255
-0.136946 0.056941 2.264 0.238682 0.253591 0.937402 255 0 0 255
-0.130685 0.056918 2.263 0.500536 0.110549 0.858628 255 0 0 255
-0.1241 0.056743 2.256 0.613214 0.162672 0.772986 255 0 0 255
-0.117709 0.056644 2.252 0.334694 0.261527 0.905309 255 0 0 255
-0.111388 0.05657 2.249 0.236071 0.329956 0.914002 255 0 0 255
-0.105131 0.056521 2.247 0.188214 0.412939 0.891099 255 0 0 255
-0.098928 0.056497 2.246 0.0940586 0.543773 0.833945 255 0 0 255
-0.092772 0.056499 2.246 0.10758 0.449048 0.887007 255 0 0 255
-0.086654 0.056525 2.247 0.0853542 0.22747 0.970037 255 0 0 255
-0.080458 0.056501 2.246 0.208581 0.107787 0.972047 255 0 0 255
-0.074201 0.056427 2.243 0.16728 0.124935 0.977962 255 0 0 255
-0.068052 0.056427 2.243 -0.188286 0.187038 0.96414 255 0 0 255
-0.061957 0.056479 2.245 -0.236494 0.308468 0.921368 255 0 0 255
-0.055876 0.056555 2.248 -0.262316 0.35266 0.898232 255 0 0 255
-0.049712 0.056556 2.248 -0.0533425 0.531761 0.845213 255 0 0 255
-0.043509 0.056506 2.246 -0.179294 0.476817 0.860523 255 0 0 255
-0.0374 0.056582 2.249 -0.299987 0.311449 0.901669 255 0 0 255
-0.031246 0.056608 2.25 -0.363036 0.27189 0.891224 255 0 0 255
-0.025132 0.056734 2.255 -0.371008 0.240258 0.897011 255 0 0 255
-0.018956 0.056759 2.256 -0.375334 0.282267 0.882865 255 0 0 255
-0.012792 0.05686 2.26 -0.353304 0.412438 0.839685 255 0 0 255
-0.006594 0.05686 2.26 -0.102791 0.549866 0.828904 255 0 0 255
-0.000397 0.056936 2.263 0.0559538 0.39883 0.915316 255 0 0 255
0.005799 0.056835 2.259 0.199005 0.277908 0.939768 255 0 0 255
0.012005 0.056885 2.261 0.124682 -0.0430548 0.991262 255 0 0 255
0.01819 0.056835 2.259 -0.216143 -0.314971 0.924162 255 0 0 255
0.02446 0.05701 2.266 -0.468592 -0.0867879 0.879141 255 0 0 255
0.030702 0.05706 2.268 -0.566216 0.0338899 0.82356 255 0 0 255
0.037002 0.057186 2.273 -0.637999 0.120066 0.760619 255 0 0 255
0.043293 0.057261 2.276 -0.575127 0.296425 0.762471 255 0 0 255
0.049599 0.057336 2.279 -0.301377 0.446005 0.842764 255 0 0 255
0.055824 0.05731 2.278 -0.0176613 0.541246 0.840679 255 0 0 255
0.062042 0.057284 2.277 -0.0736009 0.469601 0.879806 255 0 0 255
0.068376 0.057358 2.28 -0.570618 0.155198 0.806417 255 0 0 255
0.074921 0.057584 2.289 -0.73405 0.163289 0.659171 255 0 0 255
0.081445 0.057759 2.296 -0.264083 0.075 0.96158 255 0 0 255
0.087777 0.057783 2.297 0.204547 -0.0270065 0.978484 255 0 0 255
0.09391 0.057681 2.293 0.407896 -0.0885366 0.908726 255 0 0 255
0.100108 0.05763 2.291 -0.0995263 0.0118995 0.994964 255 0 0 255
0.106527 0.057704 2.294 -0.345051 0.309061 0.88624 255 0 0 255
0.11301 0.057803 2.298 -0.634461 0.168462 0.754374 255 0 0 255
0.119568 0.057927 2.303 -0.627121 0.203804 0.751787 255 0 0 255
0.141538 0.056612 2.251 0.978667 -0.189446 0.0795012 255 0 0 255
0.14521 0.055655 2.213 0.952708 -0.187433 0.239201 255 0 0 255
0.149905 0.05515 2.193 0.933669 -0.156951 0.321913 255 0 0 255
0.155129 0.054871 2.182 0.884119 -0.127888 0.449419 255 0 0 255
0.160366 0.054618 2.172 0.654525 -0.0625959 0.753445 255 0 0 255
0.166236 0.054591 2.171 0.25788 0.113196 0.959523 255 0 0 255
0.171863 0.054488 2.167 0.65141 0.103049 0.751696 255 0 0 255
0.177302 0.054335 2.161 0.863159 -0.0106455 0.504819 255 0 0 255
0.181946 0.053955 2.146 0.952925 -0.0648046 0.296199 255 0 0 255
0.186681 0.053626 2.133 0.98154 -0.0596946 0.181701 255 0 0 255
-0.050877 -0.188913 2.4838 0.138382 0.0459101 -0.989314 255 255 0 255
-0.028664 -0.185267 2.48566 0.112333 0.159367 -0.980808 255 255 0 255
-0.001458 -0.180101 2.49099 -0.237262 0.136685 -0.961782 255 255 0 255
0.021508 -0.176162 2.49366 -0.294967 0.535602 -0.791281 255 255 0 255
0.014302 -0.18123 2.4761 -0.175392 0.399962 -0.899593 255 255 0 255
0.04056 -0.176261 2.48118 -0.515055 0.126751 -0.847734 255 255 0 255
0.059254 -0.173532 2.48126 -0.584355 -0.0658432 -0.808823 255 255 0 255
0.057057 -0.17709 2.46713 -0.833737 -0.54113 -0.109821 255 255 0 255
0.053206 -0.181159 2.45181 0.975698 0.197845 -0.094186 255 255 0 255
-0.137687 -0.291179 2.31918 0.316895 -0.688818 -0.652003 0 255 0 255
-0.209161 -0.25847 2.393 -0.941376 0.00834873 -0.337256 0 255 0 255
-0.211211 -0.254464 2.40673 -0.988136 -0.0177859 -0.152549 0 255 0 255
-0.219188 -0.24832 2.4244 -0.971738 -0.109948 -0.208895 0 255 0 255
-0.213645 -0.247084 2.43296 0.880498 0.419032 -0.221664 0 255 0 255
-0.219108 -0.241875 2.44885 0.61063 0.69237 -0.384389 0 255 0 255
-0.199154 -0.24582 2.44788 -0.228021 0.819681 -0.525481 0 255 0 255
-0.195292 -0.243963 2.45761 0.162158 -0.858217 -0.487 0 255 0 255
-0.183785 -0.244838 2.46234 0.195976 -0.756226 -0.624272 0 255 0 255
-0.165463 -0.248128 2.46271 -0.311198 -0.384707 -0.868998 0 255 0 255
-0.134354 -0.255938 2.4549 0.686432 -0.353699 -0.635381 0 255 0 255
-0.125334 -0.255858 2.46151 -0.99364 0.106757 -0.0358196 0 255 0 255
-0.135905 -0.248835 2.4807 -0.944254 -0.317963 -0.0853513 0 255 0 255
-0.022533 -0.258797 2.52224 -0.0875624 -0.660506 -0.745698 0 255 0 255
0.027605 -0.269388 2.51722 -0.873867 -0.298661 -0.383612 0 255 0 255
-0.307763 0.051273 2.291 -0.860062 -0.203213 0.467972 255 0 0 255
-0.303221 0.051567 2.304 -0.770907 -0.222917 0.596666 255 0 0 255
-0.297703 0.051705 2.31 -0.369661 -0.332872 0.867495 255 0 0 255
-0.291522 0.05173 2.311 -0.173526 -0.314078 0.933404 255 0 0 255
-0.285581 0.051801 2.314 -0.156816 -0.264805 0.951466 255 0 0 255
-0.279139 0.051781 2.313 -0.0724514 -0.358743 0.93062 255 0 0 255
-0.272702 0.051762 2.312 -0.0956892 -0.461546 0.88194 255 0 0 255
-0.266385 0.051765 2.312 -0.140213 -0.546342 0.825743 255 0 0 255
-0.260291 0.051812 2.314 -0.376134 -0.42516 0.823263 255 0 0 255
-0.254625 0.05195 2.32 -0.391892 -0.40754 0.824822 255 0 0 255
-0.248604 0.05202 2.323 0.534962 -0.202302 0.820299 255 0 0 255
-0.241105 0.051776 2.312 0.722102 0.0346458 0.690919 255 0 0 255
-0.234072 0.051622 2.305 0.768993 0.0838165 0.633739 255 0 0 255
-0.226582 0.051356 2.293 0.751715 -0.0615613 0.656608 255 0 0 255
-0.219638 0.051201 2.286 0.667601 -0.292004 0.684867 255 0 0 255
-0.212637 0.051025 2.278 0.404468 -0.69223 0.597682 255 0 0 255
-0.205951 0.050915 2.273 0.254206 -0.675989 0.691678 255 0 0 255
-0.199819 0.05094 2.274 0.164946 -0.547342 0.820493 255 0 0 255
-0.193425 0.050897 2.272 0.075653 -0.161058 0.984041 255 0 0 255
-0.187124 0.050877 2.271 0.540571 -0.161064 0.825737 255 0 0 255
-0.18043 0.050744 2.265 0.425849 -0.0924887 0.900055 255 0 0 255
-0.174459 0.050814 2.268 0.268988 -0.164254 0.949034 255 0 0 255
-0.167804 0.050681 2.262 0.34694 -0.258947 0.901432 255 0 0 255
-0.16161 0.050683 2.262 0.231695 -0.372373 0.898697 255 0 0 255
-0.155209 0.050618 2.259 0.150822 -0.475867 0.866489 255 0 0 255
-0.149087 0.050642 2.26 -0.397116 -0.351197 0.847915 255 0 0 255
-0.143213 0.050756 2.265 -0.166543 -0.347685 0.922702 255 0 0 255
-0.136826 0.05069 2.262 0.0764961 -0.396064 0.915031 255 0 0 255
-0.130629 0.050692 2.262 0.476578 -0.150322 0.866185 255 0 0 255
-0.124101 0.050559 2.256 0.568608 -0.0337787 0.821915 255 0 0 255
-0.117815 0.050515 2.254 0.189662 0.112348 0.975401 255 0 0 255
-0.111588 0.050494 2.253 0.0189964 0.432167 0.901593 255 0 0 255
-0.105413 0.050495 2.253 -0.000975763 0.650669 0.759361 255 0 0 255
-0.099238 0.050497 2.253 0.104095 0.670528 0.734545 255 0 0 255
-0.09298 0.050453 2.251 0.320744 0.331385 0.887304 255 0 0 255
-0.086616 0.050342 2.246 0.40325 0.180597 0.897092 255 0 0 255
-0.080423 0.05032 2.245 0.120988 0.0826695 0.989206 255 0 0 255
-0.074236 0.050299 2.244 0.0285488 0.222673 0.974475 255 0 0 255
-0.068113 0.050322 2.245 -0.113639 0.313586 0.942735 255 0 0 255
-0.062013 0.050368 2.247 -0.247426 0.235929 0.939744 255 0 0 255
-0.055902 0.050413 2.249 -0.361188 0.203625 0.909989 255 0 0 255
-0.049823 0.050504 2.253 -0.229822 0.426434 0.874835 255 0 0 255
-0.043626 0.050482 2.252 -0.113845 0.547604 0.828957 255 0 0 255
-0.037484 0.050527 2.254 -0.00841876 0.526504 0.850131 255 0 0 255
-0.031289 0.050505 2.253 -0.201535 0.150295 0.967882 255 0 0 255
-0.025166 0.050617 2.258 -0.254706 -0.036102 0.966344 255 0 0 255
-0.018982 0.05064 2.259 -0.45832 -0.139535 0.877766 255 0 0 255
-0.012809 0.05073 2.263 -0.46515 0.0244027 0.884896 255 0 0 255
-0.006606 0.050752 2.264 -0.279084 0.0497517 0.958977 255 0 0 255
-0.000397 0.050797 2.266 0.128167 0.176629 0.975897 255 0 0 255
0.005805 0.050685 2.261 0.349335 0.015541 0.936869 255 0 0 255
0.011995 0.05064 2.259 0.283264 0.00205455 0.95904 255 0 0 255
0.01815 0.050528 2.254 0.0588809 0.093426 0.993884 255 0 0 255
0.024396 0.050662 2.26 -0.487035 -0.21971 0.845295 255 0 0 255
0.030648 0.050752 2.264 -0.554115 -0.0472222 0.8311 255 0 0 255
0.03697 0.050908 2.271 -0.6777 -0.0116252 0.735247 255 0 0 255
0.043331 0.051065 2.278 -0.577403 -0.0924688 0.811206 255 0 0 255
0.049687 0.051176 2.283 -0.30842 0.143096 0.940426 255 0 0 255
0.055947 0.051175 2.283 -0.064542 0.357219 0.931788 255 0 0 255
0.062152 0.05113 2.281 -0.0408575 0.453677 0.890229 255 0 0 255
0.068466 0.051174 2.283 -0.514514 0.218357 0.829214 255 0 0 255
0.07502 0.051375 2.292 -0.58563 0.0822991 0.80639 255 0 0 255
0.081446 0.051464 2.296 -0.387702 0.00850656 0.921746 255 0 0 255
0.08774 0.051463 2.296 0.27268 -0.114715 0.955241 255 0 0 255
0.093788 0.051327 2.29 0.294476 0.00499135 0.955646 255 0 0 255
0.100109 0.051348 2.291 -0.279057 0.167343 0.945581 255 0 0 255
0.106621 0.051459 2.296 -0.524677 0.280491 0.803766 255 0 0 255
0.113159 0.05157 2.301 -0.487 0.316249 0.814136 255 0 0 255
0.119621 0.051636 2.304 -0.559665 0.250118 0.790074 255 0 0 255
0.141477 0.05042 2.25 0.965477 -0.248366 0.0785343 255 0 0 255
0.14495 0.049499 2.209 0.939521 -0.244247 0.240092 255 0 0 255
0.149633 0.049049 2.189 0.909756 -0.183719 0.372279 255 0 0 255
0.154775 0.048779 2.177 0.744974 -0.242581 0.621425 255 0 0 255
0.160294 0.048643 2.171 0.3009 0.0126201 0.953572 255 0 0 255
0.166315 0.048663 2.172 0.292555 -0.0734354 0.953425 255 0 0 255
