ply
format ascii 1.0
comment VCGLIB generated
element vertex 723
property float x
property float y
property float z
property float nx
property float ny
property float nz
property uchar red
property uchar green
property uchar blue
property uchar alpha
element face 0
property list uchar int vertex_indices
end_header
-0.238619 0.0283 2.3428 -0.957197 -0.162895 -0.239246 0 255 0 255
-0.233948 0.029946 2.3517 -0.971489 -0.0800712 -0.223156 0 255 0 255
-0.243847 0.035692 2.37069 -0.89685 -0.332806 -0.291376 0 255 0 255
-0.257703 0.045456 2.40433 0.408588 -0.548836 -0.72927 0 255 0 255
-0.24532 0.044934 2.40787 0.538977 -0.401357 -0.740551 0 255 0 255
-0.240661 0.046573 2.41672 0.243706 -0.510549 -0.824589 0 255 0 255
-0.219641 0.043686 2.41454 -0.0471803 -0.227982 -0.972522 0 255 0 255
-0.18308 0.036542 2.40205 0.0678068 -0.191517 -0.979144 0 255 0 255
-0.180958 0.03893 2.4128 0.457015 0.0566548 -0.887653 0 255 0 255
-0.202145 0.04771 2.43902 0.587213 -0.797467 -0.138662 0 255 0 255
-0.190543 0.047484 2.44341 0.422606 -0.834203 -0.354274 0 255 0 255
-0.145659 0.041188 2.43819 0.512943 0.437125 -0.738791 0 255 0 255
-0.08197 0.039011 2.45838 -0.135464 0.14921 -0.979483 0 255 0 255
-0.058917 0.035877 2.45609 -0.00803336 0.278585 -0.960378 0 255 0 255
-0.36402 0.21062 2.254 -0.812284 -0.173463 0.55687 255 0 0 255
-0.359152 0.211382 2.262 -0.505559 -0.138097 0.851668 255 0 0 255
-0.353458 0.211676 2.265 -0.0992532 -0.100973 0.989926 255 0 0 255
-0.347134 0.211597 2.264 -0.0189727 -0.178357 0.983783 255 0 0 255
-0.341115 0.211704 2.265 -0.16107 -0.186832 0.969098 255 0 0 255
-0.334942 0.211718 2.265 -0.228245 -0.213102 0.949996 255 0 0 255
-0.329203 0.212012 2.268 -0.437115 -0.182019 0.880795 255 0 0 255
-0.323589 0.212399 2.272 -0.71108 -0.00782132 0.703067 255 0 0 255
-0.318372 0.213067 2.279 -0.797283 0.107225 0.594006 255 0 0 255
-0.313115 0.213734 2.286 -0.7334 0.0959664 0.67299 255 0 0 255
-0.307953 0.214495 2.294 -0.930692 0.182651 0.316941 255 0 0 255
-0.30301 0.215443 2.304 0.934542 -0.0421177 0.35335 255 0 0 255
-0.285009 0.216135 2.311 0.680595 0.0860613 0.727587 255 0 0 255
-0.277856 0.215493 2.304 0.526053 0.283305 0.801877 255 0 0 255
-0.271329 0.215317 2.302 0.521348 0.272259 0.808747 255 0 0 255
-0.264352 0.214768 2.296 0.673649 0.133865 0.726827 255 0 0 255
-0.257294 0.214124 2.289 0.792785 0.0603206 0.60651 255 0 0 255
-0.249287 0.212638 2.273 0.761217 0.170376 0.625716 255 0 0 255
-0.242007 0.211714 2.263 0.793233 0.2864 0.537361 255 0 0 255
-0.234782 0.210788 2.253 0.715061 0.24167 0.65596 255 0 0 255
-0.228117 0.210331 2.248 0.665403 0.200134 0.719156 255 0 0 255
-0.221282 0.209686 2.241 0.687164 0.185912 0.702312 255 0 0 255
-0.214484 0.20904 2.234 0.684917 0.144229 0.714204 255 0 0 255
-0.20791 0.208582 2.229 0.721117 0.123695 0.681682 255 0 0 255
-0.201091 0.207842 2.221 0.670355 0.204285 0.713367 255 0 0 255
-0.194666 0.207477 2.217 0.635643 0.163162 0.754544 255 0 0 255
-0.188007 0.20683 2.21 0.686337 0.238137 0.687192 255 0 0 255
-0.181551 0.206371 2.205 0.695301 0.330457 0.638244 255 0 0 255
-0.175041 0.205817 2.199 0.66113 0.269888 0.700048 255 0 0 255
-0.168564 0.205263 2.193 0.525758 0.267503 0.807478 255 0 0 255
-0.162415 0.205084 2.191 0.35358 0.256527 0.899542 255 0 0 255
-0.156205 0.20481 2.188 0.473303 0.196711 0.858655 255 0 0 255
-0.149942 0.204443 2.184 0.507022 0.214565 0.8348 255 0 0 255
-0.143701 0.204075 2.18 0.39127 0.322025 0.862095 255 0 0 255
-0.137607 0.203894 2.178 0.199072 0.26968 0.942148 255 0 0 255
-0.131645 0.2039 2.178 0.175338 0.0604684 0.98265 255 0 0 255
-0.125625 0.203813 2.177 0.223536 0.0669371 0.972395 255 0 0 255
-0.119499 0.203538 2.174 0.276287 0.0283597 0.960657 255 0 0 255
-0.113494 0.203449 2.173 0.278462 0.13385 0.951075 255 0 0 255
-0.107494 0.203361 2.172 0.0293652 0.248816 0.968106 255 0 0 255
-0.101592 0.203459 2.173 -0.123522 0.331012 0.935507 255 0 0 255
-0.095729 0.203651 2.175 -0.172159 0.351706 0.920143 255 0 0 255
-0.089771 0.203655 2.175 -0.0633828 0.429814 0.90069 255 0 0 255
-0.083852 0.203753 2.176 -0.0718097 0.472809 0.878234 255 0 0 255
-0.077856 0.203663 2.175 -0.102105 0.513732 0.851853 255 0 0 255
-0.07193 0.20376 2.176 -0.168466 0.51356 0.841354 255 0 0 255
-0.06603 0.203951 2.178 -0.344697 0.47956 0.806974 255 0 0 255
-0.060145 0.204235 2.181 -0.419029 0.487091 0.766262 255 0 0 255
-0.054269 0.204612 2.185 -0.405106 0.478173 0.779256 255 0 0 255
-0.048348 0.204895 2.188 -0.474914 0.426279 0.769898 255 0 0 255
-0.04245 0.205366 2.193 -0.577764 0.281858 0.765993 255 0 0 255
-0.036524 0.205836 2.198 -0.43589 0.238381 0.867856 255 0 0 255
-0.030529 0.206025 2.2 -0.307777 0.216898 0.926406 255 0 0 255
-0.024511 0.20612 2.201 -0.222395 0.150246 0.96331 255 0 0 255
-0.01848 0.206121 2.201 -0.371171 0.267021 0.889344 255 0 0 255
-0.012477 0.20659 2.206 -0.560874 0.224067 0.797003 255 0 0 255
-0.006449 0.207152 2.212 -0.735595 0.35053 0.57968 255 0 0 255
-0.000389 0.208182 2.223 -0.768986 0.427996 0.474847 255 0 0 255
0.005723 0.208931 2.231 -0.731545 0.408681 0.54573 255 0 0 255
0.011879 0.20968 2.239 -0.719595 0.380371 0.580949 255 0 0 255
0.018071 0.210335 2.246 -0.758961 0.329918 0.561366 255 0 0 255
0.024334 0.21127 2.256 -0.786573 0.194423 0.586092 255 0 0 255
0.03061 0.211925 2.263 -0.727396 0.10661 0.677886 255 0 0 255
0.036893 0.212391 2.268 -0.632748 -0.109052 0.766641 255 0 0 255
0.043202 0.212858 2.273 -0.540143 -0.26701 0.798092 255 0 0 255
0.049518 0.21323 2.277 -0.428421 -0.306165 0.850128 255 0 0 255
0.055854 0.213602 2.281 -0.242568 -0.277089 0.929722 255 0 0 255
0.062077 0.213506 2.28 -0.204668 -0.15689 0.966176 255 0 0 255
0.068413 0.213784 2.283 -0.13691 -0.149891 0.979177 255 0 0 255
0.125074 0.214399 2.29 0.708367 -0.307988 0.635106 255 0 0 255
0.130598 0.213176 2.277 0.735723 -0.40445 0.543261 255 0 0 255
0.136532 0.212701 2.272 0.576819 -0.336328 0.744422 255 0 0 255
0.142375 0.212133 2.266 0.399231 -0.31374 0.8615 255 0 0 255
0.148512 0.212033 2.265 0.112037 -0.306224 0.945344 255 0 0 255
0.154575 0.211839 2.263 0.0414858 -0.459468 0.887225 255 0 0 255
0.16091 0.212019 2.265 0.0814349 -0.557295 0.826312 255 0 0 255
0.166961 0.211824 2.263 0.232872 -0.664233 0.710328 255 0 0 255
0.173 0.211629 2.261 0.52591 -0.546299 0.651902 255 0 0 255
-0.104832 0.093821 2.47914 -0.87261 0.205349 -0.443151 255 255 0 255
-0.099385 0.092327 2.46989 -0.897273 0.411518 -0.159855 255 255 0 255
-0.095652 0.09047 2.45953 -0.553026 0.170288 -0.815576 255 255 0 255
-0.084237 0.090258 2.45426 -0.267229 0.0962048 -0.958819 255 255 0 255
-0.07028 0.090604 2.45073 -0.0676807 0.111399 -0.991468 255 255 0 255
-0.047828 0.092796 2.45297 -0.000698425 0.0505495 -0.998721 255 255 0 255
-0.033926 0.093169 2.44959 -0.1901 0.221048 -0.956556 255 255 0 255
-0.011545 0.095397 2.45203 -0.509828 0.297889 -0.807055 255 255 0 255
-0.005337 0.094132 2.4436 -0.763092 0.405286 -0.503422 255 255 0 255
-0.004223 0.091758 2.4317 -0.737728 0.494135 -0.459987 255 255 0 255
-0.002257 0.089567 2.42038 -0.967722 0.174093 -0.182224 255 255 0 255
0.003944 0.088306 2.41197 -0.737544 -0.270999 -0.618538 255 255 0 255
0.022821 0.089849 2.41239 -0.738613 -0.597498 -0.312164 255 255 0 255
0.017173 0.085981 2.39579 -0.985626 -0.0898454 -0.143068 255 255 0 255
0.015763 0.083041 2.38209 -0.992382 0.113039 -0.0489843 255 255 0 255
0.017735 0.080849 2.37075 -0.985885 0.0538359 -0.158534 255 255 0 255
0.023077 0.079409 2.36179 -0.953544 0.0441318 -0.298002 255 255 0 255
0.021688 0.076459 2.34804 -0.887642 -0.0708558 -0.455051 255 255 0 255
0.032069 0.076157 2.34269 -0.674232 -0.0420871 -0.737319 255 255 0 255
0.043275 0.076051 2.338 -0.780208 0.0723536 -0.621322 255 255 0 255
0.045244 0.073861 2.32666 -0.783583 0.0410821 -0.619928 255 255 0 255
0.053916 0.073195 2.32019 -0.576704 -0.0524779 -0.815266 255 255 0 255
0.064248 0.072918 2.31499 -0.506293 -0.343885 -0.790829 255 255 0 255
0.076238 0.073031 2.31105 -0.819082 -0.417195 -0.393767 255 255 0 255
0.07569 0.070273 2.29789 -0.694474 -0.696597 -0.180161 255 255 0 255
-0.317445 0.013665 2.29134 0.970125 -0.0745014 -0.230881 0 255 0 255
-0.231744 0.012531 2.32705 -0.887127 -0.115948 -0.446724 0 255 0 255
-0.250631 0.023883 2.36457 -0.99527 -0.00567822 -0.0969803 0 255 0 255
-0.230551 0.021132 2.36275 -0.973318 -0.216098 -0.0771536 0 255 0 255
-0.237879 0.026181 2.37994 -0.877116 -0.405801 -0.256893 0 255 0 255
-0.250375 0.032672 2.40058 0.777126 0.00475957 -0.629327 0 255 0 255
-0.250873 0.035756 2.41294 0.701802 -0.00762345 -0.712332 0 255 0 255
-0.238482 0.035214 2.41654 0.413072 -0.345303 -0.842696 0 255 0 255
-0.216609 0.032035 2.4138 -0.120995 -0.0774859 -0.989624 0 255 0 255
-0.181386 0.028146 2.41441 0.328945 0.107164 -0.938249 0 255 0 255
-0.164598 0.026469 2.41542 0.66053 0.169686 -0.731373 0 255 0 255
-0.16851 0.03054 2.4302 0.586808 0.262784 -0.765899 0 255 0 255
-0.152557 0.029123 2.43187 0.461387 0.284715 -0.840274 0 255 0 255
-0.144366 0.029862 2.43871 0.777893 0.200032 -0.595709 0 255 0 255
-0.04287 0.02037 2.44738 -0.424981 0.435895 -0.793339 0 255 0 255
-0.363388 0.204102 2.25 -0.854246 -0.0223875 0.519386 255 0 0 255
-0.359007 0.205114 2.261 -0.723691 0.0093712 0.69006 255 0 0 255
-0.353628 0.205581 2.266 -0.135654 0.136656 0.981287 255 0 0 255
-0.346994 0.205323 2.263 -0.077937 0.0513792 0.995633 255 0 0 255
-0.340978 0.205427 2.264 -0.157971 0.082198 0.984017 255 0 0 255
-0.334807 0.20544 2.264 -0.230687 0.0819472 0.969571 255 0 0 255
-0.329071 0.205726 2.267 -0.492993 0.104061 0.863788 255 0 0 255
-0.323602 0.206192 2.272 -0.763278 0.0623552 0.643054 255 0 0 255
-0.318524 0.206931 2.28 -0.823875 0.151206 0.54623 255 0 0 255
-0.313402 0.20767 2.288 -0.818046 0.0756354 0.570158 255 0 0 255
-0.308368 0.2085 2.297 -0.829445 0.114292 0.54677 255 0 0 255
-0.285638 0.210273 2.316 0.723852 -0.0108983 0.689869 255 0 0 255
-0.278229 0.209468 2.307 0.595788 0.151328 0.788757 255 0 0 255
-0.271576 0.209207 2.304 0.529797 0.0614219 0.845897 255 0 0 255
-0.264594 0.208674 2.298 0.680382 0.146206 0.718125 255 0 0 255
-0.257418 0.207958 2.29 0.787982 0.0860643 0.609653 255 0 0 255
-0.249736 0.206788 2.277 0.751989 0.11565 0.648951 255 0 0 255
-0.242553 0.205981 2.268 0.780291 0.195899 0.593944 255 0 0 255
-0.235313 0.205083 2.258 0.836799 0.233751 0.495104 255 0 0 255
-0.228533 0.204548 2.252 0.663769 0.25612 0.702718 255 0 0 255
-0.221588 0.203831 2.244 0.670631 0.285461 0.684666 255 0 0 255
-0.214973 0.203387 2.239 0.642121 0.342511 0.685833 255 0 0 255
-0.208199 0.20276 2.232 0.685356 0.394676 0.611978 255 0 0 255
-0.201371 0.202042 2.224 0.642808 0.367633 0.672044 255 0 0 255
-0.19485 0.201596 2.219 0.566454 0.398032 0.721596 255 0 0 255
-0.188526 0.201332 2.216 0.554675 0.426139 0.714661 255 0 0 255
-0.18197 0.200795 2.21 0.683083 0.393139 0.615499 255 0 0 255
-0.175208 0.199985 2.201 0.675822 0.407732 0.614019 255 0 0 255
-0.168725 0.199448 2.195 0.558734 0.350719 0.75154 255 0 0 255
-0.162496 0.199182 2.192 0.492015 0.261176 0.830487 255 0 0 255
-0.156284 0.198917 2.189 0.472427 0.170412 0.864738 255 0 0 255
-0.150087 0.198651 2.186 0.453224 0.248619 0.856024 255 0 0 255
-0.143905 0.198385 2.183 0.415594 0.269834 0.868603 255 0 0 255
-0.137803 0.198209 2.181 0.373206 0.204683 0.904888 255 0 0 255
-0.131712 0.198034 2.179 0.35407 0.00655329 0.935196 255 0 0 255
-0.125573 0.197767 2.176 0.256777 0.000163833 0.966471 255 0 0 255
-0.119614 0.197772 2.176 0.0641661 0.00660781 0.997917 255 0 0 255
-0.113603 0.197687 2.175 0.0149675 0.310114 0.950581 255 0 0 255
-0.107598 0.197601 2.174 -0.059956 0.428099 0.901741 255 0 0 255
-0.10169 0.197696 2.175 -0.137963 0.449561 0.882531 255 0 0 255
-0.095777 0.197792 2.176 -0.198174 0.443318 0.874183 255 0 0 255
-0.089899 0.197978 2.178 -0.156557 0.444463 0.882011 255 0 0 255
-0.083972 0.198073 2.179 -0.115794 0.490376 0.863784 255 0 0 255
-0.078038 0.198167 2.18 -0.0859494 0.512085 0.854624 255 0 0 255
-0.072099 0.198262 2.181 -0.178156 0.529422 0.829441 255 0 0 255
-0.066184 0.198447 2.183 -0.306512 0.534332 0.787743 255 0 0 255
-0.060286 0.198722 2.186 -0.459383 0.459919 0.759896 255 0 0 255
-0.054371 0.198998 2.189 -0.385693 0.455087 0.802582 255 0 0 255
-0.048417 0.199182 2.191 -0.425265 0.337278 0.839877 255 0 0 255
-0.042471 0.199456 2.194 -0.557428 0.234186 0.796512 255 0 0 255
-0.036526 0.199822 2.198 -0.50855 0.245679 0.825238 255 0 0 255
-0.03053 0.200005 2.2 -0.388281 0.283744 0.876771 255 0 0 255
-0.024535 0.200279 2.203 -0.2734 0.364187 0.890293 255 0 0 255
-0.018506 0.200371 2.204 -0.416296 0.429682 0.801293 255 0 0 255
-0.0125 0.200917 2.21 -0.660852 0.426942 0.617247 255 0 0 255
-0.006464 0.201554 2.217 -0.742616 0.460844 0.485947 255 0 0 255
-0.00039 0.202463 2.227 -0.756252 0.400895 0.517074 255 0 0 255
0.005734 0.203191 2.235 -0.722541 0.351557 0.595266 255 0 0 255
0.011896 0.203827 2.242 -0.737698 0.277019 0.61568 255 0 0 255
0.018096 0.204462 2.249 -0.765412 0.174283 0.619491 255 0 0 255
0.024346 0.205189 2.257 -0.757667 0.100277 0.644892 255 0 0 255
0.030625 0.205824 2.264 -0.657115 0.0190497 0.75355 255 0 0 255
0.036895 0.206186 2.268 -0.450544 -0.284886 0.84608 255 0 0 255
0.043166 0.206457 2.271 -0.596341 -0.345257 0.72469 255 0 0 255
0.049476 0.206818 2.275 -0.372822 -0.394935 0.839661 255 0 0 255
0.055759 0.206998 2.277 -0.208341 -0.444236 0.871349 255 0 0 255
0.06208 0.207268 2.28 -0.205758 -0.415192 0.88616 255 0 0 255
0.124697 0.207498 2.283 0.767678 -0.347567 0.538393 255 0 0 255
0.130432 0.206674 2.274 0.679992 -0.40296 0.612563 255 0 0 255
0.136298 0.206123 2.268 0.487614 -0.459911 0.742101 255 0 0 255
0.142318 0.205844 2.265 0.2783 -0.495322 0.822925 255 0 0 255
0.148387 0.205656 2.263 0.203281 -0.42699 0.881111 255 0 0 255
0.154513 0.205558 2.262 0.221992 -0.565819 0.794084 255 0 0 255
0.160562 0.20537 2.26 0.240629 -0.640085 0.72965 255 0 0 255
0.166304 0.204817 2.254 0.368552 -0.727737 0.578418 255 0 0 255
0.172319 0.204628 2.252 0.384696 -0.717588 0.580583 255 0 0 255
-0.155051 0.077211 2.47372 -0.0856605 -0.164487 -0.982653 255 255 0 255
-0.144413 0.076798 2.46765 0.0233453 -0.547811 -0.836276 255 255 0 255
-0.113251 0.080807 2.475 -0.3866 0.897462 -0.212374 255 255 0 255
-0.10352 0.080236 2.46851 -0.648955 0.466405 -0.601103 255 255 0 255
-0.100634 0.078192 2.45757 -0.643956 -0.103451 -0.758036 255 255 0 255
-0.089216 0.078 2.45227 -0.311727 0.0670757 -0.947801 255 255 0 255
-0.070144 0.079489 2.45212 0.0261501 0.0145067 -0.999553 255 255 0 255
-0.046849 0.081925 2.45491 -0.105791 0.105955 -0.988727 255 255 0 255
-0.028699 0.083263 2.45438 -0.294324 0.37396 -0.879504 255 255 0 255
-0.023322 0.081809 2.44532 -0.543922 0.588923 -0.597761 255 255 0 255
-0.019647 0.079983 2.43512 -0.535878 0.544517 -0.645242 255 255 0 255
-0.012581 0.078909 2.42723 -0.569925 0.116173 -0.813443 255 255 0 255
0.000405 0.079158 2.42345 -0.461706 -0.251484 -0.850637 255 255 0 255
0.020984 0.081117 2.42498 -0.490487 -0.736928 -0.465146 255 255 0 255
0.017866 0.077793 2.41017 -0.825396 -0.311434 -0.470883 255 255 0 255
0.027424 0.077309 2.40417 -0.990453 0.13655 -0.0188892 255 255 0 255
0.016732 0.072266 2.38399 -0.966399 -0.255672 -0.0265548 255 255 0 255
0.015337 0.069306 2.37027 -0.973523 -0.169877 -0.152952 255 255 0 255
0.024047 0.068635 2.36368 -0.929572 -0.108274 -0.352382 255 255 0 255
0.029385 0.067202 2.35472 -0.804098 -0.116598 -0.582951 255 255 0 255
0.032201 0.065196 2.34398 -0.739393 -0.126214 -0.661338 255 255 0 255
0.040888 0.064537 2.33745 -0.815932 -0.0482871 -0.576128 255 255 0 255
0.045376 0.062918 2.32793 -0.764615 0.352463 -0.539568 255 255 0 255
0.05321 0.062075 2.32085 -0.460901 0.289136 -0.83903 255 255 0 255
0.067721 0.062786 2.31869 -0.34233 -0.0257493 -0.939227 255 255 0 255
0.082209 0.06351 2.31659 -0.567696 -0.239767 -0.787549 255 255 0 255
0.084161 0.061325 2.30531 -0.75949 -0.453625 -0.46626 255 255 0 255
-0.325377 -0.000577 2.27414 0.828557 -0.557732 -0.0492831 0 255 0 255
-0.322459 0.001517 2.2841 0.819364 -0.207142 -0.534541 0 255 0 255
-0.316997 0.002856 2.29219 0.968444 -0.190604 -0.160582 0 255 0 255
-0.322565 0.007468 2.30833 -0.999726 0.0166476 -0.0164753 0 255 0 255
-0.225342 -0.00019 2.32381 -0.82663 -0.225583 -0.515553 0 255 0 255
-0.24117 0.00739 2.3471 -0.94818 -0.227567 -0.221739 0 255 0 255
-0.239066 0.009766 2.35779 -0.968938 -0.239403 -0.0620151 0 255 0 255
-0.241245 0.013372 2.37143 0.961634 0.22096 -0.162591 0 255 0 255
-0.229723 0.013042 2.3756 -0.937822 -0.331928 -0.101561 0 255 0 255
-0.24992 0.021791 2.40155 0.974661 -0.0453248 -0.219045 0 255 0 255
-0.245263 0.023419 2.4104 0.974661 -0.0453249 -0.219045 0 255 0 255
-0.237167 0.024074 2.41694 0.345068 -0.388162 -0.854551 0 255 0 255
-0.212723 0.020109 2.41249 -0.171983 -0.0462407 -0.984014 0 255 0 255
-0.19685 0.018601 2.41393 -0.0921066 -0.0365403 -0.995079 0 255 0 255
-0.174062 0.01517 2.41086 0.283824 0.000293518 -0.958876 0 255 0 255
-0.159863 0.014182 2.41363 0.350298 -0.519782 -0.779178 0 255 0 255
-0.142192 0.012244 2.41418 0.592884 -0.0765486 -0.801642 0 255 0 255
-0.14695 0.016585 2.42955 0.581052 0.395397 -0.711365 0 255 0 255
-0.13357 0.015871 2.43303 0.719078 0.582003 -0.379737 0 255 0 255
-0.03428 0.00371 2.43092 -0.503881 0.117115 -0.855797 0 255 0 255
-0.019896 0.002858 2.43431 -0.336784 -0.383434 -0.859974 0 255 0 255
-0.363887 0.198221 2.253 -0.815537 0.147306 0.559643 255 0 0 255
-0.359338 0.199114 2.263 -0.598929 0.0520896 0.799106 255 0 0 255
-0.353642 0.199392 2.266 -0.1045 0.0818027 0.991155 255 0 0 255
-0.347161 0.199229 2.264 -0.011837 0.138323 0.990316 255 0 0 255
-0.341293 0.199418 2.266 -0.191312 0.191984 0.96257 255 0 0 255
-0.335264 0.199519 2.267 -0.231209 0.218566 0.948035 255 0 0 255
-0.329229 0.19962 2.268 -0.503416 0.288986 0.814284 255 0 0 255
-0.3239 0.200161 2.274 -0.779892 0.207322 0.590581 255 0 0 255
-0.318677 0.20079 2.281 -0.811319 -0.00792155 0.58455 255 0 0 255
-0.313825 0.201682 2.291 -0.852354 0.314618 0.417742 255 0 0 255
-0.308784 0.202487 2.3 -0.939619 0.228055 0.255162 255 0 0 255
-0.305665 0.204612 2.324 -0.474184 -0.0224977 0.880138 255 0 0 255
-0.284909 0.203415 2.31 0.490632 -0.290162 0.821636 255 0 0 255
-0.27812 0.203074 2.306 0.510934 -0.255852 0.820662 255 0 0 255
-0.271588 0.202909 2.304 0.49141 -0.141258 0.859397 255 0 0 255
-0.26472 0.20248 2.299 0.679087 -0.0488384 0.732431 255 0 0 255
-0.257653 0.201874 2.292 0.718423 -0.105529 0.687555 255 0 0 255
-0.249966 0.200739 2.279 0.762568 0.0717301 0.64292 255 0 0 255
-0.24267 0.199869 2.269 0.757498 0.0780126 0.648159 255 0 0 255
-0.235531 0.199086 2.26 0.746455 0.233075 0.623283 255 0 0 255
-0.228644 0.198479 2.253 0.67058 0.236146 0.703247 255 0 0 255
-0.221992 0.198048 2.248 0.620625 0.28732 0.729569 255 0 0 255
-0.215367 0.197616 2.243 0.586455 0.340401 0.734981 255 0 0 255
-0.208674 0.197097 2.237 0.650803 0.397395 0.646941 255 0 0 255
-0.201833 0.196401 2.229 0.66444 0.40925 0.625327 255 0 0 255
-0.195298 0.195968 2.224 0.530865 0.404406 0.744741 255 0 0 255
-0.188875 0.195624 2.22 0.616539 0.340035 0.710109 255 0 0 255
-0.18239 0.195191 2.215 0.6561 0.339278 0.67411 255 0 0 255
-0.175773 0.194582 2.208 0.679282 0.373608 0.631659 255 0 0 255
-0.169117 0.193885 2.2 0.625938 0.436139 0.646518 255 0 0 255
-0.162652 0.193363 2.194 0.524285 0.340332 0.780576 255 0 0 255
-0.156362 0.193017 2.19 0.485078 0.326012 0.811428 255 0 0 255
-0.150162 0.192759 2.187 0.387961 0.354026 0.850971 255 0 0 255
-0.144044 0.19259 2.185 0.408259 0.364591 0.836898 255 0 0 255
-0.137809 0.192243 2.181 0.481336 0.289478 0.827356 255 0 0 255
-0.131596 0.191896 2.177 0.481496 0.150342 0.863458 255 0 0 255
-0.125463 0.191638 2.174 0.140574 0.205442 0.968521 255 0 0 255
-0.119565 0.191731 2.175 -0.114269 0.262449 0.958156 255 0 0 255
-0.113713 0.191912 2.177 -0.104341 0.410157 0.906027 255 0 0 255
-0.1078 0.192006 2.178 -0.136526 0.509535 0.84955 255 0 0 255
-0.101882 0.192098 2.179 -0.142144 0.543932 0.827002 255 0 0 255
-0.095957 0.192191 2.18 -0.163233 0.542559 0.824005 255 0 0 255
-0.090027 0.192283 2.181 -0.117038 0.471513 0.874058 255 0 0 255
-0.084091 0.192375 2.182 -0.0894387 0.42614 0.900225 255 0 0 255
-0.078113 0.192379 2.182 -0.140335 0.374983 0.916348 255 0 0 255
-0.072168 0.19247 2.183 -0.214826 0.418412 0.882486 255 0 0 255
-0.066248 0.19265 2.185 -0.358337 0.400036 0.843543 255 0 0 255
-0.060371 0.193005 2.189 -0.394854 0.393468 0.830225 255 0 0 255
-0.054448 0.193272 2.192 -0.345256 0.356004 0.868366 255 0 0 255
-0.048463 0.193363 2.193 -0.33863 0.332978 0.880031 255 0 0 255
-0.042512 0.193629 2.196 -0.499671 0.267857 0.823761 255 0 0 255
-0.036561 0.193984 2.2 -0.524796 0.253753 0.812526 255 0 0 255
-0.030587 0.194338 2.204 -0.475111 0.347746 0.808296 255 0 0 255
-0.02458 0.194604 2.207 -0.397944 0.480512 0.781504 255 0 0 255
-0.018549 0.194781 2.209 -0.475634 0.52954 0.702396 255 0 0 255
-0.012534 0.195399 2.216 -0.692917 0.475076 0.542373 255 0 0 255
-0.006485 0.196105 2.224 -0.733719 0.393692 0.553771 255 0 0 255
-0.000391 0.19681 2.232 -0.719657 0.308114 0.622221 255 0 0 255
0.005744 0.197427 2.239 -0.688252 0.232394 0.687242 255 0 0 255
0.011912 0.197956 2.245 -0.624834 -0.0138193 0.780635 255 0 0 255
0.018121 0.198572 2.252 -0.69925 -0.132963 0.702403 255 0 0 255
0.024347 0.199012 2.257 -0.692569 -0.0408311 0.720195 255 0 0 255
0.030613 0.19954 2.263 -0.60283 -0.163798 0.780876 255 0 0 255
0.036864 0.199803 2.266 -0.361251 -0.198484 0.911099 255 0 0 255
0.04313 0.200066 2.269 -0.513204 -0.310025 0.800316 255 0 0 255
0.049413 0.200328 2.272 -0.168134 -0.557065 0.813271 255 0 0 255
0.055639 0.200326 2.272 -0.15886 -0.63091 0.759419 255 0 0 255
0.061892 0.200412 2.273 -0.263733 -0.552493 0.790693 255 0 0 255
0.119177 0.202492 2.297 0.685176 -0.290631 0.667882 255 0 0 255
0.12432 0.200635 2.276 0.700559 -0.431733 0.568176 255 0 0 255
0.130208 0.200101 2.27 0.603178 -0.473778 0.641647 255 0 0 255
0.135943 0.19939 2.262 0.440636 -0.515954 0.734597 255 0 0 255
0.142073 0.199295 2.261 0.213739 -0.563451 0.798022 255 0 0 255
0.148066 0.199025 2.258 0.219023 -0.42401 0.878774 255 0 0 255
0.154178 0.19893 2.257 0.285088 -0.465503 0.837873 255 0 0 255
0.160001 0.198483 2.252 0.423986 -0.651238 0.629385 255 0 0 255
0.165574 0.19777 2.244 0.51141 -0.566711 0.645987 255 0 0 255
0.171638 0.197675 2.243 0.664393 -0.403265 0.629253 255 0 0 255
-0.172406 0.064814 2.47691 0.674893 -0.370403 -0.638217 255 255 0 255
-0.166892 0.063296 2.46747 0.835172 -0.0694721 -0.545583 255 255 0 255
-0.164806 0.061036 2.45582 0.870871 -0.0582806 -0.488044 255 255 0 255
-0.132779 0.065305 2.46363 0.0934668 -0.182807 -0.978696 255 255 0 255
-0.090777 0.066452 2.45255 -0.132407 -0.208769 -0.96896 255 255 0 255
-0.075969 0.067045 2.44955 -0.101306 -0.141155 -0.984791 255 255 0 255
-0.053528 0.069349 2.45173 -0.0250385 0.0298482 -0.999241 255 255 0 255
-0.036226 0.070538 2.4506 -0.469892 0.302264 -0.82936 255 255 0 255
-0.031689 0.068896 2.44093 -0.782331 0.328348 -0.529288 255 255 0 255
-0.025459 0.067635 2.43243 -0.551569 0.177805 -0.814958 255 255 0 255
-0.003983 0.069809 2.43436 0.0138061 -0.316571 -0.948468 255 255 0 255
0.019993 0.072575 2.43815 -0.0682559 -0.757583 -0.649161 255 255 0 255
0.027861 0.071724 2.43096 -0.796534 -0.315195 -0.515932 255 255 0 255
0.021364 0.067614 2.41383 -0.934697 0.355315 -0.00966218 255 255 0 255
0.018262 0.064264 2.39899 -0.991291 0.114362 -0.0652992 255 255 0 255
0.024444 0.063029 2.39062 0.980544 0.114232 -0.159638 255 255 0 255
0.022202 0.059863 2.37632 0.97458 0.19959 -0.101776 255 255 0 255
0.018291 0.056304 2.3608 -0.908769 -0.18525 -0.373927 255 255 0 255
0.026157 0.055457 2.35362 -0.818163 -0.197803 -0.539893 255 255 0 255
0.03569 0.055003 2.34767 -0.447725 -0.669924 -0.592237 255 255 0 255
0.038506 0.052995 2.33692 -0.870349 -0.418415 -0.259656 255 255 0 255
0.035462 0.049618 2.32192 -0.800039 0.46407 -0.380232 255 255 0 255
0.046651 0.049566 2.31723 -0.360526 0.353537 -0.863153 255 255 0 255
0.062837 0.050701 2.31627 -0.232538 0.120303 -0.965118 255 255 0 255
0.075656 0.051062 2.31292 -0.487489 0.221844 -0.844476 255 255 0 255
-0.329165 -0.010119 2.2781 0.895737 -0.324423 -0.303982 0 255 0 255
-0.324555 -0.008536 2.28681 0.552255 -0.101536 -0.827469 0 255 0 255
-0.315706 -0.008224 2.29243 0.805734 -0.0376732 -0.591078 0 255 0 255
-0.223656 -0.008569 2.33612 -0.902175 -0.356702 -0.242579 0 255 0 255
-0.228374 -0.004185 2.35162 -0.911691 -0.373448 -0.171336 0 255 0 255
-0.237384 0.001435 2.37003 -0.985443 -0.167736 -0.0276964 0 255 0 255
-0.239564 0.005053 2.38365 -0.939188 -0.299263 -0.168427 0 255 0 255
-0.241753 0.008666 2.39724 -0.91214 -0.326424 -0.247887 0 255 0 255
-0.249957 0.014002 2.41489 0.976547 0.149868 -0.154582 0 255 0 255
-0.244442 0.015379 2.42316 0.708742 -0.0923316 -0.6994 0 255 0 255
-0.209705 0.008393 2.41177 -0.167506 0.0495781 -0.984624 0 255 0 255
-0.186954 0.004885 2.40863 0.187826 0.0453346 -0.981156 0 255 0 255
-0.173638 0.004096 2.41192 0.668404 -0.168413 -0.724482 0 255 0 255
-0.167198 0.005277 2.41984 0.842311 -0.304974 -0.444412 0 255 0 255
-0.1642 0.007437 2.43006 0.448286 -0.616031 -0.647723 0 255 0 255
-0.144804 0.004974 2.42951 0.33767 -0.496681 -0.799554 0 255 0 255
-0.14093 0.006902 2.43921 0.843967 -0.127047 -0.521133 0 255 0 255
-0.02957 -0.00889 2.42938 -0.428031 0.260143 -0.865515 0 255 0 255
-0.36363 0.188729 2.214 -0.997589 -0.0519263 0.0460369 255 0 0 255
-0.364708 0.192493 2.258 -0.827934 0.113618 0.549195 255 0 0 255
-0.35951 0.193018 2.264 -0.501543 0.00074912 0.865133 255 0 0 255
-0.353811 0.193287 2.267 -0.165013 0.018053 0.986126 255 0 0 255
-0.347327 0.193129 2.265 -0.0287855 0.109132 0.993611 255 0 0 255
-0.341305 0.193227 2.266 -0.191438 0.177587 0.965305 255 0 0 255
-0.335277 0.193325 2.267 -0.317324 0.246251 0.915787 255 0 0 255
-0.329532 0.193594 2.27 -0.562087 0.319327 0.762947 255 0 0 255
-0.32434 0.194203 2.277 -0.74737 0.292477 0.59657 255 0 0 255
-0.319108 0.194812 2.284 -0.753817 -0.105558 0.648551 255 0 0 255
-0.314248 0.195677 2.294 -0.88935 0.242954 0.387337 255 0 0 255
-0.309467 0.196628 2.305 -0.830089 0.392378 0.396222 255 0 0 255
-0.292739 0.198113 2.322 0.410367 -0.60872 0.679013 255 0 0 255
-0.284057 0.196503 2.303 0.364339 -0.538523 0.75977 255 0 0 255
-0.277649 0.196429 2.302 0.158204 -0.570993 0.805567 255 0 0 255
-0.271245 0.196354 2.301 0.306776 -0.455155 0.835896 255 0 0 255
-0.264385 0.195938 2.296 0.495988 -0.519032 0.696133 255 0 0 255
-0.257326 0.195351 2.289 0.704289 -0.353677 0.61554 255 0 0 255
-0.250195 0.194679 2.281 0.673935 -0.0459729 0.737359 255 0 0 255
-0.243 0.193921 2.272 0.747922 0.0577148 0.661273 255 0 0 255
-0.235958 0.193247 2.264 0.802298 0.108008 0.587071 255 0 0 255
-0.228958 0.192574 2.256 0.683365 0.187471 0.705597 255 0 0 255
-0.222298 0.192156 2.251 0.608568 0.231524 0.758974 255 0 0 255
-0.21576 0.191824 2.247 0.646406 0.0310371 0.762362 255 0 0 255
-0.209149 0.191406 2.242 0.620682 0.117371 0.775227 255 0 0 255
-0.202566 0.190987 2.237 0.673833 0.0511191 0.737114 255 0 0 255
-0.195745 0.190312 2.229 0.702307 0.127042 0.700447 255 0 0 255
-0.189138 0.189808 2.223 0.665795 0.0947095 0.7401 255 0 0 255
-0.18248 0.189218 2.216 0.670899 0.108457 0.733575 255 0 0 255
-0.17594 0.188713 2.21 0.677342 0.16486 0.716959 255 0 0 255
-0.169508 0.188293 2.205 0.650819 0.320141 0.688436 255 0 0 255
-0.163029 0.187788 2.199 0.629961 0.309896 0.712119 255 0 0 255
-0.156654 0.187368 2.194 0.508454 0.347145 0.788013 255 0 0 255
-0.150443 0.187118 2.191 0.365443 0.375965 0.851529 255 0 0 255
-0.144313 0.186953 2.189 0.429661 0.352364 0.831403 255 0 0 255
-0.138068 0.186618 2.185 0.515964 0.33189 0.789703 255 0 0 255
-0.131844 0.186282 2.181 0.480367 0.306297 0.821846 255 0 0 255
-0.125699 0.186031 2.178 0.197269 0.399668 0.895182 255 0 0 255
-0.11979 0.186122 2.179 -0.167037 0.40467 0.899078 255 0 0 255
-0.113875 0.186212 2.18 -0.139312 0.356421 0.923881 255 0 0 255
-0.107954 0.186302 2.181 -0.215827 0.353873 0.910051 255 0 0 255
-0.102073 0.186477 2.183 -0.232099 0.440856 0.86705 255 0 0 255
-0.096094 0.186482 2.183 -0.0986167 0.512426 0.85305 255 0 0 255
-0.090196 0.186657 2.185 -0.0611267 0.492236 0.868313 255 0 0 255
-0.084133 0.186489 2.183 -0.0228831 0.429368 0.90284 255 0 0 255
-0.078224 0.186664 2.185 -0.054186 0.356056 0.932892 255 0 0 255
-0.072271 0.186752 2.186 -0.28429 0.368223 0.885207 255 0 0 255
-0.066372 0.187012 2.189 -0.390173 0.399462 0.829576 255 0 0 255
-0.060429 0.187185 2.191 -0.430344 0.399995 0.809202 255 0 0 255
-0.0545 0.187444 2.194 -0.304026 0.407231 0.861238 255 0 0 255
-0.04851 0.187532 2.195 -0.282234 0.384025 0.87913 255 0 0 255
-0.042552 0.18779 2.198 -0.457986 0.333282 0.824119 255 0 0 255
-0.036595 0.188133 2.202 -0.53459 0.241232 0.809951 255 0 0 255
-0.030616 0.188477 2.206 -0.548602 0.181936 0.816049 255 0 0 255
-0.024615 0.18882 2.21 -0.539221 0.293596 0.789331 255 0 0 255
-0.018592 0.189162 2.214 -0.658894 0.321928 0.679869 255 0 0 255
-0.012563 0.189761 2.221 -0.70267 0.384254 0.598835 255 0 0 255
-0.006497 0.19036 2.228 -0.692607 0.282043 0.663888 255 0 0 255
-0.000391 0.190872 2.234 -0.716858 0.199609 0.668035 255 0 0 255
0.005747 0.191385 2.24 -0.690488 0.103484 0.715904 255 0 0 255
0.011913 0.191812 2.245 -0.601973 -0.0529345 0.79676 255 0 0 255
0.018114 0.192324 2.251 -0.599587 -0.245996 0.761565 255 0 0 255
0.024326 0.192665 2.255 -0.56717 -0.431392 0.701583 255 0 0 255
0.030574 0.193091 2.26 -0.465639 -0.451595 0.761079 255 0 0 255
0.036833 0.193431 2.264 -0.301325 -0.526406 0.795047 255 0 0 255
0.043075 0.1936 2.266 -0.276237 -0.508535 0.815528 255 0 0 255
0.049285 0.193598 2.266 -0.0865512 -0.659473 0.746729 255 0 0 255
0.05547 0.19351 2.265 -0.126501 -0.6309 0.765482 255 0 0 255
0.061758 0.193764 2.268 -0.390128 -0.285138 0.875498 255 0 0 255
0.1183 0.194754 2.28 0.666898 -0.292928 0.685157 255 0 0 255
0.124053 0.193981 2.271 0.721746 -0.352972 0.595394 255 0 0 255
0.12987 0.193377 2.264 0.682346 -0.309781 0.662148 255 0 0 255
0.135648 0.192774 2.257 0.37416 -0.210629 0.903128 255 0 0 255
0.141765 0.192682 2.256 0.199619 -0.25503 0.946103 255 0 0 255
0.147941 0.192676 2.256 0.209549 -0.255444 0.943842 255 0 0 255
0.15398 0.192499 2.254 0.468969 0.00856814 0.883173 255 0 0 255
0.159581 0.191809 2.246 0.674131 -0.234748 0.700315 255 0 0 255
0.165359 0.191376 2.241 0.640083 -0.04276 0.767115 255 0 0 255
-0.165867 0.052121 2.4695 0.710264 0.610492 -0.350463 255 255 0 255
-0.150086 0.052876 2.4667 0.117249 0.26496 -0.957105 255 255 0 255
-0.12031 0.054045 2.4602 -0.349337 0.24741 -0.903743 255 255 0 255
-0.103752 0.055028 2.45817 -0.0651086 0.183368 -0.980886 255 255 0 255
-0.088926 0.055644 2.45509 -0.124393 -0.257177 -0.958325 255 255 0 255
-0.069868 0.057227 2.45491 -0.111678 -0.281224 -0.953122 255 255 0 255
-0.057645 0.057294 2.45027 -0.0925913 -0.178212 -0.979626 255 255 0 255
-0.041194 0.058331 2.44854 -0.494355 0.0391839 -0.868376 255 255 0 255
-0.03156 0.057842 2.44229 -0.765245 -0.110143 -0.634246 255 255 0 255
-0.027872 0.056011 2.43205 -0.788832 -0.0105979 -0.614517 255 255 0 255
-0.003861 0.058818 2.4357 -0.149978 -0.0650819 -0.986545 255 255 0 255
0.010801 0.059516 2.43308 -0.402872 0.672751 -0.620565 255 255 0 255
0.016144 0.05809 2.4241 -0.619276 0.712361 -0.33021 255 255 0 255
0.012198 0.054527 2.40869 -0.898637 0.428109 -0.0957877 255 255 0 255
0.012484 0.051931 2.39618 -0.656533 -0.017624 -0.754092 255 255 0 255
0.024569 0.052068 2.39192 -0.93379 0.0313999 -0.356441 255 255 0 255
0.024856 0.049472 2.37941 0.996587 0.0670219 -0.0482011 255 255 0 255
0.022629 0.046283 2.36508 -0.967876 -0.127041 -0.216971 255 255 0 255
0.02881 0.045057 2.35671 -0.230076 -0.265816 -0.936166 255 255 0 255
0.050081 0.047384 2.35917 -0.50998 -0.449696 -0.733277 255 255 0 255
0.052883 0.045381 2.34846 -0.871391 -0.271542 -0.408585 255 255 0 255
0.029744 0.037235 2.31896 -0.97468 0.129722 -0.182132 255 255 0 255
0.040101 0.037004 2.31364 -0.647586 0.394313 -0.652035 255 255 0 255
0.061299 0.039369 2.3163 -0.159343 0.55943 -0.813417 255 255 0 255
0.050761 0.034171 2.29576 -0.351444 0.723729 -0.593888 255 255 0 255
-0.33295 -0.01965 2.28206 0.881802 -0.412687 -0.228286 0 255 0 255
-0.321574 -0.020136 2.28579 0.52843 -0.262205 -0.807472 0 255 0 255
-0.309337 -0.020868 2.28895 -0.927257 -0.310216 -0.209667 0 255 0 255
-0.21897 -0.020861 2.33412 -0.98005 -0.148788 -0.131775 0 255 0 255
-0.226241 -0.015694 2.35141 -0.992154 0.0779991 -0.097709 0 255 0 255
-0.229711 -0.008657 2.37815 -0.947649 -0.297462 -0.116092 0 255 0 255
-0.236169 -0.003771 2.39471 -0.867636 -0.450253 -0.210902 0 255 0 255
-0.249503 0.003101 2.41587 0.961509 0.273683 -0.0244545 0 255 0 255
-0.23884 0.002977 2.42067 0.908814 0.36973 -0.193278 0 255 0 255
-0.212704 -0.001614 2.4151 -0.210762 0.0643508 -0.975417 0 255 0 255
-0.18309 -0.007167 2.40737 0.329304 -0.145821 -0.932896 0 255 0 255
-0.174077 -0.006745 2.41355 0.669982 0.08113 -0.737931 0 255 0 255
-0.171082 -0.004587 2.42376 0.791779 0.207214 -0.574586 0 255 0 255
-0.162916 -0.003907 2.43057 0.619787 0.267043 -0.737938 0 255 0 255
-0.14784 -0.005188 2.43287 0.187778 0.169841 -0.967416 0 255 0 255
-0.135333 -0.005717 2.43694 0.272964 0.249024 -0.929235 0 255 0 255
-0.36456 0.186243 2.257 -0.886081 -0.0588643 0.459777 255 0 0 255
-0.359365 0.186751 2.263 -0.628655 -0.00900551 0.777632 255 0 0 255
-0.353668 0.187011 2.266 -0.196971 -0.0893217 0.976332 255 0 0 255
-0.347647 0.187106 2.267 -0.0865061 -0.0316713 0.995748 255 0 0 255
-0.341469 0.187118 2.267 -0.182431 0.0823537 0.979764 255 0 0 255
-0.335585 0.187296 2.269 -0.426745 0.248965 0.869428 255 0 0 255
-0.330125 0.187721 2.274 -0.697263 0.243904 0.674043 255 0 0 255
-0.324637 0.188146 2.279 -0.660725 0.280623 0.696199 255 0 0 255
-0.31926 0.188653 2.285 -0.763786 0.490699 0.419339 255 0 0 255
-0.31426 0.189408 2.294 -0.925307 0.110482 0.362767 255 0 0 255
-0.309479 0.190327 2.305 0.792718 -0.143195 0.592531 255 0 0 255
-0.290734 0.190444 2.306 -0.211442 -0.401692 0.891031 255 0 0 255
-0.283082 0.189546 2.295 0.525304 -0.479935 0.702651 255 0 0 255
-0.276815 0.189557 2.295 0.168539 -0.662676 0.729695 255 0 0 255
-0.270666 0.18965 2.296 0.323967 -0.638382 0.698222 255 0 0 255
-0.263589 0.189082 2.289 0.427628 -0.450517 0.783689 255 0 0 255
-0.256662 0.188597 2.283 0.609348 -0.350468 0.711244 255 0 0 255
-0.249767 0.188111 2.277 0.521985 -0.217809 0.824676 255 0 0 255
-0.242903 0.187625 2.271 0.697791 -0.0653665 0.713313 255 0 0 255
-0.235967 0.187056 2.264 0.803645 -0.000108796 0.595109 255 0 0 255
-0.228967 0.186404 2.256 0.717039 -0.114209 0.687612 255 0 0 255
-0.222307 0.186 2.251 0.618463 -0.157709 0.769826 255 0 0 255
-0.215576 0.185513 2.245 0.594205 -0.174858 0.785077 255 0 0 255
-0.208971 0.185108 2.24 0.60398 -0.105465 0.789991 255 0 0 255
-0.202393 0.184703 2.235 0.698237 -0.0102407 0.715794 255 0 0 255
-0.195665 0.184132 2.228 0.687488 0.00700921 0.726162 255 0 0 255
-0.18906 0.183644 2.222 0.670387 0.022045 0.741684 255 0 0 255
-0.182487 0.183156 2.216 0.660083 0.044525 0.749872 255 0 0 255
-0.176106 0.182832 2.212 0.617739 0.124051 0.776537 255 0 0 255
-0.169669 0.182426 2.207 0.650123 0.0308383 0.759203 255 0 0 255
-0.16311 0.181854 2.2 0.632793 0.0916822 0.768875 255 0 0 255
-0.156803 0.18153 2.196 0.516462 0.266853 0.813669 255 0 0 255
-0.150518 0.181206 2.192 0.389801 0.28614 0.875316 255 0 0 255
-0.144451 0.181129 2.191 0.433194 0.355027 0.828431 255 0 0 255
-0.138137 0.180722 2.186 0.488826 0.395088 0.777788 255 0 0 255
-0.132031 0.180562 2.184 0.352613 0.415352 0.838539 255 0 0 255
-0.12582 0.180236 2.18 0.177608 0.511185 0.84092 255 0 0 255
-0.119905 0.180324 2.181 -0.0650107 0.47641 0.876817 255 0 0 255
-0.113879 0.180246 2.18 -0.133592 0.478438 0.8679 255 0 0 255
-0.108008 0.180416 2.182 -0.250976 0.421491 0.871411 255 0 0 255
-0.102171 0.180669 2.185 -0.241449 0.459974 0.854474 255 0 0 255
-0.096274 0.180838 2.187 -0.138765 0.467095 0.873251 255 0 0 255
-0.090324 0.180925 2.188 -0.0958931 0.549463 0.829997 255 0 0 255
-0.084291 0.180846 2.187 -0.00276293 0.552062 0.833798 255 0 0 255
-0.078263 0.180766 2.186 -0.0581071 0.57437 0.816531 255 0 0 255
-0.072307 0.180852 2.187 -0.252735 0.506736 0.824224 255 0 0 255
-0.066435 0.181186 2.191 -0.432974 0.501619 0.74894 255 0 0 255
-0.060542 0.181519 2.195 -0.364506 0.532062 0.764229 255 0 0 255
-0.054577 0.181687 2.197 -0.237405 0.596676 0.766562 255 0 0 255
-0.0486 0.181855 2.199 -0.208839 0.464645 0.860518 255 0 0 255
-0.042593 0.181939 2.2 -0.372034 0.282075 0.884321 255 0 0 255
-0.03663 0.182272 2.204 -0.461425 0.140967 0.875908 255 0 0 255
-0.030631 0.182521 2.207 -0.550428 0.070258 0.831921 255 0 0 255
-0.024638 0.182936 2.212 -0.632824 0.135326 0.762378 255 0 0 255
-0.018618 0.18335 2.217 -0.715414 0.112567 0.689574 255 0 0 255
-0.012581 0.18393 2.224 -0.751243 0.134574 0.646161 255 0 0 255
-0.006503 0.184426 2.23 -0.70558 0.134008 0.695844 255 0 0 255
-0.000391 0.18484 2.235 -0.669665 0.129268 0.731327 255 0 0 255
0.00575 0.185336 2.241 -0.625769 0.071564 0.776718 255 0 0 255
0.011918 0.185749 2.246 -0.500583 -0.0075678 0.865655 255 0 0 255
0.018107 0.18608 2.25 -0.478987 -0.318775 0.817896 255 0 0 255
0.024284 0.186161 2.251 -0.428515 -0.363987 0.826976 255 0 0 255
0.030481 0.186326 2.253 -0.279789 -0.531177 0.799731 255 0 0 255
0.036704 0.186572 2.256 -0.225585 -0.631554 0.741789 255 0 0 255
0.042925 0.186736 2.258 -0.138112 -0.665728 0.733302 255 0 0 255
0.049135 0.186817 2.259 -0.193545 -0.607001 0.770772 255 0 0 255
0.055375 0.18698 2.261 -0.547945 -0.263397 0.793964 255 0 0 255
0.061679 0.187308 2.265 -0.674658 -0.173843 0.717367 255 0 0 255
0.068246 0.188298 2.277 -0.698635 0.404114 0.590424 255 0 0 255
0.112454 0.189181 2.288 0.699459 -0.465732 0.542081 255 0 0 255
0.118098 0.188184 2.276 0.797795 -0.294295 0.526226 255 0 0 255
0.123839 0.187435 2.267 0.719997 -0.232739 0.653786 255 0 0 255
0.129761 0.187017 2.262 0.661161 -0.143039 0.736482 255 0 0 255
0.135654 0.186598 2.257 0.370094 0.00475379 0.928982 255 0 0 255
0.141897 0.186675 2.258 -0.0276786 0.305114 0.951914 255 0 0 255
0.148013 0.186586 2.257 0.171595 0.363718 0.915568 255 0 0 255
0.15385 0.186167 2.252 0.639426 0.319162 0.699478 255 0 0 255
0.159375 0.185416 2.243 0.735849 0.0378516 0.676087 255 0 0 255
0.165366 0.185244 2.241 0.640083 -0.04276 0.767115 255 0 0 255
-0.142223 0.043262 2.47314 -0.20625 0.156849 -0.965846 255 255 0 255
-0.129543 0.040663 2.4555 -0.0998773 0.851326 -0.515043 255 255 0 255
-0.117243 0.040717 2.45063 -0.128367 0.26658 -0.955226 255 255 0 255
-0.081965 0.045994 2.46101 -0.0684124 -0.303717 -0.950303 255 255 0 255
-0.065473 0.047047 2.45913 -0.104374 -0.320415 -0.94151 255 255 0 255
-0.054108 0.046949 2.45393 -0.0884179 -0.433971 -0.896578 255 255 0 255
-0.039364 0.047637 2.45105 -0.399311 -0.746193 -0.532679 255 255 0 255
-0.033973 0.046193 2.44194 -0.822686 -0.114608 -0.556823 255 255 0 255
-0.022655 0.046119 2.43687 -0.729558 -0.120661 -0.673191 255 255 0 255
-0.022357 0.043507 2.42433 -0.50834 0.656943 -0.556791 255 255 0 255
-0.006834 0.044425 2.42222 -0.479152 0.64175 -0.598808 255 255 0 255
-0.001174 0.040385 2.40065 -0.612043 0.0144581 -0.790692 255 255 0 255
0.014299 0.041328 2.39867 -0.701247 -0.533346 -0.473069 255 255 0 255
0.027221 0.04169 2.395 -0.953588 -0.107991 -0.281083 255 255 0 255
0.021623 0.037695 2.37834 0.995609 0.0828388 -0.0435961 255 255 0 255
0.021084 0.034884 2.3652 -0.959145 -0.194723 -0.205241 255 255 0 255
0.034819 0.035459 2.36219 -0.473946 0.114544 -0.873072 255 255 0 255
0.046018 0.035446 2.35745 -0.500035 0.0469494 -0.864731 255 255 0 255
0.043802 0.032236 2.3431 0.973236 -0.145839 -0.177603 255 255 0 255
0.034071 0.027213 2.32328 0.950868 -0.173358 -0.256509 255 255 0 255
-0.001531 0.015939 2.28452 0.788062 0.494406 -0.366772 255 255 0 255
-0.33251 -0.030476 2.2829 0.993447 0.0877419 -0.0732477 0 255 0 255
-0.326211 -0.029424 2.29037 0.647199 -0.468689 -0.601218 0 255 0 255
-0.319906 -0.028367 2.29786 0.304291 -0.907418 -0.289828 0 255 0 255
-0.318679 -0.025751 2.30906 0.572477 -0.680242 -0.457757 0 255 0 255
-0.227943 -0.029115 2.34165 -0.956863 0.232383 -0.174386 0 255 0 255
-0.223259 -0.027483 2.35062 -0.967618 0.113279 -0.225574 0 255 0 255
-0.224556 -0.024072 2.36372 -0.979729 0.178714 -0.0905072 0 255 0 255
-0.223294 -0.021426 2.37503 0.956517 -0.190946 -0.220488 0 255 0 255
-0.223747 -0.018277 2.3875 0.928622 0.363671 -0.0735082 0 255 0 255
-0.232774 -0.012608 2.40578 0.728781 0.673969 -0.121014 0 255 0 255
-0.238393 -0.007961 2.42166 -0.0697918 -0.170327 -0.982913 0 255 0 255
-0.224285 -0.009103 2.42421 -0.173944 -0.185373 -0.967151 0 255 0 255
-0.1728 -0.018098 2.41404 0.465667 -0.175524 -0.867378 0 255 0 255
-0.160335 -0.018683 2.418 0.57735 0.48757 -0.654938 0 255 0 255
-0.153884 -0.017513 2.42598 0.358783 0.58661 -0.726061 0 255 0 255
-0.13622 -0.019569 2.42663 0.290949 0.524654 -0.800054 0 255 0 255
-0.134061 -0.017143 2.4375 0.161313 0.429236 -0.88867 0 255 0 255
-0.363118 0.179359 2.248 -0.880463 0.0331759 0.472953 255 0 0 255
-0.359218 0.180488 2.262 -0.612372 -0.125608 0.780528 255 0 0 255
-0.35368 0.180819 2.266 -0.167842 -0.00521836 0.9858 255 0 0 255
-0.347352 0.180752 2.265 -0.145928 -0.0336577 0.988723 255 0 0 255
-0.34133 0.180844 2.266 -0.268232 -0.00392394 0.963346 255 0 0 255
-0.335745 0.181175 2.27 -0.627432 0.0150941 0.778525 255 0 0 255
-0.330427 0.181666 2.276 -0.724607 0.0604542 0.686506 255 0 0 255
-0.325076 0.182156 2.282 -0.652845 0.280787 0.703529 255 0 0 255
-0.319691 0.182647 2.288 -0.832925 0.230746 0.502984 255 0 0 255
-0.31482 0.183456 2.298 -0.887782 0.314263 0.336277 255 0 0 255
-0.282475 0.182872 2.29 0.496916 -0.083207 0.8638 255 0 0 255
-0.276223 0.182883 2.29 0.150319 -0.370181 0.916717 255 0 0 255
-0.269851 0.182813 2.289 0.497903 -0.21971 0.83894 255 0 0 255
-0.262793 0.182264 2.282 0.603086 -0.288925 0.743512 255 0 0 255
-0.25611 0.181954 2.278 0.514312 -0.232327 0.825535 255 0 0 255
-0.249557 0.181724 2.275 0.461489 -0.364259 0.808915 255 0 0 255
-0.242912 0.181414 2.271 0.668157 -0.257289 0.698118 255 0 0 255
-0.235664 0.180624 2.261 0.763049 -0.145338 0.629788 255 0 0 255
-0.22857 0.179914 2.252 0.7165 -0.187012 0.672052 255 0 0 255
-0.221723 0.179363 2.245 0.610964 -0.293911 0.735078 255 0 0 255
-0.215297 0.179132 2.242 0.546657 -0.344802 0.763071 255 0 0 255
-0.2087 0.178741 2.237 0.514239 -0.327882 0.792497 255 0 0 255
-0.20231 0.178509 2.234 0.582492 -0.258689 0.770573 255 0 0 255
-0.195585 0.177957 2.227 0.640399 -0.114245 0.759498 255 0 0 255
-0.189068 0.177565 2.222 0.633975 -0.0205805 0.77308 255 0 0 255
-0.182577 0.177173 2.217 0.635079 -0.00903424 0.772395 255 0 0 255
-0.176033 0.1767 2.211 0.633753 -0.0701567 0.770348 255 0 0 255
-0.169676 0.176387 2.207 0.614587 -0.00334256 0.788842 255 0 0 255
-0.163265 0.175994 2.202 0.547696 0.0655301 0.834107 255 0 0 255
-0.157095 0.175841 2.2 0.48219 0.232276 0.844713 255 0 0 255
-0.15073 0.175447 2.195 0.366525 0.31609 0.87507 255 0 0 255
-0.144721 0.175453 2.195 0.404331 0.404034 0.820532 255 0 0 255
-0.138332 0.174979 2.189 0.46611 0.357068 0.809471 255 0 0 255
-0.132278 0.174905 2.188 0.285975 0.420427 0.861081 255 0 0 255
-0.126056 0.17459 2.184 0.108677 0.516965 0.84908 255 0 0 255
-0.120184 0.174755 2.186 -0.14144 0.53806 0.830955 255 0 0 255
-0.114145 0.174679 2.185 -0.0641462 0.569097 0.819765 255 0 0 255
-0.108259 0.174844 2.187 -0.174809 0.532133 0.828418 255 0 0 255
-0.102316 0.174928 2.188 -0.270413 0.473668 0.838162 255 0 0 255
-0.09641 0.175092 2.19 -0.22952 0.498235 0.836111 255 0 0 255
-0.090451 0.175176 2.191 -0.122038 0.601718 0.78933 255 0 0 255
-0.084487 0.175259 2.192 -0.0387123 0.685257 0.727272 255 0 0 255
-0.078481 0.175262 2.192 -0.0596141 0.726705 0.684358 255 0 0 255
-0.072508 0.175345 2.193 -0.139248 0.684474 0.715615 255 0 0 255
-0.066559 0.175508 2.195 -0.352654 0.604392 0.714385 255 0 0 255
-0.060682 0.175911 2.2 -0.40617 0.477866 0.77889 255 0 0 255
-0.054703 0.176073 2.202 -0.201898 0.451022 0.869377 255 0 0 255
-0.048713 0.176235 2.204 -0.08694 0.326823 0.941078 255 0 0 255
-0.042653 0.176157 2.203 -0.208524 0.13255 0.968993 255 0 0 255
-0.036648 0.176318 2.205 -0.420014 0.0989602 0.902106 255 0 0 255
-0.030619 0.1764 2.206 -0.585045 0.0767409 0.807362 255 0 0 255
-0.024639 0.176881 2.212 -0.658525 0.0761159 0.7487 255 0 0 255
-0.018618 0.177281 2.217 -0.702445 0.0471684 0.710173 255 0 0 255
-0.012587 0.177922 2.225 -0.746397 0.0648293 0.662336 255 0 0 255
-0.006506 0.178402 2.231 -0.706451 0.0752183 0.703753 255 0 0 255
-0.000392 0.178882 2.237 -0.634712 0.022667 0.772416 255 0 0 255
0.00575 0.179201 2.241 -0.490573 -0.153219 0.857824 255 0 0 255
0.011908 0.179441 2.244 -0.410139 -0.366724 0.835045 255 0 0 255
0.018083 0.17968 2.247 -0.297794 -0.381883 0.874919 255 0 0 255
0.024253 0.179759 2.248 -0.421771 -0.33915 0.840884 255 0 0 255
0.030441 0.179918 2.25 -0.345063 -0.43314 0.832659 255 0 0 255
0.036641 0.180077 2.252 -0.352897 -0.275533 0.894173 255 0 0 255
0.042832 0.180155 2.253 -0.343586 -0.171015 0.923419 255 0 0 255
0.04905 0.180313 2.255 -0.423551 -0.1833 0.887134 255 0 0 255
0.055328 0.180631 2.259 -0.539527 -0.16036 0.826556 255 0 0 255
0.061791 0.181428 2.269 -0.811137 0.217085 0.543076 255 0 0 255
0.068548 0.182865 2.287 -0.546754 0.671108 0.500674 255 0 0 255
0.107537 0.185242 2.317 0.741091 -0.648816 0.172694 255 0 0 255
0.112065 0.182279 2.28 0.664974 -0.468013 0.582042 255 0 0 255
0.117947 0.181715 2.273 0.707066 -0.285289 0.647046 255 0 0 255
0.12379 0.181151 2.266 0.707177 -0.197306 0.678949 255 0 0 255
0.129709 0.180746 2.261 0.420701 -0.11799 0.899494 255 0 0 255
0.13578 0.180581 2.259 0.0836393 0.0597124 0.994705 255 0 0 255
0.142028 0.180655 2.26 -0.193591 0.227738 0.954284 255 0 0 255
0.148281 0.180729 2.261 0.259211 0.429997 0.864819 255 0 0 255
0.154266 0.180484 2.258 0.4565 0.380548 0.804233 255 0 0 255
0.159878 0.179838 2.25 0.702135 0.407337 0.584023 255 0 0 255
0.166037 0.179831 2.25 0.565895 0.505672 0.651198 255 0 0 255
-0.133155 0.031229 2.46744 -0.35479 0.355799 -0.864599 255 255 0 255
-0.134499 0.028186 2.45361 0.635238 0.218847 -0.740661 255 255 0 255
-0.111118 0.030802 2.45599 -0.0193614 0.118684 -0.992743 255 255 0 255
-0.084374 0.034222 2.46074 -0.0336764 0.247273 -0.96836 255 255 0 255
-0.055978 0.038059 2.46674 -0.017116 0.0300897 -0.999401 255 255 0 255
-0.038679 0.039366 2.46553 -0.327784 -0.165292 -0.930181 255 255 0 255
-0.024804 0.039899 2.46211 -0.931289 0.00438599 -0.364254 255 255 0 255
-0.028752 0.036295 2.44674 -0.845016 0.426087 -0.323107 255 255 0 255
-0.027604 0.033871 2.43478 -0.918137 0.313698 -0.242112 255 255 0 255
-0.035756 0.029261 2.41645 -0.847778 0.344208 -0.403478 255 255 0 255
-0.022758 0.029612 2.41254 -0.203601 0.436421 -0.876404 255 255 0 255
-0.007248 0.030571 2.41044 -0.16466 0.41936 -0.892762 255 255 0 255
0.016668 0.033541 2.41426 -0.464933 -0.0864774 -0.881112 255 255 0 255
0.019483 0.031526 2.40352 -0.728432 0.0960326 -0.678354 255 255 0 255
0.029031 0.031117 2.39749 -0.93856 0.239665 -0.248325 255 255 0 255
0.025118 0.027496 2.38202 0.961987 -0.26307 -0.0733138 255 255 0 255
0.02374 0.024472 2.36829 -0.700816 0.474562 -0.532586 255 255 0 255
0.029082 0.023059 2.35931 -0.512303 0.530904 -0.675046 255 255 0 255
0.041121 0.023269 2.35513 -0.563234 0.380715 -0.733364 255 255 0 255
0.044775 0.021458 2.34499 -0.82081 0.548562 -0.159219 255 255 0 255
0.039232 0.017411 2.3282 0.925337 -0.297555 -0.234975 255 255 0 255
-0.322393 -0.041325 2.28874 0.296433 0.273709 -0.914992 0 255 0 255
-0.330464 -0.035815 2.30675 0.893594 -0.439483 -0.0913496 0 255 0 255
-0.320778 -0.035818 2.31177 0.837664 -0.524579 -0.152103 0 255 0 255
-0.22967 -0.036477 2.35634 0.927572 -0.373645 -0.000593237 0 255 0 255
-0.231822 -0.0328 2.37002 0.899522 -0.43665 -0.0140283 0 255 0 255
-0.228854 -0.030664 2.38014 0.732954 -0.673638 -0.0948226 0 255 0 255
-0.22332 -0.029295 2.38851 0.60976 -0.720091 -0.331152 0 255 0 255
-0.216069 -0.028431 2.39572 0.923089 0.0876831 -0.374458 0 255 0 255
-0.216524 -0.025274 2.40818 -0.929233 -0.362835 -0.0698349 0 255 0 255
-0.217842 -0.021866 2.42119 -0.760078 -0.123235 -0.63804 0 255 0 255
-0.192555 -0.026315 2.41637 0.114647 -0.297486 -0.947818 0 255 0 255
