ply
format ascii 1.0
comment VCGLIB generated
element vertex 731
property float x
property float y
property float z
property float nx
property float ny
property float nz
property uchar red
property uchar green
property uchar blue
property uchar alpha
element face 0
property list uchar int vertex_indices
end_header
-0.234709 -0.321859 2.315 0.700064 0.282358 0.655884 255 0 0 255
-0.227499 -0.320622 2.306 0.580727 0.29058 0.760474 255 0 0 255
-0.220625 -0.319801 2.3 0.334717 0.390938 0.857399 255 0 0 255
-0.214528 -0.320093 2.302 0.164289 0.383606 0.908766 255 0 0 255
-0.207877 -0.319549 2.298 0.22642 0.367202 0.902162 255 0 0 255
-0.20151 -0.319423 2.297 0.235573 0.343716 0.909046 255 0 0 255
-0.194978 -0.319018 2.294 0.163766 0.435818 0.885011 255 0 0 255
-0.188708 -0.31903 2.294 0.111246 0.558903 0.821737 255 0 0 255
-0.182359 -0.318903 2.293 -0.27461 0.540226 0.795453 255 0 0 255
-0.176551 -0.319748 2.299 -0.547231 0.489247 0.679099 255 0 0 255
-0.170932 -0.321011 2.308 -0.757791 0.42885 0.491772 255 0 0 255
-0.165549 -0.32283 2.321 -0.878209 0.295896 0.37576 255 0 0 255
-0.160163 -0.324787 2.335 -0.863533 0.296614 0.407837 255 0 0 255
-0.154634 -0.326606 2.348 -0.878566 0.188419 0.438884 255 0 0 255
-0.14897 -0.328285 2.36 -0.869917 0.103491 0.482217 255 0 0 255
-0.143058 -0.329546 2.369 -0.872696 0.0228369 0.48773 255 0 0 255
-0.13727 -0.331224 2.381 -0.838014 -0.0621298 0.5421 255 0 0 255
-0.131251 -0.332485 2.39 -0.82625 0.191027 0.529924 255 0 0 255
-0.062928 -0.352867 2.536 -0.731738 0.19482 0.65315 255 0 0 255
-0.056206 -0.354263 2.546 -0.658504 -0.336187 0.673313 255 0 0 255
-0.049391 -0.355379 2.554 0.316232 -0.177616 0.931907 255 0 0 255
-0.042283 -0.354408 2.547 0.236176 -0.289197 0.927678 255 0 0 255
-0.035117 -0.352463 2.533 0.814538 0.00890997 0.580041 255 0 0 255
-0.028049 -0.350795 2.521 0.669635 0.146901 0.728017 255 0 0 255
-0.021122 -0.350379 2.518 0.104689 0.382792 0.917884 255 0 0 255
-0.014228 -0.35038 2.518 -0.146354 0.554877 0.818958 255 0 0 255
-0.007352 -0.351216 2.524 0.100704 0.353488 0.930003 255 0 0 255
-0.00044 -0.350242 2.517 0.706885 0.24821 0.662348 255 0 0 255
0.00642 -0.348572 2.505 0.841303 0.333567 0.425373 255 0 0 255
0.013193 -0.346345 2.489 0.549682 0.543642 0.634273 255 0 0 255
0.019951 -0.34537 2.482 0.344419 0.745955 0.570024 255 0 0 255
0.026671 -0.344394 2.475 0.377939 0.782925 0.494156 255 0 0 255
0.03342 -0.344114 2.473 0.216525 0.76809 0.602624 255 0 0 255
0.040092 -0.343277 2.467 -0.219807 0.610924 0.760564 255 0 0 255
0.046941 -0.34397 2.472 -0.714115 0.360107 0.600302 255 0 0 255
-0.235506 -0.329305 2.323 0.626972 0.0656672 0.776269 255 0 0 255
-0.227978 -0.327619 2.311 0.697422 0.334126 0.634004 255 0 0 255
-0.220995 -0.32664 2.304 0.406694 0.352092 0.842989 255 0 0 255
-0.214608 -0.326512 2.303 0.326752 0.334198 0.88405 255 0 0 255
-0.208135 -0.326242 2.301 0.273503 0.223654 0.935508 255 0 0 255
-0.201585 -0.325829 2.298 0.124542 0.370497 0.920446 255 0 0 255
-0.195136 -0.325558 2.296 0.0731593 0.465968 0.881772 255 0 0 255
-0.189026 -0.325854 2.298 -0.0944487 0.652348 0.752012 255 0 0 255
-0.182824 -0.326007 2.299 -0.262559 0.659788 0.70409 255 0 0 255
-0.176924 -0.326728 2.304 -0.548409 0.47183 0.69038 255 0 0 255
-0.17107 -0.32759 2.31 -0.741525 0.391671 0.544734 255 0 0 255
-0.165681 -0.329444 2.323 -0.87964 0.240841 0.410158 255 0 0 255
-0.160153 -0.331156 2.335 -0.876514 0.173551 0.449002 255 0 0 255
-0.154624 -0.33301 2.348 -0.865076 -0.100063 0.491559 255 0 0 255
-0.148897 -0.33458 2.359 -0.869142 0.0482871 0.4922 255 0 0 255
-0.14317 -0.336292 2.371 -0.854193 -0.124909 0.50473 255 0 0 255
-0.137146 -0.337435 2.379 -0.848754 -0.0628751 0.525037 255 0 0 255
-0.131132 -0.338721 2.388 -0.900621 0.026565 0.433792 255 0 0 255
-0.056225 -0.361351 2.547 -0.210193 0.0187553 0.97748 255 0 0 255
-0.049233 -0.361212 2.546 0.464202 -0.35944 0.809518 255 0 0 255
-0.042198 -0.360648 2.542 0.707835 -0.169296 0.68579 255 0 0 255
-0.035059 -0.358806 2.529 0.791886 -0.00118351 0.610667 255 0 0 255
-0.028047 -0.357673 2.521 0.149666 0.469988 0.869892 255 0 0 255
-0.021145 -0.357675 2.521 -0.0610521 0.588503 0.806187 255 0 0 255
-0.014272 -0.358385 2.526 -0.100881 0.498387 0.861066 255 0 0 255
-0.007354 -0.358244 2.525 0.504114 0.246696 0.827654 255 0 0 255
-0.000441 -0.357677 2.521 0.436148 0.0523773 0.89835 255 0 0 255
0.006419 -0.355407 2.505 0.833721 0.114048 0.54028 255 0 0 255
0.013229 -0.354129 2.496 0.592291 0.23539 0.770573 255 0 0 255
0.020022 -0.353419 2.491 0.267358 0.512714 0.81587 255 0 0 255
0.026852 -0.353559 2.492 0.29061 0.505029 0.812706 255 0 0 255
0.033593 -0.352706 2.486 0.393456 0.690772 0.606652 255 0 0 255
0.040285 -0.35171 2.479 0.261019 0.681387 0.683798 255 0 0 255
0.047014 -0.351282 2.476 0.327378 0.610035 0.721582 255 0 0 255
-0.23539 -0.335494 2.322 0.697731 0.027099 0.715847 255 0 0 255
-0.228655 -0.334931 2.318 0.661114 -0.142845 0.736562 255 0 0 255
-0.221556 -0.333789 2.31 0.608436 0.197468 0.768643 255 0 0 255
-0.214688 -0.332936 2.304 0.333125 0.32226 0.886102 255 0 0 255
-0.208032 -0.332371 2.3 0.177524 0.37639 0.909294 255 0 0 255
-0.201923 -0.332673 2.302 0.00551322 0.638107 0.769928 255 0 0 255
-0.195633 -0.332686 2.302 -0.150417 0.69724 0.700879 255 0 0 255
-0.189754 -0.333421 2.307 -0.165716 0.690268 0.704321 255 0 0 255
-0.183449 -0.333433 2.307 -0.212261 0.616603 0.75812 255 0 0 255
-0.177527 -0.334167 2.312 -0.486497 0.384282 0.784633 255 0 0 255
-0.171577 -0.334901 2.317 -0.814408 0.310168 0.490444 255 0 0 255
-0.16617 -0.336791 2.33 -0.86317 0.181223 0.47127 255 0 0 255
-0.160417 -0.338103 2.339 -0.846193 -0.0223217 0.532409 255 0 0 255
-0.154614 -0.339414 2.348 -0.816902 -0.327503 0.474776 255 0 0 255
-0.148635 -0.340436 2.355 -0.886031 -0.282536 0.36759 255 0 0 255
-0.142919 -0.34218 2.367 -0.886641 -0.0732739 0.456617 255 0 0 255
-0.136906 -0.343346 2.375 -0.850536 -0.104969 0.515335 255 0 0 255
-0.130959 -0.3448 2.385 -0.902533 0.101938 0.418382 255 0 0 255
-0.063192 -0.368295 2.547 -0.233431 0.0115587 0.972305 255 0 0 255
-0.056287 -0.368733 2.55 0.0804927 0.178218 0.980693 255 0 0 255
-0.049191 -0.367868 2.544 0.414359 0.242945 0.877088 255 0 0 255
-0.042112 -0.366859 2.537 0.669038 0.278133 0.689224 255 0 0 255
-0.035057 -0.365705 2.529 0.604875 0.304578 0.735771 255 0 0 255
-0.028145 -0.365852 2.53 0.0493326 0.621461 0.78189 255 0 0 255
-0.021194 -0.36542 2.527 -0.0759612 0.657866 0.749295 255 0 0 255
-0.0143 -0.365999 2.531 0.199367 0.606708 0.769518 255 0 0 255
-0.007339 -0.364409 2.52 0.440101 0.091577 0.893266 255 0 0 255
-0.00044 -0.363976 2.517 0.826869 -0.0181233 0.562103 255 0 0 255
0.006414 -0.361951 2.503 0.779044 0.101168 0.618753 255 0 0 255
0.013239 -0.361227 2.498 0.496181 0.165768 0.852247 255 0 0 255
0.020053 -0.360792 2.495 0.26832 0.386917 0.882213 255 0 0 255
0.026872 -0.360646 2.494 0.242551 0.482337 0.841736 255 0 0 255
0.033631 -0.359921 2.489 0.388129 0.584301 0.712705 255 0 0 255
0.040331 -0.358906 2.482 0.489502 0.536083 0.687752 255 0 0 255
0.047105 -0.358759 2.481 0.354586 0.60116 0.716153 255 0 0 255
-0.235375 -0.341823 2.322 0.492713 -0.293801 0.819094 255 0 0 255
-0.228344 -0.340808 2.315 0.59305 -0.254789 0.76379 255 0 0 255
-0.22183 -0.340528 2.313 0.545804 0.0174597 0.837731 255 0 0 255
-0.215047 -0.339805 2.308 0.168825 0.469715 0.866525 255 0 0 255
-0.208561 -0.339525 2.306 -0.105876 0.545222 0.831579 255 0 0 255
-0.202612 -0.340127 2.31 -0.117952 0.680996 0.722725 255 0 0 255
-0.196385 -0.340287 2.311 -0.101069 0.5794 0.808753 255 0 0 255
-0.190153 -0.340447 2.312 0.0499816 0.467456 0.882602 255 0 0 255
-0.183357 -0.339575 2.306 -0.0109665 0.439453 0.898199 255 0 0 255
-0.177438 -0.340323 2.311 -0.462881 0.399981 0.791048 255 0 0 255
-0.17164 -0.341366 2.318 -0.80214 0.187891 0.566806 255 0 0 255
-0.166088 -0.342997 2.329 -0.828231 0.202222 0.522628 255 0 0 255
-0.160063 -0.343744 2.334 -0.498791 0.146832 0.854194 255 0 0 255
-0.153945 -0.344343 2.338 -0.595397 -0.114786 0.79519 255 0 0 255
-0.148057 -0.345532 2.346 -0.830277 -0.142734 0.538765 255 0 0 255
-0.142728 -0.348193 2.364 -0.904737 -0.0588084 0.421892 255 0 0 255
-0.137128 -0.350411 2.379 -0.895002 0.170901 0.412025 255 0 0 255
-0.131444 -0.35263 2.394 -0.912096 0.133367 0.387677 255 0 0 255
-0.063213 -0.375389 2.548 -0.262344 -0.0808662 0.96158 255 0 0 255
-0.056327 -0.375982 2.552 0.135899 0.191553 0.972028 255 0 0 255
-0.049285 -0.375544 2.549 0.299177 0.125454 0.945915 255 0 0 255
-0.042209 -0.374663 2.543 0.683061 0.158303 0.713 255 0 0 255
-0.03511 -0.373192 2.533 0.250554 0.532007 0.808821 255 0 0 255
-0.02821 -0.373636 2.536 -0.100084 0.613458 0.78336 255 0 0 255
-0.02126 -0.373491 2.535 -0.0715527 0.634839 0.769324 255 0 0 255
-0.014332 -0.373786 2.537 0.452794 0.537196 0.711617 255 0 0 255
-0.007356 -0.372166 2.526 0.802888 0.0938798 0.588691 255 0 0 255
-0.00044 -0.370841 2.517 0.830079 -0.0144773 0.557458 255 0 0 255
0.006413 -0.368778 2.503 0.519145 0.200476 0.830841 255 0 0 255
0.013249 -0.368335 2.5 0.311368 0.326252 0.89253 255 0 0 255
0.02006 -0.367745 2.496 0.142496 0.381969 0.913124 255 0 0 255
0.026935 -0.368332 2.5 0.0658925 0.574147 0.816096 255 0 0 255
0.033724 -0.367741 2.496 0.0616684 0.609376 0.79048 255 0 0 255
0.040523 -0.367444 2.494 0.283276 0.755666 0.590528 255 0 0 255
0.047197 -0.366262 2.486 0.341026 0.688997 0.639519 255 0 0 255
-0.234549 -0.346952 2.314 0.568906 -0.231812 0.789056 255 0 0 255
-0.227935 -0.346517 2.311 0.287894 -0.211203 0.934083 255 0 0 255
-0.221336 -0.346082 2.308 0.214793 0.0951443 0.972014 255 0 0 255
-0.215312 -0.346546 2.311 0.0492028 0.338324 0.939743 255 0 0 255
-0.209 -0.34656 2.311 -0.216852 0.514531 0.829598 255 0 0 255
-0.2033 -0.347623 2.318 -0.115577 0.422078 0.899162 255 0 0 255
-0.196543 -0.346886 2.313 -0.0334555 0.423871 0.905105 255 0 0 255
-0.190469 -0.347349 2.316 -0.13575 0.14249 0.980443 255 0 0 255
-0.183743 -0.346611 2.311 -0.048327 0.515941 0.85526 255 0 0 255
-0.177887 -0.347523 2.317 -0.358909 0.453517 0.815786 255 0 0 255
-0.171999 -0.348435 2.323 -0.8159 0.242704 0.524788 255 0 0 255
-0.166505 -0.350246 2.335 -0.604683 0.29983 0.737875 255 0 0 255
-0.160327 -0.350707 2.338 -0.469643 0.11546 0.875274 255 0 0 255
-0.154001 -0.350867 2.339 -0.511802 0.288599 0.809178 255 0 0 255
-0.148047 -0.351928 2.346 -0.866352 0.0711086 0.494345 255 0 0 255
-0.14296 -0.355238 2.368 -0.935783 0.117847 0.332298 255 0 0 255
-0.137522 -0.357948 2.386 -0.914384 0.181569 0.361848 255 0 0 255
-0.13171 -0.359907 2.399 -0.913744 0.110658 0.390931 255 0 0 255
-0.127392 -0.366367 2.442 0.736489 0.281005 0.615321 255 0 0 255
-0.06296 -0.380836 2.538 -0.415365 0.0173612 0.909489 255 0 0 255
-0.056279 -0.382641 2.55 -0.506793 -0.00165085 0.862066 255 0 0 255
-0.049262 -0.382344 2.548 0.253705 0.339313 0.905815 255 0 0 255
-0.042255 -0.382047 2.546 0.330262 0.508612 0.795136 255 0 0 255
-0.035163 -0.3807 2.537 0.228009 0.59177 0.773188 255 0 0 255
-0.028275 -0.381452 2.542 -0.0663506 0.633204 0.771135 255 0 0 255
-0.021317 -0.381454 2.542 0.195128 0.388919 0.900371 255 0 0 255
-0.01436 -0.381455 2.542 0.641829 0.101519 0.760098 255 0 0 255
-0.007356 -0.379055 2.526 0.816169 0.14555 0.559181 255 0 0 255
-0.00044 -0.377404 2.515 0.784754 0.0734283 0.615443 255 0 0 255
0.006423 -0.376204 2.507 0.688025 0.230286 0.688179 255 0 0 255
0.013264 -0.375603 2.503 0.309303 0.394912 0.865087 255 0 0 255
0.02009 -0.375151 2.5 -0.0225694 0.436291 0.899523 255 0 0 255
0.026944 -0.3753 2.501 -0.0584452 0.527957 0.847258 255 0 0 255
0.03387 -0.376198 2.507 -0.147289 0.693043 0.705689 255 0 0 255
0.040764 -0.376496 2.509 -0.0738896 0.740579 0.667894 255 0 0 255
0.047536 -0.375742 2.504 0.269671 0.746796 0.607925 255 0 0 255
-0.234635 -0.35341 2.315 0.389787 0.0642944 0.918658 255 0 0 255
-0.228117 -0.35312 2.313 0.270969 0.237222 0.9329 255 0 0 255
-0.221705 -0.352982 2.312 0.0121303 0.330374 0.943772 255 0 0 255
-0.215484 -0.353149 2.313 -0.101717 0.462552 0.880738 255 0 0 255
-0.209257 -0.353316 2.314 -0.311279 0.346448 0.884918 255 0 0 255
-0.203375 -0.354093 2.319 0.0477388 0.311121 0.94917 255 0 0 255
-0.19653 -0.35319 2.313 0.230541 0.0214251 0.972827 255 0 0 255
-0.190457 -0.353661 2.316 -0.174706 0.16574 0.970571 255 0 0 255
-0.183969 -0.353368 2.314 -0.312955 0.33289 0.889519 255 0 0 255
-0.178029 -0.354144 2.319 -0.483553 0.404974 0.775998 255 0 0 255
-0.171913 -0.354614 2.322 -0.717273 0.357488 0.598099 255 0 0 255
-0.166351 -0.356305 2.333 -0.796387 0.159369 0.583411 255 0 0 255
-0.160316 -0.35708 2.338 -0.505355 0.332169 0.796417 255 0 0 255
-0.154319 -0.358007 2.344 -0.607773 0.40072 0.685591 255 0 0 255
-0.148353 -0.359086 2.351 -0.633141 0.401078 0.662019 255 0 0 255
-0.143011 -0.361845 2.369 -0.919747 0.09615 0.380553 255 0 0 255
-0.137455 -0.364299 2.385 -0.926905 0.0341503 0.373739 255 0 0 255
-0.131591 -0.366141 2.397 -0.912821 -0.00575227 0.408319 255 0 0 255
-0.070149 -0.389126 2.547 -0.0843901 0.672634 0.735147 255 0 0 255
-0.063154 -0.388978 2.546 -0.394985 0.170802 0.90267 255 0 0 255
-0.05632 -0.389899 2.552 -0.0131483 0.308475 0.951142 255 0 0 255
-0.049336 -0.389902 2.552 0.0359692 0.443853 0.895378 255 0 0 255
-0.042385 -0.390211 2.554 0.0717296 0.597262 0.798832 255 0 0 255
-0.035313 -0.389297 2.548 0.197108 0.697143 0.689305 255 0 0 255
-0.028339 -0.389299 2.548 0.309761 0.626695 0.715054 255 0 0 255
-0.021341 -0.388843 2.545 0.427226 0.106654 0.897832 255 0 0 255
-0.014342 -0.387927 2.539 0.739324 -0.112405 0.663902 255 0 0 255
-0.007361 -0.386247 2.528 0.786565 0.0870454 0.611342 255 0 0 255
-0.00044 -0.384567 2.517 0.770859 0.165169 0.61522 255 0 0 255
0.006431 -0.383497 2.51 0.638437 0.218681 0.737955 255 0 0 255
0.013274 -0.382733 2.505 0.212028 0.379109 0.900734 255 0 0 255
0.020113 -0.382426 2.503 0.0259303 0.496555 0.867618 255 0 0 255
0.027017 -0.383188 2.508 -0.356404 0.525143 0.772788 255 0 0 255
0.033949 -0.38395 2.513 -0.293711 0.542182 0.787256 255 0 0 255
0.040875 -0.384406 2.516 -0.0292959 0.561997 0.82662 255 0 0 255
0.047646 -0.383486 2.51 0.144885 0.630187 0.762806 255 0 0 255
-0.234823 -0.360028 2.317 -0.044207 0.170229 0.984412 255 0 0 255
-0.228497 -0.360043 2.317 0.0263014 0.478402 0.877747 255 0 0 255
-0.222074 -0.359903 2.316 -0.0492014 0.532453 0.845028 255 0 0 255
-0.215843 -0.360073 2.317 -0.0949903 0.555393 0.826145 255 0 0 255
-0.209605 -0.360242 2.318 -0.168606 0.470881 0.865935 255 0 0 255
-0.203361 -0.360412 2.319 0.132409 0.436876 0.889723 255 0 0 255
-0.196601 -0.359648 2.314 0.164826 0.232318 0.958572 255 0 0 255
-0.190279 -0.359661 2.314 -0.182435 0.223454 0.957489 255 0 0 255
-0.184195 -0.36014 2.317 -0.402003 0.322451 0.856982 255 0 0 255
-0.178401 -0.36124 2.324 -0.567447 0.361534 0.739796 255 0 0 255
-0.172346 -0.361874 2.328 -0.756622 0.203678 0.62132 255 0 0 255
-0.166553 -0.363129 2.336 -0.752913 0.097616 0.65084 255 0 0 255
-0.160785 -0.364539 2.345 -0.692893 0.325962 0.643155 255 0 0 255
-0.154704 -0.365327 2.35 -0.674787 0.272592 0.685826 255 0 0 255
-0.148658 -0.366271 2.356 -0.860009 0.203106 0.468117 255 0 0 255
-0.143001 -0.368302 2.369 -0.915735 0.109811 0.386484 255 0 0 255
-0.13733 -0.370488 2.383 -0.919668 0.0247897 0.391914 255 0 0 255
-0.131527 -0.372518 2.396 -0.91298 -0.0224491 0.407386 255 0 0 255
-0.077355 -0.397307 2.555 0.0315646 0.693346 0.719913 255 0 0 255
-0.070612 -0.398712 2.564 0.194712 0.746067 0.636767 255 0 0 255
-0.063497 -0.398095 2.56 0.204552 0.57651 0.791072 255 0 0 255
-0.056316 -0.396855 2.552 0.000814888 0.584698 0.811251 255 0 0 255
-0.049352 -0.397014 2.553 -0.307285 0.319239 0.896472 255 0 0 255
-0.042449 -0.397795 2.558 -0.141593 0.538423 0.830694 255 0 0 255
-0.035463 -0.397953 2.559 0.231185 0.561883 0.794255 255 0 0 255
-0.028382 -0.396867 2.552 0.608168 0.219752 0.762784 255 0 0 255
-0.021314 -0.395314 2.542 0.741054 -0.0569794 0.669023 255 0 0 255
-0.014307 -0.393915 2.533 0.728043 -0.0367733 0.684544 255 0 0 255
-0.007363 -0.393294 2.529 0.749839 0.0678569 0.658131 255 0 0 255
-0.000441 -0.391739 2.519 0.742559 0.199087 0.639508 255 0 0 255
0.006435 -0.39065 2.512 0.53947 0.308311 0.783528 255 0 0 255
0.013278 -0.389716 2.506 0.365146 0.345305 0.864542 255 0 0 255
0.020144 -0.389871 2.507 -0.0896464 0.462129 0.88227 255 0 0 255
0.027058 -0.390647 2.512 -0.482106 0.316859 0.816807 255 0 0 255
0.034014 -0.391578 2.518 -0.372852 0.404517 0.835073 255 0 0 255
0.040969 -0.392197 2.522 0.069874 0.69016 0.720276 255 0 0 255
0.047757 -0.391261 2.516 0.0156155 0.686332 0.727121 255 0 0 255
0.054641 -0.391257 2.516 0.10813 0.684488 0.72096 255 0 0 255
-0.235111 -0.366814 2.32 -0.508625 -0.0133508 0.860884 255 0 0 255
-0.228777 -0.366829 2.32 -0.288861 0.192028 0.937915 255 0 0 255
-0.222635 -0.36716 2.322 -0.167752 0.373576 0.912305 255 0 0 255
-0.216294 -0.367175 2.322 -0.0912134 0.450874 0.887915 255 0 0 255
-0.210043 -0.367348 2.323 -0.00877838 0.399769 0.916574 255 0 0 255
-0.20361 -0.367204 2.322 0.20182 0.421515 0.884078 255 0 0 255
-0.196928 -0.366585 2.318 0.11906 0.451517 0.884283 255 0 0 255
-0.190513 -0.36644 2.317 -0.228789 0.42544 0.875589 255 0 0 255
-0.184501 -0.367085 2.321 -0.381815 0.424342 0.821067 255 0 0 255
-0.178389 -0.367572 2.324 -0.550502 0.362918 0.751823 255 0 0 255
-0.172556 -0.368691 2.331 -0.660847 0.209317 0.720741 255 0 0 255
-0.166542 -0.369494 2.336 -0.787317 0.152076 0.597499 255 0 0 255
-0.160911 -0.371245 2.347 -0.776597 0.103909 0.621369 255 0 0 255
-0.154825 -0.372047 2.352 -0.737384 0.0953658 0.668708 255 0 0 255
-0.148837 -0.373165 2.359 -0.839551 0.104891 0.533059 255 0 0 255
-0.142991 -0.374757 2.369 -0.893742 0.115545 0.433445 255 0 0 255
-0.137321 -0.376981 2.383 -0.909514 0.0937862 0.404955 255 0 0 255
-0.131573 -0.379206 2.397 -0.93179 0.070135 0.356157 255 0 0 255
-0.070938 -0.407599 2.576 0.80012 0.156664 0.579021 255 0 0 255
-0.063741 -0.406654 2.57 0.619799 0.301374 0.724584 255 0 0 255
-0.056577 -0.405709 2.564 0.274694 0.466559 0.840753 255 0 0 255
-0.049484 -0.40508 2.56 -0.207184 0.367234 0.90676 255 0 0 255
-0.042529 -0.405558 2.563 -0.0218683 0.0705914 0.997266 255 0 0 255
-0.035543 -0.405877 2.565 0.385793 0.0794259 0.91916 255 0 0 255
-0.028402 -0.404139 2.554 0.809889 -0.0872752 0.580055 255 0 0 255
-0.021313 -0.402242 2.542 0.796906 -0.00385323 0.604091 255 0 0 255
-0.014312 -0.400977 2.534 0.661869 -0.0126459 0.749513 255 0 0 255
-0.007366 -0.400345 2.53 0.631683 0.114496 0.766725 255 0 0 255
-0.000441 -0.399079 2.522 0.671269 0.272009 0.689499 255 0 0 255
0.006442 -0.397971 2.515 0.478752 0.447403 0.755399 255 0 0 255
0.013303 -0.397338 2.511 0.182044 0.538888 0.822472 255 0 0 255
0.020159 -0.39702 2.509 -0.0407201 0.482149 0.875142 255 0 0 255
0.027089 -0.397968 2.515 -0.433647 0.451863 0.779596 255 0 0 255
0.034079 -0.399231 2.523 -0.56988 -0.0257631 0.821324 255 0 0 255
0.041096 -0.400336 2.53 -0.38132 0.302343 0.873604 255 0 0 255
0.047962 -0.399858 2.527 -0.101327 0.70334 0.703595 255 0 0 255
0.05492 -0.400171 2.529 0.94403 -0.242423 0.223692 255 0 0 255
-0.234386 -0.372006 2.313 -0.513355 0.0254514 0.857799 255 0 0 255
-0.228664 -0.372987 2.319 -0.42573 -0.0652194 0.902497 255 0 0 255
-0.222716 -0.373645 2.323 -0.196784 0.0589917 0.978671 255 0 0 255
-0.216373 -0.37366 2.323 -0.105658 0.0085356 0.994366 255 0 0 255
-0.21021 -0.373997 2.325 -0.0765524 0.108751 0.991117 255 0 0 255
-0.203684 -0.373689 2.323 0.158007 0.191087 0.968772 255 0 0 255
-0.197254 -0.373542 2.322 0.0480065 0.334194 0.941281 255 0 0 255
-0.190829 -0.373395 2.321 -0.123432 0.367748 0.921697 255 0 0 255
-0.184885 -0.374212 2.326 -0.342173 0.349776 0.872109 255 0 0 255
-0.178607 -0.374385 2.327 -0.576933 0.291072 0.763168 255 0 0 255
-0.172766 -0.375524 2.334 -0.633519 0.237493 0.736377 255 0 0 255
-0.166602 -0.376018 2.337 -0.740498 0.128502 0.659659 255 0 0 255
-0.160831 -0.377478 2.346 -0.757733 0.0285989 0.651937 255 0 0 255
-0.154748 -0.378294 2.351 -0.751918 0.0837557 0.653915 255 0 0 255
-0.149016 -0.380074 2.362 -0.869499 0.0270372 0.493194 255 0 0 255
-0.143343 -0.382176 2.375 -0.903041 0.0551793 0.425995 255 0 0 255
-0.137484 -0.383957 2.386 -0.896095 0.0447141 0.441605 255 0 0 255
-0.131564 -0.385736 2.397 -0.940236 0.0849306 0.329761 255 0 0 255
-0.078434 -0.417026 2.591 0.872441 0.116266 0.474688 255 0 0 255
-0.070767 -0.413652 2.57 0.536531 0.122484 0.834945 255 0 0 255
-0.063587 -0.412691 2.564 0.641281 0.171893 0.747804 255 0 0 255
-0.056462 -0.41189 2.559 0.361082 0.138693 0.922163 255 0 0 255
-0.049422 -0.411572 2.557 -5.04741e-05 0.269282 0.963061 255 0 0 255
-0.042509 -0.41238 2.562 -0.0505423 -0.269955 0.961546 255 0 0 255
-0.035485 -0.412222 2.561 0.613991 -0.163693 0.772153 255 0 0 255
-0.028378 -0.410776 2.552 0.763926 0.0540456 0.643037 255 0 0 255
-0.021303 -0.409007 2.541 0.752976 0.186183 0.63116 255 0 0 255
-0.014327 -0.408365 2.537 0.666808 0.207038 0.715893 255 0 0 255
-0.007368 -0.4074 2.531 0.625927 0.0802511 0.775742 255 0 0 255
-0.000442 -0.406434 2.525 0.607216 0.237406 0.758239 255 0 0 255
0.006457 -0.40579 2.521 0.436596 0.40391 0.803891 255 0 0 255
0.013334 -0.405145 2.517 0.236788 0.557515 0.795681 255 0 0 255
0.020181 -0.404339 2.512 -0.00405572 0.380539 0.924756 255 0 0 255
0.027098 -0.404982 2.516 -0.427086 0.377529 0.821626 255 0 0 255
0.034117 -0.406589 2.526 -0.565003 -0.329664 0.756368 255 0 0 255
0.041175 -0.408035 2.535 -0.0103446 -0.634757 0.772643 255 0 0 255
0.047997 -0.407066 2.529 -0.2024 -0.553141 0.808127 255 0 0 255
-0.234573 -0.378632 2.315 -0.534313 0.0744571 0.842001 255 0 0 255
-0.228944 -0.379792 2.322 -0.396171 0.225744 0.889993 255 0 0 255
-0.222605 -0.379808 2.322 -0.0416548 0.193634 0.980189 255 0 0 255
-0.216265 -0.379823 2.322 -0.104568 0.0597194 0.992723 255 0 0 255
-0.210014 -0.380001 2.323 -0.134167 0.0579736 0.989262 255 0 0 255
-0.203846 -0.380343 2.325 0.0132879 0.143613 0.989545 255 0 0 255
-0.197241 -0.379866 2.322 0.0705189 0.258004 0.963567 255 0 0 255
-0.190816 -0.379716 2.321 -0.130126 0.372376 0.918914 255 0 0 255
-0.184872 -0.380547 2.326 -0.404129 0.444203 0.799602 255 0 0 255
-0.178748 -0.38105 2.329 -0.474861 0.343152 0.810403 255 0 0 255
-0.172902 -0.382208 2.336 -0.546046 0.283878 0.788192 255 0 0 255
-0.166733 -0.382711 2.339 -0.681684 0.158248 0.714328 255 0 0 255
-0.160957 -0.384195 2.348 -0.701915 0.136291 0.699099 255 0 0 255
-0.154803 -0.384861 2.352 -0.77376 0.0148808 0.633304 255 0 0 255
-0.149005 -0.386508 2.362 -0.837727 0.0934996 0.538026 255 0 0 255
-0.143273 -0.388482 2.374 -0.90028 -0.0551086 0.431808 255 0 0 255
-0.137647 -0.390947 2.389 -0.924934 -0.0260315 0.379234 255 0 0 255
-0.131939 -0.393411 2.404 -0.940917 0.105138 0.321903 255 0 0 255
-0.078307 -0.42343 2.587 0.872441 0.116266 0.474688 255 0 0 255
-0.070872 -0.421308 2.574 0.746215 0.0670911 0.662316 255 0 0 255
-0.063632 -0.420003 2.566 0.475887 0.140225 0.868256 255 0 0 255
-0.056657 -0.420335 2.568 0.342679 0.298071 0.890913 255 0 0 255
-0.049535 -0.41952 2.563 0.152137 0.453058 0.878403 255 0 0 255
-0.042489 -0.419196 2.561 0.353599 0.129545 0.926383 255 0 0 255
-0.035386 -0.418054 2.554 0.565462 0.0388024 0.823861 255 0 0 255
-0.028376 -0.417728 2.552 0.641083 0.0468836 0.766039 255 0 0 255
-0.021352 -0.416912 2.547 0.694174 0.191631 0.69383 255 0 0 255
-0.014366 -0.416422 2.544 0.71249 0.114424 0.69229 255 0 0 255
-0.007368 -0.414295 2.531 0.61615 0.0366135 0.786777 255 0 0 255
-0.000442 -0.413804 2.528 0.386636 0.137233 0.911965 255 0 0 255
0.006459 -0.412822 2.522 0.346066 0.358041 0.867205 255 0 0 255
0.013376 -0.413312 2.525 0.172706 0.439245 0.88161 255 0 0 255
0.02022 -0.412001 2.517 0.102083 0.583078 0.805977 255 0 0 255
0.027182 -0.413146 2.524 0.0700163 0.372362 0.925443 255 0 0 255
0.033993 -0.411997 2.517 0.134213 -0.606896 0.783367 255 0 0 255
0.040928 -0.412486 2.52 0.0988396 -0.865367 0.491295 255 0 0 255
0.047708 -0.4115 2.514 0.371407 -0.823988 0.427903 255 0 0 255
-0.229224 -0.386613 2.325 0.00102127 0.448121 0.893973 255 0 0 255
-0.222781 -0.386462 2.324 0.0101877 0.332487 0.943053 255 0 0 255
-0.216343 -0.386311 2.323 -0.145152 0.298042 0.943452 255 0 0 255
-0.210181 -0.386659 2.325 -0.193859 0.45577 0.86873 255 0 0 255
-0.203831 -0.386673 2.325 0.00630156 0.533831 0.845568 255 0 0 255
-0.197482 -0.386687 2.325 0.0282454 0.568222 0.82239 255 0 0 255
-0.191213 -0.386867 2.326 -0.241218 0.57186 0.784086 255 0 0 255
-0.185495 -0.388211 2.334 -0.304741 0.525894 0.794083 255 0 0 255
-0.179119 -0.388224 2.334 -0.37369 0.436461 0.818448 255 0 0 255
-0.17289 -0.388569 2.336 -0.393 0.320305 0.861949 255 0 0 255
-0.166792 -0.389247 2.34 -0.592209 0.313593 0.742259 255 0 0 255
-0.160809 -0.390256 2.346 -0.707517 0.279455 0.649096 255 0 0 255
-0.154924 -0.391599 2.354 -0.662096 0.260342 0.702746 255 0 0 255
-0.148742 -0.392275 2.358 -0.680768 0.148095 0.717372 255 0 0 255
-0.142961 -0.394115 2.369 -0.894652 -0.0300702 0.445751 255 0 0 255
-0.137291 -0.396455 2.383 -0.950491 -0.0147714 0.310402 255 0 0 255
-0.131929 -0.399958 2.404 -0.938611 0.170457 0.299924 255 0 0 255
-0.078241 -0.430144 2.585 0.849697 0.187693 0.492733 255 0 0 255
-0.070757 -0.427653 2.57 0.499583 0.296336 0.814004 255 0 0 255
-0.063677 -0.427325 2.568 0.319486 0.508892 0.799348 255 0 0 255
-0.056653 -0.42733 2.568 0.106007 0.672963 0.73204 255 0 0 255
-0.049589 -0.427001 2.566 0.205939 0.619517 0.757488 255 0 0 255
-0.042553 -0.426838 2.565 0.33342 0.501218 0.798506 255 0 0 255
-0.035452 -0.425842 2.559 0.570079 0.276293 0.773739 255 0 0 255
-0.028429 -0.425512 2.557 0.645486 0.237431 0.72593 255 0 0 255
-0.02135 -0.423849 2.547 0.724957 -0.044622 0.687347 255 0 0 255
-0.014337 -0.422519 2.539 0.788673 -0.0802358 0.609555 255 0 0 255
-0.007361 -0.420856 2.529 0.522607 0.0431436 0.851481 255 0 0 255
-0.000442 -0.420856 2.529 0.282613 0.2303 0.931178 255 0 0 255
0.006464 -0.420024 2.524 0.196443 0.428942 0.881714 255 0 0 255
0.01338 -0.420356 2.526 0.0410757 0.544823 0.837544 255 0 0 255
0.020259 -0.419689 2.522 0.121045 0.503983 0.85519 255 0 0 255
0.027212 -0.42052 2.527 -0.0215589 0.421175 0.906723 255 0 0 255
0.034004 -0.41902 2.518 0.346403 0.56728 0.747126 255 0 0 255
0.040714 -0.417186 2.507 -0.00577551 -0.9475 0.319702 255 0 0 255
0.047439 -0.416018 2.5 0.619038 -0.545708 0.564796 255 0 0 255
-0.236263 -0.394108 2.332 0.22323 0.00417318 0.974757 255 0 0 255
-0.229405 -0.39328 2.327 0.150349 -0.079771 0.985409 255 0 0 255
-0.222957 -0.393126 2.326 -0.129352 0.171143 0.976718 255 0 0 255
-0.2167 -0.393311 2.327 -0.140353 0.371443 0.917786 255 0 0 255
-0.210618 -0.393833 2.33 -0.19657 0.341344 0.919154 255 0 0 255
-0.204518 -0.394355 2.333 -0.101212 0.32714 0.93954 255 0 0 255
-0.198062 -0.3942 2.332 -0.065308 0.368643 0.927274 255 0 0 255
-0.191611 -0.394045 2.331 -0.252128 0.458426 0.852219 255 0 0 255
-0.185482 -0.394565 2.334 -0.325032 0.499181 0.803226 255 0 0 255
-0.179336 -0.395086 2.337 -0.295582 0.514626 0.804855 255 0 0 255
-0.173174 -0.395605 2.34 -0.394807 0.51493 0.760904 255 0 0 255
-0.167279 -0.396801 2.347 -0.535091 0.377809 0.755604 255 0 0 255
-0.161345 -0.397996 2.354 -0.637183 0.281902 0.717307 255 0 0 255
-0.155373 -0.399191 2.361 -0.639987 0.228185 0.733723 255 0 0 255
-0.148858 -0.399033 2.36 -0.630842 0.18555 0.753399 255 0 0 255
-0.14289 -0.400397 2.368 -0.795769 0.154738 0.585498 255 0 0 255
-0.137109 -0.402436 2.38 -0.912471 0.219692 0.345155 255 0 0 255
-0.131865 -0.406335 2.403 -0.898244 0.228261 0.375572 255 0 0 255
-0.078084 -0.436337 2.58 0.547324 0.47918 0.686166 255 0 0 255
-0.071027 -0.436343 2.58 0.253897 0.660263 0.706816 255 0 0 255
-0.064044 -0.436855 2.583 0.213729 0.457308 0.863244 255 0 0 255
-0.056913 -0.436352 2.58 0.228493 0.508288 0.830322 255 0 0 255
-0.049817 -0.436018 2.578 0.359996 0.519189 0.775143 255 0 0 255
-0.042715 -0.435514 2.575 0.494406 0.476701 0.726856 255 0 0 255
-0.035547 -0.433995 2.566 0.602006 0.343131 0.721006 255 0 0 255
-0.028438 -0.432644 2.558 0.759929 0.130884 0.636692 255 0 0 255
-0.021365 -0.431124 2.549 0.816466 -0.0502622 0.575201 255 0 0 255
-0.014324 -0.429096 2.537 0.778597 -0.165125 0.605409 255 0 0 255
-0.007364 -0.427913 2.53 0.441642 0.0722521 0.894277 255 0 0 255
-0.000443 -0.428251 2.532 -0.0224568 0.368556 0.929334 255 0 0 255
0.006474 -0.427574 2.528 0.0297723 0.495349 0.868184 255 0 0 255
0.013416 -0.428419 2.533 -0.0916475 0.583667 0.806804 255 0 0 255
0.020305 -0.427572 2.528 -0.0943245 0.722796 0.684593 255 0 0 255
0.027361 -0.429769 2.541 -0.1961 0.7852 0.587372 255 0 0 255
0.034136 -0.427568 2.528 -0.0792348 0.746517 0.660632 255 0 0 255
0.041182 -0.428919 2.536 -0.552674 0.665203 0.502052 255 0 0 255
-0.235537 -0.399253 2.325 -0.274605 -0.351217 0.895119 255 0 0 255
-0.228995 -0.398926 2.323 -0.274605 -0.351217 0.895119 255 0 0 255
-0.222941 -0.399457 2.326 -0.268839 0.096704 0.958318 255 0 0 255
-0.216964 -0.400159 2.33 -0.230212 0.139675 0.963065 255 0 0 255
-0.210693 -0.400346 2.331 -0.220128 -0.00106839 0.97547 255 0 0 255
-0.204241 -0.400189 2.33 -0.0788592 -0.0318727 0.996376 255 0 0 255
-0.197878 -0.400204 2.33 -0.136955 0.18513 0.973124 255 0 0 255
-0.191844 -0.400905 2.334 -0.398208 0.267138 0.877535 255 0 0 255
-0.186025 -0.402121 2.341 -0.46659 0.362434 0.806806 255 0 0 255
-0.17986 -0.402649 2.344 -0.424202 0.406867 0.809019 255 0 0 255
-0.173457 -0.402662 2.344 -0.390795 0.419134 0.819516 255 0 0 255
-0.167409 -0.403533 2.349 -0.621108 0.153066 0.768632 255 0 0 255
-0.161128 -0.403889 2.351 -0.698928 -0.0340065 0.714383 255 0 0 255
-0.155296 -0.405447 2.36 -0.611046 0.239182 0.754596 255 0 0 255
-0.149036 -0.405973 2.363 -0.710881 0.342624 0.614212 255 0 0 255
-0.143302 -0.408046 2.375 -0.8324 0.387728 0.395951 255 0 0 255
-0.137732 -0.410805 2.391 -0.917798 0.272979 0.288321 255 0 0 255
-0.132239 -0.414079 2.41 -0.945459 0.209523 0.249415 255 0 0 255
-0.127319 -0.419587 2.442 0.929945 0.346618 0.12271 255 0 0 255
-0.086156 -0.448683 2.611 0.716975 0.223079 0.660442 255 0 0 255
-0.078411 -0.445252 2.591 0.0579774 0.397311 0.915851 255 0 0 255
-0.071214 -0.44457 2.587 -0.056608 0.490724 0.869474 255 0 0 255
-0.064164 -0.444747 2.588 0.423199 0.392816 0.816455 255 0 0 255
-0.056887 -0.443205 2.579 0.402735 -0.137598 0.904915 255 0 0 255
-0.049871 -0.443553 2.581 0.239126 -0.25038 0.938152 255 0 0 255
-0.042762 -0.443041 2.578 0.47392 -0.202223 0.857033 255 0 0 255
-0.035586 -0.441497 2.569 0.804851 0.0699144 0.589344 255 0 0 255
-0.028403 -0.439094 2.555 0.808478 0.0946819 0.580861 255 0 0 255
-0.021313 -0.437033 2.543 0.775549 0.128256 0.618122 255 0 0 255
-0.014312 -0.43566 2.535 0.517471 0.205743 0.830598 255 0 0 255
-0.007366 -0.434973 2.531 0.145197 0.24246 0.959234 255 0 0 255
-0.000443 -0.435145 2.532 0.019052 0.3673 0.929907 255 0 0 255
0.006489 -0.435489 2.534 -0.19833 0.370391 0.907456 255 0 0 255
0.013431 -0.435832 2.536 -0.165221 0.537854 0.826689 255 0 0 255
0.020392 -0.436346 2.539 -0.397158 0.525334 0.752522 255 0 0 255
0.027413 -0.437547 2.546 -0.535015 0.315598 0.783682 255 0 0 255
0.034431 -0.438232 2.55 -0.709864 0.288555 0.642518 255 0 0 255
0.041617 -0.440463 2.563 -0.804904 0.252295 0.537101 255 0 0 255
-0.234508 -0.403835 2.315 -0.274605 -0.351217 0.895119 255 0 0 255
-0.229176 -0.405596 2.325 -0.568473 -0.0270714 0.822257 255 0 0 255
-0.223021 -0.405961 2.327 -0.334824 0.200127 0.920783 255 0 0 255
-0.217042 -0.406674 2.331 -0.204874 0.104858 0.973155 255 0 0 255
-0.210588 -0.406515 2.33 0.00656542 0.0078591 0.999948 255 0 0 255
-0.204489 -0.407053 2.333 -0.164837 -0.0614153 0.984407 255 0 0 255
-0.198034 -0.406894 2.332 -0.426357 0.161936 0.889942 255 0 0 255
-0.192076 -0.40778 2.337 -0.502158 0.32161 0.802748 255 0 0 255
-0.185773 -0.407968 2.338 -0.544701 0.360976 0.756966 255 0 0 255
-0.179847 -0.409029 2.344 -0.406675 0.376776 0.832259 255 0 0 255
-0.173666 -0.409565 2.347 -0.30341 0.238043 0.922647 255 0 0 255
-0.167611 -0.41045 2.352 -0.368587 0.150774 0.917285 255 0 0 255
-0.161322 -0.410811 2.354 -0.747142 0.014947 0.664497 255 0 0 255
-0.155482 -0.412394 2.363 -0.814258 0.286756 0.504733 255 0 0 255
-0.149656 -0.41415 2.373 -0.775081 0.434324 0.458925 255 0 0 255
-0.144015 -0.416604 2.387 -0.853541 0.37656 0.360097 255 0 0 255
-0.138528 -0.419756 2.405 -0.925815 0.179508 0.33263 255 0 0 255
-0.132778 -0.422385 2.42 -0.935859 0.0576078 0.347634 255 0 0 255
-0.078496 -0.452829 2.594 -0.160281 -0.0101253 0.987019 255 0 0 255
-0.071347 -0.452485 2.592 0.0814225 0.174117 0.981353 255 0 0 255
-0.064208 -0.452141 2.59 0.591159 0.283805 0.754974 255 0 0 255
-0.05686 -0.450051 2.578 0.624523 -0.100611 0.774499 255 0 0 255
-0.049713 -0.449182 2.573 0.312377 -0.28087 0.907487 255 0 0 255
-0.042709 -0.449535 2.575 0.487392 -0.213196 0.846757 255 0 0 255
-0.035555 -0.448141 2.567 0.773821 0.0489281 0.631512 255 0 0 255
-0.028423 -0.446398 2.557 0.813253 0.180165 0.553317 255 0 0 255
-0.021345 -0.444654 2.547 0.713556 0.236573 0.659447 255 0 0 255
-0.01435 -0.443783 2.542 0.487104 0.376156 0.788186 255 0 0 255
-0.007377 -0.442561 2.535 0.244876 0.360021 0.900234 255 0 0 255
-0.000443 -0.442387 2.534 -0.148539 0.351417 0.924361 255 0 0 255
0.006496 -0.442911 2.537 -0.231968 0.434281 0.870397 255 0 0 255
0.013446 -0.443259 2.539 -0.288047 0.409445 0.86567 255 0 0 255
0.020407 -0.443607 2.541 -0.45035 0.373795 0.81084 255 0 0 255
0.027464 -0.445351 2.551 -0.736572 0.200974 0.64581 255 0 0 255
0.03459 -0.447269 2.562 -0.776894 0.170121 0.606214 255 0 0 255
0.041663 -0.447964 2.566 -0.811839 0.293264 0.50489 255 0 0 255
-0.231229 -0.415642 2.346 0.806322 0.112502 0.580679 255 0 0 255
-0.223293 -0.412823 2.33 -0.238771 0.185059 0.95328 255 0 0 255
-0.217119 -0.413193 2.332 -0.00951717 0.362151 0.932071 255 0 0 255
-0.210392 -0.4125 2.328 -0.0399341 0.176713 0.983452 255 0 0 255
-0.204211 -0.41287 2.33 -0.17193 0.364292 0.915277 255 0 0 255
-0.198104 -0.413416 2.333 -0.441088 0.495219 0.748464 255 0 0 255
-0.192227 -0.414493 2.339 -0.514376 0.556899 0.652135 255 0 0 255
-0.186395 -0.415748 2.346 -0.311255 0.589478 0.74541 255 0 0 255
-0.180218 -0.416293 2.349 -0.182908 0.348597 0.919252 255 0 0 255
-0.173876 -0.416483 2.35 -0.142706 0.28055 0.949171 255 0 0 255
-0.167313 -0.416141 2.348 -0.205947 0.0927742 0.974155 255 0 0 255
-0.161036 -0.416508 2.35 -0.554274 0.325086 0.766224 255 0 0 255
-0.155405 -0.418646 2.362 -0.809512 0.371076 0.454965 255 0 0 255
-0.149897 -0.421317 2.377 -0.800147 0.303136 0.517565 255 0 0 255
-0.144125 -0.423455 2.389 -0.905766 0.106203 0.410255 255 0 0 255
-0.138691 -0.426833 2.408 -0.961575 0.0167478 0.274031 255 0 0 255
-0.133042 -0.429857 2.425 -0.958077 0.014275 0.286155 255 0 0 255
-0.126883 -0.431462 2.434 -0.972994 0.0245052 0.229526 255 0 0 255
-0.078308 -0.458825 2.588 -0.190683 -0.162042 0.968185 255 0 0 255
-0.071396 -0.459894 2.594 -0.193827 -0.15526 0.968672 255 0 0 255
-0.064253 -0.459545 2.592 0.438604 0.230332 0.868662 255 0 0 255
-0.056878 -0.457245 2.579 0.779495 0.01933 0.626111 255 0 0 255
-0.04969 -0.456008 2.572 0.321473 -0.236062 0.917022 255 0 0 255
-0.042639 -0.455834 2.571 0.27776 -0.128849 0.95197 255 0 0 255
-0.035608 -0.455837 2.571 0.471323 0.190366 0.861171 255 0 0 255
-0.028454 -0.453889 2.56 0.64825 0.374224 0.66312 255 0 0 255
-0.02136 -0.451941 2.549 0.636563 0.426258 0.642722 255 0 0 255
-0.014372 -0.45141 2.546 0.448007 0.595495 0.66684 255 0 0 255
-0.007385 -0.449993 2.538 0.196534 0.557074 0.806873 255 0 0 255
-0.000444 -0.45017 2.539 -0.146977 0.601435 0.785285 255 0 0 255
0.006503 -0.450347 2.54 -0.230667 0.442733 0.866476 255 0 0 255
0.013477 -0.451233 2.545 -0.295719 0.379526 0.876647 255 0 0 255
0.020437 -0.451232 2.545 -0.410132 0.226804 0.883375 255 0 0 255
0.027452 -0.452117 2.55 -0.691981 0.0261534 0.721442 255 0 0 255
0.034534 -0.453533 2.558 -0.734472 0.0161891 0.678446 255 0 0 255
0.041871 -0.457253 2.579 -0.895665 0.238709 0.375237 255 0 0 255
-0.23141 -0.422383 2.348 0.532326 0.689103 0.491698 255 0 0 255
-0.223564 -0.419701 2.333 -0.515363 -0.0279807 0.856515 255 0 0 255
-0.21729 -0.419897 2.334 -0.378255 0.0722747 0.922876 255 0 0 255
-0.211009 -0.420092 2.335 -0.119505 0.395916 0.910477 255 0 0 255
-0.204985 -0.420827 2.339 -0.41466 0.544348 0.729206 255 0 0 255
-0.199024 -0.421741 2.344 -0.427579 0.598289 0.677662 255 0 0 255
-0.193034 -0.422656 2.349 -0.376552 0.440312 0.815067 255 0 0 255
-0.186779 -0.423029 2.351 -0.175787 0.340941 0.923503 255 0 0 255
-0.180358 -0.423043 2.351 -0.083504 0.372469 0.92428 255 0 0 255
-0.173863 -0.422876 2.35 -0.056087 0.411342 0.909754 255 0 0 255
-0.167586 -0.423249 2.352 -0.324637 0.410307 0.852208 255 0 0 255
-0.161778 -0.424881 2.361 -0.717103 0.45754 0.525758 255 0 0 255
-0.156117 -0.427052 2.373 -0.757795 0.3981 0.516975 255 0 0 255
-0.150201 -0.428683 2.382 -0.710524 0.135519 0.6905 255 0 0 255
-0.143994 -0.429594 2.387 -0.885299 -0.0211305 0.464541 255 0 0 255
-0.138335 -0.432305 2.402 -0.944747 -0.0923037 0.314536 255 0 0 255
-0.132593 -0.435015 2.417 -0.944722 -0.056382 0.322988 255 0 0 255
-0.126926 -0.438264 2.435 -0.973455 0.0184624 0.228134 255 0 0 255
-0.078211 -0.465327 2.585 -0.414404 -0.186559 0.890767 255 0 0 255
-0.071336 -0.466593 2.592 -0.385923 -0.0284184 0.922093 255 0 0 255
-0.064248 -0.466598 2.592 0.176013 0.0374712 0.983674 255 0 0 255
-0.057028 -0.465523 2.586 0.577971 0.395127 0.71402 255 0 0 255
-0.049725 -0.463367 2.574 0.520053 0.409354 0.74965 255 0 0 255
-0.042653 -0.46301 2.572 0.150279 0.0359282 0.987991 255 0 0 255
-0.035605 -0.462833 2.571 0.314746 0.172772 0.933319 255 0 0 255
-0.02853 -0.462116 2.567 0.562218 0.242935 0.790502 255 0 0 255
-0.021434 -0.460497 2.558 0.408689 0.522802 0.748099 255 0 0 255
-0.014427 -0.460139 2.556 0.270155 0.654976 0.705707 255 0 0 255
-0.007431 -0.459779 2.554 0.296168 0.7068 0.642432 255 0 0 255
-0.000446 -0.45924 2.551 0.28726 0.665917 0.688503 255 0 0 255
0.006513 -0.457979 2.544 -0.0660367 0.54541 0.835564 255 0 0 255
0.013481 -0.458339 2.546 -0.162459 0.442491 0.881935 255 0 0 255
0.020436 -0.458157 2.545 -0.212452 0.370296 0.904293 255 0 0 255
0.027439 -0.458875 2.549 -0.641556 0.0913981 0.761612 255 0 0 255
0.034558 -0.460853 2.56 -0.82153 0.203218 0.532721 255 0 0 255
0.041884 -0.464451 2.58 -0.892021 0.318055 0.321153 255 0 0 255
-0.227254 -0.421099 2.306 -0.914191 -0.275945 0.296832 255 0 0 255
-0.222973 -0.42495 2.327 -0.577794 -0.155344 0.801263 255 0 0 255
-0.217274 -0.426244 2.334 -0.581245 -0.0154051 0.813582 255 0 0 255
-0.211265 -0.426991 2.338 -0.704089 -0.00215934 0.710108 255 0 0 255
-0.205408 -0.428102 2.344 -0.553207 0.219926 0.803489 255 0 0 255
-0.199264 -0.428665 2.347 -0.496227 0.177911 0.849769 255 0 0 255
-0.192938 -0.428862 2.348 -0.401444 0.23448 0.88536 255 0 0 255
-0.186924 -0.429789 2.353 -0.285859 0.352765 0.890978 255 0 0 255
-0.180575 -0.429986 2.354 -0.152243 0.500244 0.852396 255 0 0 255
-0.174146 -0.429999 2.354 -0.127512 0.504539 0.853921 255 0 0 255
-0.16793 -0.43056 2.357 -0.409054 0.642548 0.647925 255 0 0 255
-0.162108 -0.432216 2.366 -0.616656 0.561198 0.55208 255 0 0 255
-0.156237 -0.433873 2.375 -0.60954 0.28057 0.741446 255 0 0 255
-0.150063 -0.434798 2.38 -0.564186 0.131831 0.815055 255 0 0 255
-0.143681 -0.435174 2.382 -0.612201 -0.0263633 0.790263 255 0 0 255
-0.138209 -0.438473 2.4 -0.949649 -0.0609345 0.307335 255 0 0 255
-0.132693 -0.441955 2.419 -0.931408 -0.084697 0.353986 255 0 0 255
-0.127333 -0.44635 2.443 -0.971914 0.0135666 0.234944 255 0 0 255
-0.078266 -0.472725 2.587 -0.474783 0.0755133 0.876858 255 0 0 255
-0.071248 -0.473096 2.589 -0.34767 -0.0181602 0.937441 255 0 0 255
-0.064243 -0.47365 2.592 0.104603 0.104722 0.988985 255 0 0 255
-0.057178 -0.473837 2.593 0.394181 0.0359997 0.918327 255 0 0 255
-0.049953 -0.472562 2.586 0.725825 0.168068 0.667032 255 0 0 255
-0.042699 -0.470556 2.575 0.523104 0.214149 0.824926 255 0 0 255
-0.035616 -0.470011 2.572 0.235741 0.220851 0.946388 255 0 0 255
-0.028539 -0.469282 2.568 0.371793 0.483778 0.792293 255 0 0 255
-0.021474 -0.46837 2.563 0.31532 0.591926 0.741753 255 0 0 255
-0.014471 -0.468555 2.564 0.152875 0.688933 0.70852 255 0 0 255
-0.007451 -0.468007 2.561 0.198915 0.682109 0.703676 255 0 0 255
-0.000447 -0.467642 2.559 0.283497 0.708621 0.646131 255 0 0 255
0.006523 -0.465632 2.548 0.178996 0.594977 0.783558 255 0 0 255
0.013517 -0.466545 2.553 -0.0278166 0.689414 0.723833 255 0 0 255
0.020474 -0.465995 2.55 -0.221831 0.495265 0.839943 255 0 0 255
0.02748 -0.466541 2.553 -0.375773 0.521745 0.765883 255 0 0 255
0.034501 -0.467087 2.556 -0.587436 0.413673 0.695552 255 0 0 255
-0.222478 -0.430351 2.322 -0.924105 -0.101906 0.368301 255 0 0 255
-0.216699 -0.431479 2.328 -0.744053 -0.0298703 0.667452 255 0 0 255
-0.211159 -0.433163 2.337 -0.731555 0.0563254 0.679452 255 0 0 255
-0.205393 -0.434476 2.344 -0.672287 -0.057951 0.738019 255 0 0 255
-0.199419 -0.435418 2.349 -0.508047 0.0950353 0.856071 255 0 0 255
-0.19317 -0.435803 2.351 -0.557817 0.228682 0.797838 255 0 0 255
-0.186989 -0.436374 2.354 -0.444892 0.376792 0.812465 255 0 0 255
-0.181021 -0.4375 2.36 -0.340358 0.616818 0.709713 255 0 0 255
-0.17465 -0.437698 2.361 -0.361374 0.690714 0.626358 255 0 0 255
-0.168772 -0.439195 2.369 -0.445192 0.705192 0.551823 255 0 0 255
-0.162712 -0.44032 2.375 -0.407824 0.610231 0.679189 255 0 0 255
-0.156554 -0.441259 2.38 -0.401269 0.390824 0.828396 255 0 0 255
-0.150178 -0.441641 2.382 -0.309828 0.376352 0.873136 255 0 0 255
-0.14367 -0.441653 2.382 -0.359575 0.245528 0.900234 255 0 0 255
-0.138199 -0.445001 2.4 -0.849706 0.13981 0.508382 255 0 0 255
-0.132738 -0.44872 2.42 -0.945679 -0.108947 0.306302 255 0 0 255
-0.127584 -0.453921 2.448 -0.97857 0.111183 0.173321 255 0 0 255
-0.085134 -0.478643 2.581 -0.58026 0.0721462 0.811229 255 0 0 255
-0.07835 -0.480318 2.59 -0.434379 0.129809 0.891327 255 0 0 255
-0.071325 -0.480695 2.592 -0.213148 0.0758443 0.974072 255 0 0 255
-0.064238 -0.4807 2.592 0.0787776 -0.0274976 0.996513 255 0 0 255
-0.057107 -0.480334 2.59 0.595757 -0.0541048 0.80134 255 0 0 255
-0.049852 -0.478669 2.581 0.750287 -0.0511809 0.659128 255 0 0 255
-0.042663 -0.477189 2.573 0.184592 0.334021 0.924314 255 0 0 255
-0.035655 -0.477563 2.575 0.137414 0.397755 0.907143 255 0 0 255
-0.028614 -0.477566 2.575 0.104743 0.445819 0.888974 255 0 0 255
-0.021548 -0.477011 2.572 0.0803117 0.562415 0.822945 255 0 0 255
-0.014521 -0.477198 2.573 0.143007 0.401937 0.904431 255 0 0 255
-0.007479 -0.476828 2.571 0.17021 0.591805 0.787906 255 0 0 255
-0.000449 -0.476457 2.569 0.266492 0.629987 0.729451 255 0 0 255
0.006555 -0.474973 2.561 0.243386 0.733515 0.634601 255 0 0 255
0.013558 -0.474973 2.561 0.103791 0.76914 0.630596 255 0 0 255
0.020545 -0.4746 2.559 -0.106461 0.779447 0.617356 255 0 0 255
0.027585 -0.47534 2.563 -0.319639 0.731324 0.602492 255 0 0 255
0.034661 -0.476265 2.568 -0.573953 0.683687 0.450721 255 0 0 255
-0.223132 -0.43798 2.329 -0.523464 0.462018 0.715908 255 0 0 255
-0.217335 -0.439124 2.335 -0.484392 0.347941 0.802684 255 0 0 255
-0.211053 -0.439329 2.336 -0.649387 0.171426 0.740884 255 0 0 255
-0.205378 -0.440849 2.344 -0.673027 -0.0417276 0.73844 255 0 0 255
-0.199149 -0.44124 2.346 -0.582141 0.0808215 0.809061 255 0 0 255
-0.193402 -0.44276 2.354 -0.655117 0.360546 0.663949 255 0 0 255
-0.187452 -0.443902 2.36 -0.452334 0.556949 0.696564 255 0 0 255
-0.181621 -0.445421 2.368 -0.4432 0.599366 0.666584 255 0 0 255
-0.175451 -0.446187 2.372 -0.449192 0.595325 0.666194 255 0 0 255
-0.1694 -0.447329 2.378 -0.492937 0.409598 0.767621 255 0 0 255
-0.163111 -0.447906 2.381 -0.421733 0.279784 0.862474 255 0 0 255
-0.156805 -0.448483 2.384 -0.407357 0.340126 0.84757 255 0 0 255
-0.150608 -0.449435 2.389 -0.341206 0.414813 0.84351 255 0 0 255
-0.144021 -0.449258 2.388 -0.579165 0.496338 0.646696 255 0 0 255
-0.13813 -0.451339 2.399 -0.702724 0.02477 0.711031 255 0 0 255
-0.132563 -0.454736 2.417 -0.948068 -0.0720991 0.309788 255 0 0 255
-0.127157 -0.459073 2.44 -0.986513 -0.0562664 0.15371 255 0 0 255
-0.085787 -0.489425 2.601 0.206087 0.451357 0.86822 255 0 0 255
-0.078344 -0.487361 2.59 0.0496053 0.620216 0.782861 255 0 0 255
-0.071347 -0.487932 2.593 0.0972556 0.497976 0.86172 255 0 0 255
-0.064233 -0.487749 2.592 0.36108 0.236199 0.902126 255 0 0 255
-0.057059 -0.487001 2.588 0.527646 -0.070571 0.846528 255 0 0 255
-0.049848 -0.485688 2.581 0.577524 0.09122 0.811261 255 0 0 255
-0.042725 -0.484939 2.577 0.157946 0.44915 0.879385 255 0 0 255
-0.035721 -0.485507 2.58 0.0735701 0.453491 0.888219 255 0 0 255
-0.028623 -0.484757 2.576 0.163136 0.268245 0.949437 255 0 0 255
-0.021563 -0.484382 2.574 0.145219 0.209211 0.967028 255 0 0 255
-0.014531 -0.484572 2.575 -0.0244204 0.297243 0.954489 255 0 0 255
-0.007485 -0.484196 2.573 -0.0363124 0.480044 0.876493 255 0 0 255
-0.00045 -0.484385 2.574 -0.00319553 0.599045 0.800709 255 0 0 255
0.006578 -0.483632 2.57 0.0725919 0.749121 0.658444 255 0 0 255
0.013642 -0.484948 2.577 -0.164061 0.56206 0.810662 255 0 0 255
0.020672 -0.484571 2.575 -0.123958 0.768664 0.627527 255 0 0 255
0.027744 -0.485133 2.578 0.106974 0.630258 0.768981 255 0 0 255
0.035036 -0.488518 2.596 -0.700835 0.239539 0.671901 255 0 0 255
0.042296 -0.490397 2.606 -0.767799 0.112555 0.630727 255 0 0 255
-0.224265 -0.4466 2.341 -0.181032 0.623248 0.760782 255 0 0 255
-0.217691 -0.446235 2.339 -0.214684 0.676066 0.704873 255 0 0 255
-0.211308 -0.446251 2.339 -0.3592 0.386582 0.849429 255 0 0 255
-0.205187 -0.446839 2.342 -0.487584 0.350292 0.799723 255 0 0 255
-0.199304 -0.447999 2.348 -0.588838 0.317799 0.743151 255 0 0 255
-0.193962 -0.450494 2.361 -0.706553 0.471768 0.527464 255 0 0 255
-0.188073 -0.451844 2.368 -0.507381 0.45151 0.733964 255 0 0 255
-0.181914 -0.452622 2.372 -0.40482 0.298135 0.864429 255 0 0 255
-0.175585 -0.453017 2.374 -0.505796 0.21418 0.835642 255 0 0 255
-0.16953 -0.454175 2.38 -0.473133 0.219376 0.853241 255 0 0 255
-0.163167 -0.45457 2.382 -0.421805 0.13936 0.895913 255 0 0 255
-0.156924 -0.455345 2.386 -0.542505 0.140298 0.828254 255 0 0 255
-0.150722 -0.456312 2.391 -0.420055 0.225854 0.878945 255 0 0 255
-0.144251 -0.456514 2.392 -0.598151 0.151046 0.78702 255 0 0 255
-0.138235 -0.458243 2.401 -0.832876 0.00947563 0.553378 255 0 0 255
-0.132278 -0.460353 2.412 -0.913754 -0.159048 0.373843 255 0 0 255
-0.127252 -0.466089 2.442 -0.997696 -0.0528185 0.0425747 255 0 0 255
-0.085813 -0.496688 2.602 0.185063 0.503427 0.843986 255 0 0 255
-0.07861 -0.496121 2.599 0.148 0.527736 0.836415 255 0 0 255
-0.071534 -0.496318 2.6 0.0320253 0.607701 0.79352 255 0 0 255
-0.064377 -0.495942 2.598 0.276694 0.552467 0.78627 255 0 0 255
-0.05712 -0.494611 2.591 0.61469 0.28443 0.735701 255 0 0 255
-0.049902 -0.493279 2.584 0.382487 0.385216 0.839829 255 0 0 255
-0.042772 -0.492519 2.58 0.0930685 0.509307 0.855538 255 0 0 255
-0.035788 -0.493476 2.585 0.134183 0.480524 0.866655 255 0 0 255
-0.028654 -0.492333 2.579 0.303615 0.247048 0.92021 255 0 0 255
-0.02157 -0.491572 2.575 0.0641114 0.23591 0.969658 255 0 0 255
-0.01453 -0.491573 2.575 -0.142282 0.155766 0.977493 255 0 0 255
-0.007502 -0.492338 2.579 -0.272314 0.21748 0.937309 255 0 0 255
-0.000451 -0.492911 2.582 -0.329333 0.191917 0.924504 255 0 0 255
0.006605 -0.49272 2.581 -0.143713 0.273788 0.950993 255 0 0 255
0.013683 -0.493482 2.585 -0.181666 0.127707 0.975033 255 0 0 255
0.020734 -0.493099 2.583 -0.0291851 0.470434 0.881952 255 0 0 255
0.027839 -0.493861 2.587 -0.677706 0.319807 0.662146 255 0 0 255
-0.227888 -0.460314 2.379 0.76375 0.460626 0.452228 255 0 0 255
-0.218698 -0.45472 2.35 -0.00284301 0.631095 0.7757 255 0 0 255
-0.212015 -0.454156 2.347 -0.164551 0.653118 0.739162 255 0 0 255
-0.205785 -0.454558 2.349 -0.238612 0.635087 0.734662 255 0 0 255
-0.199798 -0.455541 2.354 -0.625092 0.488869 0.608496 255 0 0 255
-0.19444 -0.458072 2.367 -0.752968 0.275744 0.597499 255 0 0 255
-0.188455 -0.459248 2.373 -0.454435 0.184874 0.871384 255 0 0 255
-0.182207 -0.459843 2.376 -0.392275 0.165723 0.904796 255 0 0 255
-0.175794 -0.46005 2.377 -0.417248 0.167772 0.893172 255 0 0 255
-0.169517 -0.460644 2.38 -0.422095 0.188196 0.886802 255 0 0 255
-0.163086 -0.460851 2.381 -0.408495 0.176322 0.895568 255 0 0 255
-0.156912 -0.461831 2.386 -0.574398 0.188175 0.796654 255 0 0 255
-0.150837 -0.463198 2.393 -0.451979 0.175972 0.874499 255 0 0 255
