ply
format ascii 1.0
comment VCGLIB generated
element vertex 727
property float x
property float y
property float z
property float nx
property float ny
property float nz
property uchar red
property uchar green
property uchar blue
property uchar alpha
element face 0
property list uchar int vertex_indices
end_header
-0.013175 -0.484031 2.336 0.302534 -0.0321519 0.952596 255 0 0 255
-0.006791 -0.484032 2.336 0.144945 -0.0921831 0.985136 255 0 0 255
-0.000407 -0.48341 2.333 0.327157 -0.0858361 0.941063 255 0 0 255
0.005963 -0.482996 2.331 0.352153 -0.216807 0.910485 255 0 0 255
0.012317 -0.482373 2.328 0.0631829 -0.420365 0.905153 255 0 0 255
0.018678 -0.482372 2.328 -0.0602527 -0.398946 0.914993 255 0 0 255
-0.230246 -0.534991 2.55 0.82232 0.501374 0.269097 255 0 0 255
-0.220576 -0.528505 2.519 0.778787 0.416859 0.468742 255 0 0 255
-0.212176 -0.524746 2.501 0.843865 0.20401 0.496258 255 0 0 255
-0.2033 -0.519516 2.476 0.738063 0.501291 0.451631 255 0 0 255
-0.195353 -0.516385 2.461 0.25019 0.74376 0.61986 255 0 0 255
-0.188253 -0.515351 2.456 -0.0314739 0.744524 0.666853 255 0 0 255
-0.181846 -0.516205 2.46 -0.131803 0.586931 0.798837 255 0 0 255
-0.175274 -0.516639 2.462 -0.203323 0.464626 0.861848 255 0 0 255
-0.168349 -0.516023 2.459 -0.290385 0.143515 0.946087 255 0 0 255
-0.161965 -0.517086 2.464 -0.609899 0.380113 0.695369 255 0 0 255
-0.156624 -0.521715 2.486 -0.868 0.18145 0.462225 255 0 0 255
-0.150861 -0.525295 2.503 -0.851705 -0.0436765 0.522198 255 0 0 255
-0.144545 -0.527196 2.512 -0.70347 0.095384 0.704295 255 0 0 255
-0.13796 -0.528257 2.517 -0.582452 -0.0519668 0.811202 255 0 0 255
-0.131295 -0.529107 2.521 0.0276897 0.105159 0.99407 255 0 0 255
-0.124114 -0.527858 2.515 0.0925161 -0.0817633 0.992348 255 0 0 255
-0.115194 -0.518633 2.471 -0.232797 -0.694463 0.680828 255 0 0 255
-0.105944 -0.506679 2.414 0.954336 -0.143276 0.262137 255 0 0 255
-0.098404 -0.501859 2.391 0.720983 -0.0347425 0.692081 255 0 0 255
-0.091681 -0.500818 2.386 0.620106 0.0265066 0.78407 255 0 0 255
-0.084949 -0.499566 2.38 0.69574 0.0244375 0.717878 255 0 0 255
-0.078217 -0.498103 2.373 0.700462 -0.00428832 0.713677 255 0 0 255
-0.071492 -0.49643 2.365 0.745329 -0.137877 0.652284 255 0 0 255
-0.064839 -0.494966 2.358 0.521992 -0.221411 0.823712 255 0 0 255
-0.058372 -0.494761 2.357 0.00501582 -0.122777 0.992422 255 0 0 255
-0.051976 -0.495186 2.359 0.0303374 0.323437 0.945763 255 0 0 255
-0.045512 -0.49498 2.358 0.30974 0.419926 0.853067 255 0 0 255
-0.038953 -0.493514 2.351 0.623455 0.249772 0.74089 255 0 0 255
-0.032474 -0.492677 2.347 0.469718 0.207504 0.858083 255 0 0 255
-0.026017 -0.49184 2.343 0.375193 0.0608345 0.924949 255 0 0 255
-0.019598 -0.491422 2.341 0.455389 -0.0823288 0.886478 255 0 0 255
-0.013162 -0.489954 2.334 0.468764 -0.101025 0.877527 255 0 0 255
-0.006794 -0.490584 2.337 0.0861903 -0.189904 0.978012 255 0 0 255
-0.000408 -0.489955 2.334 0.240386 -0.122399 0.962929 255 0 0 255
0.00596 -0.489115 2.33 0.371354 -0.0194995 0.928287 255 0 0 255
0.012305 -0.488275 2.326 0.158828 0.0585966 0.985566 255 0 0 255
0.018709 -0.489533 2.332 -0.103614 -0.0185036 0.994445 255 0 0 255
-0.22012 -0.53428 2.514 0.797304 0.404893 0.447624 255 0 0 255
-0.21199 -0.531109 2.499 0.768677 0.304633 0.562436 255 0 0 255
-0.20394 -0.527937 2.484 0.746925 0.46932 0.471001 255 0 0 255
-0.196051 -0.524978 2.47 0.368663 0.731791 0.57321 255 0 0 255
-0.188852 -0.523718 2.464 -0.13934 0.715127 0.684965 255 0 0 255
-0.182571 -0.525008 2.47 -0.115409 0.73504 0.66813 255 0 0 255
-0.176186 -0.526085 2.475 -0.216489 0.782571 0.583708 255 0 0 255
-0.169362 -0.525886 2.474 -0.116745 0.780644 0.613975 255 0 0 255
-0.162872 -0.52675 2.478 -0.550565 0.588926 0.591646 255 0 0 255
-0.156737 -0.528889 2.488 -0.756825 0.43251 0.490051 255 0 0 255
-0.150849 -0.53209 2.503 -0.786849 0.0588043 0.614338 255 0 0 255
-0.144361 -0.533377 2.509 -0.743948 -0.0242625 0.667797 255 0 0 255
-0.138003 -0.535302 2.518 -0.556264 -0.0805423 0.827093 255 0 0 255
-0.131128 -0.535313 2.518 0.332891 -0.0434573 0.941963 255 0 0 255
-0.123907 -0.533835 2.511 0.41296 -0.11546 0.903401 255 0 0 255
-0.114765 -0.523428 2.462 0.529492 -0.685817 0.499293 255 0 0 255
-0.105716 -0.512169 2.409 0.952304 -0.131789 0.275225 255 0 0 255
-0.098272 -0.507712 2.388 0.51357 -0.331051 0.791613 255 0 0 255
-0.091635 -0.507082 2.385 0.552024 -0.119751 0.825184 255 0 0 255
-0.084906 -0.505814 2.379 0.661277 -0.287587 0.692825 255 0 0 255
-0.078177 -0.504332 2.372 0.75402 -0.0409162 0.655576 255 0 0 255
-0.071365 -0.502 2.361 0.760795 -0.0245003 0.648529 255 0 0 255
-0.064751 -0.50073 2.355 0.527111 -0.0861248 0.845421 255 0 0 255
-0.058317 -0.500735 2.355 -0.207794 0.0321711 0.977643 255 0 0 255
-0.051994 -0.501802 2.36 -0.356366 0.129327 0.925353 255 0 0 255
-0.045547 -0.501806 2.36 0.0855341 0.255826 0.962932 255 0 0 255
-0.038983 -0.500321 2.353 0.655908 0.252919 0.711208 255 0 0 255
-0.032458 -0.498836 2.346 0.465642 0.287212 0.83707 255 0 0 255
-0.026015 -0.498201 2.343 0.428233 0.239802 0.87127 255 0 0 255
-0.01958 -0.497352 2.339 0.58789 0.169127 0.791064 255 0 0 255
-0.013156 -0.496077 2.333 0.364547 0.191017 0.911383 255 0 0 255
-0.006776 -0.495653 2.331 0.139483 0.13918 0.980394 255 0 0 255
-0.000407 -0.496079 2.333 0.17471 0.330434 0.927518 255 0 0 255
0.005962 -0.495653 2.331 0.0207655 0.447499 0.894044 255 0 0 255
0.012346 -0.49629 2.334 -0.175522 0.683126 0.708894 255 0 0 255
0.018827 -0.499053 2.347 -0.453524 0.629799 0.63061 255 0 0 255
-0.219578 -0.539811 2.508 0.797305 0.404893 0.447624 255 0 0 255
-0.212397 -0.538967 2.504 0.750734 0.304274 0.586357 255 0 0 255
-0.204745 -0.536831 2.494 0.604157 0.556844 0.570017 255 0 0 255
-0.196671 -0.533403 2.478 0.36796 0.734387 0.570334 255 0 0 255
-0.189756 -0.532988 2.476 0.17122 0.852505 0.493881 255 0 0 255
-0.183295 -0.533864 2.48 -0.126416 0.80054 0.585794 255 0 0 255
-0.177168 -0.535816 2.489 -0.0552158 0.837228 0.544059 255 0 0 255
-0.170101 -0.534969 2.485 -0.210291 0.73165 0.648433 255 0 0 255
-0.163319 -0.534982 2.485 -0.347906 0.630034 0.694276 255 0 0 255
-0.15704 -0.536717 2.493 -0.728676 0.267615 0.630408 255 0 0 255
-0.150837 -0.538883 2.503 -0.794764 0.0989925 0.598791 255 0 0 255
-0.144521 -0.540833 2.512 -0.711403 0.00736973 0.702745 255 0 0 255
-0.137882 -0.541705 2.516 -0.523182 0.0303862 0.851679 255 0 0 255
-0.131169 -0.542362 2.519 0.333245 -0.0779289 0.939614 255 0 0 255
-0.123995 -0.541081 2.513 0.174403 0.126773 0.976479 255 0 0 255
-0.114989 -0.531186 2.467 0.529492 -0.685817 0.499293 255 0 0 255
-0.105575 -0.518061 2.406 0.951247 -0.125057 0.281941 255 0 0 255
-0.098099 -0.513332 2.384 0.561343 -0.482376 0.672464 255 0 0 255
-0.091435 -0.512479 2.38 0.497269 -0.552269 0.669121 255 0 0 255
-0.084828 -0.51184 2.377 0.495445 -0.446743 0.744953 255 0 0 255
-0.078204 -0.510985 2.373 0.711101 -0.0617154 0.700376 255 0 0 255
-0.07139 -0.508623 2.362 0.728961 0.110775 0.675533 255 0 0 255
-0.064883 -0.508198 2.36 0.303184 0.344707 0.888401 255 0 0 255
-0.058288 -0.506911 2.354 -0.150751 0.217741 0.964294 255 0 0 255
-0.052012 -0.508423 2.361 -0.44528 0.0606529 0.893335 255 0 0 255
-0.045581 -0.508643 2.362 0.319455 0.114025 0.940716 255 0 0 255
-0.039096 -0.508215 2.36 0.533486 0.137381 0.834578 255 0 0 255
-0.032524 -0.50628 2.351 0.568816 0.298009 0.766576 255 0 0 255
-0.026057 -0.505421 2.347 0.237027 0.46476 0.853122 255 0 0 255
-0.019629 -0.504992 2.345 0.335037 0.489576 0.805025 255 0 0 255
-0.013188 -0.503702 2.339 0.390841 0.559128 0.731177 255 0 0 255
-0.006798 -0.503703 2.339 -0.00186465 0.546981 0.837143 255 0 0 255
-0.000408 -0.503272 2.337 0.000231986 0.655336 0.755337 255 0 0 255
0.005984 -0.503918 2.34 -0.0631041 0.647205 0.7597 255 0 0 255
0.012377 -0.503917 2.34 -0.430674 0.639957 0.636377 255 0 0 255
0.018874 -0.506715 2.353 -0.437108 0.480045 0.760587 255 0 0 255
-0.215603 -0.554043 2.542 0.867637 0.244505 0.432925 255 0 0 255
-0.205468 -0.54556 2.503 0.409332 0.710607 0.572263 255 0 0 255
-0.198084 -0.54405 2.496 0.323327 0.737142 0.593365 255 0 0 255
-0.191197 -0.543848 2.495 0.00468816 0.882242 0.470773 255 0 0 255
-0.18498 -0.545607 2.503 -0.0644306 0.832253 0.55064 255 0 0 255
-0.178364 -0.546275 2.506 0.0680222 0.848861 0.524221 255 0 0 255
-0.171183 -0.545199 2.501 0.0782613 0.77081 0.63224 255 0 0 255
-0.163963 -0.543905 2.495 -0.219897 0.72885 0.6484 255 0 0 255
-0.157405 -0.54479 2.499 -0.488347 0.63331 0.600363 255 0 0 255
-0.150945 -0.546111 2.505 -0.580418 0.45121 0.677882 255 0 0 255
-0.144625 -0.548085 2.514 -0.483428 0.31676 0.816064 255 0 0 255
-0.137762 -0.548097 2.514 -0.104783 0.187972 0.976569 255 0 0 255
-0.131263 -0.549634 2.521 0.147888 0.2948 0.944045 255 0 0 255
-0.124034 -0.548118 2.514 0.354301 0.0260611 0.934768 255 0 0 255
-0.114933 -0.537663 2.466 -0.928287 0.370186 0.0352898 255 0 0 255
-0.105479 -0.524154 2.404 0.942336 -0.087093 0.323138 255 0 0 255
-0.097762 -0.518057 2.376 0.614855 -0.177161 0.768484 255 0 0 255
-0.091082 -0.516975 2.371 0.387126 -0.315116 0.866508 255 0 0 255
-0.084571 -0.516764 2.37 0.416385 -0.251123 0.873819 255 0 0 255
-0.078164 -0.517207 2.372 0.35134 -0.162382 0.922059 255 0 0 255
-0.071474 -0.515687 2.365 0.647714 0.0862875 0.756981 255 0 0 255
-0.064932 -0.515038 2.362 0.349255 0.122354 0.929005 255 0 0 255
-0.058308 -0.513517 2.355 0.0988161 0.274036 0.956629 255 0 0 255
-0.052007 -0.51483 2.361 -0.170416 0.0974693 0.98054 255 0 0 255
-0.045539 -0.514616 2.36 0.186138 -0.0813 0.979154 255 0 0 255
-0.039043 -0.513965 2.357 0.564515 -0.0309162 0.824844 255 0 0 255
-0.032521 -0.51266 2.351 0.572344 0.0739511 0.816672 255 0 0 255
-0.026099 -0.512662 2.351 0.128651 0.35456 0.92614 255 0 0 255
-0.019694 -0.513101 2.353 0.147067 0.428314 0.891582 255 0 0 255
-0.013238 -0.512012 2.348 0.198748 0.618286 0.760409 255 0 0 255
-0.006815 -0.511358 2.345 0.0360576 0.656883 0.75313 255 0 0 255
-0.000409 -0.511359 2.345 0.00736429 0.670393 0.741969 255 0 0 255
0.005997 -0.511358 2.345 -0.0861279 0.686312 0.722189 255 0 0 255
0.012413 -0.511794 2.347 -0.437108 0.480045 0.760587 255 0 0 255
0.019089 -0.518988 2.38 -0.775658 0.53358 0.337116 255 0 0 255
-0.216434 -0.563146 2.552 0.852317 0.166181 0.495923 255 0 0 255
-0.206847 -0.556102 2.52 0.0584625 0.574759 0.816231 255 0 0 255
-0.199417 -0.554573 2.513 -0.112449 0.567368 0.81575 255 0 0 255
-0.192561 -0.554589 2.513 0.0836317 0.696708 0.712463 255 0 0 255
-0.186148 -0.555928 2.519 0.0347402 0.234567 0.971479 255 0 0 255
-0.179132 -0.555502 2.517 0.285847 0.438845 0.851884 255 0 0 255
-0.171853 -0.554192 2.511 0.117367 0.519829 0.846169 255 0 0 255
-0.164606 -0.552881 2.505 -0.0259041 0.728514 0.684541 255 0 0 255
-0.158211 -0.554439 2.512 -0.306221 0.612701 0.728579 255 0 0 255
-0.151475 -0.554893 2.514 -0.354068 0.573232 0.738946 255 0 0 255
-0.144958 -0.55623 2.52 -0.309674 0.435502 0.845245 255 0 0 255
-0.138024 -0.556021 2.519 -0.377147 0.243598 0.893544 255 0 0 255
-0.131512 -0.557577 2.526 0.0532273 -0.143718 0.988186 255 0 0 255
-0.124221 -0.555822 2.518 0.639783 -0.0982577 0.762249 255 0 0 255
-0.114737 -0.54347 2.462 0.88155 -0.133794 0.452735 255 0 0 255
-0.10547 -0.530676 2.404 0.81643 -0.191772 0.544671 255 0 0 255
-0.097877 -0.525166 2.379 0.523136 -0.00261949 0.852245 255 0 0 255
-0.091228 -0.52429 2.375 0.439501 0.120868 0.890073 255 0 0 255
-0.084635 -0.523636 2.372 0.154674 0.13292 0.978983 255 0 0 255
-0.078191 -0.523863 2.373 0.411979 0.0356819 0.910495 255 0 0 255
-0.071499 -0.522324 2.366 0.632384 0.0201822 0.774392 255 0 0 255
-0.064954 -0.521667 2.363 0.543398 0.0420802 0.83842 255 0 0 255
-0.058377 -0.520569 2.358 0.0440457 0.19541 0.979732 255 0 0 255
-0.051981 -0.521015 2.36 -0.242423 0.0891782 0.966063 255 0 0 255
-0.045535 -0.521019 2.36 0.362654 -0.0481829 0.930677 255 0 0 255
-0.039056 -0.520581 2.358 0.54721 -0.0942503 0.831672 255 0 0 255
-0.032588 -0.520142 2.356 0.211559 0.0190125 0.97718 255 0 0 255
-0.026119 -0.519483 2.353 -0.138534 0.0649927 0.988223 255 0 0 255
-0.019709 -0.519926 2.355 0.184466 0.232683 0.954898 255 0 0 255
-0.013248 -0.518824 2.35 0.111919 0.466045 0.877654 255 0 0 255
-0.006838 -0.519487 2.353 0.0187427 0.601317 0.798791 255 0 0 255
-0.000411 -0.519266 2.352 -0.0975084 0.663977 0.741368 255 0 0 255
0.006024 -0.520149 2.356 -0.0278866 0.684759 0.728236 255 0 0 255
0.012449 -0.519707 2.354 -0.266762 0.629571 0.729711 255 0 0 255
-0.206994 -0.563383 2.522 0.178408 0.26124 0.948643 255 0 0 255
-0.200115 -0.5634 2.522 -0.0966971 0.130541 0.986716 255 0 0 255
-0.193005 -0.562745 2.519 -0.0310045 0.227866 0.973199 255 0 0 255
-0.186354 -0.563431 2.522 0.241168 0.120181 0.963013 255 0 0 255
-0.179046 -0.562105 2.516 0.455311 -0.191386 0.869519 255 0 0 255
-0.172181 -0.56212 2.516 -0.00852542 0.157852 0.987426 255 0 0 255
-0.164921 -0.560793 2.51 -0.102495 0.549193 0.829387 255 0 0 255
-0.158576 -0.562593 2.518 -0.233132 0.57041 0.78758 255 0 0 255
-0.151764 -0.56283 2.519 -0.264819 0.366957 0.891748 255 0 0 255
-0.145061 -0.563512 2.522 -0.0136995 0.189078 0.981866 255 0 0 255
-0.138013 -0.562854 2.519 0.0249064 -0.308808 0.950798 255 0 0 255
-0.131397 -0.563982 2.524 0.145308 -0.194753 0.970029 255 0 0 255
-0.123816 -0.560864 2.51 0.805901 -0.330214 0.491409 255 0 0 255
-0.114122 -0.547243 2.449 0.9562 -0.146207 0.253586 255 0 0 255
-0.105198 -0.535856 2.398 0.821334 -0.195778 0.5358 255 0 0 255
-0.097869 -0.531619 2.379 0.241273 0.358056 0.901989 255 0 0 255
-0.091297 -0.53118 2.377 0.286452 0.466787 0.836693 255 0 0 255
-0.084771 -0.530964 2.376 0.254904 0.429748 0.866222 255 0 0 255
-0.078184 -0.5303 2.373 0.572496 0.119093 0.811212 255 0 0 255
-0.071493 -0.528742 2.366 0.65183 0.0434742 0.757118 255 0 0 255
-0.064894 -0.52763 2.361 0.478314 0.043731 0.877099 255 0 0 255
-0.058397 -0.527189 2.359 -0.0403381 0.19282 0.980405 255 0 0 255
-0.052043 -0.528087 2.363 -0.0747316 0.262481 0.962039 255 0 0 255
-0.045551 -0.527644 2.361 0.328921 0.145565 0.933071 255 0 0 255
-0.039003 -0.526307 2.355 0.606967 -0.13412 0.783328 255 0 0 255
-0.032516 -0.525416 2.351 0.278547 -0.0910077 0.956101 255 0 0 255
-0.026106 -0.525642 2.352 -0.166283 -0.14943 0.97469 255 0 0 255
-0.019707 -0.526314 2.355 -0.0765528 0.145665 0.986368 255 0 0 255
-0.013264 -0.525869 2.353 -0.0822508 0.244025 0.966275 255 0 0 255
-0.006849 -0.526764 2.357 -0.208521 0.377236 0.902337 255 0 0 255
-0.000412 -0.527211 2.359 -0.358117 0.458861 0.813141 255 0 0 255
0.006047 -0.528552 2.365 -0.0924855 0.549231 0.830537 255 0 0 255
0.012443 -0.525869 2.353 0.515827 0.34622 0.783616 255 0 0 255
0.018741 -0.522292 2.337 0.95246 0.153696 0.263054 255 0 0 255
-0.206403 -0.56864 2.515 0.247847 0.0698681 0.966277 255 0 0 255
-0.200099 -0.570239 2.522 0.27138 0.0367515 0.96177 255 0 0 255
-0.193066 -0.569803 2.52 0.0773887 -0.432008 0.898543 255 0 0 255
-0.186044 -0.569366 2.518 0.431084 -0.363218 0.825978 255 0 0 255
-0.178818 -0.56825 2.513 0.110949 -0.478945 0.870806 255 0 0 255
-0.172236 -0.569169 2.517 -0.26465 0.141885 0.95385 255 0 0 255
-0.165368 -0.569183 2.517 -0.362101 0.398411 0.842705 255 0 0 255
-0.159003 -0.571005 2.525 -0.221601 0.332756 0.916606 255 0 0 255
-0.151992 -0.570566 2.523 0.171818 -0.0859564 0.981372 255 0 0 255
-0.145164 -0.570804 2.524 0.295827 -0.239297 0.924783 255 0 0 255
-0.138001 -0.569685 2.519 0.229326 -0.237394 0.943956 255 0 0 255
-0.13097 -0.569018 2.516 0.368493 -0.0868076 0.925569 255 0 0 255
-0.123165 -0.564731 2.497 0.913043 -0.3626 0.186745 255 0 0 255
-0.112994 -0.548457 2.425 0.964644 -0.228504 0.131334 255 0 0 255
-0.105145 -0.542133 2.397 0.849085 -0.222253 0.479227 255 0 0 255
-0.098108 -0.539428 2.385 0.606476 0.151387 0.780557 255 0 0 255
-0.091558 -0.53921 2.384 0.251212 0.265224 0.930886 255 0 0 255
-0.084942 -0.538538 2.381 0.464386 0.227921 0.855802 255 0 0 255
-0.078243 -0.537188 2.375 0.67308 0.0768012 0.735571 255 0 0 255
-0.071517 -0.535385 2.367 0.658962 0.10489 0.744827 255 0 0 255
-0.064889 -0.534034 2.361 0.363386 0.205403 0.908713 255 0 0 255
-0.058442 -0.534039 2.361 -0.112437 0.368883 0.92265 255 0 0 255
-0.052082 -0.534948 2.365 0.0029389 0.288221 0.957559 255 0 0 255
-0.045566 -0.534274 2.362 0.578037 0.143783 0.803243 255 0 0 255
-0.038983 -0.532468 2.354 0.518592 0.204132 0.830297 255 0 0 255
-0.032486 -0.53134 2.349 0.00111784 0.136467 0.990644 255 0 0 255
-0.026115 -0.532247 2.353 -0.116196 0.406682 0.90615 255 0 0 255
-0.019714 -0.532928 2.356 -0.0185343 0.573377 0.819082 255 0 0 255
-0.013263 -0.532251 2.353 -0.125472 0.341242 0.931563 255 0 0 255
-0.006848 -0.533156 2.357 -0.242906 0.447654 0.860583 255 0 0 255
-0.000412 -0.533835 2.36 -0.481368 0.319871 0.816068 255 0 0 255
0.006049 -0.535192 2.366 0.0823118 0.476653 0.875229 255 0 0 255
-0.207289 -0.577976 2.526 0.524702 0.187325 0.83042 255 0 0 255
-0.199845 -0.576391 2.519 0.609108 0.0329299 0.792404 255 0 0 255
-0.192744 -0.57572 2.516 0.509057 -0.308364 0.8036 255 0 0 255
-0.185585 -0.57482 2.512 0.380772 -0.406646 0.830453 255 0 0 255
-0.178448 -0.57392 2.508 -0.309226 -0.266429 0.912905 255 0 0 255
-0.172153 -0.575765 2.516 -0.629807 0.0232776 0.776403 255 0 0 255
-0.165486 -0.576465 2.519 -0.32184 0.265289 0.908868 255 0 0 255
-0.15899 -0.577852 2.525 0.116131 0.13244 0.984364 255 0 0 255
-0.151679 -0.576263 2.518 0.422117 -0.257287 0.869264 255 0 0 255
-0.144807 -0.576275 2.518 0.133361 -0.359384 0.923611 255 0 0 255
-0.137716 -0.575371 2.514 0.174093 -0.124741 0.976797 255 0 0 255
-0.131011 -0.576069 2.517 -0.147299 -0.152541 0.977258 255 0 0 255
-0.121971 -0.566009 2.473 0.990126 -0.135575 0.0356419 255 0 0 255
-0.112192 -0.551142 2.408 0.937219 -0.224705 0.266699 255 0 0 255
-0.104874 -0.54726 2.391 0.802316 -0.211991 0.557986 255 0 0 255
-0.098059 -0.545666 2.384 0.43877 -0.199723 0.876123 255 0 0 255
-0.091474 -0.545216 2.382 0.254074 -0.121848 0.959479 255 0 0 255
-0.084935 -0.544995 2.381 0.563521 -0.141679 0.813862 255 0 0 255
-0.078204 -0.543399 2.374 0.691975 -0.0258728 0.721457 255 0 0 255
-0.071541 -0.542032 2.368 0.461419 0.290549 0.838256 255 0 0 255
-0.064966 -0.541122 2.364 0.105511 0.473222 0.874602 255 0 0 255
-0.05856 -0.541586 2.366 0.0132638 0.406832 0.913407 255 0 0 255
-0.052144 -0.542048 2.368 0.262111 0.281867 0.922957 255 0 0 255
-0.045582 -0.540908 2.363 0.379028 0.0579638 0.923568 255 0 0 255
-0.039063 -0.539996 2.359 0.101705 0.240642 0.965271 255 0 0 255
-0.032607 -0.53977 2.358 -0.0717193 0.666941 0.741651 255 0 0 255
-0.026213 -0.540688 2.362 -0.139451 0.644655 0.751647 255 0 0 255
-0.019779 -0.541148 2.364 -0.103493 0.603064 0.790951 255 0 0 255
-0.013313 -0.540691 2.362 0.026351 0.615199 0.787932 255 0 0 255
-0.006868 -0.54115 2.364 -0.129684 0.503259 0.854349 255 0 0 255
-0.000412 -0.540921 2.363 -0.367262 0.374291 0.851484 255 0 0 255
0.006056 -0.542294 2.369 -0.560152 0.450429 0.695229 255 0 0 255
0.012435 -0.538402 2.352 0.651162 0.204279 0.730929 255 0 0 255
-0.216111 -0.590132 2.549 0.897477 -0.210737 0.387459 255 0 0 255
-0.207601 -0.58575 2.53 0.63138 -0.200114 0.749209 255 0 0 255
-0.199987 -0.583683 2.521 0.685156 -0.0531742 0.726453 255 0 0 255
-0.192269 -0.581152 2.51 0.496785 -0.141365 0.856283 255 0 0 255
-0.185423 -0.581167 2.51 0.271959 -0.052066 0.960899 255 0 0 255
-0.178505 -0.580951 2.509 -0.34374 0.0512696 0.937664 255 0 0 255
-0.172208 -0.582817 2.517 -0.66356 0.117937 0.738768 255 0 0 255
-0.165735 -0.58422 2.523 -0.47363 0.131493 0.870852 255 0 0 255
-0.15904 -0.584929 2.526 0.485202 -0.0353135 0.873689 255 0 0 255
-0.151545 -0.582626 2.516 0.595298 -0.14389 0.790516 255 0 0 255
-0.144565 -0.582175 2.514 0.464229 -0.306476 0.831001 255 0 0 255
-0.138033 -0.583576 2.52 0.00939706 -0.344768 0.938641 255 0 0 255
-0.131052 -0.583124 2.518 0.399602 -0.477981 0.78221 255 0 0 255
-0.12132 -0.569703 2.46 -0.958357 0.280435 0.0539297 255 0 0 255
-0.111857 -0.556049 2.401 0.893218 -0.172635 0.415161 255 0 0 255
-0.104733 -0.553047 2.388 0.733151 -0.170338 0.658388 255 0 0 255
-0.09805 -0.552129 2.384 0.492791 -0.158493 0.855592 255 0 0 255
-0.091466 -0.551674 2.382 0.312445 -0.252289 0.915821 255 0 0 255
-0.084928 -0.55145 2.381 0.562628 -0.225448 0.795376 255 0 0 255
-0.078197 -0.549835 2.374 0.579541 -0.0559241 0.813022 255 0 0 255
-0.071656 -0.549379 2.372 0.300025 0.254876 0.919251 255 0 0 255
-0.065097 -0.54869 2.369 0.171712 0.475276 0.862918 255 0 0 255
-0.05863 -0.548695 2.369 0.142799 0.455393 0.878764 255 0 0 255
-0.052074 -0.547773 2.365 0.418721 0.226218 0.879487 255 0 0 255
-0.045539 -0.546851 2.361 0.22779 0.327309 0.91705 255 0 0 255
-0.039093 -0.546854 2.361 0.0263215 0.517767 0.855117 255 0 0 255
-0.032688 -0.547552 2.364 -0.205606 0.550978 0.808795 255 0 0 255
-0.026277 -0.548481 2.368 -0.102284 0.428606 0.897683 255 0 0 255
-0.01982 -0.548715 2.369 0.0399832 0.540843 0.840173 255 0 0 255
-0.013328 -0.54779 2.365 0.0435622 0.525044 0.849959 255 0 0 255
-0.006873 -0.548022 2.366 -0.0281023 0.596483 0.802134 255 0 0 255
-0.000413 -0.548254 2.367 -0.254974 0.331544 0.908332 255 0 0 255
0.006083 -0.551265 2.38 -0.472131 0.337007 0.814567 255 0 0 255
-0.214398 -0.592356 2.529 0.625591 -0.274729 0.730178 255 0 0 255
-0.207338 -0.591905 2.527 0.576266 -0.306967 0.757423 255 0 0 255
-0.20005 -0.59075 2.522 0.614106 -0.224177 0.756716 255 0 0 255
-0.19256 -0.588892 2.514 0.638258 -0.0333695 0.769099 255 0 0 255
-0.185334 -0.587736 2.509 0.0757749 0.187541 0.97933 255 0 0 255
-0.178846 -0.588923 2.514 -0.393541 0.180715 0.90137 255 0 0 255
-0.172399 -0.590342 2.52 -0.516011 -0.246595 0.820319 255 0 0 255
-0.165853 -0.591528 2.525 -0.322107 -0.194005 0.926612 255 0 0 255
-0.158838 -0.591073 2.523 0.501566 -0.223139 0.835847 255 0 0 255
-0.151533 -0.589445 2.516 0.56473 -0.12408 0.815895 255 0 0 255
-0.144496 -0.588755 2.513 0.604171 -0.414074 0.680823 255 0 0 255
-0.137091 -0.586424 2.503 0.619696 -0.652853 0.435614 255 0 0 255
-0.130208 -0.586201 2.502 0.619696 -0.652853 0.435614 255 0 0 255
-0.122 -0.579651 2.474 0.887278 -0.453805 0.0824546 255 0 0 255
-0.111614 -0.561385 2.396 0.898394 -0.212592 0.38431 255 0 0 255
-0.104637 -0.559051 2.386 0.591508 -0.307295 0.745444 255 0 0 255
-0.097919 -0.557888 2.381 0.411689 -0.0324074 0.910748 255 0 0 255
-0.091381 -0.557662 2.38 0.546265 -0.165139 0.821172 255 0 0 255
-0.084707 -0.556498 2.375 0.624806 -0.214992 0.750597 255 0 0 255
-0.078092 -0.555567 2.371 0.334475 -0.241268 0.910997 255 0 0 255
-0.07168 -0.556042 2.373 -0.120856 0.104449 0.98716 255 0 0 255
-0.065257 -0.556517 2.375 -0.0586853 0.350824 0.934601 255 0 0 255
-0.058724 -0.556053 2.373 0.113264 0.514845 0.849768 255 0 0 255
-0.052179 -0.555355 2.37 0.23699 0.418298 0.876848 255 0 0 255
-0.045632 -0.554422 2.366 0.0814092 0.474619 0.876419 255 0 0 255
-0.039222 -0.555129 2.369 0.00360915 0.482707 0.875775 255 0 0 255
-0.032754 -0.555132 2.369 -0.185813 0.336984 0.922993 255 0 0 255
-0.026308 -0.555603 2.371 -0.260977 0.27771 0.924537 255 0 0 255
-0.019843 -0.555839 2.372 -0.137954 0.441134 0.886775 255 0 0 255
-0.013372 -0.556075 2.373 0.0759544 0.485897 0.87071 255 0 0 255
-0.006896 -0.55631 2.374 0.354072 0.0963511 0.930242 255 0 0 255
-0.000414 -0.556545 2.375 -0.56949 0.167982 0.804651 255 0 0 255
0.006088 -0.558185 2.382 -0.635825 0.248326 0.730794 255 0 0 255
-0.222763 -0.60322 2.546 0.784368 -0.540873 0.303683 255 0 0 255
-0.214126 -0.598499 2.526 0.739195 -0.1627 0.653544 255 0 0 255
-0.206665 -0.596858 2.519 0.543891 -0.462604 0.700129 255 0 0 255
-0.199637 -0.5964 2.517 0.511465 -0.387996 0.766722 255 0 0 255
-0.192697 -0.596179 2.516 0.362937 -0.40382 0.839766 255 0 0 255
-0.185245 -0.594299 2.508 0.305952 -0.184645 0.93397 255 0 0 255
-0.178902 -0.595973 2.515 -0.304288 -0.677462 0.669667 255 0 0 255
-0.172179 -0.596461 2.517 -0.596048 -0.404618 0.693549 255 0 0 255
-0.165642 -0.59766 2.522 -0.0990811 -0.647464 0.755628 255 0 0 255
-0.158447 -0.596488 2.517 0.271912 -0.686935 0.673932 255 0 0 255
-0.151581 -0.596501 2.517 0.491 -0.417368 0.764672 255 0 0 255
-0.144484 -0.595565 2.513 0.599174 -0.450402 0.661912 255 0 0 255
-0.13352 -0.577802 2.438 0.952762 -0.302709 0.0247154 255 0 0 255
-0.1277 -0.581605 2.454 -0.878025 0.477356 0.0346982 255 0 0 255
-0.120067 -0.577112 2.435 0.936708 -0.322066 0.137302 255 0 0 255
-0.111186 -0.565746 2.387 0.22737 -0.287276 0.930471 255 0 0 255
-0.104628 -0.565518 2.386 0.461814 0.028518 0.886518 255 0 0 255
-0.098075 -0.565289 2.385 0.40226 0.227222 0.886881 255 0 0 255
-0.091412 -0.564349 2.381 0.655937 0.102911 0.747767 255 0 0 255
-0.084593 -0.562223 2.372 0.515296 -0.118466 0.848785 255 0 0 255
-0.078019 -0.561519 2.369 0.0632344 0.0526268 0.99661 255 0 0 255
-0.071644 -0.562236 2.372 -0.377116 0.148067 0.914253 255 0 0 255
-0.065279 -0.56319 2.376 -0.143353 0.231605 0.96219 255 0 0 255
-0.058793 -0.563196 2.376 0.0282123 0.320015 0.946992 255 0 0 255
-0.052329 -0.563437 2.377 0.0960024 0.353403 0.930532 255 0 0 255
-0.045744 -0.562256 2.372 0.223617 0.534518 0.815038 255 0 0 255
-0.039218 -0.561549 2.369 0.106175 0.463917 0.879493 255 0 0 255
-0.03271 -0.560841 2.366 -0.19787 0.295076 0.934761 255 0 0 255
-0.026295 -0.561792 2.37 -0.3 0.278182 0.912477 255 0 0 255
-0.019866 -0.562979 2.375 -0.2604 0.150872 0.95364 255 0 0 255
-0.013388 -0.563217 2.376 0.319432 0.0795234 0.944267 255 0 0 255
-0.006884 -0.561796 2.37 0.669747 -0.276883 0.68904 255 0 0 255
-0.000412 -0.560374 2.364 -0.866901 -0.18201 0.464064 255 0 0 255
0.006067 -0.562744 2.374 -0.565321 -0.53177 0.630581 255 0 0 255
0.012585 -0.564403 2.381 -0.51376 -0.423822 0.745939 255 0 0 255
-0.230948 -0.613456 2.56 0.686873 -0.550672 0.474306 255 0 0 255
-0.222832 -0.610359 2.547 0.686873 -0.550672 0.474306 255 0 0 255
-0.214194 -0.605583 2.527 0.584012 0.0104914 0.811678 255 0 0 255
-0.206566 -0.603443 2.518 0.745797 -0.221447 0.62829 255 0 0 255
-0.199066 -0.601543 2.51 0.412926 -0.575444 0.705944 255 0 0 255
-0.192375 -0.602038 2.512 0.482915 -0.444551 0.754432 255 0 0 255
-0.18486 -0.599896 2.503 0.400765 -0.486492 0.776346 255 0 0 255
-0.178319 -0.60087 2.507 -0.344652 -0.690216 0.636252 255 0 0 255
-0.171686 -0.601603 2.51 -0.266923 -0.732688 0.626036 255 0 0 255
-0.165103 -0.602576 2.514 -0.190271 -0.737039 0.648515 255 0 0 255
-0.158057 -0.60187 2.511 0.1596 -0.794628 0.585743 255 0 0 255
-0.151026 -0.601164 2.508 0.538554 -0.579272 0.611885 255 0 0 255
-0.143667 -0.599019 2.499 0.648423 -0.578235 0.495169 255 0 0 255
-0.133125 -0.58273 2.431 0.999228 0.0226655 0.0320965 255 0 0 255
-0.127325 -0.586576 2.447 0.955836 -0.285437 0.0700228 255 0 0 255
-0.117542 -0.571485 2.384 -0.577509 -0.173185 0.797803 255 0 0 255
-0.11099 -0.571254 2.383 -0.532404 0.098195 0.840776 255 0 0 255
-0.104794 -0.572942 2.39 -0.251415 0.269489 0.929606 255 0 0 255
-0.098231 -0.57271 2.389 0.340133 0.32044 0.884097 255 0 0 255
-0.091481 -0.57128 2.383 0.432101 0.397331 0.809578 255 0 0 255
-0.084692 -0.56937 2.375 0.398562 0.504697 0.765787 255 0 0 255
-0.078144 -0.568897 2.373 0.0664595 0.480347 0.874557 255 0 0 255
-0.071728 -0.569383 2.375 -0.135864 0.536002 0.833213 255 0 0 255
-0.065328 -0.570108 2.378 -0.0919028 0.427125 0.89951 255 0 0 255
-0.058813 -0.569874 2.377 0.00138099 0.273955 0.961742 255 0 0 255
-0.052412 -0.570837 2.381 0.0464447 0.214481 0.975623 255 0 0 255
-0.045817 -0.569643 2.376 0.239836 0.411581 0.879249 255 0 0 255
-0.039331 -0.569646 2.376 0.214931 0.432965 0.875412 255 0 0 255
-0.03279 -0.56869 2.372 -0.0446652 0.469876 0.881602 255 0 0 255
-0.026348 -0.569412 2.375 -0.0820553 0.0814943 0.99329 255 0 0 255
-0.019873 -0.569654 2.376 -0.225952 -0.0411565 0.973269 255 0 0 255
-0.013392 -0.569895 2.377 0.361261 -0.1625 0.918196 255 0 0 255
-0.006877 -0.567738 2.368 0.7122 -0.119415 0.691745 255 0 0 255
-0.000412 -0.56606 2.361 0.520658 -0.508809 0.685586 255 0 0 255
-0.235305 -0.613587 2.532 -0.467123 -0.790933 0.395248 255 0 0 255
-0.228404 -0.613605 2.532 0.180186 -0.955256 0.234563 255 0 0 255
-0.222552 -0.616532 2.544 0.331266 -0.911628 0.243304 255 0 0 255
-0.214685 -0.613883 2.533 0.852397 -0.309908 0.421161 255 0 0 255
-0.206877 -0.611234 2.522 0.840205 -0.17744 0.512416 255 0 0 255
-0.198812 -0.607615 2.507 0.51674 -0.550353 0.655814 255 0 0 255
-0.191976 -0.607631 2.507 0.365071 -0.596318 0.714932 255 0 0 255
-0.184771 -0.606435 2.502 0.263577 -0.655873 0.70736 255 0 0 255
-0.177735 -0.605722 2.499 -0.255341 -0.43227 0.864838 255 0 0 255
-0.171057 -0.606221 2.501 -0.4058 -0.594365 0.694303 255 0 0 255
-0.16463 -0.60769 2.507 -0.224686 -0.355221 0.907378 255 0 0 255
-0.157855 -0.607945 2.508 0.410204 -0.423022 0.807951 255 0 0 255
-0.150652 -0.606504 2.502 0.491932 -0.161221 0.855576 255 0 0 255
-0.142103 -0.599244 2.472 0.898226 -0.398365 0.185728 255 0 0 255
-0.136071 -0.602407 2.485 0.801992 -0.508009 0.314223 255 0 0 255
-0.116595 -0.573337 2.365 -0.869151 0.26875 0.41515 255 0 0 255
-0.111074 -0.578195 2.385 -0.523378 -0.0267425 0.851681 255 0 0 255
-0.104873 -0.579901 2.392 -0.195866 0.0788596 0.977455 255 0 0 255
-0.098305 -0.579667 2.391 0.3484 0.0542654 0.935774 255 0 0 255
-0.091665 -0.578948 2.388 0.285244 0.186039 0.940226 255 0 0 255
-0.085006 -0.577986 2.384 0.109672 0.525997 0.843386 255 0 0 255
-0.0785 -0.577993 2.384 0.0818976 0.681167 0.727533 255 0 0 255
-0.071964 -0.577757 2.383 0.143981 0.615494 0.774878 255 0 0 255
-0.065405 -0.577278 2.381 0.114651 0.557082 0.822505 255 0 0 255
-0.058808 -0.576313 2.377 0.00548491 0.354169 0.935165 255 0 0 255
-0.052408 -0.577288 2.381 0.0585005 0.384431 0.921298 255 0 0 255
-0.045851 -0.576564 2.378 0.0682759 0.428953 0.900743 255 0 0 255
-0.039344 -0.576326 2.377 0.23046 0.419978 0.877785 255 0 0 255
-0.032801 -0.575359 2.373 0.159747 0.339746 0.926852 255 0 0 255
-0.026335 -0.575604 2.374 0.0527426 0.23609 0.970299 255 0 0 255
-0.019838 -0.575121 2.372 -0.0284487 0.0746191 0.996806 255 0 0 255
-0.013374 -0.575607 2.374 0.221893 0.230493 0.947437 255 0 0 255
-0.006877 -0.574153 2.368 0.638682 0.0104445 0.7694 255 0 0 255
-0.000413 -0.573669 2.366 0.653175 -0.480621 0.585121 255 0 0 255
0.006018 -0.571001 2.355 0.789919 -0.262859 0.554015 255 0 0 255
-0.233613 -0.616034 2.514 -0.392098 -0.884479 0.252896 255 0 0 255
-0.227213 -0.617278 2.519 -0.349308 -0.901396 0.25587 255 0 0 255
-0.221659 -0.620972 2.534 -0.282378 -0.893147 0.350074 255 0 0 255
-0.214498 -0.620254 2.531 0.518804 -0.790757 0.324877 255 0 0 255
-0.206204 -0.616105 2.514 0.714908 -0.440459 0.543049 255 0 0 255
-0.198161 -0.612445 2.499 0.553583 -0.6673 0.498253 255 0 0 255
-0.190812 -0.610746 2.492 0.118049 -0.633453 0.764724 255 0 0 255
-0.184535 -0.612476 2.499 -0.340506 -0.380928 0.859622 255 0 0 255
-0.177578 -0.612001 2.497 -0.411314 -0.00326856 0.911488 255 0 0 255
-0.171248 -0.613731 2.504 -0.478886 0.178236 0.859593 255 0 0 255
-0.164485 -0.61399 2.505 -0.00644759 -0.0335755 0.999416 255 0 0 255
-0.157527 -0.613513 2.503 0.200655 0.0856131 0.975914 255 0 0 255
-0.150459 -0.612545 2.499 0.667204 -0.29068 0.685816 255 0 0 255
-0.142436 -0.60741 2.478 0.904673 -0.342837 0.25304 255 0 0 255
-0.117374 -0.583665 2.381 -0.273158 0.384388 0.881834 255 0 0 255
-0.111065 -0.584655 2.385 -0.504497 0.187779 0.842747 255 0 0 255
-0.104821 -0.586135 2.391 -0.1231 0.0456383 0.991344 255 0 0 255
-0.098256 -0.585899 2.39 0.235894 -0.193368 0.952346 255 0 0 255
-0.091696 -0.585662 2.389 0.15285 -0.0613402 0.986344 255 0 0 255
-0.085177 -0.585669 2.389 -0.102176 0.255819 0.96131 255 0 0 255
-0.078724 -0.586166 2.391 -0.100622 0.342532 0.934102 255 0 0 255
-0.072199 -0.586173 2.391 0.0884364 0.429121 0.898907 255 0 0 255
-0.065592 -0.585443 2.388 0.20164 0.527821 0.825074 255 0 0 255
-0.058951 -0.584223 2.383 0.124323 0.572231 0.810614 255 0 0 255
-0.052492 -0.584718 2.385 -0.0122026 0.601944 0.798445 255 0 0 255
-0.045905 -0.583741 2.381 0.124365 0.595729 0.793499 255 0 0 255
-0.039457 -0.58448 2.384 0.154903 0.645472 0.747911 255 0 0 255
-0.032867 -0.583012 2.378 0.20543 0.594929 0.777083 255 0 0 255
-0.026388 -0.58326 2.379 0.147821 0.573009 0.806108 255 0 0 255
-0.019844 -0.581791 2.373 0.00507652 0.209623 0.977769 255 0 0 255
-0.013396 -0.583018 2.378 -0.0803122 0.534584 0.841291 255 0 0 255
-0.006911 -0.58351 2.38 -0.455594 0.53817 0.709089 255 0 0 255
-0.000417 -0.586207 2.391 -0.519097 0.260983 0.813895 255 0 0 255
0.006112 -0.586452 2.392 -0.445114 0.389289 0.806429 255 0 0 255
-0.233316 -0.6221 2.511 -0.306211 -0.881948 0.358334 255 0 0 255
-0.227105 -0.623852 2.518 -0.379791 -0.87894 0.288485 255 0 0 255
-0.220417 -0.624366 2.52 -0.0442181 -0.99147 0.122604 255 0 0 255
-0.21321 -0.623392 2.516 0.339035 -0.871965 0.353174 255 0 0 255
-0.205696 -0.621427 2.508 0.662596 -0.669337 0.336087 255 0 0 255
-0.198066 -0.618965 2.498 0.519682 -0.595706 0.612426 255 0 0 255
-0.190873 -0.617742 2.493 0.00593266 -0.297538 0.954692 255 0 0 255
-0.184372 -0.618749 2.497 -0.641499 -0.289108 0.710561 255 0 0 255
-0.178061 -0.620498 2.504 -0.639177 -0.166887 0.750734 255 0 0 255
-0.171576 -0.621752 2.509 -0.0798229 -0.311967 0.946734 255 0 0 255
-0.164668 -0.621518 2.508 0.0421941 -0.170358 0.984478 255 0 0 255
-0.157577 -0.62054 2.504 0.351425 -0.386707 0.852618 255 0 0 255
-0.150868 -0.621048 2.506 -0.806547 -0.10836 0.581153 255 0 0 255
-0.144608 -0.623539 2.516 -0.806548 -0.108361 0.581153 255 0 0 255
-0.125108 -0.596052 2.405 0.395972 0.70953 0.582901 255 0 0 255
-0.118055 -0.593583 2.395 0.265566 0.744749 0.612229 255 0 0 255
-0.111428 -0.593097 2.393 0.2961 0.0671527 0.952793 255 0 0 255
-0.104768 -0.592363 2.39 0.215546 0.0437796 0.975512 255 0 0 255
-0.098083 -0.59138 2.386 0.291915 -0.139551 0.946209 255 0 0 255
-0.091612 -0.591636 2.387 -0.10738 -0.0939357 0.98977 255 0 0 255
-0.08517 -0.592139 2.389 -0.301843 -0.0717087 0.950657 255 0 0 255
-0.078783 -0.593137 2.393 -0.201221 0.113074 0.972997 255 0 0 255
-0.072223 -0.592896 2.392 0.0767435 0.146492 0.98623 255 0 0 255
-0.065669 -0.592654 2.391 0.0680583 0.180725 0.981176 255 0 0 255
-0.059094 -0.592164 2.389 -0.00151516 0.516383 0.856357 255 0 0 255
-0.052597 -0.592416 2.39 -0.0509836 0.580634 0.812567 255 0 0 255
-0.046094 -0.592668 2.391 -0.0389949 0.634381 0.772036 255 0 0 255
-0.039569 -0.592672 2.391 0.212409 0.523343 0.825224 255 0 0 255
-0.032989 -0.591683 2.387 0.278827 0.603058 0.74738 255 0 0 255
-0.02643 -0.590694 2.383 0.216476 0.633044 0.743231 255 0 0 255
-0.019893 -0.589705 2.379 -0.0397689 0.549299 0.834679 255 0 0 255
-0.013434 -0.591194 2.385 -0.153345 0.413238 0.897619 255 0 0 255
-0.006934 -0.591938 2.388 -0.368506 0.190561 0.909885 255 0 0 255
-0.238226 -0.623872 2.491 -0.13326 -0.902567 0.409409 255 0 0 255
-0.219262 -0.627933 2.507 0.0284231 -0.944515 0.327238 255 0 0 255
-0.211752 -0.625947 2.499 0.420655 -0.859655 0.2899 255 0 0 255
-0.204449 -0.624461 2.493 0.339974 -0.652147 0.677585 255 0 0 255
-0.197495 -0.623976 2.491 -0.0710931 -0.53753 0.840242 255 0 0 255
-0.190398 -0.62299 2.487 -0.0631929 -0.365108 0.928818 255 0 0 255
-0.184061 -0.624508 2.493 -0.611488 -0.158941 0.775126 255 0 0 255
-0.17762 -0.625776 2.498 -0.330833 -0.614258 0.716406 255 0 0 255
-0.171083 -0.626792 2.502 -0.0740359 -0.659387 0.748149 255 0 0 255
-0.164129 -0.626305 2.5 0.191499 -0.731437 0.654468 255 0 0 255
-0.156997 -0.625065 2.495 0.32642 -0.698558 0.636762 255 0 0 255
-0.150374 -0.62583 2.498 0.485911 -0.671843 0.559033 255 0 0 255
-0.125618 -0.605069 2.415 0.181193 0.628551 0.756368 255 0 0 255
-0.118833 -0.604077 2.411 0.547704 0.664619 0.508233 255 0 0 255
-0.112024 -0.602834 2.406 0.509754 0.651969 0.561327 255 0 0 255
-0.104847 -0.599336 2.392 0.356476 0.370399 0.857746 255 0 0 255
-0.098116 -0.598091 2.387 0.212805 0.304458 0.92845 255 0 0 255
-0.091565 -0.597849 2.386 -0.199089 0.184307 0.962494 255 0 0 255
-0.085163 -0.598608 2.389 -0.314245 0.198508 0.928356 255 0 0 255
-0.078711 -0.599116 2.391 -0.152166 0.125517 0.980353 255 0 0 255
-0.072217 -0.599373 2.392 -0.0023343 0.0647439 0.997899 255 0 0 255
-0.065718 -0.599629 2.393 0.0864444 -0.0190355 0.996075 255 0 0 255
-0.059213 -0.599885 2.394 -0.0617393 0.184703 0.980853 255 0 0 255
-0.052703 -0.600141 2.395 -0.336875 0.151677 0.929252 255 0 0 255
-0.046206 -0.600646 2.397 -0.165856 0.24099 0.956251 255 0 0 255
-0.039665 -0.60065 2.397 0.237473 0.16586 0.95713 255 0 0 255
-0.033083 -0.599901 2.394 0.525053 0.0701177 0.848176 255 0 0 255
-0.026505 -0.598901 2.39 0.279776 0.190672 0.940941 255 0 0 255
-0.01995 -0.597901 2.386 0.0882297 0.249959 0.964228 255 0 0 255
-0.013444 -0.598153 2.387 -0.289798 0.112609 0.95044 255 0 0 255
-0.00693 -0.598154 2.387 -0.242892 -0.0187655 0.969872 255 0 0 255
-0.238399 -0.631122 2.493 -0.13326 -0.902567 0.409409 255 0 0 255
-0.217933 -0.630923 2.492 0.147639 -0.922156 0.357536 255 0 0 255
-0.211142 -0.63094 2.492 0.198945 -0.858675 0.472333 255 0 0 255
-0.203776 -0.629185 2.485 0.154663 -0.70725 0.689839 255 0 0 255
-0.197241 -0.629961 2.488 0.0305209 -0.800326 0.598788 255 0 0 255
-0.190995 -0.631749 2.495 -0.501827 -0.229298 0.834022 255 0 0 255
-0.184268 -0.632017 2.496 -0.461943 -0.433274 0.773875 255 0 0 255
-0.177535 -0.632285 2.497 -0.0612413 -0.632334 0.772272 255 0 0 255
-0.170522 -0.63154 2.494 0.0790394 -0.898129 0.43257 255 0 0 255
-0.163722 -0.631554 2.494 0.182508 -0.825409 0.53422 255 0 0 255
-0.156481 -0.629794 2.487 0.434933 -0.788106 0.435571 255 0 0 255
-0.148796 -0.626008 2.472 0.854312 -0.268994 0.444739 255 0 0 255
-0.141883 -0.625261 2.469 0.869232 -0.20214 0.451194 255 0 0 255
-0.126387 -0.615406 2.43 0.0262715 0.887466 0.460123 255 0 0 255
-0.119612 -0.614657 2.427 0.882906 0.208292 0.420823 255 0 0 255
-0.112573 -0.612387 2.418 0.74034 0.367617 0.562809 255 0 0 255
-0.105408 -0.609104 2.405 0.738096 0.257609 0.62358 255 0 0 255
-0.098436 -0.60658 2.395 0.447796 0.387584 0.805765 255 0 0 255
-0.091788 -0.605828 2.392 0.214075 0.273946 0.937617 255 0 0 255
-0.085298 -0.606089 2.393 -0.23419 0.154738 0.959798 255 0 0 255
-0.078803 -0.606349 2.394 -0.105512 0.0732542 0.991716 255 0 0 255
-0.072241 -0.606102 2.393 0.143984 -0.0836786 0.986036 255 0 0 255
-0.065657 -0.605601 2.391 0.204772 -0.118655 0.971591 255 0 0 255
-0.059134 -0.605607 2.391 -0.0563996 -0.428337 0.901857 255 0 0 255
-0.052676 -0.606371 2.394 -0.300273 -0.435569 0.848597 255 0 0 255
-0.046221 -0.607389 2.398 -0.18828 -0.457913 0.86883 255 0 0 255
-0.039662 -0.607139 2.397 0.209363 -0.406827 0.88919 255 0 0 255
-0.033038 -0.605622 2.391 0.457577 -0.37632 0.805609 255 0 0 255
-0.026481 -0.604865 2.388 0.284994 -0.284962 0.915191 255 0 0 255
-0.01994 -0.604107 2.385 0.14198 -0.0701765 0.987379 255 0 0 255
-0.013437 -0.604362 2.386 -0.127803 0.0614533 0.989894 255 0 0 255
-0.006927 -0.604363 2.386 -0.144685 0.0026033 0.989474 255 0 0 255
-0.223804 -0.635093 2.482 0.0286106 -0.845271 0.533572 255 0 0 255
-0.217129 -0.635366 2.483 0.143968 -0.866689 0.477623 255 0 0 255
-0.20335 -0.634632 2.48 0.154663 -0.70725 0.689839 255 0 0 255
-0.196512 -0.634392 2.479 0.0305209 -0.800326 0.598788 255 0 0 255
-0.190138 -0.635688 2.484 -0.430776 -0.52836 0.731621 255 0 0 255
-0.156028 -0.634735 2.48 0.537641 -0.73938 0.405291 255 0 0 255
-0.147881 -0.628861 2.457 0.843817 -0.269355 0.464134 255 0 0 255
-0.139113 -0.619658 2.421 0.651638 -0.749244 0.118328 255 0 0 255
-0.126793 -0.624032 2.438 0.304519 -0.952412 0.0134181 255 0 0 255
-0.119651 -0.621482 2.428 0.229167 -0.944794 0.234196 255 0 0 255
-0.112703 -0.6197 2.421 0.829266 -0.0809997 0.552952 255 0 0 255
-0.105399 -0.615614 2.405 0.707139 -0.191665 0.680602 255 0 0 255
-0.098551 -0.613831 2.398 0.722881 -0.296811 0.623976 255 0 0 255
-0.091742 -0.612047 2.391 0.172799 -0.299571 0.938295 255 0 0 255
-0.085291 -0.612566 2.393 -0.211018 -0.342579 0.915484 255 0 0 255
-0.078763 -0.612573 2.393 -0.0332821 -0.294095 0.955197 255 0 0 255
-0.072265 -0.612836 2.394 0.277366 -0.386938 0.879402 255 0 0 255
-0.065597 -0.611561 2.389 0.38157 -0.397901 0.834314 255 0 0 255
-0.05903 -0.611055 2.387 -0.15062 -0.590036 0.793203 255 0 0 255
-0.052584 -0.611827 2.39 -0.393734 -0.505489 0.76776 255 0 0 255
-0.046102 -0.612344 2.392 -0.155773 -0.581956 0.798162 255 0 0 255
-0.039542 -0.611835 2.39 0.387357 -0.458818 0.79965 255 0 0 255
-0.032953 -0.610558 2.385 0.144696 -0.150514 0.977961 255 0 0 255
-0.026479 -0.611329 2.388 0.0685804 0.0924926 0.993349 255 0 0 255
-0.019946 -0.610819 2.386 0.239649 0.214893 0.946778 255 0 0 255
-0.013436 -0.61082 2.386 -0.016904 0.148386 0.988785 255 0 0 255
-0.006935 -0.611589 2.389 -0.300093 0.278401 0.91238 255 0 0 255
-0.148832 -0.639649 2.473 0.842839 -0.228328 0.487328 255 0 0 255
-0.135182 -0.638896 2.47 0.912605 -0.262706 0.31327 255 0 0 255
-0.125794 -0.625715 2.419 0.1728 -0.889233 0.423563 255 0 0 255
-0.118902 -0.624173 2.413 0.475004 -0.817956 0.32453 255 0 0 255
-0.112182 -0.623407 2.41 0.493708 -0.807632 0.322464 255 0 0 255
-0.105215 -0.621088 2.401 0.700513 -0.411903 0.582767 255 0 0 255
-0.098338 -0.619027 2.393 0.558382 -0.223245 0.798981 255 0 0 255
-0.091542 -0.617224 2.386 0.336468 -0.471116 0.815377 255 0 0 255
-0.085177 -0.618267 2.39 -0.206281 -0.596129 0.775937 255 0 0 255
-0.078658 -0.618274 2.39 0.0529317 -0.631506 0.773562 255 0 0 255
-0.072108 -0.618021 2.389 0.335249 -0.614946 0.713758 255 0 0 255
-0.065454 -0.616734 2.384 0.344599 -0.618152 0.706498 255 0 0 255
-0.058926 -0.61648 2.383 -0.282205 -0.429239 0.857971 255 0 0 255
-0.052491 -0.617261 2.386 -0.288185 -0.463056 0.83817 255 0 0 255
-0.046001 -0.617524 2.387 -0.108968 -0.323148 0.940054 255 0 0 255
-0.039523 -0.618045 2.389 0.0667822 -0.161567 0.9846 255 0 0 255
-0.032977 -0.617531 2.387 -0.101198 -0.146224 0.984062 255 0 0 255
-0.026532 -0.619085 2.393 -0.0196846 0.38022 0.924687 255 0 0 255
-0.019978 -0.618311 2.39 -0.153126 0.525886 0.836658 255 0 0 255
-0.013441 -0.617537 2.387 0.27297 0.424573 0.863264 255 0 0 255
-0.006955 -0.619866 2.396 0.834213 0.342515 0.432172 255 0 0 255
-0.147977 -0.642682 2.459 0.848847 -0.0645963 0.524677 255 0 0 255
-0.1249 -0.627818 2.402 0.644097 -0.694666 0.320278 255 0 0 255
-0.118202 -0.627044 2.399 0.314276 -0.867992 0.384474 255 0 0 255
-0.111661 -0.627053 2.399 0.210001 -0.77987 0.589663 255 0 0 255
-0.104943 -0.626017 2.395 0.386925 -0.385027 0.83788 255 0 0 255
-0.098206 -0.624719 2.39 0.715789 -0.273578 0.642497 255 0 0 255
-0.091343 -0.622374 2.381 0.302894 -0.471175 0.828402 255 0 0 255
-0.084956 -0.623166 2.384 -0.0864346 -0.488595 0.868219 255 0 0 255
-0.078421 -0.622911 2.383 0.189993 -0.664682 0.722565 255 0 0 255
-0.071891 -0.622656 2.382 0.292077 -0.607949 0.738301 255 0 0 255
-0.065311 -0.621878 2.379 0.0973457 -0.508114 0.855771 255 0 0 255
-0.058847 -0.622144 2.38 -0.420911 -0.232221 0.876874 255 0 0 255
-0.052487 -0.623718 2.386 -0.332903 -0.00127617 0.94296 255 0 0 255
-0.045959 -0.62346 2.385 0.00339016 -0.245923 0.969284 255 0 0 255
-0.039486 -0.623987 2.387 -0.085338 -0.273909 0.957962 255 0 0 255
-0.033016 -0.624774 2.39 -0.442793 -0.188719 0.876539 255 0 0 255
-0.013547 -0.628963 2.406 -0.0128061 0.445211 0.895334 255 0 0 255
-0.006899 -0.621382 2.377 0.142412 0.190301 0.971341 255 0 0 255
-0.145017 -0.636396 2.41 0.555316 -0.425613 0.714478 255 0 0 255
-0.12437 -0.631676 2.392 0.389481 -0.0917744 0.916451 255 0 0 255
-0.117749 -0.631158 2.39 0.255464 -0.375858 0.890769 255 0 0 255
-0.111279 -0.631432 2.391 0.0304958 -0.491147 0.870543 255 0 0 255
-0.104803 -0.631705 2.392 0.428626 -0.164528 0.888375 255 0 0 255
-0.098239 -0.631449 2.391 0.639812 -0.183566 0.746287 255 0 0 255
-0.091373 -0.62908 2.382 0.536443 -0.112474 0.836408 255 0 0 255
-0.084877 -0.629088 2.382 0.176023 -0.188292 0.96621 255 0 0 255
-0.078282 -0.628302 2.379 0.305705 -0.418574 0.855184 255 0 0 255
-0.071734 -0.62778 2.377 0.162481 -0.362195 0.917832 255 0 0 255
-0.065251 -0.627786 2.377 -0.232171 -0.245965 0.941062 255 0 0 255
-0.058891 -0.629112 2.382 -0.602486 -0.0624781 0.79568 255 0 0 255
-0.052548 -0.630965 2.389 -0.0389638 -0.339654 0.939743 255 0 0 255
-0.045955 -0.629913 2.385 0.337631 -0.375948 0.862942 255 0 0 255
-0.03945 -0.629917 2.385 0.179257 -0.624083 0.760518 255 0 0 255
-0.032917 -0.629391 2.383 -0.113964 -0.893366 0.434636 255 0 0 255
-0.026549 -0.632563 2.395 -0.551348 0.151779 0.820353 255 0 0 255
-0.124775 -0.640281 2.4 0.580294 0.40172 0.708435 255 0 0 255
-0.118183 -0.640025 2.399 0.528485 0.387319 0.755439 255 0 0 255
-0.111409 -0.6387 2.394 0.315585 0.123294 0.940853 255 0 0 255
-0.104794 -0.638176 2.392 0.521176 0.0173601 0.853273 255 0 0 255
-0.098066 -0.63685 2.387 0.621843 -0.0917231 0.777752 255 0 0 255
-0.091327 -0.635257 2.381 0.522819 0.0158727 0.852296 255 0 0 255
-0.084835 -0.635265 2.381 0.432024 -0.199876 0.879434 255 0 0 255
-0.078177 -0.633937 2.376 0.300011 -0.225952 0.92679 255 0 0 255
-0.071698 -0.633944 2.376 0.0280725 -0.328891 0.943951 255 0 0 255
-0.065218 -0.633949 2.376 -0.409339 -0.106098 0.906192 255 0 0 255
-0.058862 -0.635289 2.381 -0.583317 -0.281881 0.761764 255 0 0 255
-0.052434 -0.636094 2.384 -0.0277788 -0.367619 0.929561 255 0 0 255
-0.045855 -0.635031 2.38 0.473922 -0.472542 0.743036 255 0 0 255
-0.039297 -0.633967 2.376 0.458701 -0.581753 0.671682 255 0 0 255
-0.032776 -0.63317 2.373 0.406002 -0.518904 0.752264 255 0 0 255
-0.026292 -0.632905 2.372 0.0087144 -0.263281 0.96468 255 0 0 255
0.006115 -0.639047 2.395 -0.0458253 0.0305745 0.998482 255 0 0 255
-0.125285 -0.649468 2.41 0.143162 0.33341 0.931849 255 0 0 255
-0.11837 -0.647592 2.403 0.283616 0.416212 0.863904 255 0 0 255
-0.111679 -0.646793 2.4 0.381901 0.530409 0.756848 255 0 0 255
-0.104785 -0.644646 2.392 0.533233 0.339226 0.774977 255 0 0 255
-0.098058 -0.643306 2.387 0.617988 0.0898155 0.78104 255 0 0 255
-0.091396 -0.642236 2.383 0.546561 0.0516257 0.835827 255 0 0 255
-0.084792 -0.641435 2.38 0.583141 -0.196163 0.788331 255 0 0 255
-0.078105 -0.639825 2.374 0.449523 -0.407433 0.794939 255 0 0 255
-0.071661 -0.640101 2.375 -0.109988 -0.445076 0.888713 255 0 0 255
-0.065185 -0.640106 2.375 -0.476687 -0.298212 0.826946 255 0 0 255
-0.058857 -0.641729 2.381 -0.439812 -0.410596 0.798734 255 0 0 255
-0.052342 -0.641464 2.38 -0.0571209 -0.521576 0.85129 255 0 0 255
-0.045851 -0.641468 2.38 0.483751 -0.387009 0.78499 255 0 0 255
-0.039245 -0.639585 2.373 0.454141 -0.0440654 0.889839 255 0 0 255
-0.032731 -0.638779 2.37 0.00248809 0.0257128 0.999666 255 0 0 255
-0.02629 -0.639321 2.372 0.00248808 0.0257128 0.999666 255 0 0 255
0.019162 -0.644983 2.393 -0.0545695 -0.602194 0.796483 255 0 0 255
-0.144861 -0.655408 2.408 0.202284 0.161459 0.965926 255 0 0 255
-0.118705 -0.655996 2.41 0.283616 0.416212 0.863904 255 0 0 255
-0.111949 -0.654917 2.406 0.488312 0.267701 0.830595 255 0 0 255
-0.105127 -0.653292 2.4 0.562748 0.391882 0.727835 255 0 0 255
-0.098256 -0.651123 2.392 0.691556 0.209175 0.691372 255 0 0 255
-0.091427 -0.648953 2.384 0.719855 0.0518066 0.692189 255 0 0 255
-0.084642 -0.646783 2.376 0.713901 -0.34023 0.612037 255 0 0 255
-0.077901 -0.644612 2.368 0.375385 -0.713451 0.591671 255 0 0 255
-0.071474 -0.64489 2.369 -0.0240146 -0.716399 0.697277 255 0 0 255
-0.06507 -0.64544 2.371 -0.365499 -0.735515 0.570463 255 0 0 255
-0.058728 -0.646807 2.376 -0.392259 -0.712293 0.58204 255 0 0 255
-0.052227 -0.646539 2.375 -0.096184 -0.824258 0.557985 255 0 0 255
-0.045847 -0.647904 2.38 0.193284 -0.388518 0.900941 255 0 0 255
-0.039225 -0.64573 2.372 0.476064 -0.0526191 0.877835 255 0 0 255
-0.032784 -0.646278 2.374 -0.183131 0.198231 0.962895 255 0 0 255
-0.026343 -0.647097 2.377 -0.442452 0.137182 0.886238 255 0 0 255
-0.124744 -0.659754 2.4 0.143162 0.33341 0.931849 255 0 0 255
-0.098288 -0.657866 2.393 0.691982 0.259683 0.673592 255 0 0 255
-0.091458 -0.655675 2.385 0.809294 -0.0700936 0.583207 255 0 0 255
-0.084564 -0.652658 2.374 0.787361 -0.351348 0.506574 255 0 0 255
-0.077796 -0.65019 2.365 0.528417 -0.595073 0.605528 255 0 0 255
-0.071257 -0.649372 2.362 0.143298 -0.656542 0.740553 255 0 0 255
-0.064817 -0.649377 2.362 0.0747938 -0.776431 0.625748 255 0 0 255
-0.058427 -0.649932 2.364 -0.197183 -0.914248 0.353935 255 0 0 255
-0.052113 -0.651586 2.37 -0.334632 -0.869754 0.362698 255 0 0 255
-0.045728 -0.65269 2.374 -0.0351648 -0.624556 0.780188 255 0 0 255
-0.039271 -0.652969 2.375 -0.056809 -0.631392 0.77338 255 0 0 255
