ply
format ascii 1.0
comment VCGLIB generated
element vertex 726
property float x
property float y
property float z
property float nx
property float ny
property float nz
property uchar red
property uchar green
property uchar blue
property uchar alpha
element face 0
property list uchar int vertex_indices
end_header
-0.111281 0.491344 2.138 -0.0282971 -0.00163971 0.999598 255 0 0 255
-0.105445 0.491353 2.138 0.117459 0.0214796 0.992845 255 0 0 255
-0.099516 0.490902 2.136 0.306636 0.0443612 0.950792 255 0 0 255
-0.093598 0.49045 2.134 0.369482 0.208613 0.905519 255 0 0 255
-0.087732 0.490228 2.133 0.408632 0.281729 0.868129 255 0 0 255
-0.081794 0.489546 2.13 0.531902 0.331653 0.779158 255 0 0 255
-0.075801 0.488403 2.125 0.522045 0.220071 0.824038 255 0 0 255
-0.0699 0.48772 2.122 0.140638 -0.0827789 0.986594 255 0 0 255
-0.064137 0.487955 2.123 -0.096955 -0.257111 0.961506 255 0 0 255
-0.058423 0.48865 2.126 -0.122162 -0.500012 0.857359 255 0 0 255
-0.052594 0.488425 2.125 0.156713 -0.513377 0.843733 255 0 0 255
-0.046704 0.487509 2.121 0.351352 -0.35623 0.865824 255 0 0 255
-0.040874 0.487054 2.119 0.339538 -0.111159 0.934001 255 0 0 255
-0.035071 0.486827 2.118 0.150932 0.060552 0.986688 255 0 0 255
-0.029288 0.48683 2.118 -0.0885412 0.071982 0.993468 255 0 0 255
-0.023515 0.487062 2.119 -0.343461 0.043681 0.938151 255 0 0 255
-0.017746 0.487523 2.121 -0.497055 -0.0893142 0.86311 255 0 0 255
-0.011971 0.488214 2.124 -0.410094 0.0189855 0.911846 255 0 0 255
-0.006177 0.488674 2.126 0.0920919 -0.0259026 0.995414 255 0 0 255
-0.000371 0.488215 2.124 0.281481 -0.0394041 0.958757 255 0 0 255
0.005427 0.487985 2.123 0.111532 -0.109687 0.987689 255 0 0 255
0.011224 0.487984 2.123 -0.148609 -0.183351 0.97175 255 0 0 255
0.017054 0.488903 2.127 -0.174207 -0.122856 0.977015 255 0 0 255
0.02284 0.488441 2.125 -0.000610201 -0.105224 0.994448 255 0 0 255
0.028656 0.488669 2.126 -0.0842492 -0.167772 0.982219 255 0 0 255
0.034462 0.488666 2.126 -0.0908168 -0.333074 0.938517 255 0 0 255
0.040305 0.489123 2.128 -0.109536 -0.413321 0.903973 255 0 0 255
0.046137 0.489349 2.129 -0.0184214 -0.413866 0.910151 255 0 0 255
0.051901 0.488885 2.127 0.0488721 -0.358988 0.932062 255 0 0 255
0.057736 0.48911 2.128 0.00948814 -0.222914 0.974792 255 0 0 255
0.063516 0.488875 2.127 0.0578587 -0.034463 0.99773 255 0 0 255
0.069356 0.489099 2.128 -0.147317 0.0995104 0.984071 255 0 0 255
0.075201 0.489323 2.129 -0.354586 0.128496 0.926152 255 0 0 255
0.081127 0.490006 2.132 -0.442266 0.188278 0.876899 255 0 0 255
0.087029 0.490459 2.134 -0.286538 0.198637 0.937251 255 0 0 255
0.092854 0.490451 2.134 0.112065 0.205859 0.972144 255 0 0 255
0.098679 0.490443 2.134 0.239585 0.165314 0.956698 255 0 0 255
0.104406 0.489975 2.132 0.121324 0.286029 0.950509 255 0 0 255
0.110276 0.490196 2.133 -0.381677 0.37813 0.84341 255 0 0 255
0.116315 0.491106 2.137 -0.521758 0.368209 0.76954 255 0 0 255
0.122319 0.491785 2.14 -0.486785 0.362657 0.794683 255 0 0 255
0.128398 0.492694 2.144 -0.284185 0.388758 0.876416 255 0 0 255
0.134186 0.492453 2.143 -0.0868881 0.354649 0.930954 255 0 0 255
0.140164 0.492902 2.145 -0.275604 0.307103 0.910895 255 0 0 255
0.146152 0.49335 2.147 -0.349044 0.326606 0.878349 255 0 0 255
0.152222 0.494027 2.15 -0.56309 0.303772 0.768539 255 0 0 255
0.158528 0.495393 2.156 -0.559182 0.280652 0.780096 255 0 0 255
0.164562 0.495839 2.158 -0.611412 0.335834 0.716513 255 0 0 255
-0.115387 0.614989 2.26794 -0.195365 -0.608656 -0.769006 255 255 0 255
-0.109954 0.613255 2.25892 -0.194562 -0.738067 -0.646067 255 255 0 255
-0.10019 0.611808 2.25301 -0.126007 -0.596722 -0.792493 255 255 0 255
-0.083511 0.610824 2.25212 -0.0154628 -0.536567 -0.843716 255 255 0 255
-0.058208 0.610432 2.25757 -0.439712 -0.14504 -0.88635 255 255 0 255
-0.049369 0.608959 2.25121 -0.565498 -0.477704 -0.672317 255 255 0 255
-0.041405 0.607434 2.24424 -0.658885 -0.575777 -0.484099 255 255 0 255
-0.03345 0.605914 2.2373 -0.189892 -0.536508 -0.822253 255 255 0 255
-0.013444 0.605232 2.23928 0.0764286 -0.374898 -0.92391 255 255 0 255
0.004807 0.604447 2.24009 0.054511 -0.595763 -0.801308 255 255 0 255
0.029045 0.604101 2.24546 -0.0222488 -0.613385 -0.78947 255 255 0 255
0.03864 0.602745 2.24002 -0.43849 -0.681237 -0.58621 255 255 0 255
0.049081 0.601456 2.23525 -0.502336 -0.403162 -0.764931 255 255 0 255
0.062078 0.600361 2.23247 -0.883154 -0.297089 -0.36301 255 255 0 255
-0.242523 0.527788 2.21409 0.899232 -0.0270213 -0.436637 0 255 0 255
-0.242262 0.530211 2.22592 0.886007 -0.0937757 -0.454091 0 255 0 255
-0.232337 0.531331 2.23066 0.670422 -0.363101 -0.647064 0 255 0 255
-0.2268 0.533049 2.23864 0.622746 -0.37608 -0.686113 0 255 0 255
-0.214214 0.533834 2.24153 0.583998 -0.598694 -0.54819 0 255 0 255
-0.211306 0.535915 2.25146 0.536897 -0.60734 -0.585559 0 255 0 255
-0.198697 0.53672 2.25442 0.541398 -0.52758 -0.654635 0 255 0 255
-0.191368 0.538231 2.26122 0.625079 -0.327961 -0.70832 0 255 0 255
-0.183148 0.539633 2.26742 0.649655 -0.22751 -0.725388 0 255 0 255
-0.17492 0.541043 2.27364 0.554395 -0.216293 -0.803657 0 255 0 255
-0.164027 0.542118 2.27803 0.306614 -0.25295 -0.917608 0 255 0 255
-0.150465 0.542864 2.28059 0.257959 -0.275226 -0.926125 0 255 0 255
-0.140431 0.544075 2.28569 0.275878 -0.338675 -0.89955 0 255 0 255
-0.127723 0.544959 2.28898 0.282113 -0.259652 -0.923576 0 255 0 255
-0.112335 0.54552 2.29049 0.155141 -0.540807 -0.826716 0 255 0 255
-0.096926 0.546097 2.29206 -0.0328966 -0.63948 -0.768104 0 255 0 255
-0.083276 0.546911 2.29492 -0.0166562 -0.60762 -0.794053 0 255 0 255
-0.293642 0.497787 2.194 0.802185 -0.062115 0.593836 255 0 0 255
-0.286751 0.49622 2.187 0.669017 0.0306263 0.742616 255 0 0 255
-0.280027 0.494879 2.181 0.630897 0.0894959 0.770688 255 0 0 255
-0.27346 0.493765 2.176 0.532156 0.153088 0.832691 255 0 0 255
-0.267166 0.493105 2.173 0.419665 0.194159 0.88667 255 0 0 255
-0.261007 0.492671 2.171 0.38589 0.128035 0.913617 255 0 0 255
-0.254859 0.492237 2.169 0.226304 0.131665 0.965117 255 0 0 255
-0.24895 0.492256 2.169 0.0634761 0.237947 0.969202 255 0 0 255
-0.242929 0.492048 2.168 0.175185 0.357161 0.917468 255 0 0 255
-0.236913 0.491839 2.167 0.342309 0.359915 0.86792 255 0 0 255
-0.230688 0.491176 2.164 0.394098 0.267931 0.879147 255 0 0 255
-0.224479 0.490513 2.161 0.123024 0.198973 0.972252 255 0 0 255
-0.218691 0.490757 2.162 0.274424 0.115638 0.95463 255 0 0 255
-0.212306 0.489639 2.157 0.492186 0.236422 0.83777 255 0 0 255
-0.206234 0.489202 2.155 0.531292 0.19402 0.824673 255 0 0 255
-0.199987 0.48831 2.151 0.447991 0.0533123 0.892447 255 0 0 255
-0.194122 0.488325 2.151 0.297261 -0.150131 0.942919 255 0 0 255
-0.187907 0.487432 2.147 0.321414 -0.332793 0.886534 255 0 0 255
-0.181883 0.486993 2.145 0.18051 -0.324099 0.928642 255 0 0 255
-0.175951 0.48678 2.144 0.116251 -0.246359 0.962181 255 0 0 255
-0.170024 0.486567 2.143 0.12017 -0.0536984 0.9913 255 0 0 255
-0.164102 0.486354 2.142 0.195912 -0.00566666 0.980605 255 0 0 255
-0.158184 0.48614 2.141 0.142796 -0.0204452 0.989541 255 0 0 255
-0.152272 0.485925 2.14 0.166298 -0.0709469 0.98352 255 0 0 255
-0.146365 0.48571 2.139 0.0312431 -0.166636 0.985523 255 0 0 255
-0.140529 0.485722 2.139 -0.0738883 -0.0647152 0.995165 255 0 0 255
-0.134755 0.48596 2.14 -0.0276015 0.0466922 0.998528 255 0 0 255
-0.128916 0.485971 2.14 0.14453 -0.0290332 0.989074 255 0 0 255
-0.123018 0.485755 2.139 0.0850542 -0.121663 0.988921 255 0 0 255
-0.117125 0.485537 2.138 -0.0304555 -0.120571 0.992237 255 0 0 255
-0.111342 0.485774 2.139 -0.113911 -0.0494383 0.99226 255 0 0 255
-0.105503 0.485783 2.139 0.089264 0.0211705 0.995783 255 0 0 255
-0.099618 0.485564 2.138 0.257823 0.0769849 0.96312 255 0 0 255
-0.093694 0.485118 2.136 0.229757 0.169578 0.958361 255 0 0 255
-0.087822 0.484899 2.135 0.280523 0.276174 0.919258 255 0 0 255
-0.081916 0.484452 2.133 0.541214 0.236208 0.807027 255 0 0 255
-0.075914 0.483323 2.128 0.615082 0.226438 0.755249 255 0 0 255
-0.069972 0.48242 2.124 0.417352 0.129475 0.899474 255 0 0 255
-0.064112 0.481972 2.122 0.00241667 -0.0668357 0.997761 255 0 0 255
-0.058318 0.481977 2.122 0.0406443 -0.279961 0.959151 255 0 0 255
-0.052524 0.481982 2.122 0.214281 -0.341666 0.915067 255 0 0 255
-0.046664 0.481304 2.119 0.242612 -0.289863 0.925807 255 0 0 255
-0.040877 0.481308 2.119 0.0480846 -0.199508 0.978716 255 0 0 255
-0.035074 0.481084 2.118 0.00052665 -0.0226716 0.999743 255 0 0 255
-0.029304 0.481314 2.119 -0.0582747 -0.00240696 0.998298 255 0 0 255
-0.023506 0.481089 2.118 -0.228531 -0.0468305 0.97241 255 0 0 255
-0.017756 0.481999 2.122 -0.45811 -0.101512 0.88308 255 0 0 255
-0.011983 0.482909 2.126 -0.42076 -0.116601 0.899648 255 0 0 255
-0.006183 0.483364 2.128 0.000314263 -0.0997333 0.995014 255 0 0 255
-0.000371 0.482456 2.124 0.257416 -0.00620926 0.966281 255 0 0 255
0.005427 0.482229 2.123 0.0661324 -0.0452908 0.996782 255 0 0 255
0.01122 0.482001 2.122 -0.0627491 -0.218959 0.973714 255 0 0 255
0.017039 0.482681 2.125 -0.14232 -0.251426 0.957356 255 0 0 255
0.022831 0.482452 2.124 -0.0138611 -0.22806 0.973548 255 0 0 255
0.028645 0.482677 2.125 -0.0579041 -0.082575 0.994901 255 0 0 255
0.034432 0.482447 2.124 0.027857 -0.150046 0.988287 255 0 0 255
0.040232 0.482444 2.124 -0.0831725 -0.26046 0.961896 255 0 0 255
0.046054 0.482668 2.125 -0.0522033 -0.374451 0.925776 255 0 0 255
0.051881 0.482891 2.126 -0.0653517 -0.353703 0.933072 255 0 0 255
0.057713 0.483113 2.127 -0.121982 -0.24443 0.961964 255 0 0 255
0.063521 0.483108 2.127 -0.204771 -0.0689649 0.976377 255 0 0 255
0.069361 0.48333 2.128 -0.28321 0.0959605 0.954245 255 0 0 255
0.075242 0.483778 2.13 -0.380466 0.198467 0.903248 255 0 0 255
0.081172 0.484453 2.133 -0.44186 0.18811 0.87714 255 0 0 255
0.087117 0.485127 2.136 -0.314074 0.249209 0.916107 255 0 0 255
0.092992 0.485346 2.137 -0.0946032 0.324159 0.94126 255 0 0 255
0.09878 0.485111 2.136 0.145428 0.450589 0.880807 255 0 0 255
0.104561 0.484876 2.135 0.0571267 0.498299 0.865121 255 0 0 255
0.110441 0.485094 2.136 -0.392128 0.371933 0.841369 255 0 0 255
0.116488 0.485993 2.14 -0.501053 0.394689 0.770173 255 0 0 255
0.1225 0.486664 2.143 -0.447176 0.389193 0.805334 255 0 0 255
0.128529 0.487335 2.146 -0.228722 0.391006 0.891516 255 0 0 255
0.134385 0.487324 2.146 -0.120813 0.308051 0.943668 255 0 0 255
0.140306 0.48754 2.147 -0.302465 0.333402 0.892949 255 0 0 255
0.1463 0.487983 2.149 -0.445126 0.328945 0.832861 255 0 0 255
0.152376 0.488652 2.152 -0.571177 0.382868 0.726064 255 0 0 255
0.158615 0.489774 2.157 -0.544182 0.420167 0.726172 255 0 0 255
0.164727 0.490442 2.16 -0.571859 0.479483 0.665638 255 0 0 255
-0.11443 0.604291 2.26981 -0.413169 -0.194133 -0.889721 255 255 0 255
-0.10813 0.602621 2.2614 -0.549868 -0.254779 -0.795445 255 255 0 255
-0.082562 0.600187 2.25398 -0.113059 -0.269891 -0.95623 255 255 0 255
-0.063322 0.599437 2.25503 -0.0887426 -0.0269511 -0.99569 255 255 0 255
-0.055343 0.597916 2.24802 -0.531332 -0.0365501 -0.846375 255 255 0 255
-0.044785 0.596583 2.24292 -0.420854 -0.252637 -0.871238 255 255 0 255
-0.033379 0.595319 2.23849 -0.122025 -0.469479 -0.874471 255 255 0 255
-0.012519 0.594747 2.24109 0.0960414 -0.464057 -0.880584 255 255 0 255
0.009165 0.594256 2.24444 0.142 -0.360338 -0.92195 255 255 0 255
0.031671 0.593848 2.24852 -0.101183 -0.259311 -0.960479 255 255 0 255
0.048129 0.593016 2.24822 -0.374248 -0.262628 -0.889362 255 255 0 255
0.053413 0.59137 2.2396 -0.871746 -0.143001 -0.468625 255 255 0 255
0.052699 0.589276 2.22646 -0.948133 -0.0792048 -0.307849 255 255 0 255
0.057983 0.587631 2.21784 -0.883354 -0.270604 -0.3827 255 255 0 255
0.062408 0.585924 2.20858 0.551688 0.829908 -0.0830244 255 255 0 255
0.060167 0.581657 2.18151 0.819077 0.487228 -0.302857 255 255 0 255
-0.235822 0.516629 2.21032 0.929597 0.150009 -0.33667 0 255 0 255
-0.240819 0.519793 2.22604 0.866286 0.214674 -0.45107 0 255 0 255
-0.230896 0.520895 2.23079 0.681334 0.141834 -0.718099 0 255 0 255
-0.226237 0.522729 2.23942 0.810951 -0.165842 -0.561119 0 255 0 255
-0.216295 0.523847 2.24423 0.689147 -0.378704 -0.617785 0 255 0 255
-0.21603 0.526286 2.25606 0.603481 -0.462333 -0.649661 0 255 0 255
-0.202547 0.526943 2.25839 0.510855 -0.404715 -0.758441 0 255 0 255
-0.19434 0.528322 2.26456 0.556991 -0.267677 -0.7862 0 255 0 255
-0.183475 0.529356 2.26887 0.570183 -0.219963 -0.791522 0 255 0 255
-0.1779 0.531103 2.27698 0.572068 -0.233679 -0.786214 0 255 0 255
-0.167014 0.532155 2.28137 0.449047 -0.441044 -0.77707 0 255 0 255
-0.155229 0.533102 2.28518 0.285233 -0.379698 -0.880041 0 255 0 255
-0.141658 0.53383 2.2878 0.330707 -0.301106 -0.89441 0 255 0 255
-0.130729 0.534916 2.29233 0.242058 -0.325376 -0.914078 0 255 0 255
-0.114462 0.535326 2.29323 0.239114 -0.176208 -0.954869 0 255 0 255
-0.104391 0.536551 2.29847 0.0260435 -0.609561 -0.792311 0 255 0 255
-0.088973 0.537105 2.30011 0.0294974 -0.745131 -0.666266 0 255 0 255
-0.076204 0.538014 2.30363 -0.62435 -0.495215 -0.60411 0 255 0 255
-0.293529 0.491614 2.193 0.718738 0.0845799 0.690117 255 0 0 255
-0.286641 0.490066 2.186 0.635608 0.141575 0.75892 255 0 0 255
-0.280176 0.48919 2.182 0.588217 0.167333 0.791202 255 0 0 255
-0.273606 0.48809 2.177 0.499792 0.28893 0.816534 255 0 0 255
-0.267432 0.487661 2.175 0.451981 0.272108 0.849512 255 0 0 255
-0.261027 0.486784 2.171 0.437436 0.226578 0.870237 255 0 0 255
-0.254878 0.486355 2.169 0.226647 0.194992 0.954258 255 0 0 255
-0.248969 0.486374 2.169 -0.0271632 0.240703 0.970219 255 0 0 255
-0.243284 0.486842 2.171 0.0636271 0.292272 0.954216 255 0 0 255
-0.23715 0.486412 2.169 0.365369 0.25783 0.894444 255 0 0 255
-0.230813 0.485533 2.165 0.462241 0.248331 0.851273 255 0 0 255
-0.224601 0.484877 2.162 0.264146 0.146562 0.953282 255 0 0 255
-0.218809 0.485119 2.163 0.270004 0.0948217 0.958179 255 0 0 255
-0.212716 0.484687 2.161 0.457298 0.161199 0.874582 255 0 0 255
-0.206537 0.484031 2.158 0.561704 0.126884 0.817551 255 0 0 255
-0.200003 0.482477 2.151 0.546163 0.00987857 0.837621 255 0 0 255
-0.193867 0.481819 2.148 0.51927 -0.111962 0.847245 255 0 0 255
-0.187572 0.480713 2.143 0.377757 -0.225237 0.898091 255 0 0 255
-0.181643 0.480503 2.142 0.0933238 -0.313105 0.945122 255 0 0 255
-0.175719 0.480293 2.141 0.0211027 -0.18726 0.982084 255 0 0 255
-0.170037 0.480756 2.143 -0.0115004 -0.0441977 0.998957 255 0 0 255
-0.164038 0.480321 2.141 0.172239 0.0106429 0.984998 255 0 0 255
-0.158197 0.480334 2.141 0.255255 0.033577 0.96629 255 0 0 255
-0.152214 0.479898 2.139 0.215599 -0.0892953 0.97239 255 0 0 255
-0.146309 0.479685 2.138 -0.0292525 -0.177346 0.983714 255 0 0 255
-0.140475 0.479697 2.138 -0.144473 -0.0990537 0.984538 255 0 0 255
-0.134829 0.480382 2.141 -0.116154 -0.0334837 0.992667 255 0 0 255
-0.128866 0.479944 2.139 0.223395 -0.00956094 0.974681 255 0 0 255
-0.122913 0.479505 2.137 0.126613 -0.091597 0.987714 255 0 0 255
-0.117025 0.479291 2.136 -0.0270271 -0.082747 0.996204 255 0 0 255
-0.111299 0.479749 2.138 -0.170339 -0.033605 0.984812 255 0 0 255
-0.105512 0.479982 2.139 0.0581769 -0.0274174 0.99793 255 0 0 255
-0.099626 0.479766 2.138 0.225955 0.0326535 0.97359 255 0 0 255
-0.093746 0.47955 2.137 0.176106 0.0791581 0.981183 255 0 0 255
-0.08787 0.479333 2.136 0.229014 0.104469 0.967801 255 0 0 255
-0.081961 0.478892 2.134 0.486827 0.15983 0.858751 255 0 0 255
-0.075956 0.477776 2.129 0.612893 0.129816 0.779429 255 0 0 255
-0.069978 0.47666 2.124 0.526563 0.187671 0.829163 255 0 0 255
-0.064118 0.476217 2.122 0.289732 0.0835877 0.953451 255 0 0 255
-0.058323 0.476222 2.122 0.203467 -0.0712287 0.976488 255 0 0 255
-0.052479 0.475778 2.12 0.270281 -0.144832 0.951826 255 0 0 255
-0.046623 0.475109 2.117 0.170768 -0.132085 0.976418 255 0 0 255
-0.040842 0.475113 2.117 0.0302137 -0.00419413 0.999535 255 0 0 255
-0.03506 0.475116 2.117 -0.0294155 0.024652 0.999263 255 0 0 255
-0.029293 0.475343 2.118 -0.0592283 0.0601109 0.996433 255 0 0 255
-0.023508 0.475345 2.118 -0.176202 -0.0278395 0.98396 255 0 0 255
-0.01774 0.475796 2.12 -0.324507 -0.20049 0.924391 255 0 0 255
-0.011967 0.47647 2.123 -0.266974 -0.346998 0.899065 255 0 0 255
-0.006175 0.47692 2.125 2.65903e-05 -0.331156 0.943576 255 0 0 255
-0.000371 0.47692 2.125 0.224868 -0.170809 0.959301 255 0 0 255
0.005428 0.476471 2.123 0.246844 -0.105015 0.963348 255 0 0 255
0.011216 0.476022 2.121 0.0279297 -0.20679 0.977987 255 0 0 255
0.017016 0.476245 2.122 -0.0489362 -0.30011 0.952649 255 0 0 255
0.022823 0.476468 2.123 -0.1727 -0.257558 0.950704 255 0 0 255
0.028648 0.476914 2.125 -0.0590808 -0.0755184 0.995393 255 0 0 255
0.034435 0.476687 2.124 0.115207 0.00632027 0.993321 255 0 0 255
0.040217 0.47646 2.123 0.0291434 0.0300575 0.999123 255 0 0 255
0.046015 0.476456 2.123 -0.0618554 0.0033024 0.99808 255 0 0 255
0.051812 0.476452 2.123 -0.121096 -0.053013 0.991224 255 0 0 255
0.057637 0.476672 2.124 -0.207155 -0.029918 0.97785 255 0 0 255
0.063497 0.477115 2.126 -0.424685 0.0575808 0.903508 255 0 0 255
0.069432 0.478007 2.13 -0.441985 0.212299 0.871538 255 0 0 255
0.075284 0.478226 2.131 -0.398633 0.352928 0.846483 255 0 0 255
0.081255 0.479117 2.135 -0.388383 0.265016 0.882568 255 0 0 255
0.087165 0.479559 2.137 -0.311432 0.249023 0.917059 255 0 0 255
0.09313 0.480224 2.14 -0.154776 0.190162 0.969476 255 0 0 255
0.098973 0.480216 2.14 0.121114 0.239643 0.963277 255 0 0 255
0.104766 0.479984 2.139 0.0284283 0.217349 0.97568 255 0 0 255
0.110605 0.479975 2.139 -0.44924 0.25192 0.857158 255 0 0 255
0.116661 0.480863 2.143 -0.546051 0.331066 0.76956 255 0 0 255
0.122682 0.481526 2.146 -0.372024 0.336283 0.865166 255 0 0 255
0.128659 0.481964 2.148 -0.148162 0.280637 0.948309 255 0 0 255
0.134521 0.481954 2.148 -0.118613 0.242044 0.962988 255 0 0 255
0.140514 0.482391 2.15 -0.305795 0.25587 0.917071 255 0 0 255
0.146517 0.482828 2.152 -0.502653 0.294331 0.81284 255 0 0 255
0.152742 0.483938 2.157 -0.638957 0.305254 0.706083 255 0 0 255
0.158995 0.485047 2.162 -0.642227 0.369139 0.671775 255 0 0 255
0.165351 0.48638 2.168 -0.632178 0.417925 0.652449 255 0 0 255
-0.128464 0.594649 2.27399 0.261214 -0.0785233 -0.962082 255 255 0 255
-0.116943 0.593344 2.26923 -0.323568 -0.132288 -0.936912 255 255 0 255
-0.108906 0.591802 2.26204 -0.319336 -0.118837 -0.940161 255 255 0 255
-0.093949 0.59076 2.25984 -0.253943 -0.363748 -0.896215 255 255 0 255
-0.084208 0.589357 2.25397 -0.327307 -0.0954386 -0.940086 255 255 0 255
-0.064108 0.588715 2.25563 -0.220116 -0.198247 -0.955116 255 255 0 255
-0.053539 0.587395 2.25048 -0.177132 -0.215077 -0.960399 255 255 0 255
-0.035223 0.586656 2.25104 -0.122692 -0.432531 -0.893232 255 255 0 255
-0.019523 0.58574 2.24979 0.0338143 -0.49742 -0.86685 255 255 0 255
0.002177 0.585291 2.25306 0.0117138 -0.364829 -0.931001 255 255 0 255
0.01782 0.584405 2.25197 -0.048113 -0.0611107 -0.996971 255 255 0 255
0.033438 0.583533 2.25094 -0.122968 -0.0629896 -0.99041 255 255 0 255
0.043884 0.582279 2.24614 -0.516066 -0.223575 -0.826856 255 255 0 255
0.055173 0.581099 2.24201 -0.840916 -0.302697 -0.448592 255 255 0 255
0.053604 0.578925 2.22823 -0.723501 -0.610042 -0.323102 255 255 0 255
0.063163 0.577621 2.22286 -0.578492 -0.703456 -0.412912 255 255 0 255
0.074419 0.576461 2.21882 -0.448425 -0.83177 -0.327222 255 255 0 255
0.079684 0.574831 2.21025 -0.503084 -0.855268 -0.124193 255 255 0 255
0.078979 0.572724 2.19709 0.639321 0.767599 -0.0454031 255 255 0 255
0.082542 0.570958 2.18719 -0.7068 -0.678976 -0.198561 255 255 0 255
-0.191759 0.497592 2.16674 0.831519 -0.183858 -0.524186 0 255 0 255
-0.234995 0.508735 2.22293 0.931435 -0.0322869 -0.362473 0 255 0 255
-0.228581 0.510316 2.23028 0.86451 0.0543398 -0.49967 0 255 0 255
-0.227434 0.512639 2.24148 0.85731 -0.116353 -0.50148 0 255 0 255
-0.221893 0.514349 2.24948 0.778854 -0.0624512 -0.624089 0 255 0 255
-0.217229 0.516185 2.25813 0.622577 -0.0048441 -0.782543 0 255 0 255
-0.203752 0.516812 2.26047 0.465975 -0.141281 -0.873446 0 255 0 255
-0.196429 0.518298 2.26727 0.455306 -0.290163 -0.841726 0 255 0 255
-0.18204 0.518829 2.26908 0.556069 -0.183789 -0.810561 0 255 0 255
-0.17823 0.52081 2.27844 0.645791 -0.201516 -0.736441 0 255 0 255
-0.169116 0.522079 2.28408 0.584754 -0.218215 -0.78131 0 255 0 255
-0.16176 0.523593 2.29099 0.32525 -0.189449 -0.926457 0 255 0 255
-0.146428 0.524051 2.29238 0.158282 -0.129357 -0.978884 0 255 0 255
-0.13462 0.524996 2.29629 0.327805 -0.160529 -0.931007 0 255 0 255
-0.120137 0.525601 2.29842 0.282872 -0.535373 -0.795839 0 255 0 255
-0.110961 0.526919 2.30426 0.551285 -0.833259 -0.0419971 0 255 0 255
-0.099109 0.527899 2.30832 0.0346018 -0.66763 -0.743689 0 255 0 255
-0.087242 0.52889 2.31242 0.0476841 -0.422429 -0.905141 0 255 0 255
-0.303482 0.492067 2.222 0.909251 -0.0174526 0.415883 255 0 0 255
-0.293685 0.485888 2.194 0.7327 0.248292 0.633642 255 0 0 255
-0.286925 0.484581 2.188 0.607571 0.259916 0.750534 255 0 0 255
-0.280582 0.483937 2.185 0.532009 0.353429 0.769451 255 0 0 255
-0.274129 0.483072 2.181 0.483308 0.390814 0.783376 255 0 0 255
-0.267943 0.482649 2.179 0.47613 0.352968 0.805428 255 0 0 255
-0.261407 0.481561 2.174 0.440649 0.355275 0.824384 255 0 0 255
-0.25525 0.481138 2.172 0.246364 0.386585 0.888739 255 0 0 255
-0.249103 0.480714 2.17 -0.0262668 0.345907 0.937901 255 0 0 255
-0.243415 0.481175 2.172 0.0947203 0.279883 0.95535 255 0 0 255
-0.237277 0.480751 2.17 0.427828 0.182137 0.885319 255 0 0 255
-0.23115 0.480326 2.168 0.48336 0.159952 0.860685 255 0 0 255
-0.224826 0.479457 2.164 0.311546 0.164504 0.935883 255 0 0 255
-0.218826 0.479253 2.163 0.223876 0.0413464 0.97374 255 0 0 255
-0.212634 0.478605 2.16 0.415952 0.094053 0.90451 255 0 0 255
-0.206458 0.477956 2.157 0.58094 0.0681538 0.811088 255 0 0 255
-0.200112 0.476865 2.152 0.616604 0.0585429 0.785094 255 0 0 255
-0.193882 0.475994 2.148 0.608472 0.0839357 0.789124 255 0 0 255
-0.187499 0.474679 2.142 0.492037 0.00663302 0.870549 255 0 0 255
-0.181572 0.474472 2.141 0.171234 0.00757087 0.985201 255 0 0 255
-0.175733 0.474487 2.141 -0.113802 -0.0636934 0.99146 255 0 0 255
-0.17013 0.475165 2.144 -0.0833895 -0.104721 0.990999 255 0 0 255
-0.164205 0.474957 2.143 0.0908805 -0.0239783 0.995573 255 0 0 255
-0.158284 0.474748 2.142 0.281303 -0.0201797 0.959407 255 0 0 255
-0.152155 0.473874 2.138 0.376744 0.0211794 0.926075 255 0 0 255
-0.146252 0.473665 2.137 0.147063 -0.0597371 0.987322 255 0 0 255
-0.140421 0.473677 2.137 -0.231106 -0.134286 0.963617 255 0 0 255
-0.13484 0.474575 2.141 -0.136491 -0.219689 0.965975 255 0 0 255
-0.128877 0.474142 2.139 0.227666 -0.107857 0.967747 255 0 0 255
-0.122981 0.473931 2.138 0.0693816 -0.0675315 0.995302 255 0 0 255
-0.11709 0.473719 2.137 0.00227887 -0.0563692 0.998407 255 0 0 255
-0.111308 0.47395 2.138 -0.0655996 -0.127304 0.989692 255 0 0 255
-0.105521 0.474181 2.139 0.0296699 -0.193689 0.980614 255 0 0 255
-0.099588 0.473746 2.137 0.146435 -0.190275 0.970748 255 0 0 255
-0.093709 0.473532 2.136 0.0851056 -0.104303 0.990898 255 0 0 255
-0.087877 0.47354 2.136 0.194696 -0.0681823 0.978491 255 0 0 255
-0.081968 0.473103 2.134 0.417703 0.00340882 0.908577 255 0 0 255
-0.076034 0.472445 2.131 0.573524 0.107057 0.812164 255 0 0 255
-0.07005 0.471342 2.126 0.52353 0.191049 0.830311 255 0 0 255
-0.064153 0.470683 2.123 0.362948 0.180008 0.914257 255 0 0 255
-0.058273 0.470023 2.12 0.365921 0.0846049 0.926792 255 0 0 255
-0.052434 0.469584 2.118 0.312613 0.0480815 0.948663 255 0 0 255
-0.046649 0.469588 2.118 0.0899 0.0590945 0.994196 255 0 0 255
-0.040865 0.469592 2.118 -0.0593286 0.177811 0.982275 255 0 0 255
-0.03508 0.469595 2.118 -0.0593542 0.218861 0.973949 255 0 0 255
-0.029295 0.469598 2.118 -0.0594324 0.241083 0.968683 255 0 0 255
-0.023521 0.469822 2.119 -0.0297653 0.0629323 0.997574 255 0 0 255
-0.017733 0.469824 2.119 -0.181062 -0.0400211 0.982657 255 0 0 255
-0.011957 0.470268 2.121 -0.272562 -0.184972 0.94419 255 0 0 255
-0.006166 0.470491 2.122 -0.0769041 -0.320772 0.944029 255 0 0 255
-0.000371 0.470713 2.123 -0.00988328 -0.279005 0.960239 255 0 0 255
0.005423 0.470269 2.121 0.142377 -0.149707 0.978426 255 0 0 255
0.011211 0.470047 2.12 0.113973 -0.10329 0.9881 255 0 0 255
0.016994 0.469824 2.119 -0.117443 -0.0601379 0.991257 255 0 0 255
0.022803 0.470266 2.121 -0.320889 -0.123161 0.939075 255 0 0 255
0.02865 0.47115 2.125 -0.197366 -0.102301 0.974978 255 0 0 255
0.034454 0.471148 2.125 0.0291024 0.00354413 0.99957 255 0 0 255
0.040239 0.470923 2.124 -0.000303081 0.116587 0.993181 255 0 0 255
0.04604 0.470919 2.124 -0.0294173 0.240316 0.970249 255 0 0 255
0.051841 0.470915 2.124 -0.0882375 0.24275 0.966068 255 0 0 255
0.057669 0.471132 2.125 -0.228539 0.221748 0.947944 255 0 0 255
0.063532 0.47157 2.127 -0.550086 0.224321 0.804416 255 0 0 255
0.069536 0.472895 2.133 -0.533759 0.28797 0.795094 255 0 0 255
0.075431 0.473332 2.135 -0.361501 0.294971 0.884482 255 0 0 255
0.081376 0.473991 2.138 -0.292267 0.255151 0.921671 255 0 0 255
0.087173 0.473762 2.137 -0.258961 0.0950195 0.961203 255 0 0 255
0.093138 0.47442 2.14 -0.204983 0.0779378 0.975658 255 0 0 255
0.098935 0.47419 2.139 0.0891157 0.114461 0.989423 255 0 0 255
0.104775 0.474182 2.139 -0.00273724 0.18234 0.983232 255 0 0 255
0.110614 0.474173 2.139 -0.509968 0.240905 0.825771 255 0 0 255
0.116834 0.475715 2.146 -0.571792 0.280397 0.770994 255 0 0 255
0.122806 0.476149 2.148 -0.302884 0.266739 0.914938 255 0 0 255
0.128729 0.47636 2.149 -0.116959 0.227488 0.966731 255 0 0 255
0.134532 0.476128 2.148 -0.175977 0.260462 0.949311 255 0 0 255
0.140525 0.47656 2.15 -0.353861 0.289983 0.889209 255 0 0 255
0.146528 0.476991 2.152 -0.532897 0.286047 0.796365 255 0 0 255
0.152826 0.478309 2.158 -0.658891 0.219764 0.719421 255 0 0 255
0.159155 0.479626 2.164 -0.684996 0.219957 0.69455 255 0 0 255
0.165517 0.480943 2.17 -0.634023 0.140551 0.760434 255 0 0 255
0.171753 0.481816 2.174 -0.608901 0.0763896 0.789559 255 0 0 255
-0.126632 0.583969 2.27649 0.542886 -0.190357 -0.817948 255 255 0 255
-0.117717 0.582497 2.26988 -0.196757 -0.3318 -0.922603 255 255 0 255
-0.106213 0.581222 2.26515 -0.196929 -0.511785 -0.836239 255 255 0 255
-0.092129 0.580151 2.26232 -0.312418 -0.583003 -0.750002 255 255 0 255
-0.078933 0.579025 2.25893 -0.331163 -0.395801 -0.856547 255 255 0 255
-0.065755 0.577911 2.2556 -0.11487 -0.386561 -0.915082 255 255 0 255
-0.048283 0.577136 2.25545 -0.117632 -0.507208 -0.853758 255 255 0 255
-0.033427 0.576178 2.2535 -0.131191 -0.563305 -0.815768 255 255 0 255
-0.017733 0.575299 2.25224 -0.0214903 -0.430691 -0.902244 255 255 0 255
-0.001204 0.5745 2.25169 -0.090791 -0.21806 -0.971703 255 255 0 255
0.008424 0.573175 2.24612 -0.251801 -0.137255 -0.957997 255 255 0 255
0.024906 0.572401 2.24569 -0.0340467 -0.0423545 -0.998522 255 255 0 255
0.042218 0.571711 2.24599 -0.213694 0.086714 -0.973045 255 255 0 255
0.060358 0.571104 2.247 -0.479185 -0.657005 -0.582002 255 255 0 255
0.060499 0.569055 2.23452 -0.46042 -0.755643 -0.46585 255 255 0 255
0.072614 0.567982 2.23111 -0.392953 -0.783047 -0.482105 255 255 0 255
0.08471 0.566919 2.22775 -0.496979 -0.745157 -0.444695 255 255 0 255
0.093378 0.565582 2.22182 -0.859623 -0.496333 -0.121255 255 255 0 255
0.093514 0.563539 2.20935 0.923577 0.363018 -0.123379 255 255 0 255
0.088552 0.561063 2.1929 -0.864796 -0.369026 -0.340511 255 255 0 255
0.09721 0.559733 2.187 -0.922454 -0.36994 -0.11056 255 255 0 255
-0.23444 0.498391 2.2237 0.886626 -0.224246 -0.404486 0 255 0 255
-0.231536 0.500467 2.23362 0.862404 -0.239653 -0.445899 0 255 0 255
-0.226876 0.502293 2.24226 0.866665 -0.205166 -0.454751 0 255 0 255
-0.217819 0.503498 2.24772 0.763633 -0.0345323 -0.644726 0 255 0 255
-0.210512 0.504961 2.25449 0.617209 -0.105973 -0.77963 0 255 0 255
-0.203197 0.506429 2.26128 0.676767 -0.197269 -0.709275 0 255 0 255
-0.196757 0.508027 2.26872 0.51859 -0.351008 -0.779653 0 255 0 255
-0.185901 0.509017 2.27305 0.457423 -0.296209 -0.838465 0 255 0 255
-0.17768 0.510384 2.27929 0.552071 -0.112697 -0.826146 0 255 0 255
-0.168567 0.511637 2.28494 0.518281 -0.0796981 -0.851489 0 255 0 255
-0.160328 0.51302 2.29124 0.318469 0.0669852 -0.945564 0 255 0 255
-0.142346 0.513083 2.2908 0.193839 -0.0988114 -0.976044 0 255 0 255
-0.130539 0.514006 2.29473 0.349714 -0.10013 -0.93149 0 255 0 255
-0.118716 0.51494 2.29871 0.197914 -0.502328 -0.841723 0 255 0 255
-0.112203 0.5166 2.30639 -0.852911 -0.266021 -0.449194 0 255 0 255
-0.09858 0.517318 2.30925 0.399249 -0.140749 -0.905975 0 255 0 255
-0.089382 0.518639 2.31518 -0.299502 -0.220627 -0.928236 0 255 0 255
-0.302001 0.483634 2.211 0.907478 0.0513715 0.416947 255 0 0 255
-0.294108 0.480594 2.197 0.625393 0.429913 0.651197 255 0 0 255
-0.28747 0.479521 2.192 0.573065 0.428019 0.698854 255 0 0 255
-0.280988 0.478667 2.188 0.523528 0.399416 0.752586 255 0 0 255
-0.274527 0.477812 2.184 0.557862 0.26365 0.786943 255 0 0 255
-0.268086 0.476957 2.18 0.507777 0.168194 0.84491 255 0 0 255
-0.261788 0.476321 2.177 0.378535 0.27074 0.885105 255 0 0 255
-0.255622 0.475903 2.175 0.17643 0.481294 0.85862 255 0 0 255
-0.249581 0.475703 2.174 0.028488 0.584016 0.811242 255 0 0 255
-0.243657 0.475722 2.174 0.275014 0.440561 0.85456 255 0 0 255
-0.237405 0.475084 2.171 0.531676 0.219609 0.817981 255 0 0 255
-0.231061 0.474226 2.167 0.53694 0.125625 0.834214 255 0 0 255
-0.224843 0.473587 2.164 0.373253 0.0793387 0.924331 255 0 0 255
-0.218843 0.473385 2.163 0.290684 -0.0185906 0.956638 255 0 0 255
-0.212749 0.472965 2.161 0.404934 0.0611649 0.912298 255 0 0 255
-0.20657 0.472324 2.158 0.519655 0.0941616 0.849172 255 0 0 255
-0.20022 0.471246 2.153 0.591329 0.11878 0.797635 255 0 0 255
-0.193898 0.470167 2.148 0.619432 0.131843 0.7739 255 0 0 255
-0.187602 0.469088 2.143 0.514757 0.168277 0.840659 255 0 0 255
-0.181587 0.468665 2.141 0.201334 0.168407 0.964937 255 0 0 255
-0.175665 0.46846 2.14 -0.0555242 -0.0118144 0.998387 255 0 0 255
-0.169906 0.468693 2.141 -0.0589288 -0.0698798 0.995813 255 0 0 255
-0.164065 0.468706 2.141 0.0612334 -0.0450254 0.997107 255 0 0 255
-0.158297 0.468938 2.142 0.259934 0.00649492 0.965604 255 0 0 255
-0.152167 0.468075 2.138 0.359753 0.113305 0.926142 255 0 0 255
-0.146196 0.467649 2.136 0.183637 0.195306 0.963397 255 0 0 255
-0.140301 0.467442 2.135 -0.123847 0.084321 0.988712 255 0 0 255
-0.1346 0.467891 2.137 -0.117721 -0.0675814 0.990744 255 0 0 255
-0.128767 0.467901 2.137 0.148665 -0.0794597 0.98569 255 0 0 255
-0.122876 0.467693 2.136 0.117473 -0.00408275 0.993068 255 0 0 255
-0.117099 0.467922 2.137 0.118616 -0.0784094 0.98984 255 0 0 255
-0.111161 0.467493 2.135 -0.0257132 -0.152561 0.98796 255 0 0 255
-0.105431 0.46794 2.137 0.0055224 -0.121147 0.992619 255 0 0 255
-0.099503 0.46751 2.135 0.167257 -0.110275 0.979727 255 0 0 255
-0.093673 0.467518 2.135 0.0848115 -0.114336 0.989815 255 0 0 255
-0.087844 0.467526 2.135 0.120049 -0.141534 0.982627 255 0 0 255
-0.081937 0.467095 2.133 0.302335 -0.0413925 0.952303 255 0 0 255
-0.07604 0.466664 2.131 0.481894 0.054268 0.874547 255 0 0 255
-0.070089 0.465794 2.127 0.489278 0.179692 0.853415 255 0 0 255
-0.064219 0.465361 2.125 0.422153 0.204746 0.8831 255 0 0 255
-0.058333 0.464709 2.122 0.42219 0.241407 0.873773 255 0 0 255
-0.052463 0.464057 2.119 0.284776 0.225707 0.931643 255 0 0 255
-0.046653 0.463842 2.118 0.0300573 0.173686 0.984342 255 0 0 255
-0.040887 0.464065 2.119 -0.118071 0.177039 0.977096 255 0 0 255
-0.035116 0.464287 2.12 -0.0887603 0.251672 0.963734 255 0 0 255
-0.029325 0.46429 2.12 -0.0890891 0.27375 0.957666 255 0 0 255
-0.023534 0.464292 2.12 0.0614685 0.252389 0.965671 255 0 0 255
-0.017727 0.463856 2.118 0.0321125 0.136805 0.990077 255 0 0 255
-0.011947 0.464076 2.119 -0.125123 0.0889139 0.988149 255 0 0 255
-0.006161 0.464296 2.12 -0.0899477 -0.0794013 0.992776 255 0 0 255
-0.00037 0.464734 2.122 0.0363362 -0.2788 0.959661 255 0 0 255
0.005424 0.464515 2.121 0.0646824 -0.236236 0.96954 255 0 0 255
0.011217 0.464514 2.121 -0.0319428 0.0182318 0.999323 255 0 0 255
0.017003 0.464294 2.12 -0.0904002 0.115524 0.989182 255 0 0 255
0.022816 0.46473 2.122 -0.238181 -0.0426457 0.970284 255 0 0 255
0.028626 0.464947 2.123 -0.174736 -0.249848 0.952388 255 0 0 255
0.034441 0.465164 2.124 -0.172682 -0.163351 0.971338 255 0 0 255
0.040261 0.465379 2.125 -0.2143 0.0414153 0.97589 255 0 0 255
0.046087 0.465595 2.126 -0.0888305 0.205863 0.974541 255 0 0 255
0.051894 0.465591 2.126 -0.0878671 0.264482 0.960379 255 0 0 255
0.057728 0.465805 2.127 -0.255425 0.272817 0.927539 255 0 0 255
0.063567 0.466019 2.128 -0.563517 0.23915 0.790731 255 0 0 255
0.069607 0.467546 2.135 -0.548696 0.201999 0.811251 255 0 0 255
0.075473 0.467759 2.136 -0.317312 0.227985 0.920508 255 0 0 255
0.081382 0.468191 2.138 -0.175041 0.146137 0.973655 255 0 0 255
0.087221 0.468184 2.138 -0.148349 0.0942547 0.984433 255 0 0 255
0.093146 0.468614 2.14 -0.119629 0.0796779 0.989616 255 0 0 255
0.098989 0.468606 2.14 0.0281979 -0.019474 0.999413 255 0 0 255
0.104783 0.468379 2.139 -0.216742 0.148984 0.964794 255 0 0 255
0.110727 0.468808 2.141 -0.590891 0.256473 0.764898 255 0 0 255
0.116898 0.470112 2.147 -0.558486 0.275302 0.782497 255 0 0 255
0.122874 0.47054 2.149 -0.224809 0.273812 0.935141 255 0 0 255
0.1288 0.470749 2.15 -0.116971 0.266899 0.9566 255 0 0 255
0.134731 0.470957 2.151 -0.172014 0.312477 0.934221 255 0 0 255
0.140733 0.471384 2.153 -0.373507 0.327979 0.867711 255 0 0 255
0.146813 0.472029 2.156 -0.541672 0.284993 0.790803 255 0 0 255
0.15298 0.472893 2.16 -0.656445 0.257253 0.709155 255 0 0 255
0.159315 0.474194 2.166 -0.669718 0.187808 0.718475 255 0 0 255
0.165683 0.475494 2.172 -0.599801 0.145867 0.786741 255 0 0 255
0.171925 0.476356 2.176 -0.589191 0.0658551 0.805306 255 0 0 255
-0.12046 0.573618 2.28204 -0.27775 -0.651868 -0.705637 255 255 0 255
-0.109818 0.572296 2.27667 -0.068883 -0.666469 -0.742344 255 255 0 255
-0.099192 0.570982 2.27133 -0.238362 -0.598713 -0.764674 255 255 0 255
-0.084253 0.570011 2.26913 -0.395382 -0.600252 -0.695248 255 255 0 255
-0.071068 0.568917 2.26576 -0.282071 -0.656792 -0.699328 255 255 0 255
-0.056175 0.56797 2.26368 -0.153978 -0.595385 -0.788548 255 255 0 255
-0.037857 0.56731 2.26417 -0.156341 -0.5437 -0.82459 255 255 0 255
-0.007336 0.565551 2.261 -0.260794 -0.468061 -0.844337 255 255 0 255
0.004018 0.564377 2.25666 -0.518762 -0.319846 -0.792834 255 255 0 255
0.012781 0.563001 2.25046 -0.172305 -0.171348 -0.970026 255 255 0 255
0.026679 0.562055 2.24812 0.0349622 -0.298157 -0.953876 255 255 0 255
0.046555 0.56162 2.25033 -0.0842089 -0.29306 -0.952378 255 255 0 255
0.06554 0.561131 2.25199 -0.318604 -0.3578 -0.877765 255 255 0 255
0.0691 0.559361 2.2421 -0.525136 -0.535064 -0.66177 255 255 0 255
0.082911 0.558462 2.24 -0.5225 -0.59234 -0.613292 255 255 0 255
0.090727 0.557064 2.23341 -0.744493 -0.500181 -0.442209 255 255 0 255
0.092567 0.555157 2.22226 -0.997075 -0.0385343 -0.0660108 255 255 0 255
0.08845 0.552732 2.20651 -0.988986 0.136086 -0.0582005 255 255 0 255
0.094557 0.551193 2.19861 -0.888508 0.0287719 -0.457958 255 255 0 255
0.100659 0.549656 2.19073 -0.901655 -0.306705 -0.304877 255 255 0 255
0.097419 0.547296 2.17556 -0.884068 -0.355325 -0.303591 255 255 0 255
-0.236517 0.488418 2.2264 0.917169 -0.214519 -0.335831 0 255 0 255
-0.234491 0.490623 2.23696 0.824538 -0.423683 -0.375006 0 255 0 255
-0.228955 0.492316 2.24496 0.722223 -0.458797 -0.517589 0 255 0 255
-0.221659 0.493759 2.2517 0.660801 -0.55891 -0.500961 0 255 0 255
-0.214356 0.495208 2.25846 0.616499 -0.62087 -0.484199 0 255 0 255
-0.207926 0.496789 2.26587 0.617256 -0.611457 -0.495092 0 255 0 255
-0.200609 0.49825 2.27268 0.484238 -0.587294 -0.648536 0 255 0 255
-0.187116 0.498841 2.27513 0.400378 -0.484557 -0.777754 0 255 0 255
-0.179779 0.500318 2.282 0.263638 -0.214116 -0.940558 0 255 0 255
-0.165373 0.500808 2.28393 0.306454 0.0336944 -0.951289 0 255 0 255
-0.1589 0.502426 2.29149 0.272372 0.0873763 -0.958216 0 255 0 255
-0.142693 0.502694 2.2923 0.259124 -0.137801 -0.955963 0 255 0 255
-0.134431 0.504083 2.29869 0.469862 -0.286333 -0.835011 0 255 0 255
-0.124387 0.505235 2.30389 0.629425 -0.459848 -0.62639 0 255 0 255
-0.116105 0.50664 2.31035 0.413397 -0.583728 -0.698831 0 255 0 255
-0.102491 0.507326 2.31321 0.011616 -0.609474 -0.792721 0 255 0 255
-0.088858 0.508026 2.31612 -0.24629 0.0364621 -0.96851 0 255 0 255
-0.301886 0.477421 2.21 0.73142 0.177701 0.658367 255 0 0 255
-0.294932 0.47593 2.203 0.708222 0.289313 0.643987 255 0 0 255
-0.288278 0.474871 2.198 0.616782 0.445921 0.648641 255 0 0 255
-0.281522 0.473596 2.192 0.652308 0.331174 0.681776 255 0 0 255
-0.274798 0.47232 2.186 0.655504 0.155398 0.73903 255 0 0 255
-0.268229 0.471259 2.181 0.518144 0.131185 0.845173 255 0 0 255
-0.262048 0.470847 2.179 0.230525 0.136812 0.963401 255 0 0 255
-0.256111 0.470867 2.179 -0.0228606 0.410048 0.911777 255 0 0 255
-0.250289 0.471102 2.18 -0.0243549 0.491641 0.870457 255 0 0 255
-0.244236 0.470904 2.179 0.385115 0.452789 0.804157 255 0 0 255
-0.237751 0.469842 2.174 0.596848 0.289033 0.748487 255 0 0 255
-0.231186 0.468563 2.168 0.636041 0.0340366 0.770904 255 0 0 255
-0.224861 0.467716 2.164 0.361279 0.0473222 0.931256 255 0 0 255
-0.21886 0.467517 2.163 0.243356 0.1183 0.962696 255 0 0 255
-0.212667 0.466886 2.16 0.342059 0.0330558 0.939097 255 0 0 255
-0.206586 0.466469 2.158 0.520347 0.10289 0.847734 255 0 0 255
-0.200329 0.465621 2.154 0.590417 0.0965405 0.801304 255 0 0 255
-0.194094 0.464772 2.15 0.58213 0.128672 0.80285 255 0 0 255
-0.187792 0.463706 2.145 0.490034 0.235737 0.839223 255 0 0 255
-0.181771 0.463288 2.143 0.32855 0.190741 0.925026 255 0 0 255
-0.175843 0.463086 2.142 0.150419 0.0666634 0.986372 255 0 0 255
-0.169999 0.4631 2.142 0.00151719 -0.0356053 0.999365 255 0 0 255
-0.164154 0.463113 2.142 0.0117051 -0.0898182 0.995889 255 0 0 255
-0.158236 0.46291 2.141 0.0970036 0.0186895 0.995109 255 0 0 255
-0.152393 0.462922 2.141 0.262489 0.161401 0.951341 255 0 0 255
-0.146413 0.462502 2.139 0.179167 0.272054 0.945455 255 0 0 255
-0.140575 0.462514 2.139 0.0963056 0.191628 0.976731 255 0 0 255
-0.134674 0.462309 2.138 0.00382984 0.147705 0.989024 255 0 0 255
-0.128898 0.462536 2.139 0.0316066 0.137395 0.990012 255 0 0 255
-0.122943 0.462113 2.137 0.0594185 0.122811 0.99065 255 0 0 255
-0.117109 0.462123 2.137 0.179918 0.18519 0.966092 255 0 0 255
-0.111118 0.461484 2.134 0.0343486 0.100992 0.994294 255 0 0 255
-0.10539 0.461925 2.136 -0.0281688 0.125274 0.991722 255 0 0 255
-0.099511 0.461717 2.135 0.17198 0.0406947 0.98426 255 0 0 255
-0.093681 0.461725 2.135 0.13126 -0.0327115 0.990808 255 0 0 255
-0.087768 0.4613 2.133 0.142282 -0.0521449 0.988452 255 0 0 255
-0.081943 0.461307 2.133 0.20086 0.00345407 0.979614 255 0 0 255
-0.076047 0.460881 2.131 0.400147 0.142026 0.905379 255 0 0 255
-0.070127 0.460238 2.128 0.40142 0.196202 0.894632 255 0 0 255
-0.064255 0.459812 2.126 0.399625 0.240191 0.884651 255 0 0 255
-0.058365 0.459168 2.123 0.421062 0.270494 0.865759 255 0 0 255
-0.052517 0.45874 2.121 0.381457 0.226946 0.896095 255 0 0 255
-0.046679 0.458311 2.119 0.123081 0.148065 0.981289 255 0 0 255
-0.04091 0.458531 2.12 -0.20286 0.130659 0.970451 255 0 0 255
-0.035136 0.458751 2.121 -0.175988 0.201211 0.963609 255 0 0 255
-0.029355 0.45897 2.122 -0.0889735 0.266026 0.959851 255 0 0 255
-0.02357 0.459188 2.123 0.150128 0.238086 0.959571 255 0 0 255
-0.017753 0.458757 2.121 0.0922381 0.25164 0.963416 255 0 0 255
-0.011959 0.458759 2.121 -0.0598426 0.281225 0.957774 255 0 0 255
-0.006162 0.458543 2.12 0.0626458 0.113465 0.991565 255 0 0 255
-0.00037 0.458327 2.119 0.151681 -0.0475657 0.987284 255 0 0 255
0.005414 0.457894 2.117 -0.0614679 -0.10561 0.992506 255 0 0 255
0.011213 0.458543 2.12 -0.214546 0.0455957 0.975649 255 0 0 255
0.017013 0.458758 2.121 -0.0604098 0.150104 0.986823 255 0 0 255
0.022807 0.458756 2.121 -0.000587406 0.03043 0.999537 255 0 0 255
0.028587 0.458538 2.12 -0.031148 -0.0569206 0.997893 255 0 0 255
0.034395 0.458751 2.121 -0.313925 -0.0571598 0.947726 255 0 0 255
0.040265 0.459613 2.125 -0.399144 0.0638375 0.914663 255 0 0 255
0.046113 0.460042 2.127 -0.203922 0.146483 0.967966 255 0 0 255
0.051923 0.460038 2.127 -0.117723 0.21943 0.9685 255 0 0 255
0.05776 0.46025 2.128 -0.256937 0.272576 0.927192 255 0 0 255
0.063662 0.460894 2.131 -0.511908 0.131981 0.848841 255 0 0 255
0.069613 0.461753 2.135 -0.457807 0.044744 0.887925 255 0 0 255
0.075515 0.46218 2.137 -0.225324 -0.042226 0.973369 255 0 0 255
0.081389 0.462389 2.138 -0.288009 0.0391785 0.956826 255 0 0 255
0.087269 0.462599 2.139 -0.236405 0.0907887 0.967404 255 0 0 255
0.09311 0.462591 2.139 -0.0308885 0.081063 0.99623 255 0 0 255
0.098951 0.462583 2.139 -0.000676135 0.0822863 0.996609 255 0 0 255
0.104841 0.462791 2.14 -0.403834 0.147656 0.902838 255 0 0 255
0.110943 0.463864 2.145 -0.643058 0.286168 0.710341 255 0 0 255
0.117071 0.464936 2.15 -0.469514 0.323004 0.821721 255 0 0 255
0.122998 0.465142 2.151 -0.196596 0.380741 0.903541 255 0 0 255
0.12893 0.465348 2.152 -0.168867 0.369338 0.913823 255 0 0 255
0.134867 0.465553 2.153 -0.168166 0.395371 0.902996 255 0 0 255
0.140809 0.465759 2.154 -0.349593 0.334372 0.875203 255 0 0 255
0.146961 0.466612 2.158 -0.537584 0.250803 0.805047 255 0 0 255
0.153134 0.467465 2.162 -0.633262 0.236393 0.736952 255 0 0 255
0.159475 0.468749 2.168 -0.61752 0.151803 0.771768 255 0 0 255
0.16562 0.469385 2.171 -0.537373 0.0485534 0.841946 255 0 0 255
0.171859 0.470236 2.175 -0.589368 0.0221304 0.807562 255 0 0 255
-0.127545 0.564396 2.29117 0.363455 -0.371157 -0.854484 255 255 0 255
-0.118629 0.562951 2.28453 -0.23728 -0.425429 -0.873332 255 255 0 255
-0.105392 0.561856 2.28099 -0.103592 -0.59765 -0.795037 255 255 0 255
-0.090443 0.56091 2.27874 -0.247965 -0.582175 -0.774329 255 255 0 255
-0.075519 0.559976 2.27656 -0.38385 -0.463514 -0.798633 255 255 0 255
-0.059754 0.559125 2.27505 -0.155871 -0.56649 -0.809193 255 255 0 255
-0.049192 0.557864 2.26988 -0.179711 -0.590083 -0.787087 255 255 0 255
-0.032611 0.557108 2.26913 -0.222067 -0.576875 -0.786067 255 255 0 255
-0.022084 0.555866 2.26406 -0.194021 -0.539237 -0.8195 255 255 0 255
-0.008992 0.554847 2.26092 -0.286851 -0.506171 -0.813331 255 255 0 255
0.002363 0.553695 2.25657 -0.372322 -0.537751 -0.756439 255 255 0 255
0.012842 0.552478 2.25162 -0.274779 -0.595783 -0.754678 255 255 0 255
0.031882 0.552002 2.2531 -0.0601627 -0.374595 -0.925235 255 255 0 255
0.049175 0.551396 2.25339 -0.0296727 -0.184618 -0.982362 255 255 0 255
0.06644 0.550806 2.25375 -0.246716 -0.105204 -0.96336 255 255 0 255
0.070001 0.549035 2.24387 -0.449597 -0.182164 -0.874459 255 255 0 255
0.086369 0.548393 2.2437 -0.307909 -0.293918 -0.904878 255 255 0 255
0.093328 0.546933 2.23646 -0.942647 -0.272411 -0.192895 255 255 0 255
0.091759 0.544717 2.2227 0.982519 0.0227039 -0.184771 255 255 0 255
0.087649 0.542267 2.20695 -0.998314 -0.00370871 -0.0579248 255 255 0 255
0.088656 0.540271 2.19509 -0.835572 -0.0618802 -0.545884 255 255 0 255
0.101559 0.539357 2.19247 -0.827365 -0.32223 -0.460039 255 255 0 255
0.101716 0.537287 2.17996 -0.848585 -0.242435 -0.470244 255 255 0 255
-0.242972 0.479103 2.23231 0.976296 -0.175423 -0.126779 0 255 0 255
-0.235691 0.480523 2.23902 0.928223 -0.267026 -0.259035 0 255 0 255
-0.233665 0.482732 2.24956 0.824059 -0.497257 -0.271408 0 255 0 255
-0.227252 0.48429 2.25693 0.654742 -0.646772 -0.39115 0 255 0 255
-0.221712 0.485983 2.26495 0.587048 -0.651782 -0.480161 0 255 0 255
-0.215289 0.487552 2.27235 0.568061 -0.56739 -0.596134 0 255 0 255
-0.205339 0.488612 2.27726 0.486016 -0.31902 -0.813643 0 255 0 255
-0.194497 0.489554 2.28159 0.301915 -0.266376 -0.915364 0 255 0 255
-0.183642 0.490506 2.28596 0.207387 -0.334434 -0.919317 0 255 0 255
-0.16395 0.490201 2.28418 0.16944 -0.0282845 -0.985134 0 255 0 255
-0.155711 0.491559 2.29051 0.500095 0.0521427 -0.864399 0 255 0 255
-0.142159 0.492169 2.29318 0.535043 -0.113745 -0.837132 0 255 0 255
-0.14009 0.494421 2.30387 0.573996 -0.350848 -0.739888 0 255 0 255
-0.127398 0.495177 2.30724 0.576728 -0.529648 -0.621979 0 255 0 255
-0.119121 0.496566 2.31369 0.293472 -0.799187 -0.52457 0 255 0 255
-0.100192 0.49648 2.31293 -0.208222 -0.083804 -0.974485 0 255 0 255
-0.085675 0.497029 2.31527 -0.275715 -0.273658 -0.921462 0 255 0 255
-0.302181 0.471851 2.212 0.684567 0.0860601 0.723852 255 0 0 255
-0.295355 0.470593 2.206 0.678369 0.12268 0.724407 255 0 0 255
-0.288693 0.469547 2.201 0.649723 0.217689 0.728335 255 0 0 255
-0.2818 0.468075 2.194 0.714632 0.202552 0.669532 255 0 0 255
-0.274944 0.466602 2.187 0.711409 0.117559 0.692876 255 0 0 255
-0.268126 0.465128 2.18 0.538513 0.014383 0.842494 255 0 0 255
-0.262067 0.464935 2.179 0.00745319 0.167259 0.985885 255 0 0 255
-0.25613 0.464954 2.179 -0.205329 0.323258 0.923766 255 0 0 255
-0.250537 0.465613 2.182 -0.0269771 0.31422 0.948967 255 0 0 255
-0.244479 0.465419 2.181 0.429832 0.279221 0.85865 255 0 0 255
-0.237988 0.46437 2.176 0.620417 0.278959 0.732983 255 0 0 255
-0.23099 0.462254 2.166 0.618076 0.239986 0.748591 255 0 0 255
-0.224774 0.461631 2.163 0.310398 0.192417 0.930929 255 0 0 255
-0.218776 0.461435 2.162 0.236019 0.324604 0.91593 255 0 0 255
-0.212881 0.461451 2.162 0.397848 0.267872 0.877475 255 0 0 255
-0.206698 0.460827 2.159 0.570571 0.160245 0.805463 255 0 0 255
-0.200345 0.459776 2.154 0.576317 0.0753863 0.813742 255 0 0 255
-0.194109 0.458937 2.15 0.520987 0.118695 0.845272 255 0 0 255
-0.187982 0.458312 2.147 0.46907 0.118322 0.875199 255 0 0 255
-0.18187 0.457686 2.144 0.394946 0.170606 0.902724 255 0 0 255
-0.175775 0.45706 2.141 0.283681 0.0601961 0.957028 255 0 0 255
-0.169854 0.45686 2.14 0.0668775 -0.14485 0.987191 255 0 0 255
-0.164014 0.456873 2.14 0.000895768 -0.192881 0.981222 255 0 0 255
-0.158248 0.4571 2.141 -0.0299402 -0.167311 0.985449 255 0 0 255
-0.152405 0.457112 2.141 0.0628737 0.0306435 0.997551 255 0 0 255
-0.146493 0.456911 2.14 0.0644489 0.169695 0.983387 255 0 0 255
-0.140652 0.456922 2.14 0.152379 0.208022 0.966182 255 0 0 255
-0.134621 0.456293 2.137 0.093544 0.0331881 0.995062 255 0 0 255
-0.128848 0.456517 2.138 0.00148524 0.115276 0.993332 255 0 0 255
-0.123011 0.456527 2.138 0.0599207 0.189572 0.980037 255 0 0 255
-0.117173 0.456537 2.138 0.179775 0.174015 0.968194 255 0 0 255
-0.111232 0.456119 2.136 0.0932568 0.222148 0.970543 255 0 0 255
-0.105498 0.456555 2.138 0.0342543 0.101044 0.994292 255 0 0 255
-0.099566 0.456137 2.136 0.229687 0.100186 0.968094 255 0 0 255
-0.093689 0.455931 2.135 0.221964 -0.0187404 0.974875 255 0 0 255
-0.087776 0.455511 2.133 0.114422 -0.0413335 0.992572 255 0 0 255
-0.081989 0.455732 2.134 0.0879801 0.0264044 0.995772 255 0 0 255
-0.076089 0.455311 2.132 0.333316 0.142746 0.931947 255 0 0 255
-0.070199 0.45489 2.13 0.401573 0.155596 0.902512 255 0 0 255
-0.064321 0.454469 2.128 0.449006 0.0948709 0.888478 255 0 0 255
-0.058425 0.453833 2.125 0.388854 0.118569 0.913638 255 0 0 255
-0.052571 0.453411 2.123 0.340893 0.15729 0.92685 255 0 0 255
-0.046683 0.452561 2.119 0.180876 0.180461 0.966808 255 0 0 255
-0.040914 0.452778 2.12 -0.148193 0.138345 0.979234 255 0 0 255
-0.035155 0.453208 2.122 -0.146421 0.0375386 0.98851 255 0 0 255
-0.029372 0.453424 2.123 -0.118418 0.0250247 0.992648 255 0 0 255
-0.023572 0.453426 2.123 0.0608232 0.042793 0.997231 255 0 0 255
-0.017755 0.453001 2.121 0.000644058 0.195366 0.98073 255 0 0 255
-0.011971 0.453429 2.123 0.00013197 0.184379 0.982855 255 0 0 255
-0.006168 0.453217 2.122 0.258064 0.145756 0.95507 255 0 0 255
-0.00037 0.45279 2.12 0.258177 0.160499 0.952672 255 0 0 255
0.005419 0.452576 2.119 -0.12306 0.113636 0.985872 255 0 0 255
0.011225 0.453216 2.122 -0.338603 0.069729 0.938342 255 0 0 255
0.01703 0.453428 2.123 -0.060076 0.127482 0.99002 255 0 0 255
0.022819 0.453213 2.122 0.089889 0.251157 0.963763 255 0 0 255
0.028603 0.452997 2.121 -0.0305194 0.274074 0.961224 255 0 0 255
0.034398 0.452995 2.121 -0.390751 0.240575 0.888503 255 0 0 255
0.040268 0.453846 2.125 -0.415995 0.158643 0.895422 255 0 0 255
0.046117 0.45427 2.127 -0.20446 0.124097 0.970977 255 0 0 255
0.051976 0.454693 2.129 -0.146258 0.118565 0.982116 255 0 0 255
0.057792 0.454688 2.129 -0.312733 0.169162 0.934656 255 0 0 255
0.063697 0.455324 2.132 -0.469861 0.155707 0.868899 255 0 0 255
0.069586 0.455745 2.134 -0.361103 0.112617 0.925701 255 0 0 255
