ply
format ascii 1.0
comment VCGLIB generated
element vertex 716
property float x
property float y
property float z
property float nx
property float ny
property float nz
property uchar red
property uchar green
property uchar blue
property uchar alpha
element face 0
property list uchar int vertex_indices
end_header
-0.037118 -0.041783 2.232 0.421354 0.215266 0.880977 255 0 0 255
-0.03097 -0.041746 2.23 -0.0846423 0.243036 0.966317 255 0 0 255
-0.024865 -0.041765 2.231 -0.376721 0.138193 0.915961 255 0 0 255
-0.01878 -0.04184 2.235 -0.352069 -0.0721501 0.933189 255 0 0 255
-0.012673 -0.041915 2.239 -0.303589 -0.0262169 0.952442 255 0 0 255
-0.006542 -0.041972 2.242 -0.540152 -0.0325588 0.840938 255 0 0 255
-0.000394 -0.042084 2.248 -0.661255 0.0447965 0.748823 255 0 0 255
0.005779 -0.04214 2.251 -0.582507 0.19195 0.789836 255 0 0 255
0.011968 -0.042196 2.254 -0.591698 0.225668 0.77393 255 0 0 255
0.01819 -0.04229 2.259 -0.573338 0.26284 0.776015 255 0 0 255
0.024429 -0.042364 2.263 -0.700759 0.176456 0.691231 255 0 0 255
0.030757 -0.042532 2.272 -0.751444 0.113924 0.649887 255 0 0 255
0.037085 -0.042644 2.278 -0.804501 -0.0595374 0.59096 255 0 0 255
0.043541 -0.04285 2.289 -0.542576 -0.0297588 0.839479 255 0 0 255
0.049796 -0.042831 2.288 -0.602921 -0.179017 0.777457 255 0 0 255
0.05634 -0.043036 2.299 -0.842388 -0.231184 0.486761 255 0 0 255
0.132307 -0.043137 2.305 0.0676258 -0.833819 0.54788 255 0 0 255
0.138382 -0.043061 2.301 0.449438 -0.00799917 0.893276 255 0 0 255
0.144623 -0.043041 2.3 0.48965 0.0102271 0.871859 255 0 0 255
0.150858 -0.043021 2.299 0.322248 -0.140856 0.936117 255 0 0 255
-0.106729 -0.360494 2.59948 0.0724626 -0.757446 -0.648865 255 255 0 255
-0.084419 -0.356037 2.60041 0.0797792 -0.722224 -0.687043 255 255 0 255
-0.061309 -0.351272 2.60197 -0.0655869 -0.680501 -0.729806 255 255 0 255
-0.031523 -0.344186 2.60788 -0.487963 0.865508 -0.113086 255 255 0 255
-0.019409 -0.343123 2.60281 -0.764931 0.521767 -0.377676 255 255 0 255
-0.015693 -0.344939 2.59247 -0.765929 0.628995 -0.133106 255 255 0 255
-0.019512 -0.349356 2.57732 -0.856483 0.429848 -0.285777 255 255 0 255
-0.023315 -0.353781 2.56213 0.81836 -0.551624 -0.161238 255 255 0 255
0.002132 -0.348064 2.56578 -0.503677 -0.736845 -0.450965 255 255 0 255
0.016684 -0.346099 2.56252 -0.602723 -0.777444 -0.179738 255 255 0 255
0.015378 -0.349649 2.54897 0.905574 0.407436 -0.118031 255 255 0 255
0.005756 -0.356117 2.52993 -0.69342 -0.71209 -0.109988 255 255 0 255
0.016505 -0.358577 2.51147 -0.672721 -0.592374 -0.443328 255 255 0 255
-0.197764 -0.437935 2.43208 0.7064 -0.205174 -0.677423 0 255 0 255
-0.223193 -0.423956 2.46136 -0.731837 -0.575471 -0.365033 0 255 0 255
-0.229388 -0.417983 2.47777 -0.767863 -0.573928 -0.284593 0 255 0 255
-0.245671 -0.407871 2.50072 -0.964828 0.0432557 -0.259298 0 255 0 255
-0.238828 -0.403929 2.52069 0.909117 0.153694 -0.38715 0 255 0 255
-0.22657 -0.405574 2.52498 0.746135 0.251502 -0.616465 0 255 0 255
-0.231982 -0.399986 2.54066 0.485498 0.378055 -0.788268 0 255 0 255
-0.204536 -0.407798 2.53535 0.706751 -0.114728 -0.698098 0 255 0 255
-0.19645 -0.407695 2.54248 0.584016 -0.226347 -0.779547 0 255 0 255
-0.190889 -0.40656 2.55123 0.539406 -0.398692 -0.741678 0 255 0 255
-0.162505 -0.414647 2.54572 -0.0799514 -0.165851 -0.982905 0 255 0 255
-0.136081 -0.418463 2.554 0.743616 -0.431692 -0.510566 0 255 0 255
-0.044769 -0.409982 2.661 -0.0651245 -0.449474 -0.890916 0 255 0 255
-0.028795 -0.412755 2.66433 0.393908 0.0931911 -0.914413 0 255 0 255
-0.372208 -0.048497 2.265 0.456448 0.627655 0.630638 255 0 0 255
-0.364907 -0.04835 2.258 0.362992 0.673342 0.644087 255 0 0 255
-0.358913 -0.048375 2.259 0.45442 0.596258 0.6618 255 0 0 255
-0.35182 -0.04825 2.253 0.529029 0.331211 0.781299 255 0 0 255
-0.344451 -0.048082 2.245 0.255945 0.110817 0.960319 255 0 0 255
-0.33803 -0.048043 2.243 -0.34824 0.169078 0.922031 255 0 0 255
-0.333097 -0.048217 2.251 -0.672953 0.202149 0.711527 255 0 0 255
-0.330009 -0.048671 2.272 -0.848134 0.399197 0.348296 255 0 0 255
-0.326091 -0.049017 2.288 -0.947333 0.165764 0.274013 255 0 0 255
-0.318312 -0.048784 2.277 0.725334 0.184428 0.663232 255 0 0 255
-0.309768 -0.048423 2.26 0.416969 0.203402 0.885869 255 0 0 255
-0.303197 -0.048362 2.257 -0.454363 0.492091 0.742564 255 0 0 255
-0.298221 -0.048558 2.266 -0.516631 0.364135 0.774918 255 0 0 255
-0.2959 -0.049204 2.296 0.137705 0.00504967 0.99046 255 0 0 255
-0.283977 -0.049317 2.301 -0.0584023 -0.0842117 0.994735 255 0 0 255
-0.27733 -0.049255 2.298 0.203696 0.295977 0.933223 255 0 0 255
-0.27058 -0.049172 2.294 0.326484 0.427869 0.842815 255 0 0 255
-0.264081 -0.049132 2.292 0.261308 0.328855 0.907509 255 0 0 255
-0.257705 -0.049114 2.291 0.303227 0.187051 0.93438 255 0 0 255
-0.251223 -0.049073 2.289 0.435021 0.0313194 0.899876 255 0 0 255
-0.244752 -0.049033 2.287 0.419741 -0.00815038 0.907607 255 0 0 255
-0.238186 -0.048971 2.284 0.430499 0.111716 0.895651 255 0 0 255
-0.231737 -0.048931 2.282 0.296837 0.234463 0.925697 255 0 0 255
-0.225397 -0.048912 2.281 0.12871 0.366706 0.921391 255 0 0 255
-0.219062 -0.048893 2.28 -0.0118095 0.146761 0.989101 255 0 0 255
-0.212825 -0.048895 2.28 -0.136965 0.0638003 0.988519 255 0 0 255
-0.206767 -0.04894 2.282 -0.10406 -0.112708 0.988164 255 0 0 255
-0.200435 -0.048921 2.281 -0.156614 -0.0271201 0.987288 255 0 0 255
-0.194363 -0.048966 2.283 0.00785034 -0.0558468 0.998408 255 0 0 255
-0.187949 -0.048925 2.281 0.0520961 0.120605 0.991333 255 0 0 255
-0.181785 -0.048949 2.282 0.167226 0.326105 0.930425 255 0 0 255
-0.175306 -0.048887 2.279 0.105236 0.545699 0.831347 255 0 0 255
-0.16914 -0.04891 2.28 -0.0773851 0.554041 0.828885 255 0 0 255
-0.162897 -0.048912 2.28 -0.0819507 0.480654 0.873073 255 0 0 255
-0.156858 -0.048978 2.283 -0.112771 0.370904 0.921799 255 0 0 255
-0.150671 -0.049001 2.284 -0.0799525 0.414661 0.906457 255 0 0 255
-0.144288 -0.04896 2.282 0.127909 0.567775 0.813186 255 0 0 255
-0.137795 -0.048875 2.278 -0.119088 0.53574 0.835943 255 0 0 255
-0.131727 -0.048941 2.281 -0.555313 0.461119 0.692096 255 0 0 255
-0.126247 -0.049243 2.295 -0.902528 0.223948 0.367818 255 0 0 255
-0.12069 -0.049545 2.309 -0.908372 0.127548 0.398236 255 0 0 255
-0.114907 -0.049782 2.32 -0.653753 -0.0507153 0.755006 255 0 0 255
-0.108642 -0.049826 2.322 -0.326849 -0.0413652 0.944171 255 0 0 255
-0.102278 -0.049828 2.322 0.627026 -0.0520364 0.777258 255 0 0 255
-0.0955 -0.049614 2.312 0.813092 0.118629 0.56992 255 0 0 255
-0.088776 -0.049401 2.302 0.804035 0.290524 0.518772 255 0 0 255
-0.082072 -0.049165 2.291 0.757681 0.34903 0.55145 255 0 0 255
-0.075526 -0.048995 2.283 0.717552 0.416967 0.557905 255 0 0 255
-0.068963 -0.048781 2.273 0.703794 0.467957 0.534499 255 0 0 255
-0.062538 -0.048631 2.266 0.65767 0.508354 0.555919 255 0 0 255
-0.056076 -0.048417 2.256 0.692827 0.449354 0.563979 255 0 0 255
-0.049713 -0.048246 2.248 0.730339 0.389494 0.561159 255 0 0 255
-0.043355 -0.048032 2.238 0.624593 0.40233 0.669339 255 0 0 255
-0.037168 -0.047968 2.235 0.355069 0.515843 0.779636 255 0 0 255
-0.031011 -0.047926 2.233 -0.0350007 0.418242 0.907661 255 0 0 255
-0.024909 -0.047969 2.235 -0.135356 0.465905 0.874421 255 0 0 255
-0.018789 -0.047991 2.236 -0.262383 0.165419 0.95068 255 0 0 255
-0.012656 -0.047991 2.236 -0.316221 -0.0812024 0.945204 255 0 0 255
-0.006533 -0.048055 2.239 -0.539637 -0.0419758 0.840851 255 0 0 255
-0.000393 -0.048141 2.243 -0.680201 -0.0358866 0.732146 255 0 0 255
0.005779 -0.048313 2.251 -0.630459 -0.137967 0.763863 255 0 0 255
0.011973 -0.048399 2.255 -0.596221 -0.0378617 0.801927 255 0 0 255
0.018206 -0.048527 2.261 -0.606036 0.139298 0.783145 255 0 0 255
0.024439 -0.048591 2.264 -0.666642 0.106805 0.737687 255 0 0 255
0.030743 -0.048741 2.271 -0.733337 -0.105819 0.67158 255 0 0 255
0.037101 -0.048913 2.279 -0.829633 -0.063641 0.554669 255 0 0 255
0.04356 -0.049148 2.29 -0.507273 -0.288859 0.811933 255 0 0 255
0.049796 -0.049105 2.288 -0.577822 -0.272252 0.769416 255 0 0 255
0.056119 -0.049147 2.29 -0.381179 -0.461167 0.801266 255 0 0 255
0.062861 -0.049511 2.307 -0.878559 -0.18122 0.441919 255 0 0 255
-0.078754 -0.362535 2.61819 0.0781232 -0.784765 -0.61485 255 255 0 255
-0.040132 -0.355487 2.61662 0.117498 -0.912354 -0.392179 255 255 0 255
-0.028006 -0.354405 2.6115 0.215967 -0.719765 -0.65977 255 255 0 255
-0.024282 -0.356224 2.60114 -0.506269 0.396902 -0.765612 255 255 0 255
-0.029772 -0.361246 2.58493 -0.766891 0.57137 -0.292257 255 255 0 255
-0.039425 -0.367736 2.566 -0.751024 -0.107753 -0.651423 255 255 0 255
-0.021473 -0.364599 2.5647 0.28599 -0.244789 -0.926438 255 255 0 255
0.009805 -0.356765 2.57212 -0.595966 -0.690409 -0.410074 255 255 0 255
0.031017 -0.352418 2.5732 -0.252106 -0.933963 -0.253289 255 255 0 255
0.017204 -0.360378 2.55153 0.917823 0.240075 -0.316173 255 255 0 255
-0.014044 -0.380832 2.49252 0.516755 0.0814191 -0.852253 255 255 0 255
-0.2014 -0.441001 2.46076 -0.832363 -0.0875415 -0.547273 0 255 0 255
-0.264139 -0.408118 2.52636 0.354095 0.449263 -0.820232 0 255 0 255
-0.233431 -0.417454 2.51861 0.181672 0.588546 -0.787787 0 255 0 255
-0.20856 -0.424326 2.51482 0.351443 0.507052 -0.78701 0 255 0 255
-0.199641 -0.42459 2.5214 0.953299 0.261133 -0.151759 0 255 0 255
-0.205032 -0.418966 2.53712 0.848407 -0.49055 -0.198914 0 255 0 255
-0.199477 -0.417843 2.54586 0.654541 -0.347601 -0.671379 0 255 0 255
-0.188012 -0.41913 2.55089 0.726053 -0.47003 -0.501916 0 255 0 255
-0.146126 -0.4328 2.53696 -0.991892 -0.102313 -0.0753872 0 255 0 255
-0.152356 -0.426828 2.55323 -0.315649 -0.705863 -0.634132 0 255 0 255
-0.148449 -0.424987 2.56317 -0.315649 -0.705863 -0.634132 0 255 0 255
-0.035894 -0.425162 2.65756 0.962853 -0.188966 -0.192889 0 255 0 255
-0.025914 -0.425616 2.66435 0.771255 -0.498958 -0.395231 0 255 0 255
-0.036495 -0.418016 2.68282 0.802094 -0.595275 -0.0478911 0 255 0 255
-0.366681 -0.054794 2.269 0.565139 0.59587 0.570577 255 0 0 255
-0.359863 -0.054701 2.265 0.587978 0.405967 0.699624 255 0 0 255
-0.351972 -0.054439 2.254 0.743626 0.177357 0.644644 255 0 0 255
-0.344601 -0.05425 2.246 0.589119 0.135834 0.796547 255 0 0 255
-0.338328 -0.054229 2.245 -0.610243 0.0106892 0.792142 255 0 0 255
-0.333538 -0.05445 2.254 -0.589936 0.208942 0.779948 255 0 0 255
-0.330441 -0.054962 2.275 -0.906516 -0.0380469 0.420455 255 0 0 255
-0.326943 -0.055424 2.294 0.975162 0.132723 0.177325 255 0 0 255
-0.319566 -0.055235 2.286 0.975162 0.132723 0.177326 255 0 0 255
-0.31045 -0.054731 2.265 -0.123515 0.407479 0.904823 255 0 0 255
-0.303462 -0.054589 2.259 -0.428055 0.330689 0.841079 255 0 0 255
-0.298217 -0.054762 2.266 -0.653797 0.252798 0.713192 255 0 0 255
-0.283727 -0.055569 2.299 -0.0499189 0.439969 0.896624 255 0 0 255
-0.27793 -0.055669 2.303 0.166698 0.508776 0.844606 255 0 0 255
-0.27152 -0.055648 2.302 0.259834 0.448903 0.854969 255 0 0 255
-0.264885 -0.055579 2.299 0.363765 0.389175 0.846296 255 0 0 255
-0.258377 -0.055534 2.297 0.387636 0.29347 0.87385 255 0 0 255
-0.25155 -0.055416 2.292 0.464102 0.0821788 0.881962 255 0 0 255
-0.244856 -0.055322 2.288 0.368133 0.11721 0.922356 255 0 0 255
-0.238392 -0.055277 2.286 0.197498 0.200387 0.959604 255 0 0 255
-0.232141 -0.05528 2.286 0.223188 0.311868 0.92354 255 0 0 255
-0.225592 -0.05521 2.283 0.303105 0.241235 0.921918 255 0 0 255
-0.219348 -0.055212 2.283 0.119594 0.125279 0.984887 255 0 0 255
-0.212822 -0.055142 2.28 -0.119 0.0335556 0.992327 255 0 0 255
-0.206946 -0.055242 2.284 -0.0866971 0.00333128 0.996229 255 0 0 255
-0.200608 -0.05522 2.283 -0.0232905 -0.019915 0.99953 255 0 0 255
-0.194531 -0.055271 2.285 0.0712699 0.0292282 0.997029 255 0 0 255
-0.188029 -0.055201 2.282 -0.0621572 0.0881998 0.994162 255 0 0 255
-0.182021 -0.055275 2.285 -0.166623 0.326361 0.930444 255 0 0 255
-0.175689 -0.055254 2.284 -0.0817696 0.468545 0.879647 255 0 0 255
-0.169583 -0.055304 2.286 0.0859263 0.494736 0.864785 255 0 0 255
-0.163038 -0.055209 2.282 0.0653341 0.411258 0.909175 255 0 0 255
-0.156788 -0.055211 2.282 -0.165368 0.315384 0.934444 255 0 0 255
-0.150604 -0.055237 2.283 -0.203978 0.438793 0.875131 255 0 0 255
-0.144476 -0.055288 2.285 0.0939293 0.591565 0.800767 255 0 0 255
-0.137975 -0.055193 2.281 -0.110222 0.539247 0.834903 255 0 0 255
-0.131956 -0.055291 2.285 -0.611508 0.528658 0.588709 255 0 0 255
-0.126355 -0.055583 2.297 -0.873873 0.279725 0.397618 255 0 0 255
-0.120793 -0.055923 2.311 -0.880529 0.0944424 0.464488 255 0 0 255
-0.114905 -0.056143 2.32 -0.712264 -0.0104513 0.701833 255 0 0 255
-0.108781 -0.056265 2.325 -0.295873 -0.177554 0.938581 255 0 0 255
-0.102409 -0.056266 2.325 0.390734 0.226787 0.892129 255 0 0 255
-0.09554 -0.055977 2.313 0.814347 0.137872 0.563764 255 0 0 255
-0.088775 -0.055712 2.302 0.783572 0.174408 0.59632 255 0 0 255
-0.082214 -0.055544 2.295 0.722469 0.342858 0.600406 255 0 0 255
-0.075624 -0.055327 2.286 0.702489 0.445897 0.554694 255 0 0 255
-0.069144 -0.055159 2.279 0.670287 0.470401 0.573967 255 0 0 255
-0.06273 -0.055014 2.273 0.662073 0.493108 0.564362 255 0 0 255
-0.056299 -0.054821 2.265 0.695392 0.467009 0.546197 255 0 0 255
-0.049911 -0.054628 2.257 0.719306 0.455486 0.524529 255 0 0 255
-0.043529 -0.054387 2.247 0.674563 0.458894 0.578257 255 0 0 255
-0.0373 -0.054291 2.243 0.373486 0.60699 0.701478 255 0 0 255
-0.03108 -0.05417 2.238 0.0707636 0.335137 0.939508 255 0 0 255
-0.024943 -0.05417 2.238 -0.0470993 0.282669 0.958061 255 0 0 255
-0.018813 -0.054195 2.239 0.0886696 0.0894817 0.992034 255 0 0 255
-0.012668 -0.054171 2.238 -0.0464455 -0.117524 0.991983 255 0 0 255
-0.006536 -0.054219 2.24 -0.427408 -0.092327 0.899332 255 0 0 255
-0.000393 -0.054292 2.243 -0.695408 -0.141257 0.704595 255 0 0 255
0.005779 -0.054486 2.251 -0.678765 -0.0889848 0.728944 255 0 0 255
0.011968 -0.054558 2.254 -0.660877 -0.0460726 0.749079 255 0 0 255
0.018198 -0.054703 2.26 -0.711251 0.118278 0.692915 255 0 0 255
0.024439 -0.0548 2.264 -0.547513 0.170427 0.819258 255 0 0 255
0.030702 -0.054896 2.268 -0.51065 -0.111446 0.852535 255 0 0 255
0.037019 -0.055041 2.274 -0.584642 -0.345912 0.733852 255 0 0 255
0.043369 -0.055186 2.28 -0.580005 -0.55419 0.59705 255 0 0 255
0.04973 -0.055306 2.285 -0.390135 -0.477309 0.787382 255 0 0 255
0.056118 -0.055427 2.29 -0.738175 -0.370212 0.563951 255 0 0 255
0.06286 -0.055837 2.307 -0.876147 -0.175757 0.448862 255 0 0 255
-0.053331 -0.365289 2.63531 0.371382 -0.6997 -0.610324 255 255 0 255
-0.059677 -0.370621 2.61865 0.189634 -0.841964 -0.50511 255 255 0 255
-0.021974 -0.363735 2.6167 0.762741 0.245641 -0.598236 255 255 0 255
-0.028311 -0.369072 2.60001 0.962402 0.15974 -0.219693 255 255 0 255
-0.02793 -0.372068 2.58751 0.695222 0.689037 -0.204681 255 255 0 255
-0.025034 -0.374184 2.57659 -0.328815 -0.865537 -0.377791 255 255 0 255
0.024147 -0.363067 2.58275 0.134181 -0.607059 -0.783247 255 255 0 255
0.039502 -0.360727 2.58007 0.232441 -0.727609 -0.645411 255 255 0 255
0.047337 -0.361039 2.57257 0.232441 -0.727609 -0.645411 255 255 0 255
-0.194684 -0.45183 2.47019 -0.611883 -0.624744 -0.485071 0 255 0 255
-0.242803 -0.428268 2.51388 0.0770882 0.242594 -0.96706 0 255 0 255
-0.223846 -0.432774 2.51384 0.110405 0.235345 -0.965621 0 255 0 255
-0.2015 -0.438658 2.51172 0.279123 0.0554229 -0.958655 0 255 0 255
-0.197623 -0.436841 2.52156 -0.90493 -0.416923 -0.0853095 0 255 0 255
-0.211423 -0.427705 2.54264 0.959817 -0.27723 -0.0435368 0 255 0 255
-0.203346 -0.427636 2.54977 0.452034 -0.717476 -0.529993 0 255 0 255
-0.196947 -0.426867 2.55799 0.351254 -0.543943 -0.762068 0 255 0 255
-0.19223 -0.425399 2.56728 0.631237 -0.413849 -0.655949 0 255 0 255
-0.178218 -0.427739 2.57081 0.977579 -0.163688 -0.132461 0 255 0 255
-0.147276 -0.436981 2.56396 0.799641 -0.274696 -0.533963 0 255 0 255
-0.142518 -0.435485 2.57339 -0.3556 -0.639313 -0.681783 0 255 0 255
-0.043281 -0.433969 2.66344 -0.709025 0.689168 -0.149439 0 255 0 255
-0.03331 -0.434448 2.67022 -0.865325 -0.320134 -0.385652 0 255 0 255
-0.033608 -0.430865 2.68285 0.860068 0.465989 -0.207695 0 255 0 255
-0.368616 -0.061324 2.281 0.677785 0.554888 0.482398 255 0 0 255
-0.359859 -0.060898 2.265 0.705283 0.371392 0.603858 255 0 0 255
-0.351968 -0.060606 2.254 0.741188 0.211982 0.636949 255 0 0 255
-0.344751 -0.060423 2.247 0.438446 0.310233 0.843517 255 0 0 255
-0.338173 -0.060346 2.244 -0.478674 0.290958 0.828381 255 0 0 255
-0.333386 -0.060592 2.253 -0.502718 0.074736 0.861214 255 0 0 255
-0.329711 -0.061054 2.27 -0.823204 -0.0893942 0.560664 255 0 0 255
-0.326654 -0.061649 2.292 -0.922816 -0.302846 0.238106 255 0 0 255
-0.319842 -0.061546 2.288 0.898057 -0.0629832 0.435347 255 0 0 255
-0.311132 -0.061066 2.27 0.116199 0.614312 0.78046 255 0 0 255
-0.303727 -0.060827 2.261 0.126051 0.561738 0.817656 255 0 0 255
-0.298477 -0.061019 2.268 -0.0320251 0.45986 0.887414 255 0 0 255
-0.284464 -0.062026 2.305 0.223884 0.473501 0.851864 255 0 0 255
-0.278409 -0.062084 2.307 0.368709 0.40732 0.835551 255 0 0 255
-0.271517 -0.061953 2.302 0.328701 0.134492 0.934809 255 0 0 255
-0.264766 -0.061849 2.298 0.424158 0.0956607 0.900521 255 0 0 255
-0.258149 -0.061771 2.295 0.433549 0.139863 0.89021 255 0 0 255
-0.251547 -0.061694 2.292 0.465388 0.241092 0.851639 255 0 0 255
-0.24496 -0.061616 2.289 0.29498 0.316987 0.901391 255 0 0 255
-0.238597 -0.061593 2.288 0.161767 0.178385 0.970572 255 0 0 255
-0.232443 -0.061623 2.289 0.240483 0.204176 0.948936 255 0 0 255
-0.225787 -0.061518 2.285 0.319622 0.100703 0.942179 255 0 0 255
-0.219249 -0.06144 2.282 0.165838 0.201276 0.965394 255 0 0 255
-0.212633 -0.061336 2.278 -0.0236042 0.157213 0.987283 255 0 0 255
-0.206853 -0.061473 2.283 -0.201462 0.426565 0.881734 255 0 0 255
-0.200518 -0.061449 2.282 0.165007 0.257857 0.951989 255 0 0 255
-0.194273 -0.061452 2.282 0.158236 0.0581387 0.985688 255 0 0 255
-0.188027 -0.061454 2.282 -0.162497 0.0871314 0.982854 255 0 0 255
-0.182019 -0.061537 2.285 -0.317285 0.148232 0.936674 255 0 0 255
-0.175917 -0.061594 2.287 -0.183037 0.216086 0.959064 255 0 0 255
-0.169729 -0.061623 2.288 0.0373188 0.386279 0.921627 255 0 0 255
-0.16325 -0.061545 2.285 0.0242605 0.495218 0.86843 255 0 0 255
-0.157061 -0.061574 2.286 -0.085543 0.581252 0.809215 255 0 0 255
-0.150931 -0.06163 2.288 -0.172011 0.617874 0.767231 255 0 0 255
-0.144917 -0.06174 2.292 -0.146479 0.709598 0.689213 255 0 0 255
-0.138457 -0.061661 2.289 -0.0670412 0.775056 0.628326 255 0 0 255
-0.132301 -0.061716 2.291 -0.371958 0.719965 0.585916 255 0 0 255
-0.126574 -0.061988 2.301 -0.723644 0.311987 0.615632 255 0 0 255
-0.120948 -0.06234 2.314 -0.845964 0.0241524 0.532693 255 0 0 255
-0.114904 -0.062503 2.32 -0.631371 -0.106687 0.768107 255 0 0 255
-0.108826 -0.062666 2.326 -0.518172 0.232988 0.82293 255 0 0 255
-0.102275 -0.06256 2.322 0.574021 0.285643 0.767404 255 0 0 255
-0.095497 -0.062292 2.312 0.793651 0.271091 0.544635 255 0 0 255
-0.08889 -0.062105 2.305 0.726819 0.280285 0.627037 255 0 0 255
-0.082392 -0.061971 2.3 0.633988 0.293047 0.715669 255 0 0 255
-0.075888 -0.06181 2.294 0.678119 0.417598 0.604787 255 0 0 255
-0.069326 -0.061569 2.285 0.679429 0.4571 0.573965 255 0 0 255
-0.06284 -0.061354 2.277 0.691482 0.435486 0.576372 255 0 0 255
-0.056373 -0.061113 2.268 0.733667 0.357913 0.577609 255 0 0 255
-0.049999 -0.060925 2.261 0.766985 0.346898 0.53981 255 0 0 255
-0.043586 -0.060629 2.25 0.737894 0.24887 0.627357 255 0 0 255
-0.037366 -0.060549 2.247 0.694622 0.26622 0.668302 255 0 0 255
-0.031093 -0.060334 2.239 0.476487 0.0150371 0.879053 255 0 0 255
-0.024953 -0.060334 2.239 0.228717 -0.119421 0.96614 255 0 0 255
-0.018788 -0.060254 2.236 0.0883923 -0.154148 0.984086 255 0 0 255
-0.01265 -0.060227 2.235 -0.211418 -0.0878326 0.973441 255 0 0 255
-0.006524 -0.060254 2.236 -0.36111 -0.0538907 0.930965 255 0 0 255
-0.000392 -0.060335 2.239 -0.593303 0.0216934 0.804687 255 0 0 255
0.005768 -0.06055 2.247 -0.725264 0.0272694 0.687931 255 0 0 255
0.011963 -0.060712 2.253 -0.746962 0.0624754 0.661925 255 0 0 255
0.01823 -0.061008 2.264 -0.760505 0.199646 0.617878 255 0 0 255
0.024503 -0.06117 2.27 -0.265878 0.283017 0.921526 255 0 0 255
0.030715 -0.061142 2.269 -0.155413 -0.0182373 0.987681 255 0 0 255
0.036937 -0.061142 2.269 -0.111583 -0.290788 0.950259 255 0 0 255
0.043197 -0.061195 2.271 -0.564171 -0.389819 0.727841 255 0 0 255
0.049577 -0.061383 2.278 -0.709314 -0.32987 0.622945 255 0 0 255
0.055946 -0.061517 2.283 -0.707362 -0.145771 0.691658 255 0 0 255
0.062641 -0.061947 2.299 -0.920484 -0.0973778 0.378452 255 0 0 255
-0.061121 -0.376367 2.64471 0.609197 -0.421433 -0.671769 255 255 0 255
-0.002875 -0.365323 2.64269 -0.784939 -0.185428 -0.591175 255 255 0 255
-0.010078 -0.37097 2.62558 0.538309 0.831913 -0.134698 255 255 0 255
-0.020608 -0.377812 2.60629 0.659647 0.640462 -0.393286 255 255 0 255
-0.020232 -0.380814 2.5938 -0.541288 -0.840214 -0.0323738 255 255 0 255
-0.011492 -0.38085 2.58663 0.532407 0.839663 -0.107282 255 255 0 255
-0.005268 -0.381773 2.57789 -0.334652 0.172311 -0.926454 255 255 0 255
0.014292 -0.377927 2.57777 -0.369627 0.538854 -0.756976 255 255 0 255
0.038815 -0.372275 2.58099 0.613532 -0.135925 -0.777883 255 255 0 255
0.015864 -0.383628 2.55338 -0.975711 0.118163 -0.184459 255 255 0 255
0.014581 -0.38723 2.5398 0.989099 -0.0351235 -0.143004 255 255 0 255
-0.203281 -0.463152 2.46483 -0.864523 -0.396178 -0.309262 0 255 0 255
-0.201908 -0.46027 2.47634 -0.675589 -0.349273 -0.649298 0 255 0 255
-0.199701 -0.457744 2.48729 -0.828639 0.468617 -0.306194 0 255 0 255
-0.205369 -0.44847 2.51566 0.429901 0.232081 -0.872539 0 255 0 255
-0.181321 -0.455094 2.51259 0.913618 0.389833 -0.115468 0 255 0 255
-0.191729 -0.447299 2.53158 -0.962723 -0.23622 -0.131774 0 255 0 255
-0.218159 -0.432863 2.56059 0.637646 -0.68682 -0.348836 0 255 0 255
-0.199132 -0.437362 2.56083 0.326866 -0.337956 -0.882578 0 255 0 255
-0.184294 -0.440093 2.56381 0.887472 -0.263429 -0.378151 0 255 0 255
-0.18632 -0.435832 2.57734 0.763568 0.578231 -0.287424 0 255 0 255
-0.190045 -0.43088 2.59189 0.647611 -0.434811 -0.625732 0 255 0 255
-0.13881 -0.448546 2.57264 0.895074 -0.444747 -0.0322868 0 255 0 255
-0.05064 -0.453187 2.63188 -0.180869 -0.927177 -0.328068 0 255 0 255
-0.076836 -0.435733 2.67192 0.0599683 -0.465791 -0.88286 0 255 0 255
-0.043019 -0.435393 2.70226 0.0731674 -0.612844 -0.786809 0 255 0 255
-0.360331 -0.067184 2.268 0.731335 0.500457 0.463348 255 0 0 255
-0.352589 -0.066892 2.258 0.743898 0.295362 0.599481 255 0 0 255
-0.345513 -0.066719 2.252 0.394031 0.302099 0.86803 255 0 0 255
-0.338319 -0.066516 2.245 -0.247552 0.165798 0.954583 255 0 0 255
-0.333234 -0.066728 2.252 -0.763487 0.100254 0.637994 255 0 0 255
-0.329125 -0.067148 2.266 -0.95597 -0.111981 0.271258 255 0 0 255
-0.325937 -0.067774 2.287 0.744259 -0.263707 0.613627 255 0 0 255
-0.319698 -0.067779 2.287 0.605439 -0.254404 0.754137 255 0 0 255
-0.311539 -0.067368 2.273 0.0970488 0.575126 0.812288 255 0 0 255
-0.304261 -0.067135 2.265 0.108315 0.631866 0.767472 255 0 0 255
-0.298999 -0.067347 2.272 0.1155 0.593504 0.796501 255 0 0 255
-0.288533 -0.069316 2.338 0.931608 0.115647 0.344577 255 0 0 255
-0.279009 -0.068549 2.312 0.566663 0.217654 0.794682 255 0 0 255
-0.271749 -0.068316 2.304 0.618314 0.109762 0.778229 255 0 0 255
-0.265223 -0.068261 2.302 0.437806 0.14991 0.886483 255 0 0 255
-0.258483 -0.068146 2.298 0.379091 0.127687 0.916507 255 0 0 255
-0.252092 -0.06812 2.297 0.422492 0.213719 0.880809 255 0 0 255
-0.245278 -0.067975 2.292 0.43362 0.114411 0.893803 255 0 0 255
-0.238803 -0.067919 2.29 0.21853 -0.0479586 0.974651 255 0 0 255
-0.232338 -0.067864 2.288 0.218161 0.101843 0.970584 255 0 0 255
-0.225784 -0.067778 2.285 0.245846 0.163629 0.955398 255 0 0 255
-0.219342 -0.067722 2.283 0.181039 0.37766 0.908074 255 0 0 255
-0.213283 -0.067784 2.285 -0.18529 0.581534 0.79214 255 0 0 255
-0.207394 -0.067906 2.289 -0.149789 0.457761 0.876367 255 0 0 255
-0.201042 -0.06788 2.288 0.233735 0.455132 0.859199 255 0 0 255
-0.19444 -0.067764 2.284 0.380639 0.0917176 0.920164 255 0 0 255
-0.188189 -0.067767 2.284 -0.249662 -0.0642432 0.9662 255 0 0 255
-0.182176 -0.067859 2.287 -0.32662 0.00240711 0.945153 255 0 0 255
-0.176068 -0.067921 2.289 -0.221477 0.142889 0.96464 255 0 0 255
-0.169875 -0.067953 2.29 -0.142747 0.404869 0.903164 255 0 0 255
-0.163462 -0.067896 2.288 -0.106477 0.541407 0.833991 255 0 0 255
-0.157471 -0.068017 2.292 -0.213615 0.69241 0.689157 255 0 0 255
-0.151259 -0.068049 2.293 -0.295508 0.668955 0.682037 255 0 0 255
-0.145294 -0.0682 2.298 -0.174582 0.582989 0.793502 255 0 0 255
-0.13906 -0.068232 2.299 0.036597 0.53627 0.843252 255 0 0 255
-0.132819 -0.068264 2.3 -0.205577 0.312266 0.927485 255 0 0 255
-0.126627 -0.068325 2.302 -0.571558 0.230117 0.787634 255 0 0 255
-0.12079 -0.068594 2.311 -0.838165 -0.00578763 0.545386 255 0 0 255
-0.114853 -0.068833 2.319 -0.823655 0.021879 0.566669 255 0 0 255
-0.109059 -0.069191 2.331 -0.700771 0.433998 0.566186 255 0 0 255
-0.102626 -0.069163 2.33 0.669812 0.407508 0.620717 255 0 0 255
-0.095826 -0.068868 2.32 0.79255 0.310013 0.525125 255 0 0 255
-0.08912 -0.068602 2.311 0.739086 0.297197 0.604505 255 0 0 255
-0.08257 -0.068425 2.305 0.705287 0.264289 0.657816 255 0 0 255
-0.076052 -0.068248 2.299 0.633186 0.26853 0.725925 255 0 0 255
-0.069507 -0.068012 2.291 0.735479 0.222439 0.639993 255 0 0 255
-0.063004 -0.067776 2.283 0.727921 0.367415 0.57891 255 0 0 255
-0.056521 -0.067509 2.274 0.785114 0.300503 0.541566 255 0 0 255
-0.050087 -0.067243 2.265 0.785885 0.256639 0.562603 255 0 0 255
-0.043721 -0.067006 2.257 0.770245 0.189423 0.608968 255 0 0 255
-0.037416 -0.066799 2.25 0.74007 0.211481 0.638414 255 0 0 255
-0.031107 -0.066503 2.24 0.697944 0.0976707 0.70946 255 0 0 255
-0.024908 -0.066355 2.235 0.296723 -0.0256279 0.95462 255 0 0 255
-0.018771 -0.066325 2.234 0.0617951 -0.0923008 0.993812 255 0 0 255
-0.012656 -0.066385 2.236 -0.27198 0.221167 0.936543 255 0 0 255
-0.006536 -0.066504 2.24 -0.454156 0.212329 0.865251 255 0 0 255
-0.000393 -0.066593 2.243 -0.609333 0.210867 0.764362 255 0 0 255
0.005774 -0.066771 2.249 -0.702164 0.10356 0.704444 255 0 0 255
0.011973 -0.066949 2.255 -0.789951 0.122667 0.600774 255 0 0 255
0.018238 -0.067246 2.265 -0.668461 0.153586 0.727716 255 0 0 255
0.024503 -0.067394 2.27 -0.269154 0.114721 0.95624 255 0 0 255
0.030687 -0.067304 2.267 0.273771 0.0614104 0.959832 255 0 0 255
0.036871 -0.067244 2.265 -0.0766687 0.0709534 0.994529 255 0 0 255
0.043139 -0.067333 2.268 -0.507055 -0.138262 0.850752 255 0 0 255
0.049576 -0.067629 2.278 -0.774359 0.0859026 0.626889 255 0 0 255
0.056043 -0.067895 2.287 -0.812689 -0.0784156 0.577397 255 0 0 255
0.062722 -0.06834 2.302 -0.885306 -0.156156 0.438006 255 0 0 255
-0.044124 -0.381896 2.65656 0.349985 0.00908019 -0.936711 255 255 0 255
-0.03787 -0.382826 2.64773 0.192721 -0.914697 -0.355229 255 255 0 255
-0.015666 -0.378102 2.64878 -0.595173 0.0675002 -0.800757 255 255 0 255
-0.004407 -0.377231 2.64316 -0.583358 0.0633225 -0.809743 255 255 0 255
-0.002383 -0.379632 2.63181 -0.901984 -0.202181 -0.381508 255 255 0 255
-0.001193 -0.382333 2.61993 0.377153 0.925746 -0.0273815 255 255 0 255
-0.002507 -0.385934 2.60645 0.566924 0.729536 -0.382589 255 255 0 255
-0.010492 -0.391936 2.58867 0.58046 0.805584 -0.118745 255 255 0 255
-0.004268 -0.39285 2.57992 -0.593942 -0.428995 -0.680585 255 255 0 255
0.006116 -0.39226 2.57388 -0.738675 0.321036 -0.592701 255 255 0 255
0.012323 -0.393166 2.56518 -0.724427 0.408923 -0.554966 255 255 0 255
0.015197 -0.395275 2.55432 -0.919373 0.249796 -0.303901 255 255 0 255
0.009766 -0.400402 2.53801 -0.903687 0.349108 -0.247938 255 255 0 255
-0.216138 -0.462242 2.4994 0.947751 0.286884 -0.139519 0 255 0 255
-0.217299 -0.458303 2.51247 0.77919 0.222619 -0.585921 0 255 0 255
-0.196962 -0.460003 2.52405 -0.731457 -0.403006 -0.550052 0 255 0 255
-0.210737 -0.450762 2.54512 -0.845678 -0.194155 -0.497125 0 255 0 255
-0.214442 -0.44578 2.55971 -0.453346 -0.320039 -0.831897 0 255 0 255
-0.192052 -0.451734 2.55787 -0.583287 0.799776 -0.141899 0 255 0 255
-0.161197 -0.461185 2.55088 -0.330603 0.0722727 -0.940999 0 255 0 255
-0.158979 -0.45865 2.56187 -0.673347 0.723246 -0.153359 0 255 0 255
-0.189697 -0.44243 2.59317 0.525638 -0.467599 -0.710673 0 255 0 255
-0.163846 -0.44973 2.58953 -0.397193 0.0140828 -0.917627 0 255 0 255
-0.061761 -0.446521 2.6897 -0.130103 -0.782318 -0.60914 0 255 0 255
-0.048385 -0.448421 2.69453 -0.208786 -0.971405 -0.113055 0 255 0 255
-0.029293 -0.449106 2.70868 0.0251176 0.116715 -0.992848 0 255 0 255
-0.36255 -0.073841 2.282 0.743628 0.501584 0.442075 255 0 0 255
-0.353989 -0.073361 2.267 0.663944 0.577183 0.475435 255 0 0 255
-0.345969 -0.072978 2.255 0.537635 0.599833 0.592579 255 0 0 255
-0.338616 -0.072724 2.247 0.230145 0.555661 0.798921 255 0 0 255
-0.333081 -0.072859 2.251 -0.359205 0.488231 0.795363 255 0 0 255
-0.32854 -0.073219 2.262 -0.919674 0.114144 0.375727 255 0 0 255
-0.324508 -0.07371 2.277 -0.870405 0.181781 0.457548 255 0 0 255
-0.318575 -0.07378 2.279 0.434881 -0.440172 0.785574 255 0 0 255
-0.312219 -0.073752 2.278 0.108581 0.541046 0.833954 255 0 0 255
-0.306003 -0.073757 2.278 0.447861 0.427815 0.785108 255 0 0 255
-0.288282 -0.075653 2.336 0.951672 0.116397 0.284203 255 0 0 255
-0.279005 -0.07488 2.312 0.651429 0.161138 0.741401 255 0 0 255
-0.271627 -0.074593 2.303 0.556487 0.0368917 0.830037 255 0 0 255
-0.264989 -0.0745 2.3 0.402317 0.14503 0.90394 255 0 0 255
-0.258366 -0.074407 2.297 0.347853 0.168776 0.922233 255 0 0 255
-0.251978 -0.074379 2.296 0.464022 0.127631 0.876581 255 0 0 255
-0.245167 -0.074221 2.291 0.546588 0.0567209 0.835479 255 0 0 255
-0.238695 -0.07416 2.289 0.262148 -0.184844 0.94716 255 0 0 255
-0.232233 -0.074099 2.287 0.200104 -0.147985 0.968534 255 0 0 255
-0.226176 -0.074167 2.289 -0.0667542 0.00697798 0.997745 255 0 0 255
-0.219627 -0.074073 2.286 -0.298033 0.238106 0.924382 255 0 0 255
-0.213746 -0.074207 2.29 -0.318441 0.511351 0.798195 255 0 0 255
-0.207662 -0.074275 2.292 0.024707 0.340711 0.939843 255 0 0 255
-0.201215 -0.074213 2.29 0.479694 0.262635 0.837208 255 0 0 255
-0.194267 -0.073957 2.282 0.307005 0.0319887 0.95117 255 0 0 255
-0.187939 -0.073928 2.281 -0.342684 0.0512974 0.938049 255 0 0 255
-0.182014 -0.074061 2.285 -0.54677 0.0830815 0.833151 255 0 0 255
-0.175989 -0.074161 2.288 -0.446233 0.263225 0.85533 255 0 0 255
-0.170021 -0.074293 2.292 -0.36208 0.457669 0.812057 255 0 0 255
-0.163959 -0.074393 2.295 -0.356634 0.631048 0.688905 255 0 0 255
-0.157949 -0.074526 2.299 -0.261628 0.69177 0.673056 255 0 0 255
-0.15185 -0.074626 2.302 -0.0711693 0.638794 0.766079 255 0 0 255
-0.145482 -0.074596 2.301 -0.00547966 0.458391 0.888734 255 0 0 255
-0.139178 -0.074598 2.301 -0.0965175 0.0846409 0.991726 255 0 0 255
-0.132759 -0.074535 2.299 -0.147653 0.0860032 0.985293 255 0 0 255
-0.12668 -0.074667 2.303 -0.600772 0.0544962 0.79756 255 0 0 255
-0.120788 -0.074929 2.311 -0.832174 -0.00648657 0.554476 255 0 0 255
-0.11495 -0.075255 2.321 -0.845872 0.0545033 0.530594 255 0 0 255
-0.109478 -0.075873 2.34 0.536024 0.726139 0.430581 255 0 0 255
-0.102933 -0.075777 2.337 0.792167 0.474205 0.384189 255 0 0 255
-0.096031 -0.07539 2.325 0.764029 0.307163 0.567371 255 0 0 255
-0.089273 -0.075067 2.315 0.813503 0.155176 0.560476 255 0 0 255
-0.082497 -0.07468 2.303 0.757797 -0.0081453 0.652439 255 0 0 255
-0.076051 -0.074551 2.299 0.677118 -0.0495656 0.734203 255 0 0 255
-0.069596 -0.07439 2.294 0.698078 0.0638623 0.713168 255 0 0 255
-0.063114 -0.074165 2.287 0.745453 0.182841 0.640991 255 0 0 255
-0.056595 -0.073841 2.277 0.808242 0.207406 0.551115 255 0 0 255
-0.050086 -0.073453 2.265 0.819935 0.164941 0.548179 255 0 0 255
-0.043682 -0.073129 2.255 0.801099 0.148232 0.579886 255 0 0 255
-0.037382 -0.072903 2.248 0.77106 0.0752884 0.632296 255 0 0 255
-0.03112 -0.072677 2.241 0.67803 0.178945 0.712919 255 0 0 255
-0.02493 -0.072548 2.237 0.231965 0.409579 0.882291 255 0 0 255
-0.018779 -0.072483 2.235 -0.0539044 0.345675 0.936805 255 0 0 255
-0.012667 -0.072581 2.238 -0.281301 0.376287 0.882767 255 0 0 255
-0.006541 -0.07271 2.242 -0.418485 0.183392 0.889516 255 0 0 255
-0.000393 -0.072808 2.245 -0.580318 0.138497 0.802527 255 0 0 255
0.005776 -0.07297 2.25 -0.717057 0.15105 0.680451 255 0 0 255
0.011989 -0.073229 2.258 -0.784965 0.0855202 0.613609 255 0 0 255
0.018261 -0.073553 2.268 -0.618751 -0.0403326 0.784551 255 0 0 255
0.024524 -0.073683 2.272 -0.298518 -0.011123 0.954339 255 0 0 255
0.030727 -0.073617 2.27 0.147716 0.169372 0.974419 255 0 0 255
0.03692 -0.073552 2.268 -0.194436 0.30515 0.932244 255 0 0 255
0.043234 -0.073713 2.273 -0.646453 0.190877 0.738691 255 0 0 255
0.049619 -0.07394 2.28 -0.751337 -0.0221326 0.659548 255 0 0 255
0.056066 -0.074198 2.288 -0.794322 0.0365537 0.606396 255 0 0 255
0.062558 -0.074456 2.296 -0.854948 -0.0890257 0.511016 255 0 0 255
-0.103271 -0.404824 2.66043 -0.0223015 -0.581796 -0.813029 255 255 0 255
-0.082625 -0.400706 2.66007 0.0757901 -0.784306 -0.615727 255 255 0 255
-0.064541 -0.397466 2.65828 -0.0975358 -0.63583 -0.765642 255 255 0 255
-0.056583 -0.397799 2.6504 0.0719571 -0.532738 -0.843215 255 255 0 255
-0.026788 -0.39034 2.65599 0.299922 -0.605852 -0.736879 255 255 0 255
-0.015515 -0.389453 2.65031 -0.478671 0.224316 -0.848856 255 255 0 255
-0.006774 -0.389459 2.64311 -0.570006 0.0414157 -0.820596 255 255 0 255
0.001118 -0.389761 2.63542 -0.374784 -0.805339 -0.459311 255 255 0 255
0.019039 -0.386442 2.63408 0.575616 0.809539 -0.115385 255 255 0 255
0.016873 -0.39035 2.62012 0.732958 0.671939 -0.106161 255 255 0 255
-0.006987 -0.40212 2.59231 -0.919719 0.143731 -0.365321 255 255 0 255
0.001283 -0.405442 2.57215 -0.944923 0.0461049 -0.324029 255 255 0 255
0.004999 -0.407254 2.56181 -0.705139 0.430575 -0.563369 255 255 0 255
0.007052 -0.409673 2.55038 -0.871807 0.378302 -0.311192 255 255 0 255
0.024885 -0.406311 2.54929 -0.903687 0.349108 -0.247938 255 255 0 255
-0.221356 -0.474905 2.49189 0.98822 -0.152406 -0.0139174 0 255 0 255
-0.201579 -0.479908 2.49138 -0.5064 -0.618923 -0.600411 0 255 0 255
-0.168365 -0.490615 2.48233 0.183525 -0.262042 -0.947445 0 255 0 255
-0.182066 -0.481278 2.5036 -0.876606 0.111051 -0.468219 0 255 0 255
-0.196636 -0.471607 2.5253 -0.442467 -0.240868 -0.863832 0 255 0 255
-0.213758 -0.460889 2.5485 -0.412102 0.703466 -0.579058 0 255 0 255
-0.229234 -0.450908 2.57051 -0.356595 -0.750088 -0.556963 0 255 0 255
-0.210233 -0.45551 2.57076 -0.236785 -0.835565 -0.495746 0 255 0 255
-0.170144 -0.468957 2.55796 0.140493 -0.472848 -0.869872 0 255 0 255
-0.16203 -0.468903 2.56527 0.536761 -0.81917 -0.20211 0 255 0 255
-0.037518 -0.468023 2.6776 -0.63669 -0.627802 -0.447761 0 255 0 255
-0.025836 -0.469247 2.68348 0.891479 0.449789 -0.0543706 0 255 0 255
-0.029544 -0.46425 2.69805 -0.141265 0.57066 -0.808944 0 255 0 255
-0.349032 -0.07985 2.275 0.413684 0.85758 0.30565 255 0 0 255
-0.340118 -0.079223 2.257 0.202888 0.830643 0.518526 255 0 0 255
-0.333964 -0.079229 2.257 -0.617859 0.292188 0.729984 255 0 0 255
-0.32897 -0.079515 2.265 -0.782475 0.462109 0.417359 255 0 0 255
-0.324645 -0.079977 2.278 -0.846941 0.471577 0.245573 255 0 0 255
-0.319409 -0.080228 2.285 0.329743 -0.896937 0.294574 255 0 0 255
-0.314544 -0.080584 2.295 -0.458295 -0.743766 0.486598 255 0 0 255
-0.278638 -0.081105 2.309 0.655976 0.0966352 0.74857 255 0 0 255
-0.271859 -0.080969 2.305 0.588083 0.0596057 0.806601 255 0 0 255
-0.26533 -0.080904 2.303 0.370488 0.0429829 0.927842 255 0 0 255
-0.258699 -0.080803 2.3 0.299751 0.144058 0.943078 255 0 0 255
-0.252194 -0.080737 2.298 0.434944 0.114482 0.89315 255 0 0 255
-0.24527 -0.08053 2.292 0.571657 0.108862 0.813239 255 0 0 255
-0.238482 -0.080359 2.287 0.489764 0.0153703 0.87172 255 0 0 255
-0.231924 -0.080258 2.284 0.0893481 -0.111661 0.989722 255 0 0 255
-0.225777 -0.080297 2.285 -0.0789675 -0.00905835 0.996836 255 0 0 255
-0.219719 -0.080371 2.287 -0.349945 -0.0841507 0.932983 255 0 0 255
-0.214116 -0.080621 2.294 -0.369518 -0.0574046 0.927449 255 0 0 255
-0.208112 -0.08073 2.297 0.132589 0.0102164 0.991118 255 0 0 255
-0.201299 -0.080523 2.291 0.576467 -0.020231 0.81687 255 0 0 255
-0.194349 -0.080245 2.283 0.497224 0.171006 0.850603 255 0 0 255
-0.188018 -0.080213 2.282 -0.322943 0.279627 0.904166 255 0 0 255
-0.182329 -0.080462 2.289 -0.560569 0.224618 0.797063 255 0 0 255
-0.176293 -0.080571 2.292 -0.553463 0.314834 0.771076 255 0 0 255
-0.170389 -0.08075 2.297 -0.555501 0.400252 0.728847 255 0 0 255
-0.164385 -0.080894 2.301 -0.431624 0.564195 0.703836 255 0 0 255
-0.158358 -0.081037 2.305 -0.153518 0.672838 0.723685 255 0 0 255
-0.152112 -0.081075 2.306 0.0106139 0.626346 0.779473 255 0 0 255
-0.145416 -0.080867 2.3 0.256952 0.342511 0.903693 255 0 0 255
-0.139115 -0.080869 2.3 0.113094 0.309643 0.944103 255 0 0 255
-0.132814 -0.080872 2.3 -0.25885 0.361731 0.895627 255 0 0 255
-0.126733 -0.081015 2.304 -0.573333 0.305424 0.760267 255 0 0 255
-0.120785 -0.081263 2.311 -0.795588 0.140149 0.589405 255 0 0 255
-0.114948 -0.081617 2.321 -0.85956 0.158232 0.485921 255 0 0 255
-0.103283 -0.082465 2.345 0.833383 0.241628 0.497079 255 0 0 255
-0.096154 -0.081869 2.328 0.779321 0.0837455 0.621003 255 0 0 255
-0.08931 -0.081449 2.316 0.871398 0.0128662 0.490409 255 0 0 255
-0.082495 -0.080993 2.303 0.668777 -0.0609303 0.740962 255 0 0 255
-0.07605 -0.080854 2.299 0.628719 -0.0656993 0.774852 255 0 0 255
-0.069504 -0.080574 2.291 0.679012 -0.0309531 0.733475 255 0 0 255
-0.063085 -0.080399 2.286 0.751944 0.00952681 0.659158 255 0 0 255
-0.056619 -0.080119 2.278 0.812877 0.0936528 0.574857 255 0 0 255
-0.050174 -0.079803 2.269 0.82226 0.129171 0.55426 255 0 0 255
-0.043778 -0.079488 2.26 0.820311 0.108874 0.561459 255 0 0 255
-0.037398 -0.079102 2.249 0.747296 0.16196 0.644452 255 0 0 255
-0.031147 -0.078891 2.243 0.43808 0.407974 0.801026 255 0 0 255
-0.024974 -0.078821 2.241 0.196589 0.525807 0.827575 255 0 0 255
-0.018829 -0.078822 2.241 -0.0418049 0.491704 0.869759 255 0 0 255
-0.012684 -0.078822 2.241 -0.143337 0.354404 0.924041 255 0 0 255
-0.006544 -0.078893 2.243 -0.295371 0.186542 0.936994 255 0 0 255
-0.000393 -0.078928 2.244 -0.511975 0.161139 0.843751 255 0 0 255
0.005781 -0.079209 2.252 -0.720753 0.133692 0.680178 255 0 0 255
0.011989 -0.07942 2.258 -0.680824 0.0623343 0.729789 255 0 0 255
0.018237 -0.079666 2.265 -0.655214 -0.164004 0.737426 255 0 0 255
0.02448 -0.079771 2.268 -0.483619 -0.181412 0.856273 255 0 0 255
0.03074 -0.079876 2.271 -0.250694 0.108265 0.961993 255 0 0 255
0.036984 -0.079911 2.272 -0.18383 0.245615 0.951777 255 0 0 255
0.043252 -0.07998 2.274 -0.503396 0.0383373 0.863205 255 0 0 255
0.049574 -0.08012 2.278 -0.702272 -0.019091 0.711653 255 0 0 255
0.056016 -0.0804 2.286 -0.785119 -0.063627 0.616068 255 0 0 255
0.062529 -0.080716 2.295 -0.848956 -0.0727988 0.523425 255 0 0 255
-0.08285 -0.40919 2.67418 0.0922482 -0.703769 -0.704414 255 255 0 255
-0.064759 -0.405911 2.67234 -0.174294 -0.773466 -0.609403 255 255 0 255
-0.060166 -0.407438 2.66241 -0.207504 -0.75694 -0.619664 255 255 0 255
-0.025311 -0.398101 2.67097 -0.995672 0.0801909 -0.0469752 255 255 0 255
-0.032513 -0.40384 2.65391 0.936801 -0.212403 -0.278009 255 255 0 255
-0.022913 -0.403538 2.64717 -0.951584 0.30709 -0.0135476 255 255 0 255
-0.021706 -0.40626 2.63525 -0.800327 0.478675 -0.361037 255 255 0 255
-0.018821 -0.408377 2.62437 -0.965633 -0.0644083 -0.251801 255 255 0 255
-0.018443 -0.411406 2.6119 -0.915964 -0.0887245 -0.391327 255 255 0 255
-0.015553 -0.413526 2.601 -0.864262 0.069965 -0.498153 255 255 0 255
-0.018502 -0.41778 2.58638 -0.881628 -0.237427 -0.407873 255 255 0 255
0.003567 -0.412883 2.58773 -0.886799 -0.177087 -0.426882 255 255 0 255
-0.001047 -0.417749 2.57204 -0.969798 -0.010151 -0.243698 255 255 0 255
0.00224 -0.422908 2.54862 0.860699 -0.494565 -0.120845 255 255 0 255
-0.178674 -0.501287 2.47797 0.809826 -0.283253 -0.51376 0 255 0 255
-0.171418 -0.5009 2.48575 0.244469 -0.142643 -0.959108 0 255 0 255
-0.179242 -0.494032 2.50325 -0.668677 0.677673 -0.30599 0 255 0 255
-0.178154 -0.487512 2.52738 -0.972703 0.231863 -0.00939295 0 255 0 255
-0.232601 -0.457399 2.58626 -0.686743 -0.711693 -0.147908 0 255 0 255
-0.205181 -0.465615 2.58131 -0.281603 -0.818101 -0.501408 0 255 0 255
-0.193728 -0.467024 2.58643 0.876221 0.00105269 -0.481907 0 255 0 255
-0.172984 -0.47234 2.58588 -0.544593 0.810862 -0.214292 0 255 0 255
-0.0281 -0.480126 2.68643 0.837236 0.434263 -0.332341 0 255 0 255
-0.017263 -0.481019 2.69285 -0.585443 -0.668681 -0.458391 0 255 0 255
-0.330708 -0.086167 2.277 0.237515 -0.971115 0.0228307 255 0 0 255
-0.278995 -0.087541 2.312 0.693996 0.215767 0.686887 255 0 0 255
-0.271618 -0.087205 2.303 0.517811 0.241746 0.820628 255 0 0 255
-0.26521 -0.087172 2.302 0.292529 0.128172 0.947628 255 0 0 255
-0.258582 -0.087063 2.299 0.274754 0.19857 0.940787 255 0 0 255
-0.252299 -0.087068 2.299 0.362546 0.237329 0.901241 255 0 0 255
-0.245587 -0.086921 2.295 0.546651 0.289676 0.785659 255 0 0 255
-0.238687 -0.086698 2.289 0.437004 0.303103 0.846851 255 0 0 255
-0.232123 -0.086589 2.286 0.13262 0.254222 0.95801 255 0 0 255
-0.225871 -0.086593 2.286 -0.106788 0.379745 0.918907 255 0 0 255
-0.219715 -0.086636 2.287 -0.287977 0.0970089 0.952711 255 0 0 255
-0.213646 -0.086715 2.289 -0.131994 -0.335962 0.932581 255 0 0 255
-0.207474 -0.086757 2.29 -0.0126508 -0.485175 0.874325 255 0 0 255
-0.20112 -0.086723 2.289 0.321254 -0.245109 0.914723 255 0 0 255
-0.194686 -0.086651 2.287 0.294536 0.130789 0.946648 255 0 0 255
-0.188344 -0.086617 2.286 -0.188748 0.476874 0.858467 255 0 0 255
-0.182405 -0.086772 2.29 -0.412553 0.402967 0.816956 255 0 0 255
-0.176367 -0.086889 2.293 -0.543206 0.336981 0.769006 255 0 0 255
-0.170608 -0.087158 2.3 -0.624656 0.24117 0.742726 255 0 0 255
-0.164596 -0.087313 2.304 -0.566092 0.249643 0.785632 255 0 0 255
-0.158768 -0.087581 2.311 -0.44071 0.486776 0.754204 255 0 0 255
-0.152438 -0.087584 2.311 0.00941385 0.547018 0.837068 255 0 0 255
-0.145856 -0.087435 2.307 0.291271 0.55599 0.778484 255 0 0 255
-0.139294 -0.087287 2.303 -0.0515388 0.542236 0.838644 255 0 0 255
-0.133101 -0.087365 2.305 -0.191652 0.604919 0.772879 255 0 0 255
-0.127005 -0.087519 2.309 -0.451117 0.635966 0.626132 255 0 0 255
-0.120992 -0.087749 2.315 -0.669027 0.398903 0.627119 255 0 0 255
-0.114946 -0.087979 2.321 -0.71204 0.363445 0.600755 255 0 0 255
-0.103501 -0.089082 2.35 0.909074 0.0291846 0.415611 255 0 0 255
-0.095987 -0.088099 2.324 0.874763 -0.0844207 0.47714 255 0 0 255
-0.089115 -0.087608 2.311 0.832316 -0.0477869 0.552238 255 0 0 255
-0.082386 -0.087192 2.3 0.685511 -0.0385977 0.727038 255 0 0 255
-0.075982 -0.08708 2.297 0.628905 -0.0583587 0.775289 255 0 0 255
-0.069503 -0.086854 2.291 0.678209 -0.0165454 0.734682 255 0 0 255
-0.063112 -0.086704 2.287 0.698079 0.0539102 0.713988 255 0 0 255
-0.056618 -0.086364 2.278 0.787884 0.0844184 0.61001 255 0 0 255
-0.050173 -0.086024 2.269 0.82589 0.159244 0.540875 255 0 0 255
-0.043758 -0.085646 2.259 0.800851 0.21047 0.56066 255 0 0 255
-0.03743 -0.085343 2.251 0.705926 0.253974 0.661186 255 0 0 255
-0.031216 -0.08523 2.248 0.421748 0.454428 0.784617 255 0 0 255
-0.025019 -0.085117 2.245 0.251679 0.38831 0.886495 255 0 0 255
-0.018846 -0.085041 2.243 0.104306 0.35931 0.927371 255 0 0 255
-0.012689 -0.085004 2.242 0.0101435 0.243488 0.969851 255 0 0 255
-0.006544 -0.085042 2.243 -0.195089 0.237981 0.951475 255 0 0 255
-0.000394 -0.085194 2.247 -0.637813 0.157273 0.753963 255 0 0 255
0.005789 -0.085497 2.255 -0.674202 0.0936946 0.73258 255 0 0 255
0.011994 -0.085648 2.259 -0.573349 -0.108083 0.812151 255 0 0 255
0.018212 -0.085762 2.262 -0.54466 -0.236358 0.804662 255 0 0 255
0.024458 -0.085913 2.266 -0.657309 -0.150746 0.73839 255 0 0 255
0.030767 -0.086178 2.273 -0.357262 0.146879 0.922383 255 0 0 255
0.037016 -0.086215 2.274 -0.180993 0.106941 0.977653 255 0 0 255
0.043251 -0.086214 2.274 -0.241581 0.0825255 0.966865 255 0 0 255
0.04953 -0.086289 2.276 -0.598018 -0.0483055 0.800026 255 0 0 255
0.056015 -0.086667 2.286 -0.802217 -0.0155207 0.59683 255 0 0 255
0.062446 -0.086894 2.292 -0.777989 0.0298362 0.62757 255 0 0 255
-0.100794 -0.424021 2.67772 -0.0421809 -0.723172 -0.689379 255 255 0 255
-0.075935 -0.418289 2.67982 0.101816 -0.545928 -0.831623 255 255 0 255
-0.057016 -0.414659 2.67849 -0.205462 -0.720453 -0.66237 255 255 0 255
-0.029361 -0.411002 2.66995 0.643077 -0.656335 -0.394557 255 255 0 255
-0.018924 -0.410376 2.66371 0.957631 -0.287006 -0.0239063 255 255 0 255
-0.035332 -0.419511 2.64094 -0.809608 0.462198 -0.361813 255 255 0 255
-0.043322 -0.425609 2.62326 -0.399029 0.145923 -0.905253 255 255 0 255
-0.027862 -0.423149 2.62015 -0.622658 0.148773 -0.768221 255 255 0 255
-0.016606 -0.422209 2.61448 -0.822391 -0.0909874 -0.5616 255 255 0 255
-0.007037 -0.421874 2.60781 -0.412868 -0.905904 -0.0942206 255 255 0 255
0.016696 -0.416307 2.61019 0.853476 -0.378844 -0.35785 255 255 0 255
0.0004 -0.425496 2.58711 -0.781186 -0.623581 -0.0299253 255 255 0 255
0.003285 -0.427615 2.57622 0.971802 0.121751 -0.201936 255 255 0 255
0.000353 -0.431896 2.56157 0.954635 -0.261619 -0.142222 255 255 0 255
-0.013359 -0.440203 2.53985 -0.849206 0.520481 -0.0891614 255 255 0 255
-0.179214 -0.512643 2.47977 0.800899 0.132626 -0.583927 0 255 0 255
-0.186187 -0.506099 2.49674 -0.64063 0.545846 -0.540041 0 255 0 255
-0.19904 -0.497032 2.5174 -0.66988 0.731089 -0.129498 0 255 0 255
-0.197981 -0.49052 2.54142 0.83042 0.54308 -0.124364 0 255 0 255
-0.193259 -0.489073 2.55076 0.868904 0.441744 -0.22331 0 255 0 255
-0.201983 -0.481861 2.56854 0.914471 0.352855 -0.198081 0 255 0 255
-0.187495 -0.481129 2.58407 -0.784546 -0.618158 -0.0486582 0 255 0 255
-0.194568 -0.474659 2.60069 0.962144 0.0471933 -0.268423 0 255 0 255
-0.135015 -0.496494 2.57645 -0.533455 -0.560245 -0.633681 0 255 0 255
-0.126867 -0.496444 2.5839 0.303665 -0.952519 -0.0222287 0 255 0 255
-0.057099 -0.487031 2.6796 0.248345 -0.965418 -0.07933 0 255 0 255
-0.060805 -0.481999 2.69413 0.364649 0.88564 -0.28753 0 255 0 255
-0.050004 -0.482938 2.70045 0.0511514 -0.89778 -0.437464 0 255 0 255
-0.042609 -0.482466 2.70873 -0.202453 -0.967028 -0.1545 0 255 0 255
-0.041194 -0.479541 2.72037 -0.270199 -0.961661 -0.0469202 0 255 0 255
-0.279835 -0.094155 2.319 0.585457 0.339585 0.736154 255 0 0 255
-0.272556 -0.093835 2.311 0.593557 0.327142 0.735301 255 0 0 255
-0.265436 -0.093557 2.304 0.389158 0.385455 0.836648 255 0 0 255
-0.258915 -0.09348 2.302 0.217706 0.433172 0.874623 255 0 0 255
-0.252514 -0.093445 2.301 0.260357 0.424303 0.867284 255 0 0 255
-0.24601 -0.093369 2.299 0.389155 0.423953 0.817815 255 0 0 255
-0.239203 -0.09317 2.294 0.400247 0.509921 0.761435 255 0 0 255
-0.232626 -0.093053 2.291 0.167513 0.565349 0.807664 255 0 0 255
-0.226163 -0.092977 2.289 0.0619534 0.532731 0.844014 255 0 0 255
-0.220095 -0.093062 2.291 0.0533336 0.383218 0.922117 255 0 0 255
-0.213641 -0.092985 2.289 0.0994084 0.119307 0.987868 255 0 0 255
-0.207289 -0.092949 2.288 0.0979889 -0.106357 0.989488 255 0 0 255
-0.20094 -0.092913 2.287 -0.0010665 -0.164182 0.98643 255 0 0 255
-0.194767 -0.092957 2.288 -0.0411232 0.0324178 0.998628 255 0 0 255
-0.18867 -0.093042 2.29 -0.441635 0.129163 0.887849 255 0 0 255
-0.18272 -0.093209 2.294 -0.508355 0.266809 0.818772 255 0 0 255
-0.176594 -0.093294 2.296 -0.552821 0.277432 0.785762 255 0 0 255
-0.170679 -0.093501 2.301 -0.602831 0.224802 0.765545 255 0 0 255
-0.164736 -0.093707 2.306 -0.741955 0.162505 0.650458 255 0 0 255
-0.159108 -0.094117 2.316 -0.379809 0.297571 0.875898 255 0 0 255
-0.152633 -0.094039 2.314 0.200247 0.367227 0.90832 255 0 0 255
-0.146106 -0.09392 2.311 0.138574 0.57151 0.80881 255 0 0 255
-0.139594 -0.093801 2.308 -0.0246276 0.647515 0.761654 255 0 0 255
-0.133618 -0.094048 2.314 -0.293652 0.720574 0.628126 255 0 0 255
-0.127443 -0.094172 2.317 -0.433779 0.645909 0.628202 255 0 0 255
-0.121303 -0.094338 2.321 -0.400977 0.625604 0.669206 255 0 0 255
-0.115141 -0.094503 2.325 -0.473763 0.394195 0.787502 255 0 0 255
-0.095819 -0.094306 2.32 0.919725 0.0519531 0.38911 255 0 0 255
-0.089075 -0.093902 2.31 0.831544 0.152403 0.534142 255 0 0 255
-0.08242 -0.093538 2.301 0.669074 0.170753 0.723314 255 0 0 255
-0.076047 -0.093458 2.299 0.600935 0.221134 0.7681 255 0 0 255
