ply
format ascii 1.0
comment VCGLIB generated
element vertex 729
property float x
property float y
property float z
property float nx
property float ny
property float nz
property uchar red
property uchar green
property uchar blue
property uchar alpha
element face 0
property list uchar int vertex_indices
end_header
-0.18941 0.017385 2.32069 -0.765853 0.630448 -0.126509 0 255 0 255
-0.18727 0.019784 2.3315 0.709613 -0.662143 -0.240867 0 255 0 255
-0.185131 0.022183 2.34231 0.556721 -0.664148 -0.498968 0 255 0 255
-0.150777 0.018598 2.34339 0.997954 0.0332144 -0.0546376 0 255 0 255
-0.154639 0.022685 2.35836 0.971823 0.0539223 -0.22946 0 255 0 255
-0.150764 0.024619 2.36805 0.935655 0.0198356 -0.352357 0 255 0 255
-0.145164 0.026078 2.37659 0.715093 -0.0653042 -0.695972 0 255 0 255
-0.131798 0.025406 2.37996 0.548174 -0.457961 -0.69984 0 255 0 255
-0.12014 0.02522 2.38454 0.460559 0.363328 -0.809863 0 255 0 255
-0.10674 0.024573 2.38803 0.169794 0.696291 -0.697387 0 255 0 255
-0.09851 0.025354 2.39498 0.00694151 0.579774 -0.814748 0 255 0 255
-0.092002 0.026611 2.4031 -0.0488501 0.504742 -0.861887 0 255 0 255
-0.311247 0.208299 2.228 -0.988201 0.0797865 0.13074 255 0 0 255
-0.308184 0.210369 2.25 -0.750561 0.219141 0.623407 255 0 0 255
-0.302583 0.210755 2.254 -0.510043 0.196423 0.837421 255 0 0 255
-0.296434 0.210768 2.254 0.191367 0.0408565 0.980668 255 0 0 255
-0.289897 0.2105 2.251 0.287971 0.13474 0.948113 255 0 0 255
-0.283628 0.210418 2.25 -0.050409 0.242259 0.968901 255 0 0 255
-0.277609 0.210524 2.251 -0.34758 0.166216 0.9228 255 0 0 255
-0.271947 0.21091 2.255 -0.574445 0.0701097 0.815535 255 0 0 255
-0.266379 0.211389 2.26 -0.558717 -0.0359463 0.828579 255 0 0 255
-0.260668 0.211774 2.264 -0.691917 0.0469147 0.720451 255 0 0 255
-0.255046 0.212253 2.269 -0.743021 -0.0353515 0.668333 255 0 0 255
-0.249616 0.212919 2.276 -0.236411 -0.153528 0.959447 255 0 0 255
-0.24297 0.212556 2.272 0.682428 0.00533176 0.730934 255 0 0 255
-0.235615 0.211537 2.261 0.789063 -0.108014 0.604742 255 0 0 255
-0.228625 0.210799 2.253 0.699902 -0.0523537 0.712318 255 0 0 255
-0.221874 0.210247 2.247 0.670016 0.0101786 0.742277 255 0 0 255
-0.215156 0.209695 2.241 0.803905 -0.0226788 0.594325 255 0 0 255
-0.20791 0.208582 2.229 0.875356 0.0648884 0.479105 255 0 0 255
-0.200276 0.207 2.212 0.881434 0.112108 0.458809 255 0 0 255
-0.192998 0.205699 2.198 0.67411 0.163262 0.720362 255 0 0 255
-0.186561 0.205239 2.193 0.628901 0.120178 0.768141 255 0 0 255
-0.180233 0.204873 2.189 0.63546 0.143077 0.758762 255 0 0 255
-0.173847 0.204413 2.184 0.731185 0.163239 0.66236 255 0 0 255
-0.16718 0.203579 2.175 0.763952 0.0838615 0.6398 255 0 0 255
-0.16071 0.202931 2.168 0.788341 0.0155381 0.615042 255 0 0 255
-0.154135 0.202096 2.159 0.785301 0.0697338 0.615175 255 0 0 255
-0.147677 0.201354 2.151 0.718592 0.190188 0.66892 255 0 0 255
-0.141328 0.200705 2.144 0.66413 0.195789 0.721525 255 0 0 255
-0.135143 0.200243 2.139 0.55827 0.0758584 0.826185 255 0 0 255
-0.129167 0.200062 2.137 0.453041 0.06123 0.889385 255 0 0 255
-0.123143 0.199787 2.134 0.489925 0.053628 0.870113 255 0 0 255
-0.11708 0.199418 2.13 0.525427 0.144226 0.838525 255 0 0 255
-0.111039 0.199049 2.126 0.451756 0.109676 0.885374 255 0 0 255
-0.105168 0.19896 2.125 0.116135 -0.0011496 0.993233 255 0 0 255
-0.099348 0.198965 2.125 0.207058 0.0688872 0.9759 255 0 0 255
-0.093396 0.198689 2.122 0.395831 0.172096 0.902054 255 0 0 255
-0.087501 0.198506 2.12 0.21342 0.226675 0.9503 255 0 0 255
-0.081656 0.198416 2.119 0.0581679 0.222174 0.97327 255 0 0 255
-0.075887 0.198513 2.12 -0.0287859 0.180351 0.983181 255 0 0 255
-0.070046 0.198423 2.119 0.0879481 0.190393 0.97776 255 0 0 255
-0.064241 0.198426 2.119 0.13889 0.227799 0.963752 255 0 0 255
-0.058408 0.198335 2.118 0.131921 0.334038 0.933282 255 0 0 255
-0.05258 0.198244 2.117 0.0805932 0.365598 0.927277 255 0 0 255
-0.046735 0.198059 2.115 -0.0579861 0.323182 0.944559 255 0 0 255
-0.040979 0.198249 2.117 -0.307189 0.291882 0.905781 255 0 0 255
-0.035211 0.198438 2.119 -0.354938 0.249858 0.900883 255 0 0 255
-0.029446 0.19872 2.122 -0.348339 0.267514 0.898385 255 0 0 255
-0.023654 0.198909 2.124 -0.415467 0.268642 0.869033 255 0 0 255
-0.017859 0.199191 2.127 -0.498449 0.2021 0.843033 255 0 0 255
-0.012053 0.199566 2.131 -0.579972 0.234103 0.780275 255 0 0 255
-0.006227 0.200035 2.136 -0.461742 0.268124 0.84552 255 0 0 255
-0.000374 0.200128 2.137 -0.114259 0.281971 0.952595 255 0 0 255
0.005479 0.200035 2.136 -0.232123 0.282708 0.930696 255 0 0 255
0.011349 0.200315 2.139 -0.619771 0.190417 0.761331 255 0 0 255
0.017259 0.200876 2.145 -0.739958 0.102328 0.664824 255 0 0 255
0.023223 0.201625 2.153 -0.698567 0.172964 0.694325 255 0 0 255
0.029163 0.201904 2.156 -0.467624 0.347087 0.812932 255 0 0 255
0.035136 0.202277 2.16 -0.445252 0.433361 0.783549 255 0 0 255
0.041131 0.20265 2.164 -0.536902 0.392138 0.74697 255 0 0 255
0.047169 0.203116 2.169 -0.575599 0.327488 0.749291 255 0 0 255
0.05321 0.203489 2.173 -0.601306 0.310676 0.736146 255 0 0 255
0.0593 0.203954 2.178 -0.597538 0.324582 0.733209 255 0 0 255
0.065387 0.204326 2.182 -0.463009 0.380327 0.800608 255 0 0 255
0.07143 0.20451 2.184 -0.372359 0.363316 0.85402 255 0 0 255
0.077484 0.204694 2.186 -0.432935 0.406051 0.804792 255 0 0 255
0.083587 0.204971 2.189 -0.483921 0.454217 0.748002 255 0 0 255
0.089706 0.205248 2.192 -0.498516 0.483691 0.719392 255 0 0 255
0.095972 0.205805 2.198 -0.279402 0.629184 0.725302 255 0 0 255
0.102038 0.205894 2.199 -0.130354 0.82859 0.544469 255 0 0 255
0.10806 0.205889 2.199 0.0251264 0.869421 0.493432 255 0 0 255
0.11403 0.205791 2.198 -0.191999 0.787161 0.586101 255 0 0 255
0.119994 0.205692 2.197 -0.184447 0.767732 0.61365 255 0 0 255
0.126583 0.206622 2.207 -0.524346 0.848967 0.0656905 255 0 0 255
0.132145 0.205867 2.199 -0.500017 0.334008 0.799013 255 0 0 255
0.136783 0.203801 2.177 0.973777 -0.032389 0.225186 255 0 0 255
0.14143 0.201923 2.157 0.942667 -0.241632 0.230201 255 0 0 255
0.146241 0.200418 2.141 0.731905 -0.100116 0.674012 255 0 0 255
0.150964 0.198914 2.125 0.900659 -0.209418 0.380732 255 0 0 255
0.156042 0.197971 2.115 0.821507 -0.293879 0.488632 255 0 0 255
0.161216 0.197215 2.107 0.791873 -0.33734 0.509057 255 0 0 255
0.166347 0.196459 2.099 0.501477 -0.447601 0.740388 255 0 0 255
0.171925 0.196264 2.097 0.226897 -0.430477 0.873617 255 0 0 255
0.177407 0.195975 2.094 0.0515913 -0.231358 0.9715 255 0 0 255
0.183484 0.196341 2.098 -0.151144 -0.207011 0.966593 255 0 0 255
0.189221 0.196333 2.098 0.0857571 -0.105142 0.990753 255 0 0 255
0.194958 0.196325 2.098 0.396577 -0.240143 0.886035 255 0 0 255
0.200024 0.195661 2.091 0.567104 -0.197261 0.799676 255 0 0 255
-0.1474 0.07674 2.41243 -0.170153 0.736515 -0.654671 255 255 0 255
-0.100637 0.081414 2.41761 -0.982446 0.141214 -0.121896 255 255 0 255
-0.090081 0.081023 2.41179 0.746017 -0.416561 -0.519554 255 255 0 255
-0.069341 0.082853 2.41291 0.191576 0.0964457 -0.976728 255 255 0 255
-0.0376 0.087105 2.42164 0.00809964 0.015383 -0.999849 255 255 0 255
-0.016945 0.088977 2.423 -0.552687 0.429026 -0.714475 255 255 0 255
-0.014965 0.08678 2.41163 -0.508242 0.385205 -0.770265 255 255 0 255
-0.006212 0.086071 2.40494 -0.550038 0.24672 -0.797864 255 255 0 255
0.004221 0.085741 2.39946 -0.468899 -0.0491117 -0.881885 255 255 0 255
0.014639 0.085419 2.39402 -0.452113 -0.0496215 -0.890579 255 255 0 255
0.033479 0.086981 2.39454 -0.796073 0.228193 -0.560532 255 255 0 255
0.022791 0.081977 2.37432 -0.981668 0.0665951 -0.178586 255 255 0 255
0.036546 0.082425 2.37135 -0.524023 -0.130035 -0.841719 255 255 0 255
0.055324 0.084018 2.37205 -0.46534 -0.841687 -0.273902 255 255 0 255
0.062309 0.082975 2.36439 0.862108 -0.00178511 -0.506721 255 255 0 255
0.058379 0.079469 2.34889 0.975631 0.17549 -0.131713 255 255 0 255
0.057818 0.076716 2.33578 -0.960109 -0.177445 -0.216113 255 255 0 255
0.059776 0.074531 2.32447 -0.876131 0.155773 -0.456212 255 255 0 255
0.069267 0.074065 2.31866 -0.844446 0.234608 -0.481528 255 255 0 255
0.075402 0.07284 2.31043 -0.846594 0.27097 -0.458098 255 255 0 255
0.078194 0.070849 2.29975 0.962109 -0.221828 -0.158552 255 255 0 255
0.039302 0.05923 2.25804 0.829941 0.325009 -0.453396 255 255 0 255
0.045473 0.057988 2.24971 0.718524 0.608618 -0.33661 255 255 0 255
0.040825 0.054234 2.23326 -0.368988 0.916426 -0.154953 255 255 0 255
0.094798 0.023896 2.06573 -0.108196 0.185859 -0.976601 255 255 0 255
-0.201418 0.000811 2.2934 -0.973414 0.0302165 -0.227052 0 255 0 255
-0.210383 0.006401 2.31203 0.36088 -0.884728 -0.294994 0 255 0 255
-0.196278 0.005369 2.31444 -0.947084 0.274774 -0.165926 0 255 0 255
-0.194137 0.00777 2.32526 0.815408 -0.173879 -0.552155 0 255 0 255
-0.205706 0.014067 2.34555 0.979007 -0.100737 -0.177195 0 255 0 255
-0.184717 0.011111 2.34332 0.746462 0.482789 -0.45794 0 255 0 255
-0.175712 0.011572 2.34943 0.424994 -0.520992 -0.740235 0 255 0 255
-0.157248 0.009379 2.34912 0.255687 -0.399172 -0.880503 0 255 0 255
-0.145636 0.009137 2.35358 0.980701 -0.0217708 -0.1943 0 255 0 255
-0.145193 0.012039 2.36563 0.799828 0.403137 -0.444696 0 255 0 255
-0.145617 0.015178 2.37824 0.876029 0.0220925 -0.481753 0 255 0 255
-0.133118 0.014715 2.38219 0.675687 -0.162525 -0.71905 0 255 0 255
-0.109388 0.011153 2.37876 0.130831 0.234481 -0.963277 0 255 0 255
-0.098573 0.011199 2.38401 0.115297 0.406066 -0.906541 0 255 0 255
-0.090338 0.01197 2.391 -0.160599 0.395749 -0.904207 0 255 0 255
-0.312936 0.203301 2.24 -0.974566 0.0396315 0.220568 255 0 0 255
-0.30847 0.204403 2.252 -0.611055 -0.0663672 0.788801 255 0 0 255
-0.30273 0.204687 2.255 -0.275314 -0.0291799 0.960912 255 0 0 255
-0.296578 0.2047 2.255 0.0227353 0.0516766 0.998405 255 0 0 255
-0.290167 0.20453 2.253 0.0228697 0.25233 0.967371 255 0 0 255
-0.284018 0.204542 2.253 -0.159649 0.369931 0.915239 255 0 0 255
-0.278114 0.204735 2.255 -0.246281 0.437484 0.864843 255 0 0 255
-0.272199 0.204928 2.257 -0.516499 0.25535 0.817328 255 0 0 255
-0.26639 0.205212 2.26 -0.605072 0.184408 0.774521 255 0 0 255
-0.260679 0.205586 2.264 -0.714894 0.185958 0.674052 255 0 0 255
-0.255169 0.206142 2.27 -0.734824 -0.0135235 0.678123 255 0 0 255
-0.249846 0.206879 2.278 -0.186596 -0.0487155 0.981228 255 0 0 255
-0.243087 0.206435 2.273 -0.158117 -0.236605 0.958654 255 0 0 255
-0.235626 0.205356 2.261 0.805271 -0.0602149 0.589841 255 0 0 255
-0.228838 0.204821 2.255 0.677491 -0.0133232 0.735411 255 0 0 255
-0.222082 0.204285 2.249 0.669856 0.016755 0.742302 255 0 0 255
-0.215261 0.203659 2.242 0.752063 -0.023971 0.658655 255 0 0 255
-0.207826 0.202396 2.228 0.853667 0.0945394 0.512168 255 0 0 255
-0.200375 0.201043 2.213 0.867107 0.249301 0.431247 255 0 0 255
-0.193182 0.19987 2.2 0.735711 0.302118 0.60618 255 0 0 255
-0.186739 0.199424 2.195 0.673198 0.192818 0.71388 255 0 0 255
-0.180241 0.198887 2.189 0.672201 0.0999653 0.733589 255 0 0 255
-0.173934 0.198531 2.185 0.715544 0.102299 0.691036 255 0 0 255
-0.167264 0.197721 2.176 0.792197 -0.0125894 0.610135 255 0 0 255
-0.160643 0.196911 2.167 0.78338 -0.0389196 0.620323 255 0 0 255
-0.15407 0.1961 2.158 0.716762 0.0787593 0.692856 255 0 0 255
-0.147821 0.195652 2.153 0.65898 0.222062 0.718633 255 0 0 255
-0.141598 0.195204 2.148 0.675639 0.305026 0.671172 255 0 0 255
-0.135276 0.194574 2.141 0.604242 0.239413 0.759982 255 0 0 255
-0.129173 0.194217 2.137 0.515514 0.0942426 0.851683 255 0 0 255
-0.123149 0.19395 2.134 0.430392 0.119133 0.894746 255 0 0 255
-0.117196 0.193773 2.132 0.492043 0.154173 0.856811 255 0 0 255
-0.111096 0.193324 2.127 0.492376 0.178634 0.851854 255 0 0 255
-0.105123 0.193056 2.124 0.220786 0.112218 0.968845 255 0 0 255
-0.099353 0.193152 2.125 0.118466 0.103193 0.987581 255 0 0 255
-0.093488 0.193065 2.124 0.230807 0.150061 0.961358 255 0 0 255
-0.087588 0.192888 2.122 0.23233 0.273568 0.933372 255 0 0 255
-0.081698 0.19271 2.12 0.114904 0.254964 0.960099 255 0 0 255
-0.07589 0.192713 2.12 0.00014565 0.2223 0.974978 255 0 0 255
-0.070082 0.192716 2.12 0.000491918 0.212661 0.977126 255 0 0 255
-0.064274 0.19272 2.12 0.0284363 0.312174 0.949599 255 0 0 255
-0.058438 0.192631 2.119 0.0967553 0.360464 0.927741 255 0 0 255
-0.052632 0.192634 2.119 0.0273393 0.439048 0.898048 255 0 0 255
-0.046826 0.192636 2.119 -0.023494 0.459688 0.88777 255 0 0 255
-0.041039 0.192729 2.12 -0.179645 0.455121 0.87212 255 0 0 255
-0.035263 0.192913 2.122 -0.296732 0.326198 0.897522 255 0 0 255
-0.029462 0.193005 2.123 -0.367594 0.323729 0.871823 255 0 0 255
-0.023677 0.193279 2.126 -0.431144 0.325211 0.841637 255 0 0 255
-0.017868 0.193462 2.128 -0.472364 0.30898 0.825472 255 0 0 255
-0.012059 0.193826 2.132 -0.55153 0.249049 0.796109 255 0 0 255
-0.006231 0.194281 2.137 -0.444999 0.173944 0.878476 255 0 0 255
-0.000375 0.194463 2.139 -0.0869958 0.185761 0.978736 255 0 0 255
0.005485 0.194372 2.138 -0.257969 0.25373 0.932241 255 0 0 255
0.011365 0.194735 2.142 -0.590861 0.212356 0.778324 255 0 0 255
0.017267 0.195098 2.146 -0.760197 0.14615 0.63304 255 0 0 255
0.023256 0.196007 2.156 -0.741237 0.204376 0.639374 255 0 0 255
0.029219 0.196369 2.16 -0.570622 0.356262 0.739911 255 0 0 255
0.035203 0.196731 2.164 -0.480827 0.407371 0.776437 255 0 0 255
0.041171 0.196911 2.166 -0.468073 0.418273 0.778431 255 0 0 255
0.047193 0.197273 2.17 -0.544716 0.304166 0.781516 255 0 0 255
0.053212 0.197543 2.173 -0.616407 0.284073 0.734401 255 0 0 255
0.059357 0.198177 2.18 -0.601022 0.28721 0.745844 255 0 0 255
0.06542 0.198447 2.183 -0.517198 0.367592 0.772905 255 0 0 255
0.071531 0.198807 2.187 -0.457341 0.464684 0.758227 255 0 0 255
0.077594 0.198986 2.189 -0.427473 0.543243 0.722603 255 0 0 255
0.08382 0.199528 2.195 -0.477653 0.612607 0.629731 255 0 0 255
0.089955 0.199796 2.198 -0.460294 0.688632 0.560281 255 0 0 255
0.096325 0.200519 2.206 -0.409348 0.825746 0.388042 255 0 0 255
0.102599 0.200969 2.211 -0.310009 0.853367 0.419117 255 0 0 255
0.108852 0.201328 2.215 -0.216117 0.873246 0.436733 255 0 0 255
0.114917 0.201323 2.215 -0.0586152 0.917087 0.394355 255 0 0 255
0.120874 0.201136 2.213 0.118183 0.930772 0.345972 255 0 0 255
0.126761 0.200858 2.21 -0.0210112 0.911131 0.411581 255 0 0 255
0.132512 0.200397 2.205 -0.974124 -0.0403978 0.222373 255 0 0 255
0.136537 0.197483 2.173 0.980038 0.0362133 0.195485 255 0 0 255
0.141371 0.195932 2.156 0.920827 -0.342903 0.185729 255 0 0 255
0.146248 0.194563 2.141 0.775234 0.0452114 0.630054 255 0 0 255
0.150829 0.19292 2.123 0.911429 -0.13996 0.386923 255 0 0 255
0.155753 0.191823 2.111 0.85813 -0.277979 0.431671 255 0 0 255
0.160765 0.190907 2.101 0.711757 -0.321985 0.624282 255 0 0 255
0.166117 0.190446 2.096 0.354987 -0.228025 0.906636 255 0 0 255
0.171851 0.190438 2.096 0.0871672 -0.215046 0.972706 255 0 0 255
0.177415 0.190249 2.094 -0.0244321 -0.103916 0.994286 255 0 0 255
0.183317 0.190423 2.096 -0.0904648 -0.0428744 0.994976 255 0 0 255
0.188869 0.190233 2.094 -0.0317367 -0.164101 0.985933 255 0 0 255
0.194688 0.190315 2.095 0.446548 -0.21201 0.869279 255 0 0 255
0.199746 0.189671 2.088 0.649657 -0.174502 0.739929 255 0 0 255
-0.097927 0.070754 2.42073 -0.938145 -0.169402 -0.301971 255 255 0 255
-0.093329 0.069078 2.4109 -0.977788 -0.121546 -0.170754 255 255 0 255
-0.063248 0.073016 2.41831 0.10558 0.161573 -0.981197 255 255 0 255
-0.03577 0.07642 2.42415 -0.0189072 0.247163 -0.96879 255 255 0 255
-0.03123 0.074773 2.41448 -0.363714 0.58629 -0.723862 255 255 0 255
-0.024152 0.073693 2.40656 -0.391482 0.66825 -0.632601 255 255 0 255
-0.008623 0.074506 2.40452 -0.422363 0.309316 -0.852017 255 255 0 255
0.006881 0.075332 2.40254 -0.313541 -0.355152 -0.880658 255 255 0 255
0.013074 0.074083 2.39414 -0.563983 -0.494327 -0.661487 255 255 0 255
0.02938 0.07512 2.39287 -0.519014 -0.849363 -0.0959551 255 255 0 255
0.028813 0.072357 2.37978 -0.906881 0.271937 -0.321897 255 255 0 255
0.028254 0.06959 2.36666 -0.731312 -0.435319 -0.525053 255 255 0 255
0.072249 0.076973 2.38531 -0.862337 0.48656 -0.140126 255 255 0 255
0.080056 0.076141 2.3783 0.900106 -0.43269 -0.0508693 255 255 0 255
0.062693 0.069541 2.35318 -0.98337 -0.16487 -0.0761722 255 255 0 255
0.05878 0.066005 2.33764 -0.945191 -0.325572 -0.0248232 255 255 0 255
0.06911 0.065749 2.33243 -0.983161 -0.175866 -0.0496607 255 255 0 255
0.061033 0.061236 2.31379 -0.957659 0.0932387 -0.27239 255 255 0 255
0.049961 0.053342 2.28 -0.278138 -0.91189 -0.301822 255 255 0 255
0.062786 0.053675 2.27665 0.904909 -0.0754321 -0.418867 255 255 0 255
0.040632 0.045802 2.24723 0.945684 -0.0311683 -0.323591 255 255 0 255
0.040152 0.042999 2.2339 -0.368988 0.916426 -0.154954 255 255 0 255
0.041342 0.040585 2.22179 -0.474523 0.871255 -0.125471 255 255 0 255
-0.273383 -0.001124 2.29694 -0.975251 0.122898 -0.1838 0 255 0 255
-0.271286 0.001245 2.30761 0.030973 -0.782384 -0.622025 0 255 0 255
-0.255563 -0.000377 2.30855 0.559186 -0.54005 -0.629013 0 255 0 255
-0.227884 -0.005467 2.30109 -0.0650644 -0.337543 -0.939059 0 255 0 255
-0.193747 -0.009358 2.30161 0.971209 -0.0356458 -0.235546 0 255 0 255
-0.195872 -0.005714 2.31543 0.919864 0.222665 -0.32291 0 255 0 255
-0.192018 -0.003803 2.32506 0.951093 -0.259134 -0.16814 0 255 0 255
-0.184739 -0.002876 2.33233 0.921595 -0.23268 -0.310682 0 255 0 255
-0.192019 0.002234 2.34964 0.655773 0.219535 -0.722334 0 255 0 255
-0.178734 0.001448 2.3528 0.476903 -0.0321856 -0.878367 0 255 0 255
-0.170582 0.002142 2.35953 0.3088 -0.123601 -0.943062 0 255 0 255
-0.138773 -0.000831 2.36263 0.73246 0.50367 -0.458061 0 255 0 255
-0.140908 0.002809 2.37642 0.712615 0.405793 -0.572286 0 255 0 255
-0.130994 0.003049 2.38213 0.589467 0.481771 -0.648402 0 255 0 255
-0.093871 -0.001271 2.38228 0.411255 0.114165 -0.904343 0 255 0 255
-0.068742 -0.002149 2.3907 -0.379877 0.498478 -0.779239 0 255 0 255
-0.311691 0.196388 2.231 -0.988409 0.0698934 0.13477 255 0 0 255
-0.308346 0.198161 2.251 -0.645023 -0.00286704 0.764158 255 0 0 255
-0.302474 0.198349 2.253 -0.218019 -0.190829 0.957106 255 0 0 255
-0.296458 0.198449 2.254 -0.083177 -0.0867425 0.992752 255 0 0 255
-0.290307 0.198461 2.254 -0.0742447 0.0819048 0.993871 255 0 0 255
-0.284407 0.198648 2.256 -0.209027 0.193497 0.958575 255 0 0 255
-0.278496 0.198836 2.258 -0.356563 0.182105 0.916352 255 0 0 255
-0.272452 0.198935 2.259 -0.42556 0.380481 0.821056 255 0 0 255
-0.266873 0.199386 2.264 -0.587187 0.372887 0.718448 255 0 0 255
-0.26115 0.19975 2.268 -0.484314 0.506671 0.713249 255 0 0 255
-0.255742 0.200377 2.275 -0.74259 0.143123 0.654275 255 0 0 255
-0.250405 0.201092 2.283 0.346631 -0.0560843 0.936324 255 0 0 255
-0.243097 0.200221 2.273 0.84913 0.0466349 0.526121 255 0 0 255
-0.235427 0.198998 2.259 0.502993 -0.0640523 0.861914 255 0 0 255
-0.228644 0.198479 2.253 0.642314 -0.0139168 0.766315 255 0 0 255
-0.221992 0.198048 2.248 0.668049 -0.00160772 0.744115 255 0 0 255
-0.215271 0.197528 2.242 0.754543 -0.0301572 0.655557 255 0 0 255
-0.208115 0.196568 2.231 0.803306 0.14582 0.57744 255 0 0 255
-0.200746 0.195343 2.217 0.835972 0.322666 0.44389 255 0 0 255
-0.193542 0.194206 2.204 0.732975 0.457163 0.503735 255 0 0 255
-0.187003 0.193685 2.198 0.696832 0.378928 0.608966 255 0 0 255
-0.180249 0.1929 2.189 0.698926 0.262388 0.665323 255 0 0 255
-0.173783 0.192379 2.183 0.761444 0.0656185 0.644901 255 0 0 255
-0.167118 0.191593 2.174 0.801688 0.0867267 0.591418 255 0 0 255
-0.160576 0.190895 2.166 0.777593 0.0358874 0.627742 255 0 0 255
-0.154148 0.190285 2.159 0.680981 0.056932 0.730085 255 0 0 255
-0.148033 0.190027 2.156 0.532784 0.227508 0.815096 255 0 0 255
-0.141868 0.189681 2.152 0.622168 0.272571 0.733902 255 0 0 255
-0.135471 0.188982 2.144 0.673972 0.318361 0.66664 255 0 0 255
-0.129239 0.188459 2.138 0.537184 0.246176 0.806741 255 0 0 255
-0.123212 0.1882 2.135 0.430052 0.242785 0.869546 255 0 0 255
-0.117256 0.188029 2.133 0.437351 0.23179 0.868906 255 0 0 255
-0.111258 0.187769 2.13 0.497691 0.287787 0.818219 255 0 0 255
-0.105227 0.187421 2.126 0.401354 0.254904 0.879738 255 0 0 255
-0.09931 0.18725 2.124 0.119004 0.229458 0.966016 255 0 0 255
-0.093536 0.187342 2.125 0.0597333 0.215428 0.974691 255 0 0 255
-0.087674 0.187258 2.124 0.101958 0.393781 0.913532 255 0 0 255
-0.081779 0.187085 2.122 0.121597 0.475357 0.871349 255 0 0 255
-0.075965 0.187089 2.122 0.0580711 0.396639 0.916136 255 0 0 255
-0.070152 0.187092 2.122 0.024563 0.390556 0.920252 255 0 0 255
-0.064368 0.187183 2.123 0.0781819 0.312658 0.946643 255 0 0 255
-0.058523 0.187098 2.122 0.0594505 0.230184 0.971329 255 0 0 255
-0.052709 0.1871 2.122 -0.085935 0.312309 0.946086 255 0 0 255
-0.046894 0.187102 2.122 -0.0855678 0.332018 0.939384 255 0 0 255
-0.041079 0.187104 2.122 -0.144575 0.432274 0.890077 255 0 0 255
-0.035298 0.187282 2.124 -0.245665 0.345965 0.905515 255 0 0 255
-0.029491 0.187372 2.125 -0.31901 0.350463 0.880573 255 0 0 255
-0.023712 0.187726 2.129 -0.426325 0.352823 0.832924 255 0 0 255
-0.017902 0.187991 2.132 -0.434263 0.300867 0.849055 255 0 0 255
-0.012076 0.188256 2.135 -0.486271 0.195053 0.85176 255 0 0 255
-0.006231 0.188433 2.137 -0.422218 0.107352 0.900115 255 0 0 255
-0.000375 0.18861 2.139 -0.229759 0.182266 0.956028 255 0 0 255
0.005488 0.18861 2.139 -0.377623 0.330312 0.86504 255 0 0 255
0.011371 0.188962 2.143 -0.573762 0.348841 0.741018 255 0 0 255
0.017284 0.189402 2.148 -0.732 0.235692 0.639238 255 0 0 255
0.023257 0.190107 2.156 -0.741122 0.177012 0.647615 255 0 0 255
0.029247 0.190635 2.162 -0.623915 0.245923 0.74179 255 0 0 255
0.035253 0.191074 2.167 -0.482067 0.394201 0.782443 255 0 0 255
0.04123 0.191249 2.169 -0.442135 0.422897 0.790996 255 0 0 255
0.047239 0.191511 2.172 -0.513944 0.406532 0.755376 255 0 0 255
0.053313 0.19195 2.177 -0.610482 0.382798 0.693381 255 0 0 255
0.059414 0.192388 2.182 -0.598364 0.38925 0.700318 255 0 0 255
0.065513 0.192738 2.186 -0.522256 0.43142 0.735612 255 0 0 255
0.071698 0.193264 2.192 -0.540266 0.571108 0.61802 255 0 0 255
0.077846 0.193613 2.196 -0.490608 0.608675 0.623553 255 0 0 255
0.084091 0.194139 2.202 -0.537247 0.638431 0.551155 255 0 0 255
0.090369 0.194664 2.208 -0.588246 0.608312 0.532843 255 0 0 255
0.096766 0.195365 2.216 -0.612481 0.560267 0.557644 255 0 0 255
0.103068 0.195802 2.221 -0.469858 0.617348 0.630964 255 0 0 255
0.109397 0.196238 2.226 -0.26133 0.71606 0.647275 255 0 0 255
0.115493 0.196233 2.226 -0.26133 0.71606 0.647275 255 0 0 255
0.121589 0.196228 2.226 -0.109069 0.916045 0.385959 255 0 0 255
0.128143 0.196927 2.234 -0.648424 0.463448 0.603956 255 0 0 255
0.133539 0.195864 2.222 -0.338326 0.934719 0.108796 255 0 0 255
0.136544 0.191539 2.173 0.980013 0.0498386 0.19259 255 0 0 255
0.141377 0.190034 2.156 -0.992333 -0.0604453 0.107802 255 0 0 255
0.146254 0.188706 2.141 0.953174 -0.126067 0.274895 255 0 0 255
0.150693 0.186937 2.121 0.932144 -0.0653811 0.356135 255 0 0 255
0.155613 0.185872 2.109 0.887321 -0.156334 0.433845 255 0 0 255
0.160619 0.184984 2.099 0.737903 -0.0581077 0.6724 255 0 0 255
0.165965 0.184537 2.094 0.401725 -0.0771108 0.912508 255 0 0 255
0.171694 0.18453 2.094 0.0260729 -0.0550612 0.998142 255 0 0 255
0.177507 0.18461 2.095 -0.120717 0.0638761 0.99063 255 0 0 255
0.183412 0.184779 2.097 -0.0169732 0.117622 0.992913 255 0 0 255
0.189147 0.184771 2.097 0.208122 -0.112027 0.971666 255 0 0 255
0.194696 0.184587 2.095 0.502473 -0.199644 0.841227 255 0 0 255
0.19985 0.18405 2.089 0.598572 -0.174475 0.781837 255 0 0 255
-0.095219 0.060098 2.42385 -0.692115 -0.141694 -0.707743 255 255 0 255
-0.089773 0.058615 2.41459 -0.476328 0.0820421 -0.875432 255 255 0 255
-0.065651 0.061308 2.41797 -0.115333 0.324384 -0.938868 255 255 0 255
-0.060232 0.059839 2.40879 -0.154725 0.538981 -0.827985 255 255 0 255
-0.05397 0.058563 2.4002 -0.350187 0.678516 -0.645744 255 255 0 255
-0.038405 0.059392 2.39802 -0.173335 0.59875 -0.781955 255 255 0 255
0.017141 0.066655 2.41089 0.0652296 -0.45089 -0.890193 255 255 0 255
0.037666 0.06869 2.41254 -0.0638799 -0.563733 -0.823483 255 255 0 255
0.045512 0.06785 2.40541 -0.676543 -0.65934 -0.327964 255 255 0 255
0.049983 0.066242 2.39593 -0.606983 -0.769201 -0.199752 255 255 0 255
0.055292 0.064829 2.38705 -0.936659 0.282092 -0.20759 255 255 0 255
0.057237 0.062642 2.37579 -0.969411 -0.103583 -0.222514 255 255 0 255
0.057508 0.060063 2.36331 -0.882009 0.0665291 -0.466513 255 255 0 255
0.066167 0.059433 2.35685 -0.939371 -0.263711 -0.219179 255 255 0 255
0.067279 0.057048 2.34497 -0.979072 -0.132771 -0.154243 255 255 0 255
0.068397 0.054661 2.33307 0.991502 0.0697515 -0.109807 255 255 0 255
0.041949 0.04579 2.30098 -0.716104 0.418668 -0.558492 255 255 0 255
0.048114 0.044565 2.29265 -0.525792 -0.154562 -0.836453 255 255 0 255
0.069281 0.046894 2.29544 -0.621548 0.701832 -0.348008 255 255 0 255
0.066259 0.043508 2.28038 -0.939585 0.318291 -0.125979 255 255 0 255
0.059923 0.039322 2.26279 0.849618 -0.137635 -0.509122 255 255 0 255
0.025355 0.02837 2.22392 0.864713 0.196144 -0.462384 255 255 0 255
-0.034862 0.011206 2.16539 -0.0491904 -0.441278 -0.896021 255 255 0 255
-0.263609 -0.014833 2.29111 0.866184 0.0137747 -0.499536 0 255 0 255
-0.28191 -0.006395 2.31644 0.31615 -0.37661 -0.870755 0 255 0 255
-0.26365 -0.008817 2.31555 -0.193095 -0.377975 -0.905456 0 255 0 255
-0.235992 -0.013986 2.30809 -0.251898 -0.688987 -0.679591 0 255 0 255
-0.205734 -0.019876 2.29897 0.770123 -0.323536 -0.549759 0 255 0 255
-0.195909 -0.019723 2.3044 0.625345 -0.251457 -0.738724 0 255 0 255
-0.19974 -0.015564 2.31941 0.950066 0.15202 -0.272514 0 255 0 255
-0.199308 -0.01266 2.33141 0.967758 0.136716 -0.21155 0 255 0 255
-0.16249 -0.017286 2.33062 0.603296 0.344011 -0.719507 0 255 0 255
-0.168898 -0.012387 2.34738 0.661762 0.49009 -0.567347 0 255 0 255
-0.166744 -0.00997 2.35823 0.482527 0.33396 -0.809715 0 255 0 255
-0.154288 -0.010514 2.3621 0.421776 0.161402 -0.892219 0 255 0 255
-0.128926 -0.014737 2.35734 0.363401 0.295219 -0.883621 0 255 0 255
-0.131048 -0.011075 2.37116 0.403116 0.609364 -0.682768 0 255 0 255
-0.115962 -0.012318 2.37347 0.483121 0.660841 -0.574355 0 255 0 255
-0.099993 -0.013791 2.37527 0.102992 0.196917 -0.974996 0 255 0 255
-0.069716 -0.0162 2.38024 -0.0654082 0.371898 -0.925966 0 255 0 255
-0.05973 -0.015925 2.38622 -0.108534 0.221608 -0.969077 0 255 0 255
-0.311284 0.190036 2.228 -0.984738 0.0846433 0.152077 255 0 0 255
-0.308084 0.191839 2.249 -0.576645 -0.0127385 0.816896 255 0 0 255
-0.302351 0.192107 2.252 -0.22555 -0.0297157 0.973778 255 0 0 255
-0.29647 0.192289 2.254 -0.11795 -0.0851089 0.989366 255 0 0 255
-0.290319 0.1923 2.254 -0.147075 -0.137586 0.97951 255 0 0 255
-0.284419 0.192482 2.256 -0.260036 -0.137569 0.955749 255 0 0 255
-0.278507 0.192664 2.258 -0.481693 0.106655 0.869825 255 0 0 255
-0.272824 0.193016 2.262 -0.632778 0.241979 0.735553 255 0 0 255
-0.267237 0.193453 2.267 -0.644578 0.335129 0.687174 255 0 0 255
-0.261621 0.19389 2.272 -0.635932 0.303611 0.709514 255 0 0 255
-0.255865 0.194242 2.276 -0.147556 0.35453 0.923329 255 0 0 255
-0.250086 0.194593 2.28 0.0879659 0.113445 0.989643 255 0 0 255
-0.24268 0.193664 2.269 0.794833 -0.245052 0.555149 255 0 0 255
-0.235541 0.192906 2.26 0.723408 -0.0804331 0.685719 255 0 0 255
-0.228755 0.192403 2.254 0.670709 -0.0842319 0.736923 255 0 0 255
-0.222001 0.1919 2.248 0.670799 -0.107481 0.73381 255 0 0 255
-0.21528 0.191397 2.242 0.6606 -0.141268 0.737327 255 0 0 255
-0.208403 0.190723 2.234 0.768418 0.0830958 0.63453 255 0 0 255
-0.201479 0.189963 2.225 0.804416 0.217141 0.552961 255 0 0 255
-0.194428 0.189032 2.214 0.769269 0.391169 0.505185 255 0 0 255
-0.187691 0.188356 2.206 0.721433 0.463978 0.514061 255 0 0 255
-0.180751 0.187425 2.195 0.742989 0.421017 0.520299 255 0 0 255
-0.174029 0.186664 2.186 0.80021 0.323189 0.505186 255 0 0 255
-0.167125 0.185646 2.174 0.795873 0.282065 0.535747 255 0 0 255
-0.160583 0.18497 2.166 0.73348 0.284243 0.617425 255 0 0 255
-0.154155 0.184379 2.159 0.592136 0.279929 0.755655 255 0 0 255
-0.14804 0.184129 2.156 0.529455 0.305829 0.791294 255 0 0 255
-0.14194 0.183879 2.153 0.645203 0.265688 0.716326 255 0 0 255
-0.13573 0.183457 2.148 0.692489 0.253147 0.675556 255 0 0 255
-0.129486 0.182951 2.142 0.62526 0.267438 0.733162 255 0 0 255
-0.12339 0.182614 2.138 0.507475 0.230573 0.830244 255 0 0 255
-0.117371 0.182363 2.135 0.394891 0.16093 0.904523 255 0 0 255
-0.11142 0.182197 2.133 0.419873 0.184948 0.888538 255 0 0 255
-0.10538 0.18186 2.129 0.445394 0.270028 0.853645 255 0 0 255
-0.099408 0.181608 2.126 0.227191 0.248947 0.941493 255 0 0 255
-0.093585 0.181612 2.126 0.000465268 0.225528 0.974237 255 0 0 255
-0.087802 0.181702 2.127 0.0438821 0.288671 0.956422 255 0 0 255
-0.081975 0.181705 2.127 0.0604873 0.327305 0.942981 255 0 0 255
-0.076112 0.181623 2.126 0.113217 0.412849 0.903735 255 0 0 255
-0.070254 0.181541 2.125 0.113665 0.334299 0.935588 255 0 0 255
-0.064371 0.181373 2.123 0.125889 0.229671 0.965092 255 0 0 255
-0.058526 0.18129 2.122 0.0890092 0.136622 0.986616 255 0 0 255
-0.052736 0.181378 2.123 -0.0723745 0.144829 0.986806 255 0 0 255
-0.046963 0.181551 2.125 -0.0874265 0.173021 0.98103 255 0 0 255
-0.041139 0.181553 2.125 -0.175562 0.230265 0.95716 255 0 0 255
-0.035349 0.181726 2.127 -0.220321 0.310231 0.924778 255 0 0 255
-0.029534 0.181813 2.128 -0.327017 0.321853 0.888522 255 0 0 255
-0.023724 0.181985 2.13 -0.441942 0.234656 0.865808 255 0 0 255
-0.017911 0.182242 2.133 -0.375821 0.189639 0.907081 255 0 0 255
-0.012077 0.182413 2.135 -0.375942 0.113243 0.919698 255 0 0 255
-0.006234 0.18267 2.138 -0.372964 0.10624 0.921743 255 0 0 255
-0.000375 0.182841 2.14 -0.383326 0.2194 0.897176 255 0 0 255
0.005498 0.183097 2.143 -0.464765 0.36238 0.807883 255 0 0 255
0.011393 0.183439 2.147 -0.556416 0.3653 0.746296 255 0 0 255
0.017317 0.183865 2.152 -0.686753 0.259227 0.679096 255 0 0 255
0.023291 0.184462 2.159 -0.716327 0.162312 0.678624 255 0 0 255
0.029289 0.184974 2.165 -0.695151 0.21903 0.684683 255 0 0 255
0.035287 0.185314 2.169 -0.588259 0.3309 0.737873 255 0 0 255
0.041307 0.185654 2.173 -0.495579 0.478961 0.724567 255 0 0 255
0.047349 0.185994 2.177 -0.523088 0.513999 0.679841 255 0 0 255
0.053413 0.186334 2.181 -0.59059 0.499525 0.63378 255 0 0 255
0.059553 0.186844 2.187 -0.548922 0.50871 0.663249 255 0 0 255
0.065665 0.187183 2.191 -0.549224 0.530393 0.645783 255 0 0 255
0.071898 0.187778 2.198 -0.565271 0.530253 0.631902 255 0 0 255
0.078097 0.188202 2.203 -0.589613 0.481272 0.64864 255 0 0 255
0.084362 0.188711 2.209 -0.630072 0.437482 0.641575 255 0 0 255
0.090659 0.18922 2.215 -0.637725 0.355965 0.683078 255 0 0 255
0.096989 0.189728 2.221 -0.538626 0.0772057 0.839 255 0 0 255
0.103305 0.190151 2.226 -0.611792 0.0819785 0.786759 255 0 0 255
0.109549 0.190403 2.229 -0.554286 0.138465 0.820728 255 0 0 255
0.11581 0.190654 2.232 -0.473433 0.212255 0.854874 255 0 0 255
0.122305 0.191247 2.239 -0.650876 0.250294 0.716738 255 0 0 255
0.129468 0.192779 2.257 -0.919031 0.0537325 0.390506 255 0 0 255
0.135107 0.192005 2.248 -0.923276 0.314919 0.21997 255 0 0 255
0.136738 0.18585 2.176 0.979211 0.0897899 0.18189 255 0 0 255
0.141187 0.183879 2.153 0.998138 0.0185213 0.0581131 255 0 0 255
0.146192 0.182763 2.14 0.956133 0.00528838 0.292884 255 0 0 255
0.150771 0.18122 2.122 0.93414 -0.0124396 0.356689 255 0 0 255
0.155619 0.180103 2.109 0.909191 -0.0233192 0.415725 255 0 0 255
0.160625 0.179242 2.099 0.677867 -0.015584 0.73502 255 0 0 255
0.166131 0.17898 2.096 0.447355 0.0402811 0.893449 255 0 0 255
0.171784 0.178887 2.095 -0.0253898 -0.00487483 0.999666 255 0 0 255
0.177599 0.178965 2.096 -0.124275 -0.087136 0.988415 255 0 0 255
0.183333 0.178958 2.096 -0.0896458 -0.144734 0.985401 255 0 0 255
0.189065 0.17895 2.096 0.298909 -0.212964 0.930215 255 0 0 255
0.194425 0.178601 2.092 0.545604 -0.284554 0.788255 255 0 0 255
0.199571 0.17808 2.086 0.725793 -0.35435 0.589628 255 0 0 255
-0.092165 0.046818 2.41428 -0.684076 0.273329 -0.676262 255 255 0 255
-0.083324 0.046111 2.40732 -0.151749 0.341618 -0.927507 255 255 0 255
-0.069409 0.046565 2.40384 -0.361929 0.607561 -0.70702 255 255 0 255
-0.061443 0.045679 2.39637 -0.391225 0.61482 -0.684791 255 255 0 255
-0.052641 0.04499 2.38951 -0.18832 0.402689 -0.895755 255 255 0 255
0.018951 0.056083 2.41338 0.216926 -0.21074 -0.95317 255 255 0 255
0.039466 0.058171 2.41501 -0.1506 0.184756 -0.971177 255 255 0 255
0.059945 0.060277 2.41674 -0.866364 -0.116143 -0.48572 255 255 0 255
0.057929 0.05453 2.39011 -0.931434 -0.217303 -0.291908 255 255 0 255
0.050639 0.050174 2.37227 -0.926649 -0.364597 -0.0916011 255 255 0 255
0.059306 0.049554 2.36578 -0.721348 -0.620685 -0.307258 255 255 0 255
0.062936 0.047753 2.3557 -0.670156 -0.661474 -0.336664 255 255 0 255
0.069913 0.046746 2.34805 0.940096 0.333457 -0.070892 255 255 0 255
0.064344 0.042763 2.33128 0.950082 0.0989547 -0.295893 255 255 0 255
0.047425 0.033374 2.2933 -0.453099 0.00178928 -0.891458 255 255 0 255
0.061085 0.033958 2.29053 -0.244495 -0.171857 -0.954299 255 255 0 255
0.099694 0.040565 2.30637 -0.934101 0.356334 -0.0219381 255 255 0 255
-0.271277 -0.020361 2.31004 0.709307 -0.151502 -0.688426 0 255 0 255
-0.262372 -0.020022 2.31586 0.308469 -0.468165 -0.828051 0 255 0 255
-0.244943 -0.022215 2.31568 -0.166802 -0.543949 -0.822372 0 255 0 255
-0.216413 -0.027685 2.30777 0.0741991 -0.270488 -0.95986 0 255 0 255
-0.198925 -0.029835 2.30779 0.361183 -0.177343 -0.915476 0 255 0 255
-0.193362 -0.028433 2.31624 0.8068 0.390286 -0.443565 0 255 0 255
-0.184378 -0.028035 2.32232 0.64257 0.583894 -0.496157 0 255 0 255
-0.167688 -0.029891 2.32313 0.698163 -0.205176 -0.685909 0 255 0 255
-0.169802 -0.026212 2.33696 0.603296 0.344011 -0.719508 0 255 0 255
-0.152224 -0.028295 2.33728 0.6205 -0.294976 -0.726614 0 255 0 255
-0.153483 -0.024866 2.35053 0.544812 0.568202 -0.616705 0 255 0 255
-0.143594 -0.024682 2.35619 0.494614 0.183024 -0.849623 0 255 0 255
-0.131117 -0.025234 2.36016 0.673532 -0.18514 -0.715596 0 255 0 255
-0.10401 -0.029993 2.3544 0.282443 0.347627 -0.894081 0 255 0 255
-0.082768 -0.026831 2.37773 -0.00382517 -0.0202791 -0.999787 0 255 0 255
-0.072799 -0.026586 2.38367 -0.164678 0.14926 -0.974989 0 255 0 255
-0.055048 -0.028541 2.38458 0.270113 0.175207 -0.946753 0 255 0 255
-0.313112 0.18502 2.241 -0.897651 0.297585 0.325063 255 0 0 255
-0.308369 0.185857 2.251 -0.536182 0.0721167 0.841016 255 0 0 255
-0.302497 0.186034 2.253 -0.197636 0.176198 0.96431 255 0 0 255
-0.296349 0.186045 2.253 -0.043181 0.141427 0.989007 255 0 0 255
-0.290072 0.185973 2.252 -0.140764 0.0245757 0.989738 255 0 0 255
-0.284178 0.186149 2.254 -0.362913 0.108958 0.925431 255 0 0 255
-0.278394 0.186408 2.257 -0.61241 0.173453 0.771277 255 0 0 255
-0.272956 0.186914 2.263 -0.68236 0.291578 0.670349 255 0 0 255
-0.267483 0.18742 2.269 -0.647427 0.312678 0.695033 255 0 0 255
-0.261862 0.187843 2.274 -0.435288 0.297389 0.849755 255 0 0 255
-0.2561 0.188184 2.278 -0.111553 0.0652817 0.991612 255 0 0 255
-0.249547 0.187946 2.275 0.572527 -0.447842 0.686768 255 0 0 255
-0.242368 0.187212 2.266 0.750191 -0.3414 0.566268 255 0 0 255
-0.23555 0.186725 2.26 0.677505 -0.194111 0.709442 255 0 0 255
-0.228663 0.186156 2.253 0.668854 -0.209146 0.713367 255 0 0 255
-0.221714 0.185504 2.245 0.680104 -0.206499 0.703433 255 0 0 255
-0.215 0.185017 2.239 0.649746 -0.203131 0.732508 255 0 0 255
-0.208411 0.184612 2.234 0.704137 -0.0439157 0.708705 255 0 0 255
-0.201759 0.184124 2.228 0.685564 -0.107274 0.720066 255 0 0 255
-0.194787 0.183306 2.218 0.776024 0.171923 0.606819 255 0 0 255
-0.188124 0.182735 2.211 0.754798 0.0746715 0.651694 255 0 0 255
-0.181252 0.181916 2.201 0.750385 0.343042 0.565018 255 0 0 255
-0.174593 0.181262 2.193 0.753027 0.39455 0.526574 255 0 0 255
-0.167593 0.180194 2.18 0.777939 0.420054 0.467296 255 0 0 255
-0.16096 0.179457 2.171 0.71275 0.438922 0.547115 255 0 0 255
-0.15459 0.178968 2.165 0.61647 0.453134 0.643921 255 0 0 255
-0.148389 0.178643 2.161 0.59045 0.431022 0.682341 255 0 0 255
-0.142078 0.178153 2.155 0.617443 0.296116 0.728752 255 0 0 255
-0.135799 0.177663 2.149 0.66925 0.27349 0.690875 255 0 0 255
-0.129552 0.177172 2.143 0.645011 0.273948 0.713381 255 0 0 255
-0.123396 0.176764 2.138 0.581985 0.214773 0.784325 255 0 0 255
-0.117321 0.176438 2.134 0.458605 0.136317 0.878123 255 0 0 255
-0.111424 0.17636 2.133 0.348686 0.128486 0.928391 255 0 0 255
-0.105483 0.176199 2.131 0.354484 0.214754 0.910067 255 0 0 255
-0.099506 0.175955 2.128 0.198575 0.378092 0.90422 255 0 0 255
-0.093633 0.175877 2.127 0.0580774 0.346575 0.936223 255 0 0 255
-0.087806 0.175881 2.127 0.029607 0.260564 0.965002 255 0 0 255
-0.081978 0.175884 2.127 0.0305496 0.136977 0.990103 255 0 0 255
-0.076187 0.17597 2.128 0.0878061 0.153815 0.984191 255 0 0 255
-0.07029 0.175808 2.126 0.139925 0.280149 0.949704 255 0 0 255
-0.064465 0.175811 2.126 0.273061 0.247343 0.929655 255 0 0 255
-0.058556 0.175565 2.123 0.118021 0.2112 0.970291 255 0 0 255
-0.052763 0.17565 2.124 -0.14387 0.132391 0.980701 255 0 0 255
-0.046942 0.175652 2.124 -0.203487 0.203117 0.957777 255 0 0 255
-0.041141 0.175737 2.125 -0.272875 0.228086 0.934621 255 0 0 255
-0.03535 0.175904 2.127 -0.321414 0.344923 0.881885 255 0 0 255
-0.029563 0.176153 2.13 -0.287742 0.219862 0.93213 255 0 0 255
-0.023758 0.176402 2.133 -0.333085 0.211078 0.918967 255 0 0 255
-0.017929 0.176569 2.135 -0.330735 0.142837 0.932851 255 0 0 255
-0.012083 0.176652 2.136 -0.40043 0.141707 0.905304 255 0 0 255
-0.006237 0.176901 2.139 -0.439792 0.163709 0.883053 255 0 0 255
-0.000375 0.177066 2.141 -0.514744 0.285877 0.808278 255 0 0 255
0.005506 0.17748 2.146 -0.557154 0.375414 0.740705 255 0 0 255
0.011404 0.177727 2.149 -0.500059 0.415459 0.759826 255 0 0 255
0.017326 0.178057 2.153 -0.634399 0.317818 0.704648 255 0 0 255
0.023281 0.17847 2.158 -0.716209 0.201521 0.668157 255 0 0 255
0.02929 0.179048 2.165 -0.692789 0.241634 0.679452 255 0 0 255
0.035338 0.179625 2.172 -0.658923 0.354554 0.663409 255 0 0 255
0.041385 0.180037 2.177 -0.531456 0.485692 0.694016 255 0 0 255
0.04746 0.180449 2.182 -0.563217 0.436878 0.701373 255 0 0 255
0.053562 0.18086 2.187 -0.620894 0.417593 0.663405 255 0 0 255
0.059691 0.181271 2.192 -0.588009 0.490281 0.643327 255 0 0 255
0.065818 0.1816 2.196 -0.576515 0.486943 0.656138 255 0 0 255
0.071966 0.181928 2.2 -0.581524 0.437046 0.686164 255 0 0 255
0.078207 0.182421 2.206 -0.618169 0.350836 0.703407 255 0 0 255
0.084442 0.182831 2.211 -0.640359 0.265782 0.720625 255 0 0 255
0.090745 0.183323 2.217 -0.599139 0.148155 0.786818 255 0 0 255
0.096993 0.18365 2.221 -0.506531 -0.0821399 0.8583 255 0 0 255
0.103216 0.183894 2.224 -0.523441 -0.0735644 0.84888 255 0 0 255
0.109554 0.184303 2.229 -0.575124 -0.112328 0.810318 255 0 0 255
0.115918 0.184712 2.234 -0.633396 -0.0623673 0.771311 255 0 0 255
0.132228 0.181885 2.2 0.943361 0.262861 0.20242 255 0 0 255
0.137309 0.18064 2.185 0.978851 0.150767 0.138277 255 0 0 255
0.141324 0.178154 2.155 0.919994 0.380032 0.095848 255 0 0 255
0.146198 0.176908 2.14 0.965283 -0.148012 0.215224 255 0 0 255
0.150635 0.175248 2.12 0.937163 -0.000626418 0.348891 255 0 0 255
0.155626 0.174333 2.109 0.896483 -0.0104291 0.442955 255 0 0 255
0.160709 0.173583 2.1 0.793368 0.00319867 0.608734 255 0 0 255
0.166138 0.173245 2.096 0.517923 -0.0255745 0.855045 255 0 0 255
0.171627 0.172991 2.093 0.149781 -0.316843 0.936577 255 0 0 255
0.177437 0.173066 2.094 0.100527 -0.442168 0.891281 255 0 0 255
0.183078 0.172976 2.093 -0.00470229 -0.494428 0.869206 255 0 0 255
0.188983 0.173134 2.095 0.223191 -0.459093 0.859895 255 0 0 255
0.194154 0.172631 2.089 0.57753 -0.47751 0.662151 255 0 0 255
0.199197 0.172044 2.082 0.706259 -0.447139 0.548876 255 0 0 255
-0.110684 0.0313 2.40315 0.374324 0.136638 -0.917176 255 255 0 255
-0.092495 0.032742 2.40242 -0.220102 0.582198 -0.782688 255 255 0 255
-0.080268 0.032832 2.39774 -0.318289 0.559888 -0.764995 255 255 0 255
-0.070599 0.032344 2.39139 -0.146646 0.125427 -0.981205 255 255 0 255
-0.059251 0.032256 2.38624 -0.0397309 -0.0913469 -0.995026 255 255 0 255
-0.035253 0.035126 2.38987 0.0792026 0.0753035 -0.99401 255 255 0 255
0.001357 0.040976 2.4024 0.140837 0.311878 -0.939626 255 255 0 255
0.026098 0.044095 2.4069 -0.0407028 0.498055 -0.866189 255 255 0 255
0.041532 0.045058 2.40504 -0.546895 0.280559 -0.788791 255 255 0 255
0.053578 0.045239 2.40087 -0.658157 0.475816 -0.583463 255 255 0 255
0.057205 0.04344 2.3908 -0.826662 -0.272582 -0.492269 255 255 0 255
0.060832 0.041641 2.38073 -0.674797 -0.596909 -0.433992 255 255 0 255
0.070326 0.041242 2.37486 -0.543475 -0.770123 -0.333984 255 255 0 255
0.077295 0.040249 2.36722 -0.602553 -0.763531 -0.232272 255 255 0 255
0.075055 0.03705 2.35294 0.884403 0.363386 -0.292885 255 255 0 255
0.067816 0.032639 2.33498 0.965605 0.00938466 -0.259845 255 255 0 255
0.063938 0.029023 2.3194 0.962822 -0.148505 -0.225653 255 255 0 255
0.050072 0.022975 2.29641 -0.969042 -0.246849 -0.00472621 255 255 0 255
0.0529 0.020958 2.28563 0.957119 0.110768 -0.267684 255 255 0 255
0.04741 0.016912 2.26867 -0.98315 0.182611 -0.00837104 255 255 0 255
-0.275502 -0.032917 2.30211 0.977883 0.0502315 -0.20303 0 255 0 255
-0.2734 -0.030539 2.31278 0.680536 -0.0382529 -0.731716 0 255 0 255
-0.266199 -0.029704 2.31982 0.791589 -0.319776 -0.520701 0 255 0 255
-0.25729 -0.029377 2.32568 0.255323 -0.455208 -0.852992 0 255 0 255
-0.202791 -0.039687 2.31177 0.201515 -0.456591 -0.866554 0 255 0 255
-0.181877 -0.042883 2.3095 0.394642 0.374443 -0.839077 0 255 0 255
-0.169469 -0.043513 2.31326 0.939522 0.0715464 -0.334932 0 255 0 255
-0.171573 -0.039814 2.32712 0.760056 0.421363 -0.494741 0 255 0 255
-0.172831 -0.036374 2.34035 0.339695 -0.789426 -0.511287 0 255 0 255
-0.156119 -0.03825 2.34127 0.449829 -0.544599 -0.70786 0 255 0 255
-0.149666 -0.03708 2.34926 0.426315 -0.390509 -0.81594 0 255 0 255
-0.138918 -0.037165 2.35437 0.509518 -0.200907 -0.836676 0 255 0 255
-0.129875 -0.036737 2.36067 0.968707 -0.220804 -0.113368 0 255 0 255
-0.106217 -0.040563 2.35724 -0.0880835 0.355798 -0.930403 0 255 0 255
-0.065536 -0.039949 2.38031 0.00108456 0.338762 -0.940871 0 255 0 255
-0.046923 -0.04219 2.3807 0.174959 0.179975 -0.967987 0 255 0 255
-0.312704 0.178655 2.238 -0.975562 0.123572 0.181683 255 0 0 255
-0.308792 0.179944 2.254 -0.158879 0.376604 0.912648 255 0 0 255
-0.303045 0.180194 2.257 -0.0143097 0.442229 0.896788 255 0 0 255
-0.296492 0.179966 2.254 0.0876488 0.491294 0.866572 255 0 0 255
-0.290341 0.179976 2.254 -0.162776 0.297152 0.940853 255 0 0 255
-0.284566 0.180227 2.257 -0.486313 0.33841 0.805592 255 0 0 255
-0.278898 0.180556 2.261 -0.637658 0.340944 0.69076 255 0 0 255
-0.273448 0.181046 2.267 -0.676489 0.360081 0.642421 255 0 0 255
-0.267847 0.181455 2.272 -0.632359 0.326234 0.702633 255 0 0 255
-0.262102 0.181785 2.276 -0.542106 0.322274 0.776054 255 0 0 255
-0.25611 0.181954 2.278 0.51304 0.111321 0.851115 255 0 0 255
-0.248789 0.181165 2.268 0.55458 -0.441943 0.705073 255 0 0 255
-0.241736 0.180535 2.26 0.681758 -0.429567 0.592181 255 0 0 255
-0.235143 0.180224 2.256 0.516247 -0.359594 0.777291 255 0 0 255
-0.228367 0.179754 2.25 0.654332 -0.324301 0.683139 255 0 0 255
-0.221525 0.179203 2.243 0.654703 -0.347735 0.671152 255 0 0 255
-0.21472 0.178652 2.236 0.625165 -0.397214 0.671856 255 0 0 255
-0.208233 0.178341 2.232 0.558718 -0.39359 0.730014 255 0 0 255
-0.201586 0.177869 2.226 0.625255 -0.341422 0.701774 255 0 0 255
-0.19497 0.177398 2.22 0.739806 -0.209819 0.639268 255 0 0 255
-0.188217 0.176766 2.212 0.730058 -0.0848676 0.678095 255 0 0 255
-0.181589 0.176214 2.205 0.6728 -0.0478142 0.738278 255 0 0 255
-0.174998 0.175661 2.198 0.711293 0.109835 0.694261 255 0 0 255
-0.168215 0.174869 2.188 0.805685 0.247976 0.53794 255 0 0 255
-0.161634 0.174236 2.18 0.770215 0.22166 0.598026 255 0 0 255
-0.155024 0.173523 2.171 0.681355 0.368419 0.632473 255 0 0 255
-0.148738 0.173129 2.166 0.659299 0.411705 0.629145 255 0 0 255
-0.142281 0.172496 2.158 0.664435 0.397594 0.632808 255 0 0 255
-0.135994 0.172021 2.152 0.660335 0.334045 0.672586 255 0 0 255
-0.129739 0.171547 2.146 0.622036 0.383431 0.68268 255 0 0 255
-0.123574 0.171152 2.141 0.597234 0.377701 0.707569 255 0 0 255
-0.117436 0.170758 2.136 0.46069 0.264311 0.847292 255 0 0 255
-0.111429 0.170522 2.133 0.404931 0.213247 0.889133 255 0 0 255
-0.105537 0.170447 2.132 0.16527 0.28106 0.945352 255 0 0 255
-0.099697 0.170451 2.132 0.140145 0.383681 0.91277 255 0 0 255
-0.093812 0.170375 2.131 0.149178 0.425623 0.892519 255 0 0 255
-0.087933 0.170299 2.13 0.146023 0.313688 0.938231 255 0 0 255
-0.08202 0.170142 2.128 0.0905172 0.13654 0.98649 255 0 0 255
-0.076226 0.170225 2.129 0.000733218 0.140489 0.990082 255 0 0 255
-0.070359 0.170148 2.128 0.0830285 0.143488 0.986163 255 0 0 255
-0.064497 0.170071 2.127 0.200625 0.265099 0.943118 255 0 0 255
-0.058586 0.169834 2.124 0.143698 0.315061 0.93813 255 0 0 255
-0.05279 0.169916 2.125 0.000836611 0.289261 0.95725 255 0 0 255
-0.046967 0.169918 2.125 -0.175522 0.193447 0.965282 255 0 0 255
-0.04122 0.17024 2.129 -0.333647 0.235373 0.912841 255 0 0 255
-0.035418 0.170401 2.131 -0.297865 0.19941 0.933548 255 0 0 255
-0.029606 0.170562 2.133 -0.314611 0.173201 0.933285 255 0 0 255
-0.023748 0.170483 2.132 -0.411525 0.205934 0.887828 255 0 0 255
-0.01793 0.170724 2.135 -0.386462 0.247206 0.888559 255 0 0 255
-0.012084 0.170805 2.136 -0.394755 0.325842 0.859067 255 0 0 255
-0.006243 0.171205 2.141 -0.415632 0.300369 0.858504 255 0 0 255
-0.000375 0.171365 2.143 -0.557657 0.330943 0.761246 255 0 0 255
0.005516 0.171925 2.15 -0.602489 0.351458 0.716578 255 0 0 255
0.011425 0.172164 2.153 -0.488036 0.38677 0.782452 255 0 0 255
0.017351 0.172403 2.156 -0.590397 0.375486 0.714452 255 0 0 255
0.023325 0.172882 2.162 -0.672654 0.329975 0.662309 255 0 0 255
0.029332 0.173361 2.168 -0.747223 0.346529 0.567076 255 0 0 255
0.035437 0.174159 2.178 -0.655652 0.421848 0.62623 255 0 0 255
0.041463 0.174398 2.181 -0.523216 0.384324 0.760618 255 0 0 255
0.047549 0.174796 2.186 -0.560456 0.298569 0.772494 255 0 0 255
0.053638 0.175114 2.19 -0.665317 0.255794 0.701372 255 0 0 255
0.05983 0.175671 2.197 -0.681546 0.286741 0.673256 255 0 0 255
0.066001 0.176068 2.202 -0.57416 0.347965 0.741121 255 0 0 255
0.072165 0.176385 2.206 -0.555406 0.314021 0.77001 255 0 0 255
0.078316 0.176622 2.209 -0.612116 0.238504 0.753943 255 0 0 255
0.084598 0.177099 2.215 -0.592985 0.175325 0.785894 255 0 0 255
0.090789 0.177335 2.218 -0.473552 0.0679357 0.878142 255 0 0 255
0.096953 0.177491 2.22 -0.313851 -0.104695 0.943682 255 0 0 255
0.103081 0.177567 2.221 -0.405362 -0.242059 0.881527 255 0 0 255
0.109362 0.177882 2.225 -0.608855 -0.13481 0.781743 255 0 0 255
0.115715 0.178278 2.23 -0.65431 -0.0388566 0.755227 255 0 0 255
0.121987 0.178513 2.233 -0.249433 -0.156184 0.955714 255 0 0 255
0.138069 0.175619 2.197 0.968834 0.21956 0.114689 255 0 0 255
0.141723 0.172736 2.161 0.985596 0.127711 0.110868 255 0 0 255
0.146409 0.171292 2.143 -0.997404 -0.0714602 0.00890327 255 0 0 255
0.150854 0.169687 2.123 0.953994 0.0620635 0.293332 255 0 0 255
0.155632 0.168562 2.109 0.908513 0.000853691 0.417855 255 0 0 255
0.160638 0.167757 2.099 0.804142 -0.0315333 0.593601 255 0 0 255
0.166065 0.167431 2.095 0.604091 -0.147455 0.783155 255 0 0 255
0.171469 0.167104 2.091 0.297719 -0.373276 0.878651 255 0 0 255
0.177105 0.167018 2.09 0.0891687 -0.417509 0.904287 255 0 0 255
0.182735 0.166931 2.089 -0.0182532 -0.464595 0.885335 255 0 0 255
0.188449 0.166923 2.089 0.32219 -0.53725 0.779459 255 0 0 255
0.193511 0.166357 2.082 0.689832 -0.287659 0.664368 255 0 0 255
0.198535 0.16579 2.075 0.981059 -0.0375909 0.190026 255 0 0 255
-0.144018 0.014981 2.3952 0.532665 -0.122957 -0.837347 255 255 0 255
-0.118999 0.01802 2.39888 0.267175 0.442157 -0.856221 255 255 0 255
-0.105893 0.018317 2.39467 -0.22267 0.414307 -0.882478 255 255 0 255
-0.090267 0.019219 2.39225 -0.221088 0.587154 -0.778698 255 255 0 255
-0.078896 0.01914 2.38701 0.100977 0.337076 -0.936047 255 255 0 255
-0.050643 0.023048 2.39341 -0.0313426 -0.135046 -0.990344 255 255 0 255
-0.032571 0.024591 2.39298 0.0713055 0.116822 -0.99059 255 255 0 255
-0.011157 0.026948 2.39496 0.0265769 0.290298 -0.956567 255 255 0 255
0.004322 0.027922 2.39295 -0.0160999 0.392529 -0.919599 255 255 0 255
