ply
format ascii 1.0
comment VCGLIB generated
element vertex 722
property float x
property float y
property float z
property float nx
property float ny
property float nz
property uchar red
property uchar green
property uchar blue
property uchar alpha
element face 0
property list uchar int vertex_indices
end_header
0.084108 0.163676 2.372 0.594403 0.327027 0.734669 255 0 0 255
0.090455 0.163397 2.368 0.556654 0.277207 0.78313 255 0 0 255
0.096739 0.163049 2.363 0.297596 0.253059 0.920542 255 0 0 255
0.10317 0.162977 2.362 0.0284717 0.132422 0.990784 255 0 0 255
0.109642 0.162973 2.362 0.0244155 0.14487 0.98915 255 0 0 255
0.116113 0.162969 2.362 0.502804 0.0444242 0.863258 255 0 0 255
0.122116 0.162344 2.353 0.843474 0.0476972 0.535049 255 0 0 255
-0.166583 -0.022307 2.45122 -0.136917 0.0967149 -0.98585 255 255 0 255
-0.114354 -0.018084 2.44628 -0.109516 0.140025 -0.984073 255 255 0 255
-0.087669 -0.014373 2.45098 -0.335334 0.259713 -0.905594 255 255 0 255
-0.0729 -0.013538 2.44792 -0.485789 0.0314826 -0.873509 255 255 0 255
-0.05985 -0.013105 2.44378 -0.582461 -0.284239 -0.761543 255 255 0 255
-0.056124 -0.014951 2.43344 -0.136115 -0.497553 -0.856687 255 255 0 255
-0.036344 -0.012836 2.43397 -0.129971 -0.760758 -0.63589 255 255 0 255
-0.030949 -0.014255 2.42482 -0.302123 -0.636771 -0.709397 255 255 0 255
-0.017125 -0.013578 2.42146 -0.338002 -0.388209 -0.85735 255 255 0 255
-0.003324 -0.01289 2.41816 -0.379982 -0.362854 -0.850853 255 255 0 255
0.0012 -0.014503 2.40851 -0.501433 -0.588951 -0.633799 255 255 0 255
-0.000162 -0.017591 2.39478 -0.742329 0.557788 -0.371241 255 255 0 255
0.022835 -0.01456 2.39805 -0.0625886 0.431025 -0.900167 255 255 0 255
0.069261 -0.013726 2.38003 0.51642 -0.829508 -0.212664 255 255 0 255
-0.267176 -0.068454 2.38744 0.435485 -0.275228 -0.857089 0 255 0 255
-0.264229 -0.066336 2.39749 0.746009 -0.259512 -0.613289 0 255 0 255
-0.253609 -0.066613 2.40228 0.56975 -0.595795 -0.566051 0 255 0 255
-0.249803 -0.064755 2.41177 0.542806 -0.474265 -0.693134 0 255 0 255
-0.240017 -0.064752 2.41721 0.582525 0.203685 -0.786878 0 255 0 255
-0.2268 -0.065799 2.42038 0.646263 0.247773 -0.721771 0 255 0 255
-0.220008 -0.061792 2.44005 0.601638 0.206669 -0.77157 0 255 0 255
-0.213611 -0.060708 2.4479 0.0405995 0.00812662 -0.999142 0 255 0 255
-0.196915 -0.062768 2.44896 0.597566 -0.167275 -0.784177 0 255 0 255
-0.185346 -0.063241 2.4535 0.389941 -0.361264 -0.847015 0 255 0 255
-0.171184 -0.064486 2.45639 -0.044779 -0.441279 -0.896252 0 255 0 255
-0.151842 -0.067282 2.45601 -0.0701746 -0.500858 -0.86268 0 255 0 255
-0.136777 -0.068756 2.45849 0.0379198 -0.349643 -0.936115 0 255 0 255
-0.102736 -0.07593 2.44887 -0.518819 -0.166995 -0.838415 0 255 0 255
-0.058294 -0.086177 2.43281 0.0671733 -0.143486 -0.98737 0 255 0 255
-0.029315 -0.091714 2.42688 -0.56813 0.157572 -0.807712 0 255 0 255
-0.357142 0.143739 2.174 -0.371729 0.38428 0.845072 255 0 0 255
-0.354452 0.145072 2.194 -0.0959469 -0.174763 0.979925 255 0 0 255
-0.348157 0.14495 2.192 0.42168 -0.188177 0.887004 255 0 0 255
-0.341404 0.144629 2.187 0.464658 -0.171015 0.868819 255 0 0 255
-0.334984 0.144441 2.184 0.110726 -0.214699 0.970384 255 0 0 255
-0.329333 0.144583 2.186 -0.435435 -0.23166 0.869902 255 0 0 255
-0.323965 0.144857 2.19 -0.786694 -0.155344 0.597478 255 0 0 255
-0.319156 0.145396 2.198 -0.809766 -0.175954 0.559749 255 0 0 255
-0.315726 0.146596 2.216 -0.986723 0.00468593 0.162342 255 0 0 255
-0.312477 0.147929 2.236 -0.996732 -0.0714794 0.0376396 255 0 0 255
-0.311995 0.150651 2.277 -0.788916 -0.263134 0.555313 255 0 0 255
-0.30981 0.152645 2.307 0.892169 -0.119708 0.43555 255 0 0 255
-0.301673 0.151728 2.293 0.446314 0.398086 0.801455 255 0 0 255
-0.294126 0.151075 2.283 0.557043 0.337429 0.758845 255 0 0 255
-0.287389 0.15082 2.279 0.442162 0.0767373 0.893647 255 0 0 255
-0.280673 0.150564 2.275 0.269451 -0.31945 0.908486 255 0 0 255
-0.27446 0.150572 2.275 0.0663011 -0.468437 0.881006 255 0 0 255
-0.268483 0.150713 2.277 0.128033 -0.47273 0.871857 255 0 0 255
-0.262032 0.150589 2.275 0.349507 -0.275471 0.895523 255 0 0 255
-0.255367 0.150332 2.271 0.565424 -0.155219 0.810063 255 0 0 255
-0.248503 0.149943 2.265 0.584937 -0.125982 0.801235 255 0 0 255
-0.241671 0.149554 2.259 0.56973 -0.0485555 0.820397 255 0 0 255
-0.235079 0.149297 2.255 0.525584 0.108408 0.843807 255 0 0 255
-0.22861 0.149105 2.252 0.503987 0.278984 0.817413 255 0 0 255
-0.221959 0.148782 2.247 0.556126 0.305818 0.772787 255 0 0 255
-0.215239 0.148391 2.241 0.565674 0.310153 0.76408 255 0 0 255
-0.208643 0.148067 2.236 0.308619 0.390376 0.867387 255 0 0 255
-0.202527 0.148074 2.236 0.227082 0.224779 0.94758 255 0 0 255
-0.196411 0.14808 2.236 0.285216 0.161482 0.944762 255 0 0 255
-0.190123 0.147954 2.234 0.478788 0.018961 0.877726 255 0 0 255
-0.183681 0.147695 2.23 0.596438 0.0104454 0.802591 255 0 0 255
-0.1771 0.147304 2.224 0.497208 -0.0339047 0.866969 255 0 0 255
-0.170783 0.147111 2.221 0.400858 -0.0691877 0.913524 255 0 0 255
-0.164481 0.146918 2.218 0.357805 -0.111496 0.927116 255 0 0 255
-0.158338 0.146857 2.217 0.262867 -0.289447 0.920392 255 0 0 255
-0.152131 0.146729 2.215 0.0687272 -0.42267 0.903674 255 0 0 255
-0.146066 0.146734 2.215 -0.109273 -0.323466 0.939909 255 0 0 255
-0.140064 0.146805 2.216 -0.247757 -0.114607 0.96202 255 0 0 255
-0.134056 0.146876 2.217 -0.191217 -0.13753 0.971865 255 0 0 255
-0.128042 0.146947 2.218 0.00368092 -0.192325 0.981324 255 0 0 255
-0.121911 0.146885 2.217 0.0932621 -0.220657 0.970882 255 0 0 255
-0.115838 0.146889 2.217 0.0320816 -0.23894 0.970504 255 0 0 255
-0.109715 0.146826 2.216 -0.115566 -0.318044 0.941006 255 0 0 255
-0.103738 0.146963 2.218 -0.240357 -0.165337 0.9565 255 0 0 255
-0.097749 0.147098 2.22 -0.338708 -0.0173041 0.940733 255 0 0 255
-0.091748 0.147234 2.222 -0.201023 -0.0857703 0.975824 255 0 0 255
-0.085698 0.147303 2.223 -0.23356 0.0960522 0.967587 255 0 0 255
-0.079642 0.147372 2.224 -0.348883 0.29941 0.888051 255 0 0 255
-0.073646 0.147574 2.227 -0.323057 0.495612 0.806228 255 0 0 255
-0.067633 0.147775 2.23 -0.355201 0.675952 0.645694 255 0 0 255
-0.061632 0.148042 2.234 -0.239799 0.720085 0.651133 255 0 0 255
-0.055558 0.148177 2.236 -0.308541 0.665438 0.679701 255 0 0 255
-0.049473 0.148311 2.238 -0.465945 0.571392 0.675578 255 0 0 255
-0.043455 0.14871 2.244 -0.572128 0.406104 0.712566 255 0 0 255
-0.03737 0.148977 2.248 -0.556146 0.160319 0.815475 255 0 0 255
-0.031277 0.149309 2.253 -0.522903 0.0179044 0.852204 255 0 0 255
-0.025123 0.149443 2.255 -0.472286 -0.13713 0.870713 255 0 0 255
-0.018975 0.149709 2.259 -0.512178 -0.351573 0.783627 255 0 0 255
-0.012799 0.149908 2.262 -0.466967 -0.446979 0.762989 255 0 0 255
-0.006609 0.150174 2.266 -0.261754 -0.51553 0.815913 255 0 0 255
-0.000397 0.15024 2.267 -0.133963 -0.662976 0.736557 255 0 0 255
0.005815 0.150174 2.266 -0.156529 -0.653719 0.740372 255 0 0 255
0.012038 0.150306 2.268 -0.370694 -0.501932 0.781441 255 0 0 255
0.018288 0.15057 2.272 -0.61143 -0.299553 0.732408 255 0 0 255
0.024581 0.150967 2.278 -0.63085 -0.203962 0.748618 255 0 0 255
0.030894 0.151298 2.283 -0.672798 -0.256646 0.693884 255 0 0 255
0.037315 0.151959 2.293 -0.854285 -0.177606 0.488521 255 0 0 255
0.043943 0.153151 2.311 -0.926782 -0.150341 0.344198 255 0 0 255
0.050887 0.155005 2.339 -0.951682 -0.134614 0.276008 255 0 0 255
0.077839 0.157647 2.379 0.874104 0.256727 0.412352 255 0 0 255
0.084217 0.157379 2.375 0.600964 0.272013 0.751566 255 0 0 255
0.090535 0.157045 2.37 0.646767 0.210597 0.733036 255 0 0 255
0.096825 0.15671 2.365 0.341526 0.26573 0.901525 255 0 0 255
0.103305 0.156707 2.365 0.133827 0.134281 0.981865 255 0 0 255
0.109785 0.156703 2.365 0.217665 -0.0909865 0.971773 255 0 0 255
0.116166 0.156567 2.363 0.517323 -0.128619 0.84607 255 0 0 255
0.121913 0.155635 2.349 0.925745 -0.16984 0.337863 255 0 0 255
-0.161285 -0.03253 2.45603 0.0810589 0.00997488 -0.996659 255 255 0 255
-0.154918 -0.033796 2.4471 0.0339377 0.0296621 -0.998984 255 255 0 255
-0.074439 -0.025195 2.44821 -0.318905 0.216426 -0.922746 255 255 0 255
-0.066468 -0.025996 2.44066 -0.26066 -0.0371778 -0.964715 255 255 0 255
-0.057661 -0.026582 2.4337 -0.585759 0.0438401 -0.809299 255 255 0 255
-0.040419 -0.025051 2.43249 -0.0520785 0.262052 -0.963647 255 255 0 255
-0.026582 -0.024351 2.42907 0.0460527 0.282752 -0.958087 255 255 0 255
-0.016981 -0.024701 2.42282 -0.495197 0.0243956 -0.868438 255 255 0 255
-0.001499 -0.023557 2.42067 -0.490642 -0.00617865 -0.871339 255 255 0 255
0.008911 -0.023677 2.4151 -0.696306 -0.0511897 -0.715918 255 255 0 255
-0.009256 -0.031042 2.3897 0.937598 -0.144396 -0.316324 255 255 0 255
0.002833 -0.030735 2.3853 -0.17828 0.382503 -0.906591 255 255 0 255
0.036698 -0.02485 2.39626 -0.299566 0.61872 -0.726255 255 255 0 255
0.050402 -0.024083 2.39321 -0.227202 0.797173 -0.55937 255 255 0 255
0.049028 -0.027178 2.37952 -0.374309 0.692566 -0.616641 255 255 0 255
0.050171 -0.02963 2.36759 -0.523327 0.813584 -0.253399 255 255 0 255
0.02628 -0.038565 2.33768 0.700002 0.60478 -0.379789 255 255 0 255
-0.263407 -0.074397 2.41028 0.556545 -0.684412 -0.470998 0 255 0 255
-0.245963 -0.07684 2.41045 0.447769 -0.592838 -0.669363 0 255 0 255
-0.242151 -0.07498 2.41996 0.280064 -0.547903 -0.788268 0 255 0 255
-0.22296 -0.077928 2.41911 0.222095 -0.511653 -0.829991 0 255 0 255
-0.209727 -0.07899 2.42237 0.535835 -0.599072 -0.594974 0 255 0 255
-0.208456 -0.076313 2.43368 0.743755 0.40447 -0.532196 0 255 0 255
-0.202907 -0.074965 2.44214 0.436059 0.18817 -0.880025 0 255 0 255
-0.190078 -0.072789 2.45797 0.890164 -0.0245766 -0.454976 0 255 0 255
-0.179361 -0.073014 2.46311 0.0878467 -0.399286 -0.912608 0 255 0 255
-0.163473 -0.07481 2.46495 -0.0305402 -0.19514 -0.9803 0 255 0 255
-0.13896 -0.079218 2.46131 -0.105096 -0.362539 -0.926024 0 255 0 255
-0.112688 -0.084125 2.45669 -0.227589 -0.175311 -0.957846 0 255 0 255
-0.057938 -0.097642 2.43403 -0.170212 0.105859 -0.979705 0 255 0 255
-0.022073 -0.105347 2.42374 -0.395965 0.777335 -0.488837 0 255 0 255
-0.026724 -0.100754 2.43928 -0.254642 0.181141 -0.949919 0 255 0 255
-0.359123 0.138558 2.186 -0.788971 0.288242 0.542625 255 0 0 255
-0.353654 0.138758 2.189 -0.0775235 -0.285159 0.95534 255 0 0 255
-0.347532 0.138704 2.188 0.18314 -0.379838 0.906743 255 0 0 255
-0.340946 0.13846 2.184 0.415599 -0.0858614 0.905486 255 0 0 255
-0.334687 0.138343 2.182 0.31118 -0.28321 0.907171 255 0 0 255
-0.32874 0.138352 2.182 -0.179819 -0.555862 0.811593 255 0 0 255
-0.323531 0.138679 2.187 -0.704679 -0.413428 0.576633 255 0 0 255
-0.31902 0.139322 2.197 -0.926006 -0.14266 0.349516 255 0 0 255
-0.31545 0.140409 2.214 -0.949559 -0.0676643 0.3062 255 0 0 255
-0.311927 0.14156 2.232 -0.986901 -0.122706 0.104735 255 0 0 255
-0.310359 0.143662 2.265 -0.725842 -0.559154 0.400625 255 0 0 255
-0.309551 0.146208 2.305 0.757385 -0.0163724 0.652764 255 0 0 255
-0.30234 0.145773 2.298 0.73613 0.114324 0.667115 255 0 0 255
-0.295036 0.145274 2.29 0.633422 0.411424 0.655367 255 0 0 255
-0.287902 0.144839 2.283 0.653536 0.364454 0.663373 255 0 0 255
-0.280681 0.14434 2.275 0.511215 -0.0114648 0.859376 255 0 0 255
-0.274227 0.144221 2.273 0.476012 -0.111508 0.872341 255 0 0 255
-0.267901 0.144166 2.272 0.166375 -0.416914 0.893589 255 0 0 255
-0.261464 0.144047 2.27 0.302137 -0.537705 0.787139 255 0 0 255
-0.254925 0.143864 2.267 0.441543 -0.523593 0.728622 255 0 0 255
-0.248182 0.143555 2.262 0.47471 -0.437158 0.7639 255 0 0 255
-0.241679 0.143372 2.259 0.387163 -0.278272 0.879016 255 0 0 255
-0.235191 0.143189 2.256 0.281584 0.0395019 0.958723 255 0 0 255
-0.228922 0.143132 2.255 0.430704 0.240197 0.869942 255 0 0 255
-0.222361 0.142885 2.251 0.587297 0.26282 0.765512 255 0 0 255
-0.215822 0.142638 2.247 0.622426 0.14633 0.768878 255 0 0 255
-0.20921 0.142327 2.242 0.527988 0.113903 0.841579 255 0 0 255
-0.202896 0.142207 2.24 0.352693 0.0914252 0.931262 255 0 0 255
-0.196505 0.142023 2.237 0.517134 -0.0857707 0.851596 255 0 0 255
-0.189874 0.141648 2.231 0.541286 -0.208408 0.814602 255 0 0 255
-0.183357 0.141336 2.226 0.537988 -0.165914 0.826463 255 0 0 255
-0.176947 0.141088 2.222 0.43698 -0.135312 0.889235 255 0 0 255
-0.170788 0.14103 2.221 0.455545 -0.0397858 0.889323 255 0 0 255
-0.164338 0.140718 2.216 0.455903 -0.113499 0.882763 255 0 0 255
-0.158057 0.140532 2.213 0.311032 -0.175834 0.933992 255 0 0 255
-0.151861 0.14041 2.211 0.145621 -0.170528 0.974533 255 0 0 255
-0.145873 0.140479 2.212 -0.167311 -0.141885 0.975641 255 0 0 255
-0.140005 0.140674 2.215 -0.162867 -0.263891 0.950703 255 0 0 255
-0.134 0.140742 2.216 -0.0683624 -0.26582 0.961596 255 0 0 255
-0.12793 0.140746 2.216 -0.0189812 -0.265207 0.964005 255 0 0 255
-0.121805 0.140686 2.215 0.140003 -0.154059 0.978092 255 0 0 255
-0.115685 0.140627 2.214 0.00757336 -0.217703 0.975986 255 0 0 255
-0.109719 0.140757 2.216 -0.203325 -0.140675 0.968953 255 0 0 255
-0.103741 0.140888 2.218 -0.403499 0.0514323 0.913533 255 0 0 255
-0.097796 0.141082 2.221 -0.397282 0.0906902 0.913205 255 0 0 255
-0.091751 0.141148 2.222 -0.343232 0.310586 0.886413 255 0 0 255
-0.085739 0.141278 2.224 -0.333959 0.269584 0.903214 255 0 0 255
-0.079788 0.141535 2.228 -0.464735 0.450232 0.762438 255 0 0 255
-0.073847 0.141855 2.233 -0.439743 0.688919 0.576209 255 0 0 255
-0.067909 0.142239 2.239 -0.328674 0.629441 0.704115 255 0 0 255
-0.061799 0.142304 2.24 -0.175642 0.485213 0.856574 255 0 0 255
-0.055684 0.14237 2.241 -0.202525 0.450148 0.869684 255 0 0 255
-0.049585 0.142498 2.243 -0.519168 0.285921 0.805428 255 0 0 255
-0.043553 0.142881 2.249 -0.3572 0.0451548 0.932936 255 0 0 255
-0.037404 0.142946 2.25 -0.189729 -0.249537 0.949597 255 0 0 255
-0.03125 0.143011 2.251 -0.111319 -0.44823 0.88696 255 0 0 255
-0.025068 0.142948 2.25 -0.099228 -0.677575 0.728729 255 0 0 255
-0.018916 0.143076 2.252 -0.193874 -0.706544 0.680595 255 0 0 255
-0.012754 0.143203 2.254 -0.351334 -0.594442 0.723328 255 0 0 255
-0.006586 0.143458 2.258 -0.240531 -0.559966 0.792833 255 0 0 255
-0.000396 0.143522 2.259 -0.297101 -0.497405 0.815058 255 0 0 255
0.005803 0.143649 2.261 -0.424006 -0.315259 0.849018 255 0 0 255
0.012022 0.143902 2.265 -0.62631 -0.115313 0.770999 255 0 0 255
0.018288 0.144347 2.272 -0.693388 -0.0361689 0.719656 255 0 0 255
0.024582 0.144727 2.278 -0.645853 -0.0479223 0.761956 255 0 0 255
0.030895 0.145044 2.283 -0.757603 -0.170212 0.630131 255 0 0 255
0.037348 0.145805 2.295 -0.827149 -0.223966 0.515426 255 0 0 255
0.04402 0.147074 2.315 -0.924376 -0.128323 0.359251 255 0 0 255
0.077907 0.151257 2.381 0.475992 0.255404 0.841546 255 0 0 255
0.084326 0.151064 2.378 0.655429 0.288101 0.698148 255 0 0 255
0.090652 0.150744 2.373 0.735672 0.138303 0.663068 255 0 0 255
0.096828 0.150232 2.365 0.476305 0.0308406 0.878739 255 0 0 255
0.103308 0.150229 2.365 0.211891 -0.00528908 0.977279 255 0 0 255
0.109603 0.149972 2.361 0.400531 -0.115904 0.908923 255 0 0 255
0.115973 0.149841 2.359 0.654058 -0.0974008 0.750148 255 0 0 255
0.121294 0.14844 2.337 0.96015 -0.0849763 0.266252 255 0 0 255
-0.199025 -0.044795 2.47248 0.940893 0.187328 -0.282186 255 255 0 255
-0.142369 -0.039371 2.46965 0.683161 0.423582 -0.59487 255 255 0 255
-0.144526 -0.042724 2.45523 0.683161 0.423582 -0.59487 255 255 0 255
-0.085288 -0.039209 2.44231 -0.266228 0.593066 -0.759865 255 255 0 255
-0.068001 -0.037662 2.44094 -0.266682 0.643678 -0.717328 255 255 0 255
-0.077784 -0.042925 2.42146 -0.495791 0.514811 -0.699401 255 255 0 255
-0.058838 -0.040935 2.42132 0.0352677 0.32728 -0.944269 255 255 0 255
-0.03318 -0.037217 2.42586 -0.228415 0.426876 -0.874988 255 255 0 255
-0.025257 -0.03798 2.41844 -0.422408 0.680871 -0.59832 255 255 0 255
-0.005565 -0.035729 2.41913 -0.475777 0.444617 -0.758915 255 255 0 255
-0.005238 -0.038417 2.40656 -0.668534 0.593694 -0.447872 255 255 0 255
-0.01666 -0.04413 2.38581 0.212435 -0.758678 -0.615856 255 255 0 255
-0.015468 -0.046614 2.37375 -0.528652 -0.508967 -0.679323 255 255 0 255
0.02208 -0.042464 2.37442 -0.963184 -0.133381 -0.233421 255 255 0 255
-0.006847 -0.052774 2.34106 -0.258205 -0.947908 -0.186551 255 255 0 255
0.008556 -0.051556 2.3391 -0.14804 -0.779748 -0.60834 255 255 0 255
0.017259 -0.052074 2.33241 -0.14804 -0.779748 -0.60834 255 255 0 255
-0.265924 -0.087511 2.40122 0.430151 -0.669245 -0.605872 0 255 0 255
-0.263827 -0.08512 2.41186 0.405543 -0.843646 -0.351847 0 255 0 255
-0.265142 -0.081647 2.42481 0.689017 -0.583287 -0.430153 0 255 0 255
-0.252815 -0.082505 2.42849 0.156294 -0.794322 -0.587048 0 255 0 255
-0.236204 -0.084699 2.42935 0.0986441 -0.588495 -0.802461 0 255 0 255
-0.22555 -0.084991 2.43431 0.468212 -0.682385 -0.561363 0 255 0 255
-0.214883 -0.085273 2.4393 0.360815 -0.845093 -0.3945 0 255 0 255
-0.211907 -0.083132 2.44945 0.464744 -0.0315904 -0.884881 0 255 0 255
-0.195222 -0.085273 2.45056 0.422991 -0.240173 -0.873725 0 255 0 255
-0.185374 -0.08526 2.45625 0.678032 -0.0225188 -0.734687 0 255 0 255
-0.175515 -0.085238 2.46198 0.0651646 0.27137 -0.960267 0 255 0 255
-0.15963 -0.087069 2.46384 0.146668 0.0610248 -0.987302 0 255 0 255
-0.144583 -0.088619 2.46634 0.0246133 -0.194694 -0.980555 0 255 0 255
-0.122631 -0.092273 2.46449 -0.303135 -0.190862 -0.933639 0 255 0 255
-0.048112 -0.112032 2.42921 -0.776355 0.0384465 -0.629123 0 255 0 255
-0.359461 0.132704 2.188 0.00934187 0.113084 0.993542 255 0 0 255
-0.35334 0.132652 2.187 0.00934187 0.113084 0.993542 255 0 0 255
-0.347541 0.132722 2.188 0.169493 0.0812201 0.982179 255 0 0 255
-0.341111 0.13255 2.185 0.502408 0.107205 0.857959 255 0 0 255
-0.334236 0.132195 2.179 0.33267 -0.0135504 0.942946 255 0 0 255
-0.327996 0.132082 2.177 -0.279335 -0.129151 0.951468 255 0 0 255
-0.3228 0.132395 2.182 -0.769861 -0.145215 0.621471 255 0 0 255
-0.318593 0.133132 2.194 -0.921468 -0.155361 0.356034 255 0 0 255
-0.314889 0.134111 2.21 -0.95701 -0.177162 0.229665 255 0 0 255
-0.311097 0.135091 2.226 -0.938729 0.213345 0.270687 255 0 0 255
-0.310368 0.137466 2.265 -0.435199 -0.851968 0.291121 255 0 0 255
-0.309828 0.140024 2.307 0.72199 0.141138 0.677355 255 0 0 255
-0.30248 0.139547 2.299 0.687336 0.186442 0.702003 255 0 0 255
-0.295818 0.139374 2.296 0.515061 0.136877 0.846154 255 0 0 255
-0.288919 0.139078 2.291 0.637197 0.184281 0.748345 255 0 0 255
-0.28143 0.138479 2.281 0.730812 0.288051 0.618822 255 0 0 255
-0.273994 0.13788 2.271 0.603699 0.0781524 0.793373 255 0 0 255
-0.26732 0.137645 2.267 0.632047 -0.0529745 0.773117 255 0 0 255
-0.260551 0.137349 2.262 0.555032 -0.352133 0.753619 255 0 0 255
-0.25392 0.137114 2.258 0.444685 -0.386503 0.808004 255 0 0 255
-0.247421 0.136939 2.255 0.179178 -0.330348 0.926696 255 0 0 255
-0.241258 0.136946 2.255 0.0836181 -0.461744 0.883063 255 0 0 255
-0.235198 0.137014 2.256 0.10531 -0.379917 0.919007 255 0 0 255
-0.229031 0.137021 2.256 0.248714 -0.128687 0.95999 255 0 0 255
-0.222368 0.136724 2.251 0.5611 -0.119737 0.819042 255 0 0 255
-0.215732 0.136427 2.246 0.569548 -0.14622 0.808848 255 0 0 255
-0.20903 0.136068 2.24 0.536317 -0.185948 0.823278 255 0 0 255
-0.202721 0.135953 2.238 0.457897 -0.157372 0.874965 255 0 0 255
-0.196159 0.135655 2.233 0.560558 -0.317608 0.764787 255 0 0 255
-0.189624 0.135357 2.228 0.497972 -0.371012 0.78382 255 0 0 255
-0.18328 0.135181 2.225 0.381509 -0.230913 0.895059 255 0 0 255
-0.177032 0.135065 2.223 0.311375 -0.106311 0.944322 255 0 0 255
-0.170794 0.134948 2.221 0.45286 -0.0689377 0.888913 255 0 0 255
-0.164343 0.13465 2.216 0.492669 0.00771285 0.870182 255 0 0 255
-0.158134 0.134533 2.214 0.312659 0.0959127 0.945011 255 0 0 255
-0.151935 0.134416 2.212 0.0253297 0.111027 0.993495 255 0 0 255
-0.145878 0.134421 2.212 -0.107874 0.0835635 0.990646 255 0 0 255
-0.139883 0.134486 2.213 -0.139104 -0.0313045 0.989783 255 0 0 255
-0.133822 0.13449 2.213 -0.168167 -0.0856697 0.982029 255 0 0 255
-0.127877 0.134616 2.215 -0.0971141 -0.0316131 0.994771 255 0 0 255
-0.121754 0.134559 2.214 -0.0549352 0.175709 0.982908 255 0 0 255
-0.115637 0.134502 2.213 -0.149136 0.31954 0.935763 255 0 0 255
-0.109673 0.134627 2.215 -0.296709 0.262905 0.918066 255 0 0 255
-0.103744 0.134813 2.218 -0.50231 0.35586 0.788066 255 0 0 255
-0.097887 0.13512 2.223 -0.43701 0.49556 0.750628 255 0 0 255
-0.091878 0.135244 2.225 -0.35296 0.553264 0.754532 255 0 0 255
-0.085935 0.13549 2.229 -0.437395 0.583662 0.684123 255 0 0 255
-0.080005 0.135797 2.234 -0.579792 0.482318 0.656666 255 0 0 255
-0.074114 0.136224 2.241 -0.516669 0.285613 0.807142 255 0 0 255
-0.068062 0.136409 2.244 -0.268159 0.371754 0.888758 255 0 0 255
-0.061939 0.136472 2.245 -0.125322 0.0856007 0.988416 255 0 0 255
-0.055761 0.136413 2.244 -0.0569637 -0.0104601 0.998321 255 0 0 255
-0.049631 0.136475 2.245 -0.282285 -0.101035 0.953995 255 0 0 255
-0.043535 0.136659 2.248 -0.249658 -0.128435 0.959779 255 0 0 255
-0.037339 0.136539 2.246 0.0831099 -0.513496 0.854057 255 0 0 255
-0.031154 0.136418 2.244 0.0840705 -0.595477 0.798962 255 0 0 255
-0.024991 0.136358 2.243 -0.0745648 -0.470999 0.878977 255 0 0 255
-0.018858 0.136481 2.245 -0.451178 -0.304035 0.839048 255 0 0 255
-0.01272 0.136664 2.248 -0.546762 -0.291427 0.784934 255 0 0 255
-0.006569 0.136907 2.252 -0.474184 -0.186198 0.860511 255 0 0 255
-0.000395 0.13715 2.256 -0.427345 -0.0150475 0.903963 255 0 0 255
0.0058 0.137393 2.26 -0.523188 0.130454 0.842174 255 0 0 255
0.012023 0.137697 2.265 -0.659952 0.019852 0.751046 255 0 0 255
0.018289 0.138122 2.272 -0.685493 -0.00797342 0.728035 255 0 0 255
0.024583 0.138486 2.278 -0.584781 -0.124273 0.801616 255 0 0 255
0.030882 0.138729 2.282 -0.586805 -0.204734 0.783418 255 0 0 255
0.037252 0.139153 2.289 -0.811087 -0.308444 0.496991 255 0 0 255
0.043812 0.140064 2.304 -0.886555 -0.307206 0.345896 255 0 0 255
0.050651 0.141521 2.328 -0.959043 -0.194292 0.206126 255 0 0 255
0.084506 0.144854 2.383 0.736168 0.318095 0.597388 255 0 0 255
0.090617 0.144183 2.372 0.773174 0.0321831 0.633377 255 0 0 255
0.096913 0.143876 2.367 0.520618 -0.0364678 0.85301 255 0 0 255
0.103355 0.143812 2.366 0.306167 -0.00422596 0.951968 255 0 0 255
0.109699 0.143626 2.363 0.454325 0.0294567 0.890349 255 0 0 255
0.115928 0.143319 2.358 0.539583 -0.0643203 0.839472 255 0 0 255
-0.175802 -0.056337 2.46251 -0.208416 -0.365526 -0.907168 255 255 0 255
-0.168569 -0.057382 2.45408 -0.0941813 -0.49849 -0.861764 255 255 0 255
-0.094432 -0.052873 2.43755 -0.481398 0.286575 -0.82833 255 255 0 255
-0.083905 -0.053012 2.43162 -0.39433 0.515218 -0.760956 255 255 0 255
-0.053967 -0.048179 2.43879 -0.248932 0.334338 -0.908983 255 255 0 255
-0.067112 -0.05435 2.41703 -0.0878187 -0.136274 -0.986771 255 255 0 255
-0.038926 -0.049918 2.42324 -0.503507 0.484935 -0.715066 255 255 0 255
0.000151 -0.042635 2.43708 -0.383535 -0.302151 -0.8727 255 255 0 255
-0.027284 -0.052509 2.40547 -0.719618 -0.287815 -0.631912 255 255 0 255
-0.00845 -0.050421 2.4056 0.70718 0.706246 -0.0333769 255 255 0 255
-0.00727 -0.052905 2.39359 0.869815 0.293719 -0.396423 255 255 0 255
0.008165 -0.05167 2.39151 -0.673108 -0.162065 -0.721568 255 255 0 255
0.016875 -0.052176 2.38479 -0.814729 -0.025741 -0.57927 255 255 0 255
0.015537 -0.055316 2.37103 -0.938031 0.153166 -0.310867 255 255 0 255
0.015045 -0.05824 2.35783 0.981197 0.189289 -0.0377029 255 255 0 255
0.014561 -0.061169 2.3446 -0.41556 -0.814602 -0.404641 255 255 0 255
0.014087 -0.064102 2.33135 -0.0425628 -0.594332 -0.803093 255 255 0 255
-0.276164 -0.092019 2.42159 0.689017 -0.583287 -0.430153 0 255 0 255
-0.274078 -0.089633 2.43219 0.689017 -0.583287 -0.430153 0 255 0 255
-0.254943 -0.092707 2.43124 0.0705104 -0.358725 -0.930776 0 255 0 255
-0.234074 -0.096304 2.42924 0.16438 -0.572289 -0.803408 0 255 0 255
-0.2294 -0.094715 2.43822 0.66342 -0.731233 -0.158657 0 255 0 255
-0.236689 -0.089325 2.45517 -0.776407 0.628895 -0.0410372 0 255 0 255
-0.23373 -0.087197 2.46526 0.354462 -0.913996 -0.197403 0 255 0 255
-0.190106 -0.094806 2.46072 0.514045 -0.0768014 -0.854318 0 255 0 255
-0.163099 -0.100189 2.45526 0.105155 0.0488623 -0.993255 0 255 0 255
-0.155794 -0.099365 2.46275 0.463367 0.393339 -0.794088 0 255 0 255
-0.146764 -0.099071 2.46916 0.379316 -0.224263 -0.897678 0 255 0 255
-0.105045 -0.108935 2.45463 -0.491583 -0.120102 -0.862509 0 255 0 255
-0.054653 -0.121421 2.43484 -0.250319 -0.156423 -0.955443 0 255 0 255
-0.359964 0.126896 2.191 0.0462148 0.125519 0.991014 255 0 0 255
-0.353511 0.126731 2.188 0.116904 0.0780098 0.990075 255 0 0 255
-0.347709 0.126798 2.189 0.145729 0.0742454 0.986535 255 0 0 255
-0.341432 0.126691 2.187 0.397755 0.197667 0.895946 255 0 0 255
-0.334705 0.12641 2.182 0.337966 0.32128 0.884623 255 0 0 255
-0.328306 0.126245 2.179 -0.137903 0.289313 0.947249 255 0 0 255
-0.322957 0.126485 2.183 -0.641481 0.253365 0.724091 255 0 0 255
-0.318456 0.127073 2.193 -0.929707 -0.0523609 0.364559 255 0 0 255
-0.314328 0.127835 2.206 -0.954589 -0.145742 0.259844 255 0 0 255
-0.310547 0.12877 2.222 -0.93293 -0.2787 0.227963 255 0 0 255
-0.302357 0.1332 2.298 0.640846 0.0896586 0.762416 255 0 0 255
-0.295697 0.133034 2.295 0.563226 0.104851 0.819624 255 0 0 255
-0.289053 0.132868 2.292 0.517359 -0.00856485 0.855726 255 0 0 255
-0.281931 0.13247 2.285 0.70039 0.275506 0.658445 255 0 0 255
-0.274484 0.131898 2.275 0.699477 0.323246 0.637373 255 0 0 255
-0.267445 0.131499 2.268 0.634332 -0.0198757 0.772805 255 0 0 255
-0.260443 0.131101 2.261 0.591085 0.366327 0.718626 255 0 0 255
-0.253703 0.130818 2.256 0.39849 0.18698 0.897911 255 0 0 255
-0.247209 0.130651 2.253 0.274512 0.158945 0.948356 255 0 0 255
-0.241051 0.130658 2.253 0.18588 0.111749 0.976197 255 0 0 255
-0.234788 0.130607 2.252 0.0628972 -0.0132421 0.997932 255 0 0 255
-0.228428 0.130497 2.25 0.364124 -0.163962 0.916804 255 0 0 255
-0.221881 0.130272 2.246 0.517127 -0.12358 0.84694 255 0 0 255
-0.215546 0.130162 2.244 0.561445 -0.117966 0.819063 255 0 0 255
-0.208942 0.129878 2.239 0.584104 -0.0966261 0.805907 255 0 0 255
-0.202365 0.129594 2.234 0.619539 -0.210895 0.756105 255 0 0 255
-0.195638 0.129193 2.227 0.55006 -0.277135 0.787801 255 0 0 255
-0.189204 0.128967 2.223 0.311455 -0.193068 0.930441 255 0 0 255
-0.183039 0.128914 2.222 0.264425 -0.187495 0.946005 255 0 0 255
-0.176958 0.128919 2.222 0.243272 -0.0508889 0.968622 255 0 0 255
-0.170645 0.12875 2.219 0.421669 -0.01973 0.906535 255 0 0 255
-0.164348 0.128581 2.216 0.44179 0.089285 0.892665 255 0 0 255
-0.158067 0.128412 2.213 0.193591 0.18911 0.962684 255 0 0 255
-0.152008 0.128416 2.213 0.0422442 0.193406 0.980209 255 0 0 255
-0.146014 0.128479 2.214 -0.0513461 0.19227 0.979998 255 0 0 255
-0.139951 0.128483 2.214 -0.0990418 0.219629 0.970543 255 0 0 255
-0.133887 0.128487 2.214 -0.207723 0.327459 0.92175 255 0 0 255
-0.127938 0.128607 2.216 -0.231211 0.327819 0.916011 255 0 0 255
-0.121868 0.128611 2.216 -0.132793 0.510655 0.849469 255 0 0 255
-0.115954 0.128788 2.219 -0.204866 0.664668 0.718503 255 0 0 255
-0.109973 0.128908 2.221 -0.376555 0.605299 0.701299 255 0 0 255
-0.104122 0.129201 2.226 -0.440371 0.578895 0.686261 255 0 0 255
-0.098154 0.129378 2.229 -0.421552 0.490733 0.762546 255 0 0 255
-0.092211 0.129613 2.233 -0.454513 0.4702 0.756525 255 0 0 255
-0.086169 0.129732 2.235 -0.442536 0.446226 0.777846 255 0 0 255
-0.080187 0.129967 2.239 -0.360981 0.077377 0.929358 255 0 0 255
-0.074149 0.130143 2.242 -0.23525 -0.210752 0.94881 255 0 0 255
-0.068004 0.130145 2.242 -0.0233155 -0.447838 0.89381 255 0 0 255
-0.061803 0.130031 2.24 0.0337137 -0.357114 0.933452 255 0 0 255
-0.055688 0.130091 2.241 -0.0808255 -0.387775 0.918204 255 0 0 255
-0.049589 0.130209 2.243 -0.288217 -0.402852 0.868701 255 0 0 255
-0.043498 0.130384 2.246 -0.0949719 -0.497923 0.862005 255 0 0 255
-0.03729 0.130211 2.243 0.239565 -0.284298 0.928323 255 0 0 255
-0.031099 0.130038 2.24 -0.0482684 -0.247661 0.967644 255 0 0 255
-0.024958 0.130039 2.24 -0.271419 0.0518727 0.961062 255 0 0 255
-0.018859 0.13033 2.245 -0.433655 0.0777184 0.897721 255 0 0 255
-0.012738 0.130679 2.251 -0.68409 0.229421 0.692378 255 0 0 255
-0.006581 0.130969 2.256 -0.607027 0.329434 0.723181 255 0 0 255
-0.000396 0.131201 2.26 -0.458147 0.348615 0.817661 255 0 0 255
0.005808 0.131376 2.263 -0.43342 0.211957 0.875912 255 0 0 255
0.012034 0.131608 2.267 -0.584273 0.0289393 0.811041 255 0 0 255
0.01829 0.131897 2.272 -0.603773 -0.183763 0.775686 255 0 0 255
0.024562 0.132129 2.276 -0.446462 -0.377603 0.811226 255 0 0 255
0.030829 0.132244 2.278 -0.243375 -0.524773 0.81571 255 0 0 255
0.037107 0.132359 2.28 -0.415261 -0.665088 0.620657 255 0 0 255
0.043528 0.13288 2.289 -0.721865 -0.53473 0.43929 255 0 0 255
0.050369 0.134388 2.315 -0.909605 -0.323602 0.260578 255 0 0 255
0.084615 0.1385 2.386 0.834145 0.190344 0.51766 255 0 0 255
0.09062 0.137685 2.372 0.771907 0.0302458 0.635016 255 0 0 255
0.096875 0.137333 2.366 0.482285 0.0430569 0.874955 255 0 0 255
0.103271 0.137214 2.364 0.301157 -0.0222197 0.953316 255 0 0 255
0.109656 0.137095 2.362 0.416657 0.0662184 0.906649 255 0 0 255
0.11598 0.136918 2.359 0.515083 0.128613 0.847436 255 0 0 255
0.12208 0.136508 2.352 0.839222 0.0428885 0.542095 255 0 0 255
-0.188815 -0.068319 2.46868 0.856052 -0.516763 -0.0114984 255 255 0 255
-0.190932 -0.071724 2.45418 0.8497 0.16099 -0.502088 255 255 0 255
-0.135262 -0.066189 2.45097 0.015153 -0.214507 -0.976605 255 255 0 255
-0.093029 -0.066728 2.42684 -0.593633 -0.136692 -0.793042 255 255 0 255
-0.073223 -0.064441 2.42716 -0.00767722 -0.188698 -0.982005 255 255 0 255
-0.055138 -0.062574 2.42642 -0.0405693 -0.239926 -0.969943 255 255 0 255
-0.022764 -0.056963 2.43551 0.419232 -0.0595237 -0.905926 255 255 0 255
-0.024951 -0.060333 2.4212 0.990033 -0.00845942 -0.140579 255 255 0 255
0.003133 -0.05578 2.42764 -0.997878 -0.0457559 -0.0463341 255 255 0 255
-0.004599 -0.063403 2.3967 -0.708812 -0.176142 -0.683052 255 255 0 255
0.009991 -0.062351 2.39403 -0.835983 0.245396 -0.490829 255 255 0 255
0.016188 -0.063507 2.38555 -0.793003 0.421907 -0.439477 255 255 0 255
0.011511 -0.067553 2.36942 -0.841835 0.40652 -0.355044 255 255 0 255
0.021048 -0.067818 2.36331 -0.633377 -0.533294 -0.560741 255 255 0 255
0.026402 -0.069193 2.35426 -0.540728 -0.829305 -0.140947 255 255 0 255
0.030918 -0.07079 2.34463 0.693848 0.703608 -0.153333 255 255 0 255
-0.240011 -0.114617 2.39815 0.948946 0.313934 -0.030788 0 255 0 255
-0.260874 -0.104754 2.4245 0.320902 -0.415393 -0.851158 0 255 0 255
-0.263035 -0.100981 2.43802 0.57444 -0.231989 -0.784984 0 255 0 255
-0.236214 -0.106561 2.432 0.253604 -0.419983 -0.871378 0 255 0 255
-0.239222 -0.102508 2.44612 -0.882669 0.337262 -0.327337 0 255 0 255
-0.247365 -0.096819 2.46362 -0.734609 0.663288 -0.142823 0 255 0 255
-0.252109 -0.092237 2.47878 0.865048 -0.479493 -0.147577 0 255 0 255
-0.229483 -0.096394 2.47586 -0.321388 -0.310816 -0.894485 0 255 0 255
-0.187983 -0.106514 2.4607 -0.0921989 -0.208882 -0.973585 0 255 0 255
-0.152824 -0.111426 2.46222 -0.45577 -0.617555 -0.641015 0 255 0 255
-0.144652 -0.110877 2.4692 0.18971 -0.204857 -0.960231 0 255 0 255
-0.117564 -0.116263 2.46409 -0.109607 -0.311119 -0.944029 0 255 0 255
-0.056028 -0.132402 2.43717 -0.775438 0.5352 -0.335047 0 255 0 255
-0.365066 0.122617 2.222 0.912745 0.141333 0.383304 255 0 0 255
-0.353682 0.120804 2.189 0.0293851 -0.217314 0.975659 255 0 0 255
-0.347718 0.120813 2.189 0.1281 -0.283476 0.950385 255 0 0 255
-0.341441 0.120711 2.187 0.361911 -0.159522 0.918462 255 0 0 255
-0.335021 0.120554 2.184 0.204383 -0.0132284 0.978802 255 0 0 255
-0.328766 0.120451 2.182 -0.212505 0.00831052 0.977125 255 0 0 255
-0.323261 0.120625 2.185 -0.633887 0.228555 0.738884 255 0 0 255
-0.318319 0.12102 2.192 -0.912329 -0.0669262 0.40395 255 0 0 255
-0.314051 0.12169 2.204 -0.883091 -0.196358 0.426139 255 0 0 255
-0.302891 0.127133 2.302 0.645968 -0.0191825 0.763123 255 0 0 255
-0.295319 0.126589 2.292 0.49169 -0.281058 0.824165 255 0 0 255
-0.288935 0.126541 2.291 0.364607 -0.189352 0.911706 255 0 0 255
-0.282186 0.126328 2.287 0.543579 0.20608 0.813666 255 0 0 255
-0.275216 0.126003 2.281 0.660573 0.344702 0.666951 255 0 0 255
-0.268042 0.125569 2.273 0.637536 0.411742 0.651165 255 0 0 255
-0.261141 0.125244 2.267 0.62021 0.421054 0.661856 255 0 0 255
-0.254159 0.124864 2.26 0.432333 0.544436 0.718802 255 0 0 255
-0.247654 0.124705 2.257 0.210121 0.585617 0.782881 255 0 0 255
-0.241485 0.124712 2.257 0.194253 0.565269 0.801709 255 0 0 255
-0.235211 0.124663 2.256 0.312463 0.452275 0.835352 255 0 0 255
-0.22884 0.124559 2.254 0.525906 0.339583 0.779812 255 0 0 255
-0.222084 0.124233 2.248 0.474311 0.39834 0.785083 255 0 0 255
-0.215648 0.124073 2.245 0.477208 0.404578 0.780121 255 0 0 255
-0.209041 0.123803 2.24 0.516918 0.42928 0.740618 255 0 0 255
-0.202461 0.123532 2.235 0.59761 0.469488 0.649957 255 0 0 255
-0.195731 0.12315 2.228 0.627406 0.438459 0.643518 255 0 0 255
-0.189295 0.122935 2.224 0.428163 0.521311 0.738181 255 0 0 255
-0.183126 0.122885 2.223 0.269337 0.431675 0.86088 255 0 0 255
-0.176963 0.122834 2.222 0.128145 0.277363 0.952181 255 0 0 255
-0.170804 0.122784 2.221 0.411886 0.285334 0.86541 255 0 0 255
-0.164501 0.122623 2.218 0.3452 0.396876 0.850486 255 0 0 255
-0.158286 0.122516 2.216 0.161619 0.47621 0.864351 255 0 0 255
-0.15215 0.122466 2.215 0.062174 0.613885 0.786943 255 0 0 255
-0.146018 0.122414 2.214 0.0097024 0.508124 0.861229 255 0 0 255
-0.140018 0.122474 2.215 -0.128077 0.545271 0.828417 255 0 0 255
-0.134072 0.122588 2.217 -0.253775 0.668119 0.69944 255 0 0 255
-0.128231 0.122813 2.221 -0.210601 0.656705 0.724144 255 0 0 255
-0.122201 0.122872 2.222 -0.231202 0.636252 0.736022 255 0 0 255
-0.116271 0.123041 2.225 -0.26915 0.628572 0.729696 255 0 0 255
-0.110224 0.1231 2.226 -0.320464 0.57933 0.749453 255 0 0 255
-0.104312 0.123324 2.23 -0.349137 0.437258 0.8288 255 0 0 255
-0.098245 0.123382 2.231 -0.368089 0.23915 0.898509 255 0 0 255
-0.092297 0.123606 2.235 -0.480876 0.0836109 0.872793 255 0 0 255
-0.086287 0.123775 2.238 -0.347374 0.0949431 0.932908 255 0 0 255
-0.080153 0.123777 2.238 -0.145719 -0.0755867 0.986434 255 0 0 255
-0.074019 0.123779 2.238 0.0319929 -0.254378 0.966576 255 0 0 255
-0.067854 0.123726 2.237 0.135294 -0.335551 0.932256 255 0 0 255
-0.061722 0.123728 2.237 0.0576015 -0.34656 0.936258 255 0 0 255
-0.05559 0.123729 2.237 -0.071885 -0.489196 0.869207 255 0 0 255
-0.049457 0.123731 2.237 -0.197239 -0.355334 0.913693 255 0 0 255
-0.043363 0.123843 2.239 -0.355241 -0.267784 0.895598 255 0 0 255
-0.037242 0.123899 2.24 -0.268351 0.0126546 0.963238 255 0 0 255
-0.031114 0.123956 2.241 -0.18013 0.192669 0.964589 255 0 0 255
-0.025004 0.124122 2.244 -0.428786 0.440897 0.788513 255 0 0 255
-0.018893 0.1244 2.249 -0.641395 0.409132 0.649017 255 0 0 255
-0.012772 0.124843 2.257 -0.550826 0.321397 0.770256 255 0 0 255
-0.006595 0.125064 2.261 -0.37461 0.262318 0.889301 255 0 0 255
-0.000397 0.125285 2.265 -0.253657 0.300069 0.919574 255 0 0 255
0.005811 0.12523 2.264 -0.211726 0.0235748 0.977045 255 0 0 255
0.012024 0.125285 2.265 -0.412133 -0.121426 0.902996 255 0 0 255
0.018258 0.125451 2.268 -0.361855 -0.40741 0.838498 255 0 0 255
0.024509 0.125616 2.271 -0.187899 -0.544064 0.817734 255 0 0 255
0.030749 0.12567 2.272 -0.189905 -0.605194 0.773095 255 0 0 255
0.036978 0.125669 2.272 -0.325685 -0.516649 0.791835 255 0 0 255
0.043321 0.126 2.278 -0.610224 -0.517947 0.599465 255 0 0 255
0.050023 0.12716 2.299 -0.835168 -0.465616 0.292739 255 0 0 255
0.084618 0.131963 2.386 0.924776 0.103548 0.366153 255 0 0 255
0.090584 0.131131 2.371 0.599102 0.133968 0.789386 255 0 0 255
0.096919 0.130907 2.367 0.458555 0.188893 0.868359 255 0 0 255
0.103318 0.130793 2.365 0.285575 0.180927 0.941123 255 0 0 255
0.109706 0.13068 2.363 0.372097 0.213883 0.903215 255 0 0 255
0.116082 0.130566 2.361 0.417655 0.361319 0.833674 255 0 0 255
0.121617 0.129567 2.343 0.949974 0.0411322 0.309608 255 0 0 255
-0.187764 -0.07966 2.47076 -0.307555 0.184583 -0.933455 255 255 0 255
-0.190729 -0.083301 2.45571 -0.99954 0.00549531 -0.02984 255 255 0 255
-0.18688 -0.085204 2.44502 0.672977 -0.0168868 -0.73947 255 255 0 255
-0.07474 -0.076191 2.42745 0.0323402 -0.0813213 -0.996163 255 255 0 255
-0.051602 -0.072951 2.43011 -0.0903545 -0.357261 -0.929624 255 255 0 255
-0.031874 -0.070579 2.43061 0.114295 -0.146482 -0.982588 255 255 0 255
-0.002089 -0.06552 2.43809 -0.248334 0.306739 -0.918826 255 255 0 255
0.001597 -0.067343 2.42785 -0.619996 0.393462 -0.678817 255 255 0 255
0.001088 -0.070282 2.41471 -0.995628 0.08732 -0.0331803 255 255 0 255
-0.002766 -0.07412 2.39922 -0.996936 -0.0121681 -0.0772698 255 255 0 255
0.004281 -0.075051 2.39129 -0.934743 0.186606 -0.302379 255 255 0 255
0.002956 -0.078225 2.37751 -0.904067 0.348733 -0.24708 255 255 0 255
0.008326 -0.079603 2.36841 -0.822027 0.418906 -0.385733 255 255 0 255
0.013693 -0.080978 2.35932 -0.769593 0.302024 -0.562591 255 255 0 255
0.038232 -0.077154 2.36391 -0.562112 -0.103017 -0.82062 255 255 0 255
0.044402 -0.078289 2.3555 -0.420962 -0.0165976 -0.906927 255 255 0 255
-0.209006 -0.135773 2.37827 -0.811723 -0.252574 -0.526605 0 255 0 255
-0.254092 -0.11478 2.43328 0.872501 0.0484549 -0.486203 0 255 0 255
-0.25284 -0.112101 2.44451 0.888053 0.157176 -0.432038 0 255 0 255
-0.248181 -0.110532 2.45344 0.901821 0.258428 -0.346314 0 255 0 255
-0.244373 -0.108684 2.46296 0.736449 0.477089 -0.479613 0 255 0 255
-0.242272 -0.106284 2.4736 0.461229 0.435421 -0.773095 0 255 0 255
-0.22649 -0.10829 2.47523 0.509741 0.119792 -0.851947 0 255 0 255
-0.192712 -0.116051 2.46517 -0.0159259 -0.330199 -0.943777 0 255 0 255
-0.176013 -0.118287 2.46645 0.121105 -0.441529 -0.889036 0 255 0 255
-0.167007 -0.118043 2.47281 0.190153 -0.543313 -0.817712 0 255 0 255
-0.149409 -0.120523 2.47368 -0.0335983 -0.477956 -0.877741 0 255 0 255
-0.130927 -0.123257 2.47408 -0.146661 -0.657187 -0.739322 0 255 0 255
-0.352882 0.114557 2.184 -0.0240268 -0.549737 0.834992 255 0 0 255
-0.346773 0.114512 2.183 0.0519541 -0.647594 0.760212 255 0 0 255
-0.340825 0.11452 2.183 0.0720114 -0.579098 0.812071 255 0 0 255
-0.334722 0.114476 2.182 0.138451 -0.319218 0.937513 255 0 0 255
-0.328925 0.114536 2.183 -0.100913 -0.407236 0.907731 255 0 0 255
-0.323565 0.114754 2.187 -0.534887 -0.370877 0.759175 255 0 0 255
-0.318472 0.115076 2.193 -0.892242 -0.160152 0.422203 255 0 0 255
-0.314059 0.115661 2.204 -0.909431 -0.1208 0.397923 255 0 0 255
-0.303162 0.120939 2.304 0.709087 -0.0371954 0.70414 255 0 0 255
-0.294682 0.120054 2.287 0.28225 -0.358975 0.889647 255 0 0 255
-0.288438 0.120062 2.287 -0.0692823 -0.219252 0.973205 255 0 0 255
-0.28244 0.120174 2.289 0.19876 0.114877 0.973292 255 0 0 255
-0.275826 0.120023 2.286 0.48795 0.292847 0.82228 255 0 0 255
-0.268756 0.119662 2.279 0.656125 0.304833 0.690346 255 0 0 255
-0.261839 0.119354 2.273 0.561932 0.390441 0.729238 255 0 0 255
-0.255066 0.119098 2.268 0.308272 0.581518 0.752865 255 0 0 255
-0.248648 0.118999 2.266 0.145522 0.700247 0.698912 255 0 0 255
-0.242241 0.118901 2.264 0.188828 0.709814 0.678607 255 0 0 255
-0.235739 0.118749 2.261 0.239207 0.675501 0.69748 255 0 0 255
-0.229354 0.11865 2.259 0.282311 0.691351 0.665083 255 0 0 255
-0.222881 0.118498 2.256 0.350847 0.674153 0.649942 255 0 0 255
-0.216423 0.118346 2.253 0.366311 0.624944 0.689392 255 0 0 255
-0.209794 0.118089 2.248 0.351535 0.7114 0.60855 255 0 0 255
-0.203282 0.117885 2.244 0.351495 0.741083 0.572055 255 0 0 255
-0.196791 0.11768 2.24 0.404275 0.745896 0.52934 255 0 0 255
-0.190321 0.117475 2.236 0.357736 0.806806 0.470201 255 0 0 255
-0.183955 0.117322 2.233 0.301647 0.782026 0.545385 255 0 0 255
-0.177445 0.117064 2.228 0.26494 0.64396 0.71772 255 0 0 255
-0.171116 0.116911 2.225 0.240072 0.694661 0.678094 255 0 0 255
-0.164802 0.116758 2.222 0.169242 0.7051 0.688615 255 0 0 255
-0.158719 0.116762 2.222 0.0766148 0.782856 0.617469 255 0 0 255
-0.152635 0.116766 2.222 0.0115875 0.747798 0.663826 255 0 0 255
-0.14655 0.11677 2.222 0.0287258 0.73602 0.67635 255 0 0 255
-0.140591 0.116879 2.224 -0.138733 0.687815 0.712506 255 0 0 255
-0.13456 0.116935 2.225 -0.161726 0.67332 0.721447 255 0 0 255
-0.128523 0.116991 2.226 -0.136348 0.67513 0.724988 255 0 0 255
-0.12237 0.116942 2.225 -0.149445 0.617579 0.772181 255 0 0 255
-0.116483 0.117156 2.229 -0.260905 0.571029 0.778367 255 0 0 255
-0.110475 0.117264 2.231 -0.195703 0.495036 0.846546 255 0 0 255
-0.104408 0.117319 2.232 -0.147998 0.419607 0.895559 255 0 0 255
-0.098292 0.117322 2.232 -0.15908 0.139548 0.977354 255 0 0 255
-0.092258 0.11743 2.234 -0.440055 0.0661632 0.89553 255 0 0 255
-0.086289 0.117642 2.238 -0.334358 0.0660754 0.940127 255 0 0 255
-0.080155 0.117645 2.238 0.0556718 0.0371183 0.997759 255 0 0 255
-0.073955 0.117542 2.236 0.138279 0.0229796 0.990127 255 0 0 255
-0.067795 0.117491 2.235 0.149785 -0.00297959 0.988714 255 0 0 255
-0.061641 0.11744 2.234 0.0676252 -0.0319377 0.997199 255 0 0 255
-0.055517 0.117442 2.234 -0.0483511 -0.0323317 0.998307 255 0 0 255
-0.049415 0.117496 2.235 -0.279799 -0.00231607 0.960056 255 0 0 255
-0.043365 0.117707 2.239 -0.495765 0.198133 0.845553 255 0 0 255
-0.037309 0.117971 2.244 -0.517621 0.258179 0.815728 255 0 0 255
-0.031198 0.11813 2.247 -0.412375 0.479449 0.774645 255 0 0 255
-0.025082 0.118341 2.251 -0.506853 0.428565 0.747952 255 0 0 255
-0.018952 0.118605 2.256 -0.531933 0.0825402 0.842754 255 0 0 255
-0.012795 0.118868 2.261 -0.421139 -0.0796445 0.903493 255 0 0 255
-0.006601 0.118973 2.263 -0.263329 -0.120552 0.957144 255 0 0 255
-0.000397 0.119026 2.264 -0.088276 -0.298915 0.950188 255 0 0 255
0.005808 0.118973 2.263 -0.000200386 -0.263688 0.964608 255 0 0 255
0.012019 0.119026 2.264 -0.137524 -0.40062 0.905865 255 0 0 255
0.018242 0.11913 2.266 -0.272052 -0.39715 0.876504 255 0 0 255
0.024466 0.119182 2.267 -0.254415 -0.315523 0.914176 255 0 0 255
0.030695 0.119234 2.268 -0.181559 -0.366725 0.912441 255 0 0 255
0.03693 0.119286 2.269 -0.366732 -0.220474 0.903825 255 0 0 255
0.043265 0.1196 2.275 -0.572428 -0.262755 0.776715 255 0 0 255
0.04985 0.12044 2.291 -0.819499 -0.40423 0.406227 255 0 0 255
0.084656 0.125477 2.387 0.93156 0.129424 0.339773 255 0 0 255
0.090701 0.124792 2.374 0.71703 0.19385 0.669545 255 0 0 255
0.097003 0.124526 2.369 0.402852 0.234791 0.884637 255 0 0 255
0.103495 0.124524 2.369 0.175426 0.338434 0.924493 255 0 0 255
0.109848 0.124363 2.366 0.257954 0.460684 0.849253 255 0 0 255
0.116184 0.124202 2.363 0.308159 0.400707 0.862828 255 0 0 255
0.121257 0.12278 2.336 0.949974 0.0411322 0.309608 255 0 0 255
-0.196929 -0.093643 2.46632 0.967685 -0.0274046 -0.250669 255 255 0 255
-0.183721 -0.093127 2.46162 -0.139754 0.0392143 -0.989409 255 255 0 255
-0.166284 -0.091498 2.45972 0.0699431 0.073656 -0.994828 255 255 0 255
-0.073724 -0.087291 2.42945 0.128584 -0.143802 -0.981217 255 255 0 255
-0.050596 -0.083991 2.4321 -0.0346544 -0.169237 -0.984966 255 255 0 255
-0.030034 -0.081344 2.43315 0.341378 -0.30893 -0.887707 255 255 0 255
-0.017914 -0.080929 2.42856 0.0910212 0.470136 -0.877888 255 255 0 255
-0.008331 -0.081182 2.4223 -0.690062 0.599892 -0.404901 255 255 0 255
-0.002117 -0.082331 2.41376 -0.71093 0.451431 -0.539248 255 255 0 255
-0.000935 -0.084837 2.40175 -0.956369 -0.214181 -0.198707 255 255 0 255
-0.003932 -0.088478 2.38681 -0.97467 -0.204017 -0.0916276 255 255 0 255
0.001445 -0.089854 2.37769 -0.987656 -0.0513254 -0.147988 255 255 0 255
0.003477 -0.092139 2.36623 -0.834051 -0.39381 -0.386358 255 255 0 255
0.00885 -0.093512 2.35712 -0.790079 -0.339126 -0.510656 255 255 0 255
0.015051 -0.094655 2.34861 -0.629786 -0.466673 -0.620955 255 255 0 255
0.031236 -0.093046 2.34728 0.0608782 -0.136166 -0.988814 255 255 0 255
-0.237501 -0.137412 2.39905 -0.832975 -0.0011577 -0.55331 0 255 0 255
-0.251968 -0.126401 2.43316 0.93343 -0.119871 -0.338141 0 255 0 255
-0.24901 -0.124275 2.44326 0.752347 0.281099 -0.595783 0 255 0 255
-0.240936 -0.123826 2.44993 0.645246 0.442711 -0.622628 0 255 0 255
-0.237121 -0.121976 2.45947 0.464788 0.572042 -0.675826 0 255 0 255
-0.227326 -0.122073 2.46506 0.487117 0.622082 -0.612969 0 255 0 255
-0.216666 -0.12244 2.47012 0.2256 0.604403 -0.764069 0 255 0 255
-0.195727 -0.126126 2.46852 0.0374285 -0.158087 -0.986716 0 255 0 255
-0.182462 -0.127298 2.47204 0.0580843 -0.514941 -0.855255 0 255 0 255
-0.16918 -0.128456 2.47562 0.409482 -0.562476 -0.718294 0 255 0 255
-0.15931 -0.128498 2.48146 0.230758 -0.48208 -0.845192 0 255 0 255
-0.132261 -0.134037 2.47636 -0.154537 -0.558836 -0.814752 0 255 0 255
-0.351759 0.108236 2.177 0.109493 -0.270525 0.956466 255 0 0 255
-0.345987 0.108294 2.178 -0.0238944 -0.524221 0.851247 255 0 0 255
-0.340052 0.108301 2.178 -0.0664681 -0.4031 0.912739 255 0 0 255
-0.334116 0.108309 2.178 -0.00936897 -0.392856 0.919552 255 0 0 255
-0.32833 0.108366 2.179 -0.166355 -0.484467 0.858847 255 0 0 255
-0.322537 0.108423 2.18 -0.441912 -0.459614 0.770369 255 0 0 255
-0.317608 0.108779 2.187 -0.791687 -0.312099 0.525192 255 0 0 255
-0.313639 0.109482 2.201 -0.912369 -0.148868 0.381342 255 0 0 255
-0.310709 0.110584 2.223 -0.865501 -0.361564 0.34667 255 0 0 255
-0.302248 0.114286 2.297 0.727667 -0.318659 0.607419 255 0 0 255
-0.294302 0.113647 2.284 -0.262488 -0.130385 0.956086 255 0 0 255
-0.288319 0.113753 2.286 -0.268401 -0.00684875 0.963283 255 0 0 255
-0.28257 0.113959 2.29 -0.0447141 0.139842 0.989164 255 0 0 255
-0.275954 0.113816 2.287 0.453568 0.254174 0.854208 255 0 0 255
-0.268881 0.113474 2.28 0.636093 0.27321 0.721624 255 0 0 255
-0.261961 0.113182 2.274 0.507378 0.333842 0.794429 255 0 0 255
-0.255297 0.112989 2.27 0.30192 0.47519 0.826461 255 0 0 255
-0.249093 0.112995 2.27 0.176163 0.516919 0.837712 255 0 0 255
-0.242675 0.112901 2.268 0.284416 0.436304 0.853666 255 0 0 255
-0.236579 0.112957 2.269 0.250487 0.405706 0.87901 255 0 0 255
-0.230071 0.112813 2.266 0.405887 0.334126 0.850656 255 0 0 255
-0.223479 0.11262 2.262 0.509748 0.27351 0.815689 255 0 0 255
-0.216908 0.112426 2.258 0.503096 0.329897 0.798788 255 0 0 255
-0.210359 0.112232 2.254 0.449417 0.426538 0.784914 255 0 0 255
-0.204012 0.112138 2.252 0.405981 0.448076 0.796497 255 0 0 255
-0.197587 0.111993 2.249 0.396094 0.49111 0.775835 255 0 0 255
-0.191092 0.111799 2.245 0.354369 0.564508 0.745489 255 0 0 255
-0.184619 0.111604 2.241 0.43064 0.612209 0.663136 255 0 0 255
-0.177928 0.11126 2.234 0.348409 0.695236 0.628695 255 0 0 255
-0.171659 0.111165 2.232 0.160269 0.750363 0.641303 255 0 0 255
-0.165474 0.111119 2.231 0.0579039 0.792402 0.607245 255 0 0 255
-0.159437 0.111173 2.232 0.0368982 0.812301 0.58207 255 0 0 255
-0.153119 0.111028 2.229 0.158209 0.783085 0.601454 255 0 0 255
-0.146751 0.110832 2.225 -0.0492264 0.667356 0.74311 255 0 0 255
-0.140721 0.110886 2.226 -0.0374276 0.658185 0.751926 255 0 0 255
-0.134745 0.110989 2.228 -0.257422 0.603118 0.754972 255 0 0 255
-0.128873 0.111192 2.232 -0.117021 0.63191 0.766157 255 0 0 255
-0.122703 0.111145 2.231 -0.126726 0.619239 0.774908 255 0 0 255
-0.116643 0.111198 2.232 -0.214926 0.582794 0.783682 255 0 0 255
-0.110676 0.11135 2.235 -0.0953953 0.501238 0.860035 255 0 0 255
-0.104505 0.111303 2.234 -0.0403473 0.46111 0.886425 255 0 0 255
-0.098383 0.111306 2.234 0.000529181 0.345782 0.938315 255 0 0 255
-0.092219 0.111258 2.233 -0.274456 0.273499 0.921885 255 0 0 255
-0.086292 0.11151 2.238 -0.310354 0.0768941 0.947506 255 0 0 255
-0.080158 0.111512 2.238 0.109759 0.0877925 0.990074 255 0 0 255
-0.074023 0.111514 2.238 0.164224 0.0634993 0.984377 255 0 0 255
-0.067858 0.111466 2.237 0.0853021 0.126554 0.988285 255 0 0 255
-0.061726 0.111468 2.237 -0.0270886 0.192196 0.980983 255 0 0 255
-0.055568 0.111419 2.236 -0.0974996 0.460794 0.882136 255 0 0 255
-0.04946 0.111471 2.237 -0.362276 0.36369 0.858187 255 0 0 255
-0.043385 0.111621 2.24 -0.557629 0.336618 0.758774 255 0 0 255
-0.03736 0.111971 2.247 -0.548867 0.267283 0.792026 255 0 0 255
-0.031241 0.112122 2.25 -0.450872 0.181024 0.874039 255 0 0 255
-0.025116 0.112322 2.254 -0.437993 0.0522949 0.897456 255 0 0 255
-0.018944 0.112372 2.255 -0.449136 -0.199632 0.870876 255 0 0 255
-0.012784 0.112572 2.259 -0.287441 -0.325511 0.900789 255 0 0 255
-0.006593 0.112622 2.26 -0.0443309 -0.45274 0.89054 255 0 0 255
-0.000396 0.112622 2.26 0.0115427 -0.466906 0.884232 255 0 0 255
0.005798 0.112572 2.259 -0.107621 -0.334397 0.936267 255 0 0 255
