ply
format ascii 1.0
comment VCGLIB generated
element vertex 728
property float x
property float y
property float z
property float nx
property float ny
property float nz
property uchar red
property uchar green
property uchar blue
property uchar alpha
element face 0
property list uchar int vertex_indices
end_header
-0.283514 0.319556 2.158 -0.141888 0.397729 0.906465 255 0 0 255
-0.277888 0.319869 2.16 -0.398198 0.457203 0.795238 255 0 0 255
-0.272501 0.320478 2.164 -0.730082 0.321707 0.602898 255 0 0 255
-0.267708 0.321828 2.173 -0.892176 0.175514 0.416194 255 0 0 255
-0.262985 0.323325 2.183 -0.880479 0.300398 0.366767 255 0 0 255
-0.258089 0.324674 2.192 -0.846999 0.320802 0.423885 255 0 0 255
-0.253259 0.326171 2.202 -0.898621 0.243316 0.365072 255 0 0 255
-0.248485 0.327816 2.213 -0.717197 -0.166942 0.676579 255 0 0 255
-0.242226 0.327536 2.211 0.604439 0.0878123 0.791797 255 0 0 255
-0.234802 0.325625 2.198 0.880972 -0.0758167 0.467055 255 0 0 255
-0.227449 0.323714 2.185 0.878063 -0.0486776 0.476064 255 0 0 255
-0.219861 0.321357 2.169 0.918724 0.0652983 0.389466 255 0 0 255
-0.212163 0.318704 2.151 0.880465 0.24933 0.403256 255 0 0 255
-0.204946 0.316643 2.137 0.829412 0.334052 0.447755 255 0 0 255
-0.198084 0.315026 2.126 0.820998 0.303108 0.483826 255 0 0 255
-0.191282 0.313409 2.115 0.794629 0.236965 0.558939 255 0 0 255
-0.184803 0.312236 2.107 0.720354 0.259581 0.643201 255 0 0 255
-0.178621 0.311506 2.102 0.53988 0.304242 0.784835 255 0 0 255
-0.172713 0.311221 2.1 0.458084 0.246165 0.854144 255 0 0 255
-0.166656 0.31064 2.096 0.42508 0.228124 0.875937 255 0 0 255
-0.160697 0.310206 2.093 0.354729 0.203975 0.912448 255 0 0 255
-0.154902 0.310068 2.092 0.340241 0.137969 0.930162 255 0 0 255
-0.14904 0.309782 2.09 0.355661 -0.037127 0.933878 255 0 0 255
-0.14319 0.309495 2.088 0.318302 -0.150037 0.936041 255 0 0 255
-0.137349 0.309208 2.086 0.341784 -0.152131 0.927383 255 0 0 255
-0.131456 0.308772 2.083 0.250071 -0.163653 0.954297 255 0 0 255
-0.12576 0.308781 2.083 0.0689244 -0.148421 0.986519 255 0 0 255
-0.120063 0.308789 2.083 0.122684 -0.0451692 0.991417 255 0 0 255
-0.114366 0.308797 2.083 0.219086 0.108923 0.969607 255 0 0 255
-0.108564 0.308508 2.081 0.184292 0.243921 0.952124 255 0 0 255
-0.102822 0.308367 2.08 0.0612066 0.266045 0.962016 255 0 0 255
-0.097086 0.308225 2.079 0.233305 0.149885 0.960783 255 0 0 255
-0.09131 0.307935 2.077 0.284304 0.0763494 0.955689 255 0 0 255
-0.085586 0.307793 2.076 0.407105 0.0651628 0.911054 255 0 0 255
-0.079791 0.307353 2.073 0.345879 0.137497 0.92815 255 0 0 255
-0.074083 0.30721 2.072 0.089603 0.188855 0.977908 255 0 0 255
-0.068413 0.307215 2.072 -0.21209 0.169575 0.962425 255 0 0 255
-0.062804 0.307516 2.074 -0.341898 0.0702206 0.93711 255 0 0 255
-0.057156 0.307669 2.075 -0.237259 0.182639 0.954123 255 0 0 255
-0.051527 0.307969 2.077 -0.0601012 0.145034 0.9876 255 0 0 255
-0.04582 0.307824 2.076 -0.0297654 0.215802 0.975983 255 0 0 255
-0.040158 0.307975 2.077 -0.0890001 0.167079 0.981918 255 0 0 255
-0.034473 0.307978 2.077 -0.0906634 0.264048 0.960239 255 0 0 255
-0.028802 0.308128 2.078 -0.225792 0.374745 0.899213 255 0 0 255
-0.023137 0.308426 2.08 -0.421373 0.364533 0.830398 255 0 0 255
-0.017469 0.308873 2.083 -0.544137 0.274622 0.792779 255 0 0 255
-0.011796 0.309615 2.088 -0.547686 0.232013 0.803872 255 0 0 255
-0.006089 0.31006 2.091 -0.539446 0.311196 0.782403 255 0 0 255
-0.000367 0.310802 2.096 -0.526106 0.30018 0.795679 255 0 0 255
0.005376 0.311098 2.098 -0.521369 0.363037 0.772256 255 0 0 255
0.011139 0.311691 2.102 -0.538013 0.477716 0.694499 255 0 0 255
0.016925 0.312283 2.106 -0.30915 0.604899 0.733842 255 0 0 255
0.0227 0.31243 2.107 -0.15725 0.606863 0.779096 255 0 0 255
0.028481 0.312577 2.108 -0.132227 0.57103 0.81021 255 0 0 255
0.034266 0.312723 2.109 -0.224361 0.523144 0.822182 255 0 0 255
0.040077 0.313017 2.111 -0.365329 0.459804 0.809392 255 0 0 255
0.045919 0.313459 2.114 -0.591149 0.357815 0.72285 255 0 0 255
0.051827 0.314197 2.119 -0.745812 0.229185 0.625491 255 0 0 255
0.057898 0.315676 2.129 -0.90062 0.188847 0.391435 255 0 0 255
0.064114 0.317599 2.142 -0.41393 0.375387 0.829305 255 0 0 255
0.070237 0.318781 2.15 -0.845163 0.225098 0.484799 255 0 0 255
0.076332 0.319665 2.156 0.141733 0.715398 0.684191 255 0 0 255
0.082117 0.319215 2.153 0.581489 0.582144 0.568313 255 0 0 255
0.087599 0.317727 2.143 0.807568 0.305633 0.504402 255 0 0 255
0.093157 0.316683 2.136 0.696804 0.338407 0.632412 255 0 0 255
0.098769 0.315935 2.131 0.580744 0.265577 0.769549 255 0 0 255
0.104402 0.315335 2.127 0.651286 0.132874 0.747109 255 0 0 255
0.109961 0.314587 2.122 0.650922 0.0785537 0.755069 255 0 0 255
0.115602 0.314135 2.119 0.479967 0.112326 0.870066 255 0 0 255
0.121283 0.31383 2.117 0.267372 0.0690175 0.961118 255 0 0 255
0.126952 0.313525 2.115 0.232742 -0.170227 0.957525 255 0 0 255
0.132611 0.31322 2.113 0.163258 -0.406709 0.898852 255 0 0 255
0.138323 0.313063 2.112 0.0944425 -0.458812 0.8835 255 0 0 255
0.144097 0.313054 2.112 -0.173554 -0.32657 0.929102 255 0 0 255
0.150013 0.31334 2.114 -0.465103 -0.17792 0.867193 255 0 0 255
0.156013 0.313775 2.117 -0.574714 -0.0679194 0.815531 255 0 0 255
0.162106 0.314357 2.121 -0.460676 0.171259 0.870889 255 0 0 255
0.16814 0.314791 2.124 -0.388979 0.310814 0.867231 255 0 0 255
0.17419 0.315224 2.127 -0.29579 0.498601 0.814803 255 0 0 255
0.180256 0.315657 2.13 -0.301789 0.429231 0.851284 255 0 0 255
0.186251 0.315942 2.132 -0.668402 0.327409 0.667864 255 0 0 255
-0.086772 0.288971 2.31139 0.98419 0.171392 -0.0446662 255 255 0 255
-0.077074 0.288056 2.30528 -0.630038 -0.06964 -0.773435 255 255 0 255
-0.066537 0.287284 2.29981 -0.567873 -0.131046 -0.812618 255 255 0 255
-0.057717 0.286248 2.29316 -0.371563 -0.286 -0.883258 255 255 0 255
-0.05061 0.284945 2.28533 -0.784209 0.076667 -0.615742 255 255 0 255
-0.04606 0.283236 2.27567 -0.953593 0.0462136 -0.29753 255 255 0 255
-0.041512 0.281528 2.26603 -0.828375 -0.272684 -0.489325 255 255 0 255
-0.029334 0.281061 2.26194 -0.484862 -0.437195 -0.757476 255 255 0 255
-0.023103 0.279636 2.25357 -0.547605 -0.38536 -0.742716 255 255 0 255
-0.015187 0.278492 2.24645 -0.605476 -0.029391 -0.795321 255 255 0 255
-0.006433 0.277492 2.23999 -0.791038 0.149332 -0.593261 255 255 0 255
0.003154 0.276637 2.23418 -0.883071 0.000118045 -0.46924 255 255 0 255
0.002606 0.274111 2.22085 -0.916508 -0.347668 -0.197836 255 255 0 255
0.002066 0.27158 2.20749 0.96831 0.131582 -0.21228 255 255 0 255
-0.002673 0.268342 2.19093 0.980635 -0.0680218 -0.183652 255 255 0 255
0.07437 0.269188 2.18509 -0.856135 0.265103 -0.443569 255 255 0 255
0.098065 0.270832 2.19063 -0.751549 -0.490818 -0.440764 255 255 0 255
0.109187 0.270339 2.1865 -0.591088 -0.693061 -0.412652 255 255 0 255
0.112782 0.268555 2.17652 -0.953647 -0.300493 -0.0161351 255 255 0 255
0.109708 0.265613 2.16127 -0.499403 -0.178197 -0.847846 255 255 0 255
-0.288078 0.220359 2.25849 0.795704 -0.0591584 -0.60279 0 255 0 255
-0.286031 0.222644 2.26904 0.843482 -0.0748134 -0.531922 0 255 0 255
-0.271064 0.221982 2.27017 0.412388 -0.362648 -0.835717 0 255 0 255
-0.240556 0.21781 2.26013 0.176735 -0.0664136 -0.982015 0 255 0 255
-0.163445 0.208804 2.24146 -0.985217 0.156184 -0.0703845 0 255 0 255
-0.169964 0.213093 2.25844 -0.962244 0.132286 -0.237879 0 255 0 255
-0.165243 0.21486 2.26741 0.858822 -0.475134 -0.1915 0 255 0 255
-0.164852 0.217592 2.27943 0.779496 -0.40343 -0.479198 0 255 0 255
-0.157528 0.218785 2.28658 0.385605 -0.459523 -0.800092 0 255 0 255
-0.140645 0.217876 2.28711 0.30034 -0.152508 -0.941561 0 255 0 255
-0.129821 0.218322 2.29193 0.676871 -0.00462923 -0.736087 0 255 0 255
-0.123333 0.219731 2.29979 0.902173 -0.163378 -0.399239 0 255 0 255
-0.123802 0.222665 2.31244 0.930794 -0.179928 -0.318196 0 255 0 255
-0.11121 0.222753 2.31616 0.475268 -0.536894 -0.69704 0 255 0 255
-0.101217 0.22342 2.32171 0.160683 -0.503672 -0.84882 0 255 0 255
-0.092958 0.224474 2.32848 0.309458 -0.509413 -0.802953 0 255 0 255
-0.332563 0.315421 2.171 0.460636 0.786403 0.411565 255 0 0 255
-0.325899 0.314713 2.166 0.359905 0.724972 0.587269 255 0 0 255
-0.319556 0.314296 2.163 0.224625 0.761581 0.607897 255 0 0 255
-0.313519 0.314169 2.162 0.313494 0.647432 0.69466 255 0 0 255
-0.307486 0.314042 2.161 0.158974 0.273283 0.948706 255 0 0 255
-0.301318 0.313769 2.159 0.0559125 0.341966 0.938048 255 0 0 255
-0.29557 0.313932 2.16 -0.134557 0.652706 0.745567 255 0 0 255
-0.289817 0.314095 2.161 -0.186172 0.679364 0.709792 255 0 0 255
-0.284188 0.314403 2.163 -0.183449 0.821899 0.539286 255 0 0 255
-0.278419 0.314565 2.164 -0.292154 0.742328 0.602989 255 0 0 255
-0.272895 0.315018 2.167 -0.60198 0.601883 0.524745 255 0 0 255
-0.267971 0.316197 2.175 -0.765594 0.518505 0.380814 255 0 0 255
-0.263242 0.317667 2.185 -0.825205 0.438256 0.356327 255 0 0 255
-0.258576 0.319282 2.196 -0.83371 0.424716 0.352907 255 0 0 255
-0.25362 0.320607 2.205 -0.857532 0.405902 0.316041 255 0 0 255
-0.248837 0.322222 2.216 0.713382 -0.166339 0.680748 255 0 0 255
-0.242241 0.32151 2.211 -0.415025 0.0937753 0.904965 255 0 0 255
-0.23439 0.319053 2.194 0.877421 -0.113171 0.466181 255 0 0 255
-0.227047 0.317176 2.181 0.859106 -0.0989645 0.502139 255 0 0 255
-0.219774 0.3153 2.168 0.877732 0.0239148 0.478555 255 0 0 255
-0.212374 0.313132 2.153 0.863707 0.172599 0.473518 255 0 0 255
-0.205535 0.311691 2.143 0.83164 0.229205 0.505806 255 0 0 255
-0.198656 0.310104 2.132 0.825598 0.301029 0.477252 255 0 0 255
-0.191656 0.308225 2.119 0.805727 0.303415 0.508669 255 0 0 255
-0.185165 0.307074 2.111 0.731869 0.303226 0.610264 255 0 0 255
-0.178887 0.306212 2.105 0.594541 0.236808 0.768403 255 0 0 255
-0.172888 0.305787 2.102 0.517218 0.106433 0.84921 255 0 0 255
-0.166826 0.305216 2.098 0.446475 0.177157 0.877083 255 0 0 255
-0.161014 0.305082 2.097 0.355672 0.183759 0.916368 255 0 0 255
-0.154986 0.30451 2.093 0.424767 0.131438 0.89571 255 0 0 255
-0.14905 0.304083 2.09 0.459776 0.0424636 0.887019 255 0 0 255
-0.143062 0.303511 2.086 0.409094 0.0257874 0.912128 255 0 0 255
-0.137292 0.303375 2.085 0.336125 0.00697226 0.941791 255 0 0 255
-0.131465 0.303092 2.083 0.259333 -0.0208884 0.965562 255 0 0 255
-0.125708 0.302955 2.082 0.0898911 -0.0351916 0.99533 255 0 0 255
-0.119956 0.302818 2.081 -0.0279928 -0.0149575 0.999496 255 0 0 255
-0.114319 0.302971 2.082 0.032147 0.0306335 0.999014 255 0 0 255
-0.108572 0.302833 2.081 0.0911402 0.0608118 0.99398 255 0 0 255
-0.102928 0.302986 2.082 0.124845 0.175682 0.976499 255 0 0 255
-0.097139 0.302701 2.08 0.307743 0.138826 0.941287 255 0 0 255
-0.09136 0.302416 2.078 0.380109 0.052742 0.923437 255 0 0 255
-0.085551 0.301986 2.075 0.355564 -0.0289072 0.934205 255 0 0 255
-0.079796 0.3017 2.073 0.209804 0.129453 0.969136 255 0 0 255
-0.074124 0.301705 2.073 0.0887731 0.110679 0.989884 255 0 0 255
-0.068418 0.301565 2.072 -0.0606813 0.137688 0.988615 255 0 0 255
-0.062808 0.30186 2.074 -0.23218 -0.0302432 0.972203 255 0 0 255
-0.057187 0.302155 2.076 -0.313026 -0.0262375 0.949382 255 0 0 255
-0.051555 0.30245 2.078 -0.182156 0.063759 0.9812 255 0 0 255
-0.045845 0.302308 2.077 -0.121741 0.20095 0.972007 255 0 0 255
-0.04018 0.302456 2.078 -0.209865 0.296369 0.931731 255 0 0 255
-0.034492 0.302459 2.078 -0.20177 0.40209 0.893091 255 0 0 255
-0.028846 0.302897 2.081 -0.253762 0.407982 0.877015 255 0 0 255
-0.023172 0.30319 2.083 -0.329379 0.368867 0.869164 255 0 0 255
-0.017487 0.303483 2.085 -0.543189 0.286062 0.789376 255 0 0 255
-0.011802 0.304066 2.089 -0.588847 0.27955 0.758361 255 0 0 255
-0.006095 0.304649 2.093 -0.579915 0.349957 0.735683 255 0 0 255
-0.000367 0.305231 2.097 -0.528136 0.382342 0.758213 255 0 0 255
0.005381 0.305668 2.1 -0.535796 0.42838 0.727608 255 0 0 255
0.011161 0.306541 2.106 -0.58063 0.454026 0.675817 255 0 0 255
0.016958 0.307122 2.11 -0.312996 0.556406 0.769705 255 0 0 255
0.022745 0.307266 2.111 -0.11958 0.571466 0.811867 255 0 0 255
0.028523 0.307264 2.111 -0.0916206 0.553617 0.827716 255 0 0 255
0.034318 0.307408 2.112 -0.175597 0.506431 0.844212 255 0 0 255
0.040136 0.307696 2.114 -0.381293 0.419167 0.823963 255 0 0 255
0.045988 0.30813 2.117 -0.523885 0.346397 0.778173 255 0 0 255
0.05188 0.308709 2.121 -0.735274 0.232609 0.636604 255 0 0 255
0.058011 0.310452 2.133 -0.900429 0.185093 0.393661 255 0 0 255
0.064178 0.312049 2.144 -0.773639 0.299934 0.558142 255 0 0 255
0.070405 0.313645 2.155 -0.882926 0.247811 0.398789 255 0 0 255
0.076444 0.314223 2.159 0.305927 0.436389 0.846152 255 0 0 255
0.082237 0.313781 2.156 0.587108 0.517265 0.622689 255 0 0 255
0.087728 0.31232 2.146 0.825414 0.270193 0.495668 255 0 0 255
0.093251 0.311149 2.138 0.737984 0.317799 0.595301 255 0 0 255
0.098915 0.310561 2.134 0.680745 0.251571 0.687967 255 0 0 255
0.104507 0.309826 2.129 0.700893 0.122776 0.702621 255 0 0 255
0.110021 0.308946 2.123 0.664896 0.059725 0.744544 255 0 0 255
0.11561 0.308356 2.119 0.483742 0.0513662 0.873702 255 0 0 255
0.121291 0.308058 2.117 0.362279 -0.00469618 0.932058 255 0 0 255
0.126901 0.307613 2.114 0.389637 -0.00155108 0.920967 255 0 0 255
0.132494 0.307168 2.111 0.264759 -0.115261 0.957402 255 0 0 255
0.138201 0.307013 2.11 0.101267 -0.0720637 0.992246 255 0 0 255
0.14397 0.307004 2.11 -0.242354 0.017833 0.970024 255 0 0 255
0.149952 0.307431 2.113 -0.389186 0.0238219 0.920851 255 0 0 255
0.156171 0.308294 2.119 -0.618461 0.062293 0.783342 255 0 0 255
0.162422 0.309157 2.125 -0.642144 0.404946 0.650899 255 0 0 255
0.168784 0.310164 2.132 -0.486759 0.683932 0.543418 255 0 0 255
0.174857 0.310589 2.135 -0.399772 0.740366 0.540407 255 0 0 255
-0.085782 0.278082 2.31331 -0.969622 -0.23421 -0.0705634 255 255 0 255
-0.076086 0.277186 2.30719 -0.734823 0.077786 -0.673783 255 255 0 255
-0.070664 0.275606 2.29808 -0.502428 0.165656 -0.848601 255 255 0 255
-0.06099 0.274721 2.29203 -0.386241 0.185672 -0.903517 255 255 0 255
-0.053879 0.273426 2.28417 -0.834937 0.114044 -0.5384 255 255 0 255
-0.047626 0.271996 2.27573 -0.789079 -0.228982 -0.570019 255 255 0 255
-0.042227 0.27043 2.26668 -0.616288 -0.308007 -0.72479 255 255 0 255
-0.027507 0.270408 2.26444 -0.476101 -0.309898 -0.822977 255 255 0 255
-0.018739 0.269414 2.25792 -0.698779 -0.387175 -0.601501 255 255 0 255
-0.010826 0.268285 2.25081 -0.760817 -0.314729 -0.567541 255 255 0 255
-0.008838 0.266169 2.23935 -0.764178 -0.163829 -0.623853 255 255 0 255
0.002438 0.265615 2.23479 -0.68732 -0.225222 -0.690555 255 255 0 255
0.010326 0.264499 2.22774 -0.692261 -0.608178 -0.388451 255 255 0 255
0.013993 0.262674 2.21757 -0.846668 -0.531241 -0.0305955 255 255 0 255
0.006724 0.258985 2.19914 0.887444 0.206684 -0.411976 255 255 0 255
-0.001363 0.255141 2.18001 0.961446 -0.00835566 -0.274866 255 255 0 255
0.072814 0.258142 2.18496 -0.997956 -0.0627192 -0.012223 255 255 0 255
0.115973 0.260841 2.19285 -0.408311 -0.0964015 -0.907738 255 255 0 255
0.117895 0.258765 2.18158 0.974865 -0.0317891 -0.220517 255 255 0 255
0.113155 0.25551 2.16504 -0.61075 -0.476203 -0.632625 255 255 0 255
-0.291883 0.210754 2.26245 0.79577 -0.171577 -0.580786 0 255 0 255
-0.281235 0.211046 2.2667 0.754077 -0.0414667 -0.655476 0 255 0 255
-0.265409 0.210153 2.26724 -0.817105 -0.054615 -0.573896 0 255 0 255
-0.236635 0.2063 2.25849 -0.0122393 -0.309636 -0.950776 0 255 0 255
-0.198331 0.200302 2.24305 0.200135 -0.226054 -0.953334 0 255 0 255
-0.17464 0.197704 2.23834 0.11918 -0.265668 -0.95667 0 255 0 255
-0.168191 0.199071 2.24608 -0.941488 0.337007 -0.0051078 0 255 0 255
-0.175572 0.203583 2.26366 -0.923354 0.350675 -0.156347 0 255 0 255
-0.176047 0.206517 2.27629 0.778625 -0.603177 -0.172974 0 255 0 255
-0.171332 0.208275 2.28524 0.78744 -0.469752 -0.399088 0 255 0 255
-0.162279 0.209063 2.29117 0.318063 -0.539897 -0.779325 0 255 0 255
-0.142805 0.207528 2.28989 0.118726 -0.510303 -0.85176 0 255 0 255
-0.125908 0.206595 2.29051 0.707093 -0.405456 -0.579331 0 255 0 255
-0.122024 0.208577 2.30018 0.842781 -0.435106 -0.316865 0 255 0 255
-0.125098 0.212101 2.31463 0.806104 -0.246317 -0.538076 0 255 0 255
-0.112511 0.212161 2.31836 0.510207 -0.158529 -0.845315 0 255 0 255
-0.101651 0.212617 2.32332 0.585949 -0.412027 -0.69778 0 255 0 255
-0.094266 0.213847 2.33068 0.206141 -0.598358 -0.774257 0 255 0 255
-0.328626 0.311379 2.184 0.362722 0.91739 0.163793 255 0 0 255
-0.321199 0.309971 2.174 0.249417 0.909516 0.332523 255 0 0 255
-0.315277 0.30999 2.174 0.100041 0.965726 0.239511 255 0 0 255
-0.309638 0.310293 2.176 0.0513572 0.955867 0.289277 255 0 0 255
-0.303429 0.310025 2.174 0.0414732 0.956523 0.288692 255 0 0 255
-0.297367 0.3099 2.173 0.00827848 0.956526 0.291531 255 0 0 255
-0.291175 0.309632 2.171 -0.0388225 0.942265 0.33261 255 0 0 255
-0.285519 0.309935 2.173 -0.115915 0.936866 0.329919 255 0 0 255
-0.279465 0.309809 2.172 -0.303565 0.847046 0.436304 255 0 0 255
-0.274171 0.310538 2.177 -0.498296 0.825506 0.265032 255 0 0 255
-0.269219 0.311696 2.185 -0.602708 0.766124 0.223154 255 0 0 255
-0.264463 0.313138 2.195 -0.636618 0.735611 0.231503 255 0 0 255
-0.259652 0.314581 2.205 -0.575403 0.743737 0.340245 255 0 0 255
-0.254555 0.315738 2.213 0.726438 -0.686748 0.0257861 255 0 0 255
-0.249976 0.317608 2.226 -0.551505 0.826493 0.112921 255 0 0 255
-0.242366 0.315626 2.212 -0.331299 0.455351 0.826375 255 0 0 255
-0.234084 0.312644 2.191 0.85852 -0.0713767 0.507787 255 0 0 255
-0.226957 0.311088 2.18 0.859144 -0.0515759 0.509128 255 0 0 255
-0.219686 0.309247 2.167 0.873676 -0.00566778 0.486475 255 0 0 255
-0.212584 0.307548 2.155 0.84867 0.0925189 0.520768 255 0 0 255
-0.205835 0.306277 2.146 0.839311 0.114927 0.531364 255 0 0 255
-0.198948 0.304719 2.135 0.823002 0.176508 0.539919 255 0 0 255
-0.192121 0.303162 2.124 0.824549 0.304834 0.47665 255 0 0 255
-0.18544 0.301746 2.114 0.778117 0.282913 0.560797 255 0 0 255
-0.178984 0.300616 2.106 0.699546 0.175149 0.69279 255 0 0 255
-0.172817 0.299913 2.101 0.576789 0.0744361 0.813495 255 0 0 255
-0.166836 0.299496 2.098 0.423554 0.0189754 0.905672 255 0 0 255
-0.160948 0.299221 2.096 0.360371 0.0676095 0.930356 255 0 0 255
-0.15507 0.298945 2.094 0.440106 0.0361658 0.897218 255 0 0 255
-0.14906 0.298384 2.09 0.461605 0.134993 0.876754 255 0 0 255
-0.14314 0.297965 2.087 0.402846 0.209811 0.890895 255 0 0 255
-0.137235 0.297546 2.084 0.33434 0.211085 0.918509 255 0 0 255
-0.131473 0.297412 2.083 0.28669 0.10696 0.952034 255 0 0 255
-0.125656 0.297135 2.081 0.097512 0.176783 0.979407 255 0 0 255
-0.120021 0.297285 2.082 -0.0293257 0.118189 0.992558 255 0 0 255
-0.114326 0.297293 2.082 0.0312014 0.13668 0.990124 255 0 0 255
-0.108683 0.297443 2.083 0.0306132 0.0281735 0.999134 255 0 0 255
-0.102935 0.297307 2.082 0.149143 0.0417233 0.987935 255 0 0 255
-0.097192 0.297171 2.081 0.331666 -0.00866408 0.943357 255 0 0 255
-0.091366 0.296749 2.078 0.440706 -0.0174688 0.897482 255 0 0 255
-0.085557 0.296326 2.075 0.334446 0.00149746 0.942414 255 0 0 255
-0.07984 0.296189 2.074 0.0896431 0.0506169 0.994687 255 0 0 255
-0.074164 0.296194 2.074 0.059433 0.122205 0.990724 255 0 0 255
-0.068455 0.296056 2.073 0.000397715 0.103745 0.994604 255 0 0 255
-0.062782 0.29606 2.073 -0.131432 0.0553881 0.989777 255 0 0 255
-0.057136 0.296207 2.074 -0.297472 -0.00341857 0.954724 255 0 0 255
-0.051533 0.296639 2.077 -0.26857 0.114817 0.956393 255 0 0 255
-0.04587 0.296785 2.078 -0.267275 0.239095 0.933487 255 0 0 255
-0.040241 0.297216 2.081 -0.310317 0.375031 0.87353 255 0 0 255
-0.034577 0.297505 2.083 -0.201758 0.447922 0.871011 255 0 0 255
-0.028889 0.29765 2.084 -0.229812 0.38217 0.89506 255 0 0 255
-0.023184 0.297651 2.084 -0.276044 0.364941 0.889167 255 0 0 255
-0.017505 0.298081 2.087 -0.439582 0.360524 0.822672 255 0 0 255
-0.01182 0.298796 2.092 -0.607525 0.381864 0.696486 255 0 0 255
-0.006105 0.299368 2.096 -0.556719 0.46144 0.690752 255 0 0 255
-0.000368 0.300082 2.101 -0.520608 0.436752 0.733631 255 0 0 255
0.005392 0.300511 2.104 -0.553631 0.468908 0.6882 255 0 0 255
0.011178 0.301224 2.109 -0.608078 0.435703 0.663629 255 0 0 255
0.016984 0.301795 2.113 -0.331436 0.550417 0.766284 255 0 0 255
0.022789 0.302079 2.115 -0.0844065 0.574497 0.814143 255 0 0 255
0.028579 0.302077 2.115 -0.0557865 0.556744 0.828809 255 0 0 255
0.034369 0.302075 2.115 -0.115002 0.490235 0.86397 255 0 0 255
0.040196 0.302358 2.117 -0.279473 0.405811 0.87018 255 0 0 255
0.046056 0.302784 2.12 -0.507984 0.32232 0.798788 255 0 0 255
0.051957 0.303352 2.124 -0.769152 0.264125 0.581931 255 0 0 255
0.058097 0.305062 2.136 -0.90154 0.129666 0.41281 255 0 0 255
0.064302 0.306772 2.148 -0.756468 0.11829 0.643245 255 0 0 255
0.070507 0.308196 2.158 -0.687982 0.373319 0.622345 255 0 0 255
0.076555 0.308762 2.162 -0.0320374 0.463812 0.885354 255 0 0 255
0.082395 0.308471 2.16 0.554577 0.547401 0.626735 255 0 0 255
0.087897 0.307038 2.15 0.845726 0.23211 0.480491 255 0 0 255
0.093431 0.305889 2.142 0.771698 0.183485 0.608946 255 0 0 255
0.098968 0.304883 2.135 0.74486 0.123057 0.655775 255 0 0 255
0.104514 0.30402 2.129 0.741511 0.103169 0.662962 255 0 0 255
0.110028 0.303156 2.123 0.687617 0.0556381 0.723939 255 0 0 255
0.115563 0.302435 2.118 0.503229 0.0510416 0.862644 255 0 0 255
0.121242 0.302141 2.116 0.339963 0.0444294 0.939389 255 0 0 255
0.126909 0.301848 2.114 0.331074 0.16 0.929941 255 0 0 255
0.132565 0.301554 2.112 0.124876 0.477448 0.869741 255 0 0 255
0.13821 0.301259 2.11 0.0504327 0.39823 0.915898 255 0 0 255
0.144185 0.301678 2.113 -0.327445 0.577948 0.7475 255 0 0 255
0.150175 0.302097 2.116 -0.517521 0.621562 0.588075 255 0 0 255
0.15655 0.303229 2.124 -0.587459 0.60548 0.536923 255 0 0 255
0.162891 0.304219 2.131 -0.591278 0.694499 0.409952 255 0 0 255
0.169666 0.305921 2.143 -0.598102 0.598259 0.533255 255 0 0 255
-0.083083 0.267466 2.31643 -0.780637 0.0305645 -0.624237 255 255 0 255
-0.080213 0.265468 2.3055 -0.876773 0.401643 -0.264485 255 255 0 255
-0.073934 0.264032 2.29697 -0.191179 0.0573366 -0.979879 255 255 0 255
-0.062556 0.263445 2.29211 -0.528691 -0.117891 -0.840588 255 255 0 255
-0.051194 0.262866 2.28729 -0.729771 0.0130623 -0.683567 255 255 0 255
-0.040698 0.262155 2.2819 -0.636362 -0.567025 -0.522997 255 255 0 255
-0.03785 0.260169 2.27103 -0.658398 -0.513113 -0.550661 255 255 0 255
-0.026528 0.259612 2.26632 -0.549263 -0.321229 -0.771441 255 255 0 255
-0.016915 0.258777 2.26041 -0.675538 -0.240975 -0.696836 255 255 0 255
-0.007314 0.257948 2.25454 -0.82566 -0.328364 -0.458762 255 255 0 255
-0.007861 0.255396 2.24122 -0.800668 -0.322955 -0.504609 255 255 0 255
0.001725 0.254576 2.23539 -0.542064 -0.458064 -0.704516 255 255 0 255
0.012983 0.254053 2.23086 -0.599746 -0.460086 -0.654696 255 255 0 255
0.020016 0.25281 2.22321 0.907087 0.418383 -0.0463536 255 255 0 255
0.011907 0.248944 2.20417 0.893151 0.137634 -0.42818 255 255 0 255
0.001304 0.244626 2.18315 0.915848 0.00423252 -0.401503 255 255 0 255
0.070426 0.246926 2.18419 0.692839 -0.251282 -0.675894 255 255 0 255
0.091602 0.248245 2.18773 0.360624 0.545666 -0.756438 255 255 0 255
0.109403 0.248987 2.18878 -0.722302 -0.317498 -0.61439 255 255 0 255
0.118002 0.248099 2.18271 -0.807338 0.358817 -0.46846 255 255 0 255
0.117432 0.245567 2.16945 -0.720805 -0.0768421 -0.688865 255 255 0 255
0.12602 0.244686 2.16342 -0.750174 -0.0629838 -0.658234 255 255 0 255
-0.289674 0.199741 2.26199 0.595102 -0.0692594 -0.80066 0 255 0 255
-0.280747 0.200416 2.26752 0.500669 0.0906921 -0.860875 0 255 0 255
-0.261485 0.19868 2.26557 -0.608574 -0.0848943 -0.788943 0 255 0 255
-0.231 0.194352 2.25561 0.7518 0.000996422 -0.65939 0 255 0 255
-0.197021 0.189256 2.24332 0.280492 -0.101158 -0.954511 0 255 0 255
-0.181965 0.188598 2.24482 0.205446 -0.158959 -0.965673 0 255 0 255
-0.174661 0.189752 2.25194 -0.955234 0.182075 -0.233189 0 255 0 255
-0.182903 0.194491 2.27011 -0.950564 0.307143 -0.0457365 0 255 0 255
-0.176462 0.195845 2.27783 0.87596 -0.267439 -0.401459 0 255 0 255
-0.175209 0.19839 2.28922 0.815962 -0.228786 -0.530908 0 255 0 255
-0.165296 0.198961 2.29454 0.647406 -0.327084 -0.688391 0 255 0 255
-0.151903 0.198754 2.29749 0.265997 -0.715223 -0.646299 0 255 0 255
-0.137624 0.198364 2.2999 0.355187 -0.793543 -0.494097 0 255 0 255
-0.132012 0.199946 2.30835 0.485342 -0.800975 -0.350546 0 255 0 255
-0.125526 0.201336 2.31622 0.542701 -0.641711 -0.541925 0 255 0 255
-0.112074 0.201175 2.31937 0.572513 -0.330199 -0.750465 0 255 0 255
-0.104699 0.202385 2.32671 0.694439 -0.475524 -0.540029 0 255 0 255
-0.099933 0.204181 2.33583 0.213176 -0.830563 -0.514512 0 255 0 255
-0.093419 0.205595 2.3438 0.0296457 -0.750021 -0.660749 0 255 0 255
-0.080787 0.205666 2.34771 -0.162199 -0.749137 -0.64225 0 255 0 255
-0.333761 0.310183 2.218 -0.352423 0.761424 0.544087 255 0 0 255
-0.325355 0.307963 2.202 -0.0652637 0.95701 0.282619 255 0 0 255
-0.318921 0.307562 2.199 -0.0340897 0.971813 0.233275 255 0 0 255
-0.313213 0.30786 2.201 -0.0105184 0.984414 0.175552 255 0 0 255
-0.306796 0.307458 2.198 0.09923 0.985053 0.140798 255 0 0 255
-0.300532 0.307196 2.196 0.100675 0.984736 0.141985 255 0 0 255
-0.293741 0.306373 2.19 0.043189 0.991078 0.126093 255 0 0 255
-0.287638 0.30625 2.189 -0.0199724 0.988701 0.148566 255 0 0 255
-0.28154 0.306127 2.188 -0.236508 0.965135 0.112157 255 0 0 255
-0.276581 0.307263 2.196 -0.310701 0.940503 0.13755 255 0 0 255
-0.271576 0.308398 2.204 -0.348103 0.909647 0.226643 255 0 0 255
-0.266768 0.309814 2.214 -0.294199 0.930858 0.216678 255 0 0 255
-0.261787 0.311089 2.223 -0.573509 0.819156 0.00846034 255 0 0 255
-0.256756 0.312364 2.232 -0.522801 0.830581 0.19187 255 0 0 255
-0.252461 0.314619 2.248 -0.62053 0.750787 0.226409 255 0 0 255
-0.243148 0.310575 2.219 0.468243 0.530167 0.706874 255 0 0 255
-0.234098 0.30667 2.191 0.862147 0.0400692 0.505071 255 0 0 255
-0.226971 0.305144 2.18 0.85749 0.051471 0.511919 255 0 0 255
-0.219801 0.303478 2.168 0.866149 0.00984988 0.499689 255 0 0 255
-0.212598 0.301672 2.155 0.857419 0.0465709 0.512507 255 0 0 255
-0.205752 0.300285 2.145 0.825181 0.0177566 0.56459 255 0 0 255
-0.199054 0.299037 2.136 0.791911 0.0881802 0.604236 255 0 0 255
-0.192495 0.29793 2.128 0.808717 0.213213 0.548194 255 0 0 255
-0.185803 0.296541 2.118 0.815299 0.255889 0.519431 255 0 0 255
-0.179165 0.295153 2.108 0.758778 0.165727 0.629913 255 0 0 255
-0.172828 0.294183 2.101 0.607251 0.113896 0.786304 255 0 0 255
-0.166847 0.293774 2.098 0.518023 0.0699319 0.852503 255 0 0 255
-0.160881 0.293364 2.095 0.371245 -0.0547283 0.926921 255 0 0 255
-0.15508 0.293234 2.094 0.330279 -0.0128523 0.943796 255 0 0 255
-0.149141 0.292824 2.091 0.361039 0.122999 0.924404 255 0 0 255
-0.143355 0.292693 2.09 0.372975 0.286301 0.882565 255 0 0 255
-0.137442 0.292282 2.087 0.354802 0.258167 0.898591 255 0 0 255
-0.131608 0.29201 2.085 0.255417 0.286388 0.923441 255 0 0 255
-0.125784 0.291739 2.083 0.0903485 0.30647 0.947583 255 0 0 255
-0.120144 0.291886 2.084 0.0613953 0.279756 0.958106 255 0 0 255
-0.114334 0.291614 2.082 0.152773 0.122779 0.980605 255 0 0 255
-0.108638 0.291621 2.082 0.0906581 0.0572808 0.994233 255 0 0 255
-0.102892 0.291488 2.081 0.180379 0.0444549 0.982592 255 0 0 255
-0.097152 0.291354 2.08 0.313204 0.0606398 0.947748 255 0 0 255
-0.091328 0.29094 2.077 0.435572 0.11043 0.893354 255 0 0 255
-0.085521 0.290526 2.074 0.29145 0.104295 0.950884 255 0 0 255
-0.079845 0.290531 2.074 0.0306306 0.152279 0.987863 255 0 0 255
-0.074169 0.290536 2.074 0.000523339 0.204903 0.978782 255 0 0 255
-0.068493 0.290541 2.074 0.000375314 0.274145 0.961688 255 0 0 255
-0.062816 0.290545 2.074 -0.120589 0.260072 0.95803 255 0 0 255
-0.057195 0.290829 2.076 -0.295029 0.187258 0.936959 255 0 0 255
-0.051562 0.291113 2.078 -0.347228 0.176567 0.921009 255 0 0 255
-0.045918 0.291396 2.08 -0.384213 0.253879 0.887652 255 0 0 255
-0.040282 0.291819 2.083 -0.406066 0.260473 0.875936 255 0 0 255
-0.034613 0.292102 2.085 -0.233723 0.234807 0.943525 255 0 0 255
-0.028905 0.292104 2.085 -0.179983 0.278072 0.943548 255 0 0 255
-0.023219 0.292386 2.087 -0.384481 0.331194 0.861676 255 0 0 255
-0.017531 0.292808 2.09 -0.611493 0.420329 0.670373 255 0 0 255
-0.011849 0.293789 2.097 -0.616909 0.43622 0.655084 255 0 0 255
-0.006117 0.29421 2.1 -0.574106 0.408083 0.709839 255 0 0 255
-0.000368 0.294911 2.105 -0.525216 0.407411 0.747104 255 0 0 255
0.0054 0.295191 2.107 -0.561446 0.388827 0.730474 255 0 0 255
0.0112 0.296031 2.113 -0.60954 0.425535 0.668865 255 0 0 255
0.017017 0.29659 2.117 -0.346033 0.550327 0.759869 255 0 0 255
0.022834 0.296869 2.119 -0.0815622 0.578345 0.811705 255 0 0 255
0.028621 0.296727 2.118 -0.0127739 0.576262 0.817165 255 0 0 255
0.03442 0.296725 2.118 -0.0402019 0.514059 0.856812 255 0 0 255
0.040237 0.296863 2.119 -0.223467 0.435637 0.871942 255 0 0 255
0.046081 0.29714 2.121 -0.52181 0.367467 0.769858 255 0 0 255
0.052009 0.297838 2.126 -0.583638 0.333916 0.74018 255 0 0 255
0.058182 0.299655 2.139 -0.878191 0.134339 0.459058 255 0 0 255
0.064366 0.301192 2.15 -0.846712 0.0896233 0.524449 255 0 0 255
0.070545 0.302449 2.159 -0.817581 -0.0554673 0.573137 255 0 0 255
0.076595 0.303004 2.163 0.0537979 0.55554 0.829748 255 0 0 255
0.082477 0.302859 2.162 0.373227 0.752393 0.542776 255 0 0 255
0.087985 0.301453 2.152 0.854904 0.317362 0.41039 255 0 0 255
0.093481 0.300186 2.143 0.820942 0.120362 0.558182 255 0 0 255
0.099067 0.299339 2.137 0.770135 0.132015 0.62407 255 0 0 255
0.104521 0.298212 2.129 0.734281 0.0701936 0.675207 255 0 0 255
0.110087 0.297505 2.124 0.631813 0.17492 0.755126 255 0 0 255
0.115625 0.296797 2.119 0.425144 0.359978 0.830463 255 0 0 255
0.121364 0.296649 2.118 0.209787 0.500882 0.839706 255 0 0 255
0.127037 0.296361 2.116 0.156136 0.576076 0.802346 255 0 0 255
0.132888 0.296493 2.117 0.0297192 0.739681 0.672302 255 0 0 255
0.138743 0.296625 2.118 -0.205987 0.856594 0.473093 255 0 0 255
0.144876 0.297316 2.123 -0.347998 0.856847 0.380409 255 0 0 255
0.150965 0.297866 2.127 -0.457236 0.790503 0.407481 255 0 0 255
0.157223 0.298697 2.133 -0.433125 0.707753 0.558112 255 0 0 255
0.163666 0.299807 2.141 -0.55164 0.510744 0.65942 255 0 0 255
-0.086357 0.255859 2.31535 0.756848 -0.120392 -0.642408 255 255 0 255
-0.082628 0.253999 2.30501 0.254582 -0.75994 -0.598063 255 255 0 255
-0.079752 0.251995 2.29406 -0.259312 -0.0890396 -0.96168 255 255 0 255
-0.062417 0.252434 2.29341 -0.400876 -0.19249 -0.895682 255 255 0 255
-0.04851 0.252311 2.2904 -0.37058 -0.370748 -0.851596 255 255 0 255
-0.033776 0.252344 2.28807 -0.571016 -0.518126 -0.636777 255 255 0 255
-0.033476 0.249924 2.27537 -0.669174 -0.570354 -0.476343 255 255 0 255
-0.027241 0.248519 2.26697 -0.512308 -0.445888 -0.733979 255 255 0 255
-0.015091 0.248139 2.26291 -0.608926 -0.425897 -0.669194 255 255 0 255
-0.006339 0.247182 2.25641 -0.802834 -0.403485 -0.438929 255 255 0 255
-0.002662 0.245351 2.24621 -0.793335 -0.392902 -0.465024 255 255 0 255
0.00523 0.244257 2.23913 -0.527156 -0.433982 -0.730593 255 255 0 255
0.020693 0.244497 2.23774 -0.595083 -0.294266 -0.747853 255 255 0 255
0.023511 0.242528 2.22695 -0.95335 -0.0442592 -0.298603 255 255 0 255
0.015407 0.238626 2.20793 0.906258 0.0120903 -0.422552 255 255 0 255
0.061356 0.234476 2.17826 0.0977306 -0.696082 -0.71128 255 255 0 255
0.082534 0.235845 2.18176 0.943586 -0.221387 -0.246239 255 255 0 255
0.102006 0.236929 2.18406 -0.219574 -0.450226 -0.865496 255 255 0 255
0.111446 0.236204 2.17862 -0.816773 0.00088088 -0.576958 255 255 0 255
0.116712 0.234723 2.16993 -0.819431 0.0983524 -0.564677 255 255 0 255
0.121975 0.233244 2.16125 -0.7609 0.125169 -0.636682 255 255 0 255
-0.274248 0.188339 2.26394 -0.0988998 -0.0116598 -0.995029 0 255 0 255
-0.254129 0.186355 2.2614 -0.579673 -0.536201 -0.61357 0 255 0 255
-0.224515 0.182153 2.25212 -0.333347 0.201806 -0.920953 0 255 0 255
-0.191408 0.177173 2.2405 0.486462 -0.0386512 -0.872846 0 255 0 255
-0.182389 0.177902 2.24636 0.452922 -0.228256 -0.861836 0 255 0 255
-0.181988 0.18066 2.2584 -0.999244 -0.0331444 -0.0203269 0 255 0 255
-0.184183 0.184019 2.27226 0.904729 -0.135364 -0.403909 0 255 0 255
-0.178608 0.185564 2.28059 0.849635 -0.105521 -0.516706 0 255 0 255
-0.171298 0.186711 2.28773 0.846035 -0.12298 -0.51875 0 255 0 255
-0.168311 0.188864 2.29791 0.726706 -0.354755 -0.588258 0 255 0 255
-0.160125 0.189822 2.30448 0.575282 -0.543183 -0.611558 0 255 0 255
-0.15193 0.190786 2.31108 0.384115 -0.646064 -0.659589 0 255 0 255
-0.140254 0.190965 2.31532 0.514088 -0.66811 -0.537907 0 255 0 255
-0.131169 0.191747 2.32139 0.396329 -0.684526 -0.611839 0 255 0 255
-0.118596 0.19175 2.32512 0.376138 -0.743347 -0.553133 0 255 0 255
-0.110358 0.192747 2.33186 0.657377 -0.715567 -0.236261 0 255 0 255
-0.104725 0.19434 2.34039 0.41898 -0.449893 -0.788703 0 255 0 255
-0.093856 0.194763 2.34543 -0.415508 -0.427886 -0.802662 0 255 0 255
-0.078611 0.194222 2.3476 -0.508835 -0.375387 -0.774707 0 255 0 255
-0.332124 0.30263 2.207 0.927955 -0.349894 0.128349 255 0 0 255
-0.326703 0.303197 2.211 -0.123198 0.943883 0.306441 255 0 0 255
-0.321404 0.3039 2.216 -0.319599 0.676241 0.663743 255 0 0 255
-0.315935 0.304467 2.22 -0.0568762 0.569725 0.819865 255 0 0 255
-0.309606 0.30421 2.218 -0.051139 0.59267 0.80382 255 0 0 255
-0.30356 0.304228 2.218 0.126387 0.799131 0.587721 255 0 0 255
-0.296708 0.303422 2.212 0.0166339 0.953646 0.30047 255 0 0 255
-0.290677 0.303438 2.212 -0.059341 0.890983 0.450142 255 0 0 255
-0.284774 0.303592 2.213 -0.25673 0.928047 0.269849 255 0 0 255
-0.279494 0.304432 2.219 -0.315684 0.860971 0.398839 255 0 0 255
-0.274426 0.305545 2.227 -0.453556 0.790916 0.410777 255 0 0 255
-0.269194 0.306522 2.234 -0.509138 0.586895 0.62955 255 0 0 255
-0.263687 0.307223 2.239 -0.37969 0.790219 0.48103 255 0 0 255
-0.258037 0.307788 2.243 -0.653407 0.696563 0.29641 255 0 0 255
-0.253263 0.30945 2.255 -0.529871 0.592284 0.60699 255 0 0 255
-0.24371 0.30521 2.224 0.667931 0.162179 0.726338 255 0 0 255
-0.234326 0.30097 2.193 0.868175 0.114111 0.48296 255 0 0 255
-0.227193 0.299474 2.182 0.864282 0.0901831 0.494858 255 0 0 255
-0.219814 0.297566 2.168 0.868164 0.0405094 0.494622 255 0 0 255
-0.212709 0.295932 2.156 0.860278 0.0592506 0.50637 255 0 0 255
-0.205573 0.29416 2.143 0.819716 0.0303367 0.571966 255 0 0 255
-0.199066 0.293212 2.136 0.746926 0.0566806 0.662487 255 0 0 255
-0.192687 0.2924 2.13 0.786961 0.128842 0.6034 255 0 0 255
-0.18599 0.291039 2.12 0.830955 0.162344 0.532126 255 0 0 255
-0.179346 0.289678 2.11 0.786734 0.160071 0.596176 255 0 0 255
-0.173086 0.288865 2.104 0.657472 0.182567 0.731027 255 0 0 255
-0.166937 0.288189 2.099 0.59085 0.107608 0.799573 255 0 0 255
-0.160815 0.287512 2.094 0.448222 0.0803988 0.890299 255 0 0 255
-0.155016 0.287385 2.093 0.227927 -0.00542384 0.973663 255 0 0 255
-0.149222 0.287257 2.092 0.177673 0.143057 0.973636 255 0 0 255
-0.143432 0.287129 2.091 0.305617 0.212346 0.928174 255 0 0 255
-0.137516 0.286726 2.088 0.356028 0.201526 0.912486 255 0 0 255
-0.131742 0.286597 2.087 0.224745 0.303976 0.92579 255 0 0 255
-0.125974 0.286468 2.086 0.0878142 0.324825 0.941689 255 0 0 255
-0.120267 0.286476 2.086 0.149111 0.292651 0.944522 255 0 0 255
-0.114451 0.286208 2.084 0.280741 0.243387 0.928411 255 0 0 255
-0.108645 0.285941 2.082 0.148882 0.196345 0.969166 255 0 0 255
-0.102948 0.285947 2.082 0.176625 0.162559 0.970762 255 0 0 255
-0.097158 0.285679 2.08 0.287708 0.168142 0.942843 255 0 0 255
-0.091422 0.285548 2.079 0.40939 0.162611 0.897752 255 0 0 255
-0.085609 0.285141 2.076 0.264343 0.255795 0.929888 255 0 0 255
-0.079927 0.285147 2.076 0.0304196 0.222571 0.974442 255 0 0 255
-0.074246 0.285152 2.076 0.000713908 0.22708 0.973876 255 0 0 255
-0.068596 0.285294 2.077 -0.0890025 0.302054 0.949127 255 0 0 255
-0.062911 0.285298 2.077 -0.177546 0.379997 0.907789 255 0 0 255
-0.057253 0.285439 2.078 -0.253559 0.448916 0.856844 255 0 0 255
-0.05159 0.28558 2.079 -0.30676 0.399909 0.863696 255 0 0 255
-0.045965 0.285995 2.082 -0.310837 0.358889 0.880102 255 0 0 255
-0.040304 0.286273 2.084 -0.316243 0.240684 0.917639 255 0 0 255
-0.034648 0.286687 2.087 -0.20654 0.174594 0.962735 255 0 0 255
-0.028935 0.286689 2.087 -0.265382 0.168727 0.949265 255 0 0 255
-0.023254 0.287103 2.09 -0.539355 0.256833 0.801956 255 0 0 255
-0.017557 0.287517 2.093 -0.681498 0.292913 0.670644 255 0 0 255
-0.011867 0.288479 2.1 -0.62711 0.292356 0.721984 255 0 0 255
-0.006126 0.288892 2.103 -0.553066 0.211972 0.805721 255 0 0 255
-0.000369 0.289579 2.108 -0.547906 0.22951 0.80444 255 0 0 255
0.005408 0.289853 2.11 -0.633177 0.226933 0.739993 255 0 0 255
0.011217 0.290677 2.116 -0.636615 0.302004 0.709588 255 0 0 255
0.017042 0.291226 2.12 -0.498281 0.334486 0.799897 255 0 0 255
0.022879 0.291636 2.123 -0.180436 0.395244 0.90068 255 0 0 255
0.028677 0.291497 2.122 0.0854093 0.447623 0.890134 255 0 0 255
0.034487 0.291495 2.122 0.00689239 0.51371 0.857936 255 0 0 255
0.040296 0.291493 2.122 -0.11439 0.487541 0.865574 255 0 0 255
0.046149 0.291765 2.124 -0.522661 0.380583 0.762877 255 0 0 255
0.05211 0.292586 2.13 -0.750693 0.304385 0.586353 255 0 0 255
0.058186 0.293819 2.139 -0.826076 0.148578 0.54362 255 0 0 255
0.06437 0.295326 2.15 -0.814526 0.0252962 0.579575 255 0 0 255
0.070451 0.296146 2.156 -0.72134 -0.107217 0.684231 255 0 0 255
0.0766 0.297102 2.163 -0.62448 0.13246 0.769727 255 0 0 255
0.082597 0.297372 2.165 -0.322168 0.331409 0.886778 255 0 0 255
0.088031 0.295718 2.153 0.927201 0.230698 0.295087 255 0 0 255
0.093487 0.294339 2.143 0.819705 0.118921 0.560305 255 0 0 255
0.099027 0.293371 2.136 0.745381 0.212677 0.631804 255 0 0 255
0.104528 0.292403 2.129 0.639784 0.501027 0.582794 255 0 0 255
0.110197 0.291985 2.126 0.442859 0.642708 0.625142 255 0 0 255
0.115905 0.291703 2.124 0.280406 0.5405 0.793242 255 0 0 255
0.121716 0.291695 2.124 0.106134 0.749159 0.653832 255 0 0 255
0.127526 0.291687 2.124 -0.0831798 0.906936 0.412974 255 0 0 255
0.133461 0.291954 2.126 -0.179124 0.905187 0.385422 255 0 0 255
0.139472 0.292357 2.129 -0.28027 0.881984 0.378884 255 0 0 255
0.145636 0.293035 2.134 -0.370748 0.777055 0.508656 255 0 0 255
0.151685 0.293437 2.137 -0.311285 0.692938 0.650338 255 0 0 255
0.157749 0.29384 2.14 -0.313936 0.32796 0.891003 255 0 0 255
0.163676 0.293967 2.141 -0.109698 0.197726 0.9741 255 0 0 255
-0.102748 0.244494 2.3181 -0.490058 0.396261 -0.776415 255 255 0 255
-0.088773 0.244364 2.31489 -0.11641 -0.3531 -0.928315 255 255 0 255
-0.074819 0.244247 2.31173 -0.0994049 -0.637059 -0.764379 255 255 0 255
-0.071098 0.24239 2.30141 -0.479096 -0.744578 -0.464834 255 255 0 255
-0.059728 0.241851 2.29653 -0.56274 -0.407889 -0.718993 255 255 0 255
-0.046676 0.241613 2.29291 -0.232963 -0.30711 -0.922719 255 255 0 255
-0.031948 0.241681 2.29057 -0.476232 -0.439647 -0.761521 255 255 0 255
-0.025716 0.240284 2.28216 -0.583525 -0.669207 -0.460067 255 255 0 255
-0.019489 0.23889 2.27378 -0.510884 -0.734093 -0.447331 255 255 0 255
-0.009886 0.238094 2.26787 -0.480438 -0.805053 -0.347951 255 255 0 255
-0.00283 0.236858 2.26014 -0.679728 -0.711172 -0.179455 255 255 0 255
-0.000842 0.234729 2.2487 -0.749052 -0.439597 -0.495656 255 255 0 255
0.007891 0.233798 2.24225 -0.65901 -0.301688 -0.688978 255 255 0 255
0.018296 0.233173 2.23708 -0.751567 -0.00107229 -0.659657 255 255 0 255
0.021119 0.2312 2.22628 -0.992275 -0.0148654 -0.123163 255 255 0 255
0.002105 0.225294 2.19903 0.850483 -0.167513 -0.498617 255 255 0 255
-0.045026 0.206635 2.1105 0.543387 -0.268627 -0.795343 255 255 0 255
0.049791 0.221498 2.17041 0.60768 -0.458566 -0.648415 255 255 0 255
0.080988 0.224761 2.18163 0.185767 -0.355552 -0.916009 255 255 0 255
0.102122 0.226202 2.18521 0.287727 -0.09213 -0.953271 255 255 0 255
0.118222 0.226734 2.18498 -0.684582 -0.647521 -0.334759 255 255 0 255
0.12265 0.225105 2.17565 0.970738 0.236713 -0.0404261 255 255 0 255
-0.276346 0.178282 2.26665 -0.651888 -0.0994781 -0.751762 0 255 0 255
-0.255378 0.17604 2.2635 -0.0178991 0.74798 -0.663479 0 255 0 255
-0.22836 0.172378 2.2561 -0.202127 -0.262382 -0.943557 0 255 0 255
-0.194413 0.167101 2.24389 0.430954 -0.154388 -0.889068 0 255 0 255
-0.179368 0.166376 2.24543 0.233051 0.248999 -0.940046 0 255 0 255
-0.17465 0.168121 2.25441 -0.928504 -0.328997 -0.172169 0 255 0 255
-0.185464 0.173542 2.27441 0.942431 -0.213004 -0.257784 0 255 0 255
-0.179027 0.174876 2.28214 0.821727 -0.367511 -0.435547 0 255 0 255
-0.172583 0.176214 2.28989 0.780127 -0.501655 -0.373823 0 255 0 255
-0.16873 0.178165 2.29947 0.82103 -0.466558 -0.328989 0 255 0 255
-0.164876 0.180118 2.30906 0.671405 -0.461192 -0.580101 0 255 0 255
-0.154953 0.180662 2.31445 0.511933 -0.403204 -0.758519 0 255 0 255
-0.146753 0.181617 2.32108 0.65149 -0.472724 -0.593374 0 255 0 255
-0.140281 0.18298 2.32892 0.618754 -0.657385 -0.430104 0 255 0 255
-0.132934 0.184148 2.33619 0.431245 -0.794094 -0.428302 0 255 0 255
-0.12384 0.184923 2.34231 0.464191 -0.863017 -0.199319 0 255 0 255
-0.112125 0.18511 2.3467 0.271656 -0.854951 -0.441884 0 255 0 255
-0.095166 0.18412 2.34765 0.137747 -0.42658 -0.893899 0 255 0 255
-0.073825 0.182159 2.34576 -0.278796 -0.509968 -0.81376 0 255 0 255
-0.063798 0.182784 2.3515 -0.490108 -0.58682 -0.644544 0 255 0 255
-0.333195 0.297555 2.214 -0.804351 0.0641983 0.590676 255 0 0 255
-0.327755 0.298111 2.218 -0.467079 0.46169 0.754108 255 0 0 255
-0.322147 0.298532 2.221 -0.306321 0.625582 0.717506 255 0 0 255
-0.316522 0.298953 2.224 -0.105181 0.470639 0.876034 255 0 0 255
-0.310181 0.298701 2.222 -0.00525513 0.52237 0.852703 255 0 0 255
-0.304261 0.298853 2.223 -0.0576724 0.559807 0.826613 255 0 0 255
-0.298201 0.29887 2.223 0.0227384 0.669492 0.742471 255 0 0 255
-0.292402 0.299156 2.225 -0.327952 0.0943642 0.93997 255 0 0 255
-0.28672 0.299575 2.228 -0.228449 0.507476 0.830831 255 0 0 255
-0.281021 0.299995 2.231 -0.440946 0.582808 0.68257 255 0 0 255
-0.275551 0.300683 2.236 -0.541632 0.436907 0.718155 255 0 0 255
-0.269933 0.301237 2.24 -0.554416 0.498993 0.666055 255 0 0 255
-0.264527 0.302059 2.246 -0.541853 0.647235 0.536174 255 0 0 255
-0.258627 0.302343 2.248 -0.730851 0.484919 0.480324 255 0 0 255
-0.253053 0.303031 2.253 -0.930886 0.0377387 0.363356 255 0 0 255
-0.244053 0.299548 2.227 0.485373 -0.254027 0.83659 255 0 0 255
-0.23466 0.295393 2.196 0.893949 0.147643 0.423151 255 0 0 255
-0.22731 0.293658 2.183 0.873442 0.111538 0.473981 255 0 0 255
-0.219828 0.291653 2.168 0.864272 0.0501664 0.500517 255 0 0 255
-0.212919 0.290321 2.158 0.853727 0.07432 0.51539 255 0 0 255
-0.205777 0.288584 2.145 0.83683 0.0516059 0.545026 255 0 0 255
-0.199265 0.287655 2.138 0.761276 0.0624402 0.645415 255 0 0 255
-0.192699 0.28659 2.13 0.746941 0.0202096 0.664583 255 0 0 255
-0.186177 0.285525 2.122 0.817549 0.0953685 0.567907 255 0 0 255
-0.179442 0.284056 2.111 0.802646 0.126278 0.582934 255 0 0 255
-0.173179 0.283259 2.105 0.682692 0.0777941 0.726553 255 0 0 255
-0.167027 0.282597 2.1 0.589669 0.133095 0.796603 255 0 0 255
-0.160901 0.281934 2.095 0.447517 0.205924 0.870244 255 0 0 255
-0.155025 0.281675 2.093 0.170844 0.312741 0.934348 255 0 0 255
-0.149302 0.281684 2.093 0.175561 0.23607 0.955745 255 0 0 255
-0.143578 0.281693 2.093 0.330517 0.219982 0.917805 255 0 0 255
-0.137657 0.281298 2.09 0.310381 0.147276 0.939134 255 0 0 255
-0.131877 0.281172 2.089 0.146025 0.1914 0.970589 255 0 0 255
-0.126102 0.281045 2.088 0.150047 0.13356 0.979616 255 0 0 255
-0.12039 0.281053 2.088 0.20212 0.171837 0.964168 255 0 0 255
-0.114568 0.280791 2.086 0.308811 0.109852 0.944758 255 0 0 255
-0.108756 0.280529 2.084 0.205368 0.150324 0.967071 255 0 0 255
-0.103054 0.280535 2.084 0.206642 0.117734 0.971307 255 0 0 255
-0.097258 0.280272 2.082 0.233574 0.116985 0.965276 255 0 0 255
-0.091516 0.280144 2.081 0.289258 0.196553 0.936855 255 0 0 255
-0.085656 0.279611 2.077 0.178582 0.352 0.918806 255 0 0 255
-0.080009 0.279751 2.078 0.0437054 0.378691 0.924491 255 0 0 255
-0.07425 0.279486 2.076 0.0306576 0.347842 0.937052 255 0 0 255
-0.068601 0.279625 2.077 -0.147162 0.352961 0.923993 255 0 0 255
-0.062946 0.279764 2.078 -0.318178 0.442638 0.838353 255 0 0 255
-0.057367 0.280307 2.082 -0.310691 0.542823 0.780266 255 0 0 255
-0.051717 0.280579 2.084 -0.191201 0.57287 0.797033 255 0 0 255
-0.046034 0.280717 2.085 -0.161164 0.49747 0.852379 255 0 0 255
-0.040326 0.28072 2.085 -0.179223 0.295927 0.938246 255 0 0 255
-0.034634 0.280857 2.086 -0.178607 0.18657 0.96607 255 0 0 255
-0.028937 0.280993 2.087 -0.318269 0.197875 0.927119 255 0 0 255
-0.023256 0.281399 2.09 -0.600647 0.251154 0.759042 255 0 0 255
-0.017592 0.282343 2.097 -0.681029 0.184598 0.708607 255 0 0 255
-0.011879 0.283017 2.102 -0.573549 0.182187 0.798654 255 0 0 255
-0.006129 0.283287 2.104 -0.528736 0.08067 0.844944 255 0 0 255
-0.000369 0.283826 2.108 -0.562083 0.11782 0.818646 255 0 0 255
0.005413 0.284364 2.112 -0.667269 0.130607 0.733277 255 0 0 255
0.011233 0.285306 2.119 -0.651034 0.176469 0.73825 255 0 0 255
0.017051 0.285574 2.121 -0.489894 0.148505 0.85904 255 0 0 255
0.022912 0.286246 2.126 -0.240864 0.235158 0.94164 255 0 0 255
0.028706 0.285975 2.124 -0.0445907 0.264979 0.963223 255 0 0 255
0.034538 0.286108 2.125 -0.0637644 0.456423 0.887475 255 0 0 255
0.040356 0.286106 2.125 -0.148786 0.505702 0.849781 255 0 0 255
0.046195 0.286237 2.126 -0.394541 0.495493 0.773837 255 0 0 255
0.052162 0.287042 2.132 -0.748663 0.302736 0.589792 255 0 0 255
0.058217 0.288116 2.14 -0.801465 0.166473 0.574405 255 0 0 255
0.064344 0.289324 2.149 -0.758686 0.00733219 0.651415 255 0 0 255
0.07039 0.289992 2.154 -0.713067 -0.0274888 0.700557 255 0 0 255
0.07657 0.291065 2.162 -0.691271 0.0737487 0.718822 255 0 0 255
0.082793 0.292137 2.17 -0.923137 -0.277884 0.265702 255 0 0 255
0.088078 0.289977 2.154 0.860534 -0.0190294 0.509037 255 0 0 255
0.093536 0.288625 2.144 0.729895 0.406313 0.549694 255 0 0 255
0.099218 0.288081 2.14 0.471544 0.688606 0.55088 255 0 0 255
0.104927 0.287671 2.137 0.382227 0.769847 0.511114 255 0 0 255
0.110826 0.287798 2.138 0.126006 0.919361 0.37269 255 0 0 255
0.116622 0.287657 2.137 0.0207082 0.954097 0.298781 255 0 0 255
0.122468 0.287649 2.137 0.0111417 0.951323 0.307993 255 0 0 255
0.128314 0.287642 2.137 0.0195113 0.923651 0.382738 255 0 0 255
0.134223 0.287768 2.138 -0.082263 0.902146 0.423515 255 0 0 255
0.140202 0.288029 2.14 -0.0786663 0.706638 0.703188 255 0 0 255
0.146259 0.288424 2.143 -0.105308 0.414563 0.903907 255 0 0 255
0.15212 0.288414 2.143 0.00106059 0.206396 0.978468 255 0 0 255
0.157906 0.28827 2.142 -0.0129486 0.101051 0.994797 255 0 0 255
0.163686 0.288126 2.141 0.334988 -0.131417 0.933012 255 0 0 255
-0.11403 0.233933 2.32451 -0.716757 0.601506 -0.352776 255 255 0 255
-0.105158 0.232943 2.31766 0.173229 -0.594183 -0.785454 255 255 0 255
-0.085219 0.233876 2.31861 0.112981 -0.518842 -0.847371 255 255 0 255
-0.065315 0.234827 2.31965 -0.294737 -0.592287 -0.749884 255 255 0 255
-0.059901 0.233272 2.31055 -0.559989 -0.728582 -0.394437 255 255 0 255
-0.053641 0.231868 2.30206 -0.515226 -0.717357 -0.468978 255 255 0 255
-0.046539 0.230616 2.2942 -0.377134 -0.521501 -0.76538 255 255 0 255
-0.030967 0.230867 2.29246 -0.281796 -0.431101 -0.857171 255 255 0 255
-0.019655 0.23038 2.28772 -0.475496 -0.666556 -0.574114 255 255 0 255
-0.00836 0.229901 2.28303 -0.379844 -0.726451 -0.572702 255 255 0 255
0.003765 0.229582 2.279 -0.549043 -0.787682 -0.279477 255 255 0 255
0.009119 0.228059 2.27007 -0.549043 -0.787682 -0.279477 255 255 0 255
0.007723 0.225323 2.25617 -0.749214 -0.618598 -0.236676 255 255 0 255
0.008866 0.223039 2.24411 -0.845842 -0.483977 -0.224315 255 255 0 255
0.017586 0.222129 2.23768 -0.905078 -0.17172 -0.389032 255 255 0 255
0.017891 0.219692 2.22499 -0.947897 -0.116583 -0.296478 255 255 0 255
0.000573 0.214021 2.199 0.865218 -0.236618 -0.442051 255 255 0 255
0.038241 0.208436 2.16258 0.528821 -0.124683 -0.839525 255 255 0 255
0.07611 0.21303 2.17891 0.289026 0.0670448 -0.954971 255 255 0 255
0.108072 0.216564 2.19091 -0.844813 -0.179055 -0.504213 255 255 0 255
0.124161 0.217137 2.19068 -0.487392 -0.55936 -0.670497 255 255 0 255
0.124427 0.214724 2.17809 0.782234 0.601893 -0.160733 255 255 0 255
0.12553 0.212467 2.16614 -0.872439 -0.273293 -0.405168 255 255 0 255
-0.278792 0.165495 2.25751 -0.874281 0.146961 -0.46264 0 255 0 255
-0.277585 0.168016 2.26874 -0.856261 0.205266 -0.474008 0 255 0 255
