ply
format ascii 1.0
comment VCGLIB generated
element vertex 735
property float x
property float y
property float z
property float nx
property float ny
property float nz
property uchar red
property uchar green
property uchar blue
property uchar alpha
element face 0
property list uchar int vertex_indices
end_header
-0.076911 0.597035 2.007 0.628604 -0.777311 0.0254011 255 0 0 255
-0.072048 0.602098 2.024 0.627383 -0.778089 0.0311228 255 0 0 255
-0.067224 0.608351 2.045 -0.744332 0.660549 0.0982112 255 0 0 255
-0.062587 0.617578 2.076 -0.917261 0.358287 0.173962 255 0 0 255
-0.057369 0.622342 2.092 -0.321996 0.616078 0.718864 255 0 0 255
-0.051694 0.622644 2.093 -0.074288 0.576169 0.813948 255 0 0 255
-0.045947 0.622053 2.091 0.2607 0.273085 0.925991 255 0 0 255
-0.040326 0.623246 2.095 0.478084 0.402854 0.780477 255 0 0 255
-0.207376 0.622027 2.111 0.341161 -0.754841 0.560199 255 0 0 255
-0.197428 0.609077 2.067 0.819959 0.21454 0.530698 255 0 0 255
-0.190782 0.60585 2.056 -0.229233 0.363119 0.903104 255 0 0 255
-0.185275 0.606159 2.057 -0.196452 0.458589 0.866662 255 0 0 255
-0.179851 0.606762 2.059 -0.29367 0.37661 0.878591 255 0 0 255
-0.174414 0.607364 2.061 -0.0629581 0.590287 0.804735 255 0 0 255
-0.168476 0.606199 2.057 0.426511 0.668902 0.608817 255 0 0 255
-0.161925 0.602675 2.045 0.67795 0.701858 0.218586 255 0 0 255
-0.154904 0.597087 2.026 0.584532 0.811308 0.0100272 255 0 0 255
-0.147986 0.591499 2.007 -0.55142 -0.834221 0.00335548 255 0 0 255
-0.141314 0.5865 1.99 0.494273 0.86928 0.00675015 255 0 0 255
-0.135143 0.583269 1.979 0.461605 0.882372 0.0913292 255 0 0 255
-0.129229 0.580921 1.971 0.461817 0.678554 0.571217 255 0 0 255
-0.123672 0.580046 1.968 0.285923 0.596874 0.74966 255 0 0 255
-0.118192 0.579466 1.966 0.105244 0.638274 0.762581 255 0 0 255
-0.112894 0.57977 1.967 -0.129262 0.810401 0.571438 255 0 0 255
-0.107591 0.580074 1.968 -0.365673 0.766991 0.527264 255 0 0 255
-0.102438 0.581261 1.972 -0.511568 0.766918 0.387473 255 0 0 255
-0.097459 0.583627 1.98 -0.443109 0.892777 0.0812635 255 0 0 255
-0.09253 0.586582 1.99 -0.465842 0.884684 0.0180251 255 0 0 255
-0.08759 0.589832 2.001 0.51622 -0.856146 0.0230423 255 0 0 255
-0.082631 0.593376 2.013 0.561967 -0.825872 0.0461468 255 0 0 255
-0.077683 0.597509 2.027 0.590699 -0.805983 0.038289 255 0 0 255
-0.072659 0.601642 2.041 -0.651189 0.757516 0.0460642 255 0 0 255
-0.067624 0.606364 2.057 -0.87512 0.457085 0.158867 255 0 0 255
-0.062742 0.613444 2.081 -0.947131 0.159095 0.278626 255 0 0 255
-0.057483 0.61787 2.096 0.0983118 0.435558 0.894776 255 0 0 255
-0.051796 0.618169 2.097 0.238271 0.557417 0.795307 255 0 0 255
-0.04595 0.616405 2.091 0.720752 0.0838981 0.688097 255 0 0 255
-0.040156 0.614934 2.086 0.807248 0.0047984 0.590193 255 0 0 255
-0.212127 0.613388 2.101 0.341161 -0.754842 0.560199 255 0 0 255
-0.20523 0.6099 2.089 0.505259 -0.605114 0.615265 255 0 0 255
-0.197921 0.604951 2.072 0.771674 0.170188 0.612826 255 0 0 255
-0.19126 0.601754 2.061 0.591341 0.353421 0.724851 255 0 0 255
-0.185379 0.600892 2.058 0.156477 0.437363 0.885567 255 0 0 255
-0.179951 0.60149 2.06 -0.422924 0.325281 0.845771 255 0 0 255
-0.174597 0.602379 2.063 -0.167894 0.39065 0.905099 255 0 0 255
-0.168898 0.6021 2.062 0.341727 0.528409 0.777178 255 0 0 255
-0.162729 0.600069 2.055 0.74812 0.528591 0.401133 255 0 0 255
-0.156292 0.596869 2.044 0.683753 0.666023 0.298153 255 0 0 255
-0.149841 0.593376 2.032 0.581208 0.805985 0.112185 255 0 0 255
-0.143313 0.5893 2.018 0.433883 0.900961 0.00377851 255 0 0 255
-0.136998 0.585806 2.006 -0.384111 -0.920386 0.0731354 255 0 0 255
-0.130878 0.582896 1.996 -0.30439 -0.950147 0.0675779 255 0 0 255
-0.125002 0.580862 1.989 -0.174228 -0.980807 0.0875356 255 0 0 255
-0.119404 0.579995 1.986 -0.0799796 -0.994239 0.0713565 255 0 0 255
-0.113994 0.580005 1.986 0.0515381 -0.995946 0.0737226 255 0 0 255
-0.108693 0.580598 1.988 0.161126 -0.983744 0.0792842 255 0 0 255
-0.103433 0.581482 1.991 -0.302806 0.95304 0.00477021 255 0 0 255
-0.098353 0.583534 1.998 0.387691 -0.921595 0.0189495 255 0 0 255
-0.093514 0.587339 2.011 0.418955 -0.903143 0.0938629 255 0 0 255
-0.088692 0.591727 2.026 0.504631 -0.863173 0.0167432 255 0 0 255
-0.083623 0.594947 2.037 -0.55114 0.830114 0.0845921 255 0 0 255
-0.078379 0.59729 2.045 -0.587205 0.750595 0.302981 255 0 0 255
-0.073056 0.59934 2.052 -0.699742 0.638155 0.321121 255 0 0 255
-0.067892 0.603143 2.065 -0.84897 0.341576 0.403208 255 0 0 255
-0.062808 0.608406 2.083 -0.93647 0.0659083 0.344499 255 0 0 255
-0.057515 0.6125 2.097 -0.22296 0.278734 0.934129 255 0 0 255
-0.051924 0.613965 2.102 0.00383112 0.214079 0.976809 255 0 0 255
-0.046064 0.612216 2.096 0.651379 0.219264 0.72638 255 0 0 255
-0.04014 0.609007 2.085 0.825883 -0.083994 0.55755 255 0 0 255
-0.034474 0.609302 2.086 0.75546 -0.0278914 0.654601 255 0 0 255
-0.22294 0.605942 2.095 0.301103 -0.704793 0.642343 255 0 0 255
-0.216824 0.604801 2.091 0.338647 -0.692771 0.636699 255 0 0 255
-0.210527 0.603081 2.085 0.362349 -0.517605 0.775105 255 0 0 255
-0.20446 0.601939 2.081 0.574205 -0.419392 0.703135 255 0 0 255
-0.198126 0.59993 2.074 0.705866 0.114096 0.699096 255 0 0 255
-0.191738 0.59763 2.066 0.749001 0.27868 0.601112 255 0 0 255
-0.185573 0.595909 2.06 0.377126 0.262053 0.888315 255 0 0 255
-0.179965 0.595922 2.06 -0.404501 0.1894 0.894711 255 0 0 255
-0.174779 0.597382 2.065 -0.404106 0.169098 0.898946 255 0 0 255
-0.169157 0.597396 2.065 0.284996 0.30764 0.907819 255 0 0 255
-0.163217 0.596251 2.061 0.68446 0.417868 0.597412 255 0 0 255
-0.156993 0.593949 2.053 0.752266 0.505445 0.422637 255 0 0 255
-0.150885 0.591936 2.046 0.660302 0.543198 0.518591 255 0 0 255
-0.144674 0.589343 2.037 0.465842 0.806536 0.363992 255 0 0 255
-0.138648 0.587329 2.03 0.350298 0.923916 0.153852 255 0 0 255
-0.132725 0.585604 2.024 -0.249255 -0.968368 0.011625 255 0 0 255
-0.126834 0.583878 2.018 -0.177906 -0.984047 0.000466622 255 0 0 255
-0.121157 0.58302 2.015 -0.0691523 -0.997104 0.0316344 255 0 0 255
-0.115667 0.583029 2.015 -0.0217738 0.999165 0.0345629 255 0 0 255
-0.110178 0.583038 2.015 0.0962886 -0.994761 0.0343424 255 0 0 255
-0.104844 0.583915 2.018 0.221086 -0.972785 0.0693507 255 0 0 255
-0.099641 0.585659 2.024 0.283494 -0.958966 0.00395494 255 0 0 255
-0.094591 0.58856 2.034 -0.480476 0.864069 0.150095 255 0 0 255
-0.089399 0.590883 2.042 -0.565722 0.72312 0.396302 255 0 0 255
-0.084081 0.592626 2.048 -0.64822 0.643542 0.407019 255 0 0 255
-0.078731 0.594369 2.054 -0.65169 0.540351 0.53228 255 0 0 255
-0.073311 0.595822 2.059 -0.814635 0.379045 0.438969 255 0 0 255
-0.068095 0.5993 2.071 -0.926213 0.200608 0.319195 255 0 0 255
-0.062873 0.603357 2.085 -0.909093 -0.0556951 0.412854 255 0 0 255
-0.057492 0.606545 2.096 -0.54876 -0.229397 0.80389 255 0 0 255
-0.051904 0.607996 2.101 0.0354161 -0.0168973 0.99923 255 0 0 255
-0.04609 0.606842 2.097 0.382265 0.102544 0.918345 255 0 0 255
-0.040105 0.602795 2.083 0.729014 -0.195643 0.655944 255 0 0 255
-0.034328 0.601061 2.077 0.0838542 -0.583056 0.808093 255 0 0 255
-0.240632 0.601661 2.1 0.190913 -0.741486 0.643235 255 0 0 255
-0.234135 0.599672 2.093 0.180398 -0.719107 0.671075 255 0 0 255
-0.228112 0.598829 2.09 0.184575 -0.640618 0.745346 255 0 0 255
-0.222105 0.597986 2.087 0.261323 -0.599389 0.756599 255 0 0 255
-0.216218 0.597429 2.085 0.295039 -0.527855 0.796443 255 0 0 255
-0.210139 0.596299 2.081 0.337801 -0.369251 0.865762 255 0 0 255
-0.20418 0.595455 2.078 0.408919 -0.313953 0.856866 255 0 0 255
-0.198141 0.594324 2.074 0.652415 0.0604306 0.755449 255 0 0 255
-0.192031 0.592906 2.069 0.725333 0.186802 0.662569 255 0 0 255
-0.185768 0.590914 2.062 0.609369 0.168465 0.774783 255 0 0 255
-0.179979 0.590355 2.06 -0.127906 -0.0293108 0.991353 255 0 0 255
-0.174793 0.591801 2.065 -0.442541 -0.14049 0.885675 255 0 0 255
-0.169252 0.592101 2.066 -0.0158482 0.0125395 0.999796 255 0 0 255
-0.163467 0.591541 2.064 0.511822 0.256834 0.819802 255 0 0 255
-0.157234 0.58926 2.056 0.75735 0.377775 0.532642 255 0 0 255
-0.151192 0.587553 2.05 0.70299 0.447004 0.553165 255 0 0 255
-0.145111 0.585558 2.043 0.436513 0.660467 0.610934 255 0 0 255
-0.139478 0.585283 2.042 0.212833 0.85321 0.476167 255 0 0 255
-0.13385 0.585007 2.041 0.158281 0.841725 0.516184 255 0 0 255
-0.128164 0.584444 2.039 0.206561 0.650162 0.731179 255 0 0 255
-0.122549 0.584167 2.038 0.0608297 0.658858 0.749804 255 0 0 255
-0.11694 0.58389 2.037 -0.0173393 0.728589 0.684732 255 0 0 255
-0.111444 0.584186 2.038 -0.0961287 0.776804 0.622363 255 0 0 255
-0.105891 0.584194 2.038 -0.169447 0.841659 0.512736 255 0 0 255
-0.100388 0.584489 2.039 -0.296232 0.752765 0.58787 255 0 0 255
-0.095018 0.585644 2.043 -0.44873 0.708473 0.544708 255 0 0 255
-0.089669 0.587085 2.048 -0.5988 0.536031 0.595071 255 0 0 255
-0.084252 0.588238 2.052 -0.65415 0.447393 0.609859 255 0 0 255
-0.078814 0.589392 2.056 -0.637642 0.35183 0.685294 255 0 0 255
-0.073353 0.590545 2.06 -0.727285 0.388891 0.565527 255 0 0 255
-0.0681 0.593704 2.071 -0.906693 0.113634 0.406195 255 0 0 255
-0.062818 0.597149 2.083 -0.877244 -0.106743 0.468026 255 0 0 255
-0.057415 0.600021 2.093 -0.626628 -0.378513 0.681223 255 0 0 255
-0.051858 0.601745 2.099 -0.0577158 -0.30357 0.95106 255 0 0 255
-0.046049 0.600603 2.095 0.53119 -0.403286 0.745116 255 0 0 255
-0.04007 0.596593 2.081 0.591165 -0.395294 0.70304 255 0 0 255
-0.034249 0.594015 2.072 -0.0527469 -0.565195 0.823269 255 0 0 255
-0.028711 0.596312 2.08 -0.6132 -0.598278 0.515798 255 0 0 255
-0.023318 0.603481 2.105 -0.487015 -0.746329 0.453662 255 0 0 255
-0.250756 0.592826 2.089 0.180382 -0.700279 0.690703 255 0 0 255
-0.24472 0.591992 2.086 0.114663 -0.622211 0.774407 255 0 0 255
-0.23893 0.591726 2.085 0.0984619 -0.625721 0.773808 255 0 0 255
-0.233145 0.591459 2.084 0.0852365 -0.616406 0.782801 255 0 0 255
-0.227474 0.591476 2.084 0.132496 -0.550566 0.82421 255 0 0 255
-0.221696 0.591209 2.083 0.142461 -0.522409 0.84071 255 0 0 255
-0.215715 0.590374 2.08 0.298685 -0.400181 0.866396 255 0 0 255
-0.209852 0.589822 2.078 0.328546 -0.345947 0.878851 255 0 0 255
-0.203999 0.58927 2.076 0.439941 -0.233973 0.867011 255 0 0 255
-0.198252 0.589001 2.075 0.406063 -0.154813 0.900636 255 0 0 255
-0.192324 0.588164 2.072 0.622028 0.0594301 0.780737 255 0 0 255
-0.185962 0.585908 2.064 0.609207 0.222941 0.761028 255 0 0 255
-0.179905 0.584502 2.059 0.37928 -0.268739 0.885396 255 0 0 255
-0.174383 0.5848 2.06 -0.12881 -0.545791 0.827961 255 0 0 255
-0.169101 0.585949 2.064 -0.351848 -0.184659 0.917662 255 0 0 255
-0.163638 0.586529 2.066 0.294324 0.11398 0.948884 255 0 0 255
-0.157476 0.584555 2.059 0.720021 0.369218 0.587577 255 0 0 255
-0.151351 0.58258 2.052 0.673675 0.50808 0.536672 255 0 0 255
-0.145407 0.581172 2.047 0.468295 0.570503 0.674704 255 0 0 255
-0.139762 0.580899 2.046 0.26399 0.695692 0.668073 255 0 0 255
-0.134057 0.580342 2.044 0.267512 0.678478 0.684182 255 0 0 255
-0.128363 0.579785 2.042 0.213114 0.674606 0.706745 255 0 0 255
-0.12274 0.579511 2.041 0.009714 0.742415 0.66987 255 0 0 255
-0.117179 0.57952 2.041 -0.0900343 0.751429 0.653643 255 0 0 255
-0.111781 0.580381 2.044 -0.144641 0.773493 0.617081 255 0 0 255
-0.106212 0.58039 2.044 -0.0862879 0.70128 0.707645 255 0 0 255
-0.100691 0.580682 2.045 -0.206597 0.743472 0.636056 255 0 0 255
-0.095211 0.581258 2.047 -0.498206 0.553977 0.667009 255 0 0 255
-0.089764 0.582118 2.05 -0.576546 0.540656 0.612606 255 0 0 255
-0.084382 0.583545 2.055 -0.575104 0.455328 0.679655 255 0 0 255
-0.078897 0.584403 2.058 -0.58137 0.403052 0.706794 255 0 0 255
-0.07343 0.585545 2.062 -0.742451 0.342313 0.575837 255 0 0 255
-0.068106 0.588107 2.071 -0.872203 0.0594105 0.485523 255 0 0 255
-0.062793 0.591236 2.082 -0.839202 -0.176574 0.514355 255 0 0 255
-0.057337 0.593512 2.09 -0.59772 -0.403894 0.692532 255 0 0 255
-0.051739 0.594653 2.094 -0.0203163 -0.446467 0.894569 255 0 0 255
-0.045899 0.592953 2.088 0.610901 -0.457738 0.645969 255 0 0 255
-0.039957 0.589265 2.075 0.426125 -0.386097 0.818136 255 0 0 255
-0.034169 0.586996 2.067 -0.484256 -0.365491 0.794929 255 0 0 255
-0.028617 0.588703 2.073 -0.514805 -0.318292 0.796031 255 0 0 255
-0.023165 0.593816 2.091 -0.656574 -0.549476 0.516708 255 0 0 255
-0.017549 0.596658 2.101 -0.375754 -0.663647 0.646824 255 0 0 255
-0.011855 0.598363 2.107 -0.379298 -0.760405 0.527179 255 0 0 255
-0.006146 0.601772 2.119 -0.369103 -0.773725 0.514891 255 0 0 255
-0.268976 0.589651 2.098 0.31975 -0.707712 0.630002 255 0 0 255
-0.26214 0.587141 2.089 0.323392 -0.637954 0.698879 255 0 0 255
-0.255966 0.586035 2.085 0.265513 -0.573277 0.775149 255 0 0 255
-0.249933 0.58521 2.082 0.167008 -0.531668 0.830324 255 0 0 255
-0.244269 0.585228 2.082 0.110268 -0.475207 0.872937 255 0 0 255
-0.238489 0.584964 2.081 0.113049 -0.493525 0.862353 255 0 0 255
-0.232826 0.584982 2.081 0.1049 -0.515451 0.850474 255 0 0 255
-0.226945 0.584436 2.079 0.0705853 -0.573069 0.816462 255 0 0 255
-0.221286 0.584453 2.079 0.109013 -0.599763 0.792717 255 0 0 255
-0.215628 0.584469 2.079 0.12978 -0.547775 0.826498 255 0 0 255
-0.209767 0.583923 2.077 0.242668 -0.43111 0.869055 255 0 0 255
-0.203719 0.582814 2.073 0.246753 -0.394894 0.88497 255 0 0 255
-0.197789 0.581986 2.07 0.315588 -0.22813 0.921065 255 0 0 255
-0.192246 0.582282 2.071 0.480519 -0.191547 0.85581 255 0 0 255
-0.185976 0.580328 2.064 0.716325 -0.134609 0.684659 255 0 0 255
-0.179657 0.578093 2.056 0.250574 -0.441587 0.861518 255 0 0 255
-0.173889 0.577544 2.054 -0.105482 -0.530032 0.841392 255 0 0 255
-0.168868 0.579526 2.061 -0.462416 -0.381345 0.800467 255 0 0 255
-0.16373 0.581226 2.067 0.165257 0.121932 0.978684 255 0 0 255
-0.157871 0.580395 2.064 0.417919 0.330011 0.846426 255 0 0 255
-0.151806 0.57872 2.058 0.645481 0.466456 0.604792 255 0 0 255
-0.145845 0.577326 2.053 0.424657 0.642356 0.638 255 0 0 255
-0.140115 0.576775 2.051 0.227313 0.780775 0.581996 255 0 0 255
-0.134396 0.576223 2.049 0.264213 0.761712 0.591597 255 0 0 255
-0.128751 0.575952 2.048 0.199965 0.748991 0.631685 255 0 0 255
-0.12305 0.5754 2.046 0.027733 0.730139 0.682735 255 0 0 255
-0.117532 0.575691 2.047 -0.16879 0.637047 0.752118 255 0 0 255
-0.112009 0.575981 2.048 -0.153554 0.575278 0.803415 255 0 0 255
-0.106428 0.57599 2.048 -0.0979425 0.546408 0.831773 255 0 0 255
-0.100896 0.57628 2.049 -0.208832 0.541501 0.81435 255 0 0 255
-0.095405 0.57685 2.051 -0.441364 0.513236 0.736061 255 0 0 255
-0.089947 0.577702 2.054 -0.593877 0.457003 0.662162 255 0 0 255
-0.084513 0.578834 2.058 -0.598243 0.475002 0.645351 255 0 0 255
-0.079018 0.579684 2.061 -0.559292 0.532295 0.635496 255 0 0 255
-0.073579 0.581097 2.066 -0.690992 0.372846 0.619286 255 0 0 255
-0.068144 0.58279 2.072 -0.786796 0.147564 0.599314 255 0 0 255
-0.062738 0.585046 2.08 -0.784259 -0.140681 0.604273 255 0 0 255
-0.057287 0.587301 2.088 -0.490778 -0.314381 0.812589 255 0 0 255
-0.051645 0.587868 2.09 -0.0827557 -0.555752 0.827219 255 0 0 255
-0.045727 0.585059 2.08 0.685377 -0.467234 0.558526 255 0 0 255
-0.039845 0.581969 2.069 0.472671 -0.56368 0.677382 255 0 0 255
-0.034155 0.581128 2.066 -0.423492 -0.466376 0.776626 255 0 0 255
-0.028633 0.583381 2.074 -0.764993 -0.154038 0.625346 255 0 0 255
-0.023123 0.58704 2.087 -0.581254 -0.171513 0.795442 255 0 0 255
-0.017475 0.588448 2.092 -0.311419 -0.531766 0.787555 255 0 0 255
-0.011788 0.589293 2.095 -0.326677 -0.652501 0.683758 255 0 0 255
-0.006091 0.5907 2.1 -0.321342 -0.720384 0.614643 255 0 0 255
-0.000367 0.592107 2.105 -0.327776 -0.778058 0.5359 255 0 0 255
0.005393 0.594357 2.113 -0.349225 -0.785278 0.511253 255 0 0 255
-0.279605 0.582269 2.092 0.201415 -0.743937 0.637174 255 0 0 255
-0.273523 0.581453 2.089 0.206003 -0.729441 0.652288 255 0 0 255
-0.267456 0.580637 2.086 0.255434 -0.64542 0.719852 255 0 0 255
-0.261405 0.579821 2.083 0.2576 -0.576542 0.775397 255 0 0 255
-0.255248 0.578726 2.079 0.121623 -0.494975 0.860353 255 0 0 255
-0.249591 0.578744 2.079 0.0616603 -0.434545 0.898537 255 0 0 255
-0.243935 0.578762 2.079 0.0630438 -0.373064 0.925661 255 0 0 255
-0.238163 0.578502 2.078 0.197209 -0.456323 0.867685 255 0 0 255
-0.232172 0.577684 2.075 0.26251 -0.511329 0.81831 255 0 0 255
-0.226307 0.577144 2.073 0.223582 -0.586311 0.778621 255 0 0 255
-0.220451 0.576604 2.071 0.0679597 -0.627979 0.775257 255 0 0 255
-0.214918 0.576899 2.072 0.0260765 -0.615565 0.787654 255 0 0 255
-0.209277 0.576915 2.072 0.0650309 -0.495266 0.866304 255 0 0 255
-0.203538 0.576652 2.071 0.185969 -0.418223 0.889104 255 0 0 255
-0.197709 0.57611 2.069 0.16625 -0.286965 0.943404 255 0 0 255
-0.192075 0.576125 2.069 0.431487 -0.324079 0.841898 255 0 0 255
-0.18563 0.573634 2.06 0.75103 -0.235698 0.616766 255 0 0 255
-0.179146 0.570863 2.05 0.435328 -0.379554 0.816351 255 0 0 255
-0.173394 0.57032 2.048 -0.460203 -0.284713 0.840923 255 0 0 255
-0.168554 0.57284 2.057 -0.679478 -0.383093 0.625739 255 0 0 255
-0.163664 0.575359 2.066 -0.533695 -0.205776 0.82026 255 0 0 255
-0.158113 0.57565 2.067 0.465524 0.144071 0.87323 255 0 0 255
-0.152039 0.573992 2.061 0.61601 0.301769 0.727645 255 0 0 255
-0.146211 0.573168 2.058 0.383475 0.532703 0.754436 255 0 0 255
-0.140536 0.572901 2.057 0.21445 0.677717 0.703357 255 0 0 255
-0.1348 0.572355 2.055 0.25583 0.724258 0.640313 255 0 0 255
-0.129012 0.57153 2.052 0.260545 0.753546 0.60356 255 0 0 255
-0.12324 0.570704 2.049 0.132702 0.773261 0.620046 255 0 0 255
-0.117657 0.570714 2.049 0.0373915 0.745319 0.665659 255 0 0 255
-0.112128 0.571002 2.05 0.0315039 0.623742 0.780995 255 0 0 255
-0.106489 0.570732 2.049 -0.118792 0.606846 0.785892 255 0 0 255
-0.101052 0.571576 2.052 -0.272594 0.470832 0.839053 255 0 0 255
-0.095506 0.571863 2.053 -0.409603 0.427211 0.80605 255 0 0 255
-0.090129 0.573263 2.058 -0.579513 0.316592 0.750955 255 0 0 255
-0.084684 0.574385 2.062 -0.620598 0.324246 0.713949 255 0 0 255
-0.079255 0.575784 2.067 -0.640008 0.290669 0.711267 255 0 0 255
-0.073727 0.576626 2.07 -0.62339 0.275593 0.731733 255 0 0 255
-0.06815 0.577189 2.072 -0.627296 0.211661 0.749466 255 0 0 255
-0.062682 0.578866 2.078 -0.675924 -0.0981336 0.730408 255 0 0 255
-0.057182 0.580543 2.084 -0.487009 -0.348027 0.801061 255 0 0 255
-0.051501 0.580547 2.084 0.111234 -0.671611 0.732506 255 0 0 255
-0.045577 0.577487 2.073 0.709108 -0.422717 0.564337 255 0 0 255
-0.039733 0.574705 2.063 0.460589 -0.389023 0.797821 255 0 0 255
-0.034125 0.574986 2.064 -0.100032 -0.438045 0.89337 255 0 0 255
-0.028649 0.578053 2.075 -0.880213 -0.00970717 0.474479 255 0 0 255
-0.023114 0.58112 2.086 -0.468641 -0.348188 0.811875 255 0 0 255
-0.017451 0.581957 2.089 -0.204383 -0.422114 0.883203 255 0 0 255
-0.01175 0.58168 2.088 -0.150877 -0.54235 0.826494 255 0 0 255
-0.006066 0.582516 2.091 -0.201896 -0.646109 0.736058 255 0 0 255
-0.000365 0.583074 2.093 -0.315484 -0.684577 0.657134 255 0 0 255
0.005362 0.585302 2.101 -0.334431 -0.738476 0.585499 255 0 0 255
0.011107 0.586137 2.104 -0.327803 -0.751425 0.57263 255 0 0 255
0.016907 0.588365 2.112 -0.314053 -0.763503 0.564299 255 0 0 255
-0.290029 0.574641 2.085 0.16889 -0.77045 0.614722 255 0 0 255
-0.28395 0.573835 2.082 0.0961232 -0.75444 0.649293 255 0 0 255
-0.278155 0.573579 2.081 0.114332 -0.709924 0.694936 255 0 0 255
-0.272495 0.573598 2.081 0.139637 -0.685622 0.71444 255 0 0 255
-0.266449 0.57279 2.078 0.137556 -0.619089 0.77318 255 0 0 255
-0.260671 0.572534 2.077 0.131423 -0.551801 0.823555 255 0 0 255
-0.254898 0.572277 2.076 0.0136309 -0.46761 0.88383 255 0 0 255
-0.249369 0.572571 2.077 -0.0202869 -0.448214 0.893696 255 0 0 255
-0.243835 0.572864 2.078 0.0771409 -0.44583 0.891788 255 0 0 255
-0.237836 0.572055 2.075 0.279433 -0.433908 0.856529 255 0 0 255
-0.231742 0.57097 2.071 0.297785 -0.430868 0.851866 255 0 0 255
-0.225887 0.570435 2.069 0.211532 -0.447026 0.86915 255 0 0 255
-0.219936 0.569625 2.066 0.111158 -0.49159 0.863703 255 0 0 255
-0.214519 0.570193 2.068 -0.0503231 -0.533069 0.844574 255 0 0 255
-0.208788 0.569933 2.067 -0.101516 -0.502135 0.85881 255 0 0 255
-0.203357 0.5705 2.069 0.0075559 -0.415903 0.909378 255 0 0 255
-0.197533 0.569964 2.067 0.0948315 -0.318405 0.9432 255 0 0 255
-0.191904 0.569979 2.067 0.480235 -0.248705 0.841142 255 0 0 255
-0.185554 0.567788 2.059 0.759808 -0.187879 0.622409 255 0 0 255
-0.179073 0.565044 2.049 0.582469 0.0245949 0.812481 255 0 0 255
-0.173323 0.564507 2.047 -0.390572 -0.261172 0.882747 255 0 0 255
-0.168403 0.566726 2.055 -0.74987 -0.227561 0.621217 255 0 0 255
-0.163518 0.569221 2.064 -0.563319 -0.253336 0.786443 255 0 0 255
-0.158049 0.569786 2.066 0.125141 -0.0169417 0.991994 255 0 0 255
-0.152199 0.568971 2.063 0.490609 0.321292 0.809984 255 0 0 255
-0.146365 0.568155 2.06 0.22096 0.49494 0.840364 255 0 0 255
-0.140752 0.568167 2.06 0.119454 0.562469 0.818143 255 0 0 255
-0.135074 0.567902 2.059 0.255975 0.603941 0.754806 255 0 0 255
-0.1294 0.567637 2.058 0.311782 0.652312 0.690856 255 0 0 255
-0.123732 0.567371 2.057 0.213373 0.725069 0.654788 255 0 0 255
-0.118068 0.567105 2.056 0.116865 0.70633 0.698169 255 0 0 255
-0.11241 0.566839 2.055 0.00996587 0.721443 0.692402 255 0 0 255
-0.106757 0.566572 2.054 -0.0293382 0.548166 0.835855 255 0 0 255
-0.101257 0.567132 2.056 -0.219547 0.443455 0.868992 255 0 0 255
-0.095653 0.56714 2.056 -0.389199 0.380174 0.839042 255 0 0 255
-0.09018 0.567975 2.059 -0.559983 0.235755 0.794254 255 0 0 255
-0.084691 0.56881 2.062 -0.618728 0.201359 0.759362 255 0 0 255
-0.079261 0.570196 2.067 -0.601221 0.0816326 0.794902 255 0 0 255
-0.073769 0.571306 2.071 -0.574487 0.147991 0.805024 255 0 0 255
-0.068254 0.572415 2.075 -0.557706 0.128394 0.820048 255 0 0 255
-0.062688 0.573248 2.078 -0.61818 0.0278607 0.785542 255 0 0 255
-0.057159 0.574633 2.083 -0.370175 -0.193974 0.908485 255 0 0 255
-0.051406 0.57381 2.08 0.312575 -0.435761 0.844043 255 0 0 255
-0.045493 0.570779 2.069 0.687871 -0.440235 0.577084 255 0 0 255
-0.039659 0.568024 2.059 0.231145 -0.474408 0.849417 255 0 0 255
-0.034095 0.568854 2.062 -0.567758 -0.200725 0.798348 255 0 0 255
-0.028679 0.572995 2.077 -0.824859 -0.203012 0.527631 255 0 0 255
-0.023116 0.57548 2.086 -0.535634 -0.354437 0.766466 255 0 0 255
-0.017436 0.575758 2.087 0.00314654 -0.438195 0.898874 255 0 0 255
-0.011734 0.575207 2.085 0.0104094 -0.535275 0.844614 255 0 0 255
-0.006049 0.575208 2.085 -0.0255169 -0.604432 0.796248 255 0 0 255
-0.000363 0.575484 2.086 -0.203636 -0.627918 0.751167 255 0 0 255
0.005337 0.576863 2.091 -0.310968 -0.685999 0.657802 255 0 0 255
0.011055 0.57769 2.094 -0.31607 -0.710165 0.629099 255 0 0 255
0.016797 0.578793 2.098 -0.254883 -0.727686 0.636794 255 0 0 255
0.02256 0.579895 2.102 -0.235155 -0.758648 0.607582 255 0 0 255
0.028332 0.58072 2.105 -0.287594 -0.786214 0.546953 255 0 0 255
-0.300954 0.568142 2.082 0.381875 -0.651837 0.655195 255 0 0 255
-0.294443 0.566525 2.076 0.278071 -0.636241 0.719634 255 0 0 255
-0.288241 0.565453 2.072 0.221279 -0.60572 0.76429 255 0 0 255
-0.282743 0.565746 2.073 0.10005 -0.680045 0.726312 255 0 0 255
-0.277105 0.565766 2.073 0.0109052 -0.691842 0.721966 255 0 0 255
-0.271597 0.566059 2.074 0.01634 -0.69276 0.720983 255 0 0 255
-0.265827 0.565805 2.073 0.0166034 -0.65174 0.758261 255 0 0 255
-0.260188 0.565824 2.073 -0.0213876 -0.57449 0.818232 255 0 0 255
-0.254425 0.56557 2.072 -0.0547256 -0.498766 0.865007 255 0 0 255
-0.248907 0.565861 2.073 -0.0670916 -0.447383 0.891823 255 0 0 255
-0.243266 0.565879 2.073 0.0614066 -0.454262 0.888749 255 0 0 255
-0.237396 0.565351 2.071 0.253708 -0.253762 0.933401 255 0 0 255
-0.231423 0.564549 2.068 0.32052 -0.263355 0.909896 255 0 0 255
-0.225685 0.564294 2.067 0.342173 -0.161773 0.925606 255 0 0 255
-0.219739 0.563491 2.064 0.245233 -0.245293 0.937919 255 0 0 255
-0.214017 0.563235 2.063 -0.0320235 -0.419213 0.907323 255 0 0 255
-0.2084 0.563251 2.063 -0.092208 -0.490902 0.866322 255 0 0 255
-0.203176 0.564359 2.067 -0.0551419 -0.493027 0.868265 255 0 0 255
-0.197452 0.564101 2.066 0.0476627 -0.503998 0.862388 255 0 0 255
-0.191641 0.56357 2.064 0.377841 -0.368819 0.84924 255 0 0 255
-0.185479 0.561946 2.058 0.731965 -0.0985822 0.674173 255 0 0 255
-0.179087 0.559503 2.049 0.495089 -0.0330939 0.868212 255 0 0 255
-0.173252 0.558698 2.046 -0.00684614 -0.0967237 0.995288 255 0 0 255
-0.16817 0.56035 2.052 -0.739781 -0.167349 0.651704 255 0 0 255
-0.163373 0.563094 2.062 -0.697023 -0.156127 0.699845 255 0 0 255
-0.158138 0.564472 2.067 -0.0461047 0.0129964 0.998852 255 0 0 255
-0.152359 0.563938 2.065 0.254051 0.35853 0.898284 255 0 0 255
-0.146661 0.563677 2.064 0.209037 0.444226 0.871187 255 0 0 255
-0.141037 0.563689 2.064 0.134257 0.394444 0.909059 255 0 0 255
-0.135413 0.5637 2.064 0.225039 0.329025 0.917115 255 0 0 255
-0.129662 0.563164 2.062 0.20391 0.313695 0.92737 255 0 0 255
-0.123982 0.562901 2.061 0.196719 0.32141 0.926281 255 0 0 255
-0.11825 0.562365 2.059 0.211925 0.415773 0.884432 255 0 0 255
-0.112584 0.562101 2.058 0.185675 0.37678 0.907503 255 0 0 255
-0.106922 0.561837 2.057 0.127372 0.348631 0.928565 255 0 0 255
-0.101266 0.561573 2.056 -0.158782 0.294607 0.942335 255 0 0 255
-0.095754 0.562127 2.058 -0.33111 0.368095 0.868834 255 0 0 255
-0.090232 0.562681 2.06 -0.432321 0.264767 0.861973 255 0 0 255
-0.08478 0.563781 2.064 -0.55446 0.148335 0.818884 255 0 0 255
-0.079268 0.564607 2.067 -0.621492 0.149635 0.768997 255 0 0 255
-0.073775 0.565706 2.071 -0.666227 0.160341 0.728308 255 0 0 255
-0.068293 0.567078 2.076 -0.546538 0.237897 0.802933 255 0 0 255
-0.062663 0.567356 2.077 -0.342252 -0.0523231 0.93815 255 0 0 255
-0.057082 0.568181 2.08 -0.0166362 -0.187166 0.982187 255 0 0 255
-0.051237 0.566273 2.073 0.642984 -0.406132 0.649329 255 0 0 255
-0.045365 0.563546 2.063 0.566581 -0.513166 0.644707 255 0 0 255
-0.039585 0.561364 2.055 -0.11034 -0.49016 0.864621 255 0 0 255
-0.034064 0.562733 2.06 -0.661373 -0.279972 0.695846 255 0 0 255
-0.02864 0.56656 2.074 -0.722392 -0.333743 0.605612 255 0 0 255
-0.023073 0.568747 2.082 -0.505648 -0.41643 0.755583 255 0 0 255
-0.017396 0.568749 2.082 0.0545543 -0.528558 0.847143 255 0 0 255
-0.011712 0.568477 2.081 0.0908877 -0.500052 0.861213 255 0 0 255
-0.006035 0.568205 2.08 0.0350894 -0.503819 0.863096 255 0 0 255
-0.000362 0.568205 2.08 -0.0961713 -0.513896 0.852445 255 0 0 255
0.005317 0.569024 2.083 -0.242966 -0.602973 0.759862 255 0 0 255
0.011014 0.569843 2.086 -0.286197 -0.640868 0.712305 255 0 0 255
0.016734 0.570935 2.09 -0.239531 -0.67204 0.700705 255 0 0 255
0.022455 0.571479 2.092 -0.234803 -0.701642 0.67273 255 0 0 255
0.028187 0.572024 2.094 -0.185144 -0.717335 0.671679 255 0 0 255
0.033945 0.572841 2.097 -0.222125 -0.72941 0.64701 255 0 0 255
0.03972 0.573657 2.1 -0.340111 -0.754353 0.561494 255 0 0 255
0.045706 0.576931 2.112 -0.384339 -0.759891 0.524261 255 0 0 255
-0.315746 0.56868 2.105 0.514879 -0.716758 0.470274 255 0 0 255
-0.306783 0.562758 2.083 0.448645 -0.615655 0.647832 255 0 0 255
-0.299819 0.560347 2.074 0.373576 -0.537199 0.756213 255 0 0 255
-0.294038 0.560098 2.073 0.301879 -0.447738 0.841665 255 0 0 255
-0.287705 0.558767 2.068 0.322144 -0.403458 0.856414 255 0 0 255
-0.281944 0.558517 2.067 0.171095 -0.548227 0.818642 255 0 0 255
-0.276055 0.557996 2.065 0.144261 -0.585238 0.797925 255 0 0 255
-0.270307 0.557746 2.064 -0.0087634 -0.545863 0.837829 255 0 0 255
-0.264949 0.558305 2.066 -0.156652 -0.599594 0.784823 255 0 0 255
-0.259454 0.558595 2.067 -0.219001 -0.534607 0.816232 255 0 0 255
-0.254198 0.559424 2.07 -0.196626 -0.40392 0.893413 255 0 0 255
-0.248685 0.559713 2.071 -0.139076 -0.18162 0.973485 255 0 0 255
-0.24305 0.559731 2.071 0.0569695 -0.157254 0.985914 255 0 0 255
-0.237184 0.559208 2.069 0.347326 -0.0605412 0.935788 255 0 0 255
-0.231329 0.558685 2.067 0.280177 -0.0391403 0.95915 255 0 0 255
-0.225593 0.558432 2.066 0.310529 0.0122284 0.950485 255 0 0 255
-0.21965 0.557638 2.063 0.376466 -0.0110402 0.926365 255 0 0 255
-0.213929 0.557384 2.062 0.201646 -0.204939 0.957778 255 0 0 255
-0.208113 0.55686 2.06 0.056523 -0.44174 0.895361 255 0 0 255
-0.202602 0.557146 2.061 0.000601661 -0.531285 0.847193 255 0 0 255
-0.196894 0.556891 2.06 0.0568548 -0.522701 0.850618 255 0 0 255
-0.191284 0.556906 2.06 0.198396 -0.440595 0.875508 255 0 0 255
-0.185493 0.55638 2.058 0.55733 -0.245013 0.793317 255 0 0 255
-0.179276 0.554502 2.051 0.580668 0.0545863 0.812309 255 0 0 255
-0.173266 0.553164 2.046 0.137921 -0.128081 0.982127 255 0 0 255
-0.167938 0.553989 2.049 -0.630736 -0.24302 0.736963 255 0 0 255
-0.163148 0.556706 2.059 -0.791928 -0.263831 0.550675 255 0 0 255
-0.158074 0.558611 2.066 -0.441373 -0.083406 0.893439 255 0 0 255
-0.152592 0.559164 2.068 -0.0601309 0.212498 0.97531 255 0 0 255
-0.146886 0.558906 2.067 0.15236 0.272362 0.950055 255 0 0 255
-0.141117 0.558377 2.065 0.223592 0.259422 0.939525 255 0 0 255
-0.135424 0.558118 2.064 0.250849 0.164544 0.953939 255 0 0 255
-0.129673 0.557588 2.062 0.228243 0.144663 0.962797 255 0 0 255
-0.124113 0.557868 2.063 0.12551 0.105494 0.986467 255 0 0 255
-0.118375 0.557338 2.061 0.19427 0.23931 0.95131 255 0 0 255
-0.112757 0.557347 2.061 0.185063 0.297798 0.936519 255 0 0 255
-0.107035 0.556815 2.059 0.185216 0.29811 0.93639 255 0 0 255
-0.101373 0.556553 2.058 -0.224699 0.339352 0.913428 255 0 0 255
-0.095902 0.557373 2.061 -0.427436 0.406819 0.807339 255 0 0 255
-0.090327 0.557651 2.062 -0.403516 0.434 0.805493 255 0 0 255
-0.084787 0.558199 2.064 -0.478853 0.353427 0.80361 255 0 0 255
-0.079313 0.559288 2.068 -0.56692 0.212528 0.795885 255 0 0 255
-0.073852 0.560646 2.073 -0.654317 0.152586 0.740666 255 0 0 255
-0.068397 0.562275 2.079 -0.472951 0.0904458 0.876434 255 0 0 255
-0.062758 0.562551 2.08 0.0383974 -0.164649 0.985605 255 0 0 255
-0.057032 0.562015 2.078 0.223552 -0.123634 0.966819 255 0 0 255
-0.051093 0.559045 2.067 0.725869 -0.425176 0.540684 255 0 0 255
-0.045193 0.555803 2.055 0.405567 -0.556525 0.725117 255 0 0 255
-0.039492 0.554454 2.05 -0.451322 -0.368118 0.812895 255 0 0 255
-0.034034 0.556621 2.058 -0.69984 -0.258088 0.666044 255 0 0 255
-0.028587 0.559869 2.07 -0.739109 -0.382757 0.55427 255 0 0 255
-0.02302 0.561765 2.077 -0.384968 -0.520005 0.762492 255 0 0 255
-0.017364 0.562037 2.078 -0.0576746 -0.588469 0.80646 255 0 0 255
-0.011697 0.562038 2.078 -0.0239789 -0.509396 0.860198 255 0 0 255
-0.006029 0.562039 2.078 -0.0145967 -0.429773 0.902819 255 0 0 255
-0.000362 0.561769 2.077 -0.078182 -0.398884 0.913662 255 0 0 255
0.005305 0.562039 2.078 -0.144412 -0.347693 0.926421 255 0 0 255
0.010983 0.562579 2.08 -0.29472 -0.411524 0.862431 255 0 0 255
0.016679 0.56339 2.083 -0.259433 -0.547823 0.795352 255 0 0 255
0.022382 0.563929 2.085 -0.19442 -0.60169 0.774706 255 0 0 255
0.028095 0.564468 2.087 -0.160496 -0.638642 0.75258 255 0 0 255
0.033819 0.565006 2.089 -0.184313 -0.670412 0.718732 255 0 0 255
0.039534 0.565273 2.09 -0.298796 -0.679327 0.67025 255 0 0 255
0.045364 0.566893 2.096 -0.395869 -0.703659 0.590044 255 0 0 255
-0.319046 0.558684 2.089 0.59206 -0.658063 0.465208 255 0 0 255
-0.311267 0.554961 2.075 0.394901 -0.607354 0.689329 255 0 0 255
-0.305479 0.554715 2.074 0.263518 -0.594337 0.759817 255 0 0 255
-0.299406 0.553933 2.071 0.170689 -0.460801 0.870935 255 0 0 255
-0.293633 0.553686 2.07 0.310553 -0.353332 0.882447 255 0 0 255
-0.287447 0.552637 2.066 0.369817 -0.33759 0.865603 255 0 0 255
-0.281555 0.552122 2.064 0.329631 -0.300687 0.894947 255 0 0 255
-0.27554 0.551339 2.061 0.14054 -0.410126 0.901136 255 0 0 255
-0.269803 0.551091 2.06 -0.100763 -0.314029 0.944051 255 0 0 255
-0.264455 0.551646 2.062 -0.223813 -0.362227 0.90482 255 0 0 255
-0.259096 0.5522 2.064 -0.375411 -0.327319 0.867138 255 0 0 255
-0.253971 0.553289 2.068 -0.387702 -0.248301 0.887712 255 0 0 255
-0.248704 0.55411 2.071 -0.162352 -0.165003 0.972839 255 0 0 255
-0.243068 0.554128 2.071 -0.0227788 -0.0140654 0.999642 255 0 0 255
-0.237316 0.553879 2.07 0.250012 0.0524672 0.96682 255 0 0 255
-0.231346 0.553093 2.067 0.257211 0.0544169 0.964822 255 0 0 255
-0.225719 0.553111 2.067 0.287327 0.033623 0.957242 255 0 0 255
-0.219773 0.552325 2.064 0.42127 0.0595992 0.904975 255 0 0 255
-0.213842 0.551539 2.061 0.397802 -0.0173973 0.917306 255 0 0 255
-0.207927 0.550752 2.058 0.25556 -0.128706 0.958188 255 0 0 255
-0.202225 0.5505 2.057 0.12108 -0.179751 0.976232 255 0 0 255
-0.196623 0.550516 2.057 0.0992901 -0.335615 0.936752 255 0 0 255
-0.19102 0.550531 2.057 0.0626513 -0.315665 0.9468 255 0 0 255
-0.185327 0.550278 2.056 0.40685 -0.11219 0.90658 255 0 0 255
-0.179203 0.548687 2.05 0.671785 -0.0370842 0.739818 255 0 0 255
-0.173195 0.547362 2.045 0.38518 -0.205646 0.899636 255 0 0 255
-0.167705 0.547643 2.046 -0.435103 -0.35424 0.827768 255 0 0 255
-0.162844 0.550066 2.055 -0.750622 -0.368422 0.548482 255 0 0 255
-0.157933 0.552488 2.064 -0.605086 -0.301638 0.736808 255 0 0 255
-0.152678 0.553838 2.069 -0.153293 -0.0605203 0.986326 255 0 0 255
-0.146969 0.553583 2.068 0.246626 0.0181174 0.968941 255 0 0 255
-0.141128 0.552791 2.065 0.284989 -0.000338234 0.958531 255 0 0 255
-0.135435 0.552535 2.064 0.232677 0.0413055 0.971677 255 0 0 255
-0.129683 0.55201 2.062 0.13525 0.136582 0.981353 255 0 0 255
-0.124003 0.551753 2.061 -0.0296264 0.182839 0.982696 255 0 0 255
-0.118442 0.552031 2.062 0.0698133 0.245202 0.966955 255 0 0 255
-0.112712 0.551505 2.06 0.185361 0.331477 0.925075 255 0 0 255
-0.107096 0.551514 2.06 0.128982 0.382529 0.914896 255 0 0 255
-0.10143 0.551255 2.059 -0.275479 0.4668 0.840362 255 0 0 255
-0.096049 0.552602 2.064 -0.434229 0.393291 0.810412 255 0 0 255
-0.090509 0.553145 2.066 -0.333859 0.380944 0.862218 255 0 0 255
-0.084999 0.553955 2.069 -0.362526 0.348724 0.864272 255 0 0 255
-0.079396 0.55423 2.07 -0.496247 0.189901 0.847158 255 0 0 255
-0.073894 0.555307 2.074 -0.594691 0.00467685 0.80394 255 0 0 255
-0.068337 0.556117 2.077 -0.359037 -0.188865 0.914014 255 0 0 255
-0.062673 0.556122 2.077 0.04298 -0.280471 0.9589 255 0 0 255
-0.056899 0.555056 2.073 0.522791 -0.419917 0.741862 255 0 0 255
-0.050949 0.551848 2.061 0.751729 -0.417143 0.510779 255 0 0 255
-0.045087 0.548906 2.05 0.489103 -0.50107 0.713937 255 0 0 255
-0.039419 0.547839 2.046 -0.393097 -0.370219 0.841672 255 0 0 255
-0.033987 0.550252 2.055 -0.752772 -0.195295 0.628645 255 0 0 255
-0.028535 0.5532 2.066 -0.707808 -0.210932 0.674178 255 0 0 255
-0.022944 0.554273 2.07 -0.311531 -0.514962 0.7986 255 0 0 255
-0.017315 0.55481 2.072 -0.1652 -0.52311 0.836101 255 0 0 255
-0.011669 0.555079 2.073 -0.116549 -0.439486 0.890656 255 0 0 255
-0.006021 0.555615 2.075 -0.0871043 -0.362743 0.927809 255 0 0 255
-0.000362 0.555616 2.075 -0.150876 -0.275005 0.949531 255 0 0 255
0.005303 0.556151 2.077 -0.197085 -0.244217 0.949482 255 0 0 255
0.010968 0.55615 2.077 -0.314777 -0.200253 0.927801 255 0 0 255
0.016665 0.55722 2.081 -0.17873 -0.365636 0.913436 255 0 0 255
0.022341 0.557219 2.081 -0.0568538 -0.465999 0.882957 255 0 0 255
0.028016 0.557217 2.081 -0.0681388 -0.507491 0.858959 255 0 0 255
0.033708 0.557482 2.082 -0.154285 -0.567487 0.808798 255 0 0 255
0.039405 0.557746 2.083 -0.200567 -0.574763 0.79336 255 0 0 255
0.045173 0.558814 2.087 -0.335859 -0.634598 0.696049 255 0 0 255
0.051035 0.560684 2.094 -0.456949 -0.665531 0.590141 255 0 0 255
0.05699 0.563089 2.103 -0.526091 -0.690893 0.495878 255 0 0 255
-0.117563 0.648413 2.05493 -0.995952 0.0896677 -0.00624217 0 255 0 255
-0.116336 0.650696 2.06652 -0.974725 0.109878 -0.194518 0 255 0 255
-0.115111 0.652978 2.07809 -0.933698 0.335546 -0.124972 0 255 0 255
-0.08775 0.66242 2.12012 0.589328 -0.585884 -0.556267 0 255 0 255
-0.324901 0.553274 2.09 0.595331 -0.640396 0.485257 255 0 0 255
-0.317082 0.549589 2.076 0.514017 -0.611088 0.601962 255 0 0 255
-0.310388 0.547757 2.069 0.270773 -0.583274 0.765815 255 0 0 255
-0.304763 0.547778 2.069 0.146761 -0.567202 0.810397 255 0 0 255
-0.298848 0.54727 2.067 0.11053 -0.559037 0.821743 255 0 0 255
-0.293369 0.547555 2.068 0.163458 -0.494007 0.853954 255 0 0 255
-0.287328 0.546781 2.065 0.275278 -0.364875 0.889431 255 0 0 255
-0.281166 0.545743 2.061 0.295983 -0.212374 0.931285 255 0 0 255
-0.275292 0.545233 2.059 0.104899 -0.109615 0.988423 255 0 0 255
-0.269691 0.545252 2.059 -0.0857411 -0.0872084 0.992493 255 0 0 255
-0.264346 0.545802 2.061 -0.239822 -0.0955654 0.966102 255 0 0 255
-0.258989 0.54635 2.063 -0.411505 -0.149946 0.898988 255 0 0 255
-0.253744 0.547164 2.066 -0.465032 -0.231086 0.854602 255 0 0 255
-0.248602 0.548242 2.07 -0.22403 -0.311637 0.923414 255 0 0 255
-0.243086 0.548525 2.071 0.0317867 -0.206271 0.977978 255 0 0 255
-0.237334 0.548278 2.07 0.155748 -0.17681 0.971844 255 0 0 255
-0.231476 0.547766 2.068 0.205727 0.0100236 0.978558 255 0 0 255
-0.225737 0.547518 2.067 0.256718 0.0474156 0.965323 255 0 0 255
-0.219896 0.547006 2.065 0.458289 0.0485289 0.887478 255 0 0 255
-0.213858 0.545963 2.061 0.456938 0.0165296 0.889345 255 0 0 255
-0.208044 0.545449 2.059 0.306177 0.000646051 0.951974 255 0 0 255
-0.20224 0.544935 2.057 0.20307 0.00124061 0.979163 255 0 0 255
-0.196542 0.544686 2.056 0.138106 -0.0633101 0.988392 255 0 0 255
-0.19085 0.544436 2.055 0.05944 -0.11826 0.991202 255 0 0 255
-0.185252 0.544451 2.055 0.492261 -0.00841411 0.870407 255 0 0 255
-0.179129 0.542876 2.049 0.701266 -0.038089 0.711882 255 0 0 255
-0.173039 0.5413 2.043 0.504657 -0.215419 0.836012 255 0 0 255
-0.167391 0.541049 2.042 -0.240808 -0.316581 0.91749 255 0 0 255
-0.162461 0.543182 2.05 -0.662813 -0.399487 0.633315 255 0 0 255
-0.15764 0.545844 2.06 -0.640842 -0.424423 0.639677 255 0 0 255
-0.152469 0.547446 2.066 -0.273861 -0.344937 0.897785 255 0 0 255
-0.146839 0.547459 2.066 0.0384067 -0.200461 0.978949 255 0 0 255
-0.14114 0.547205 2.065 0.235592 0.0168664 0.971706 255 0 0 255
-0.13538 0.546687 2.063 0.12987 0.218368 0.967186 255 0 0 255
-0.129757 0.546697 2.063 0.0970652 0.306275 0.946981 255 0 0 255
-0.124133 0.546708 2.063 -0.0300336 0.329697 0.943609 255 0 0 255
-0.118624 0.547248 2.065 0.0346296 0.313509 0.948954 255 0 0 255
-0.11294 0.546992 2.064 0.186917 0.297226 0.936333 255 0 0 255
-0.107261 0.546737 2.063 0.00159129 0.394334 0.918966 255 0 0 255
-0.101685 0.54701 2.064 -0.290878 0.243901 0.92515 255 0 0 255
-0.09615 0.547548 2.066 -0.414869 0.313724 0.854085 255 0 0 255
-0.090605 0.548086 2.068 -0.315255 0.225777 0.921759 255 0 0 255
-0.085006 0.548359 2.069 -0.165785 0.0965016 0.981429 255 0 0 255
-0.079403 0.548631 2.07 -0.2707 -0.124009 0.954643 255 0 0 255
-0.073829 0.549167 2.072 -0.40214 -0.262343 0.877189 255 0 0 255
-0.068277 0.549968 2.075 -0.240333 -0.36283 0.90033 255 0 0 255
-0.062618 0.549974 2.075 0.119899 -0.455926 0.881904 255 0 0 255
-0.056767 0.548123 2.068 0.6018 -0.445682 0.662725 255 0 0 255
-0.05083 0.544947 2.056 0.718472 -0.356593 0.597193 255 0 0 255
-0.045024 0.542566 2.047 0.463075 -0.222694 0.857886 255 0 0 255
-0.039441 0.542569 2.047 -0.625008 -0.154622 0.765152 255 0 0 255
-0.03399 0.544693 2.055 -0.841318 -0.0741908 0.535425 255 0 0 255
-0.028509 0.547081 2.064 -0.730782 -0.156728 0.664375 255 0 0 255
-0.022913 0.547879 2.067 -0.368309 -0.276353 0.887681 255 0 0 255
-0.0173 0.548675 2.07 -0.285951 -0.360604 0.887805 255 0 0 255
-0.011665 0.549207 2.072 -0.213785 -0.352519 0.911058 255 0 0 255
-0.006019 0.549738 2.074 -0.193338 -0.337644 0.921204 255 0 0 255
-0.000361 0.549473 2.073 -0.215269 -0.256287 0.942325 255 0 0 255
0.005301 0.550268 2.076 -0.253362 -0.156784 0.954582 255 0 0 255
0.010969 0.550532 2.077 -0.190117 -0.0997874 0.976677 255 0 0 255
0.01665 0.551061 2.079 -0.0900358 -0.166438 0.981933 255 0 0 255
0.02231 0.550794 2.078 -0.0344884 -0.234736 0.971447 255 0 0 255
0.027978 0.550792 2.078 -0.000271155 -0.320199 0.94735 255 0 0 255
0.033662 0.551055 2.079 -0.0635678 -0.397702 0.91531 255 0 0 255
0.039352 0.551317 2.08 -0.172589 -0.498627 0.849461 255 0 0 255
0.045068 0.551843 2.082 -0.206238 -0.51866 0.829733 255 0 0 255
0.050771 0.552104 2.083 -0.352453 -0.561429 0.748715 255 0 0 255
0.056615 0.55369 2.089 -0.45384 -0.634802 0.625345 255 0 0 255
0.062611 0.556336 2.099 -0.56424 -0.666227 0.487623 255 0 0 255
-0.111761 0.637351 2.05174 0.931587 -0.35366 -0.0840838 0 255 0 255
-0.120231 0.640607 2.07066 -0.917405 0.201743 -0.343028 0 255 0 255
-0.134018 0.644372 2.09348 -0.63869 0.732963 -0.234183 0 255 0 255
-0.131044 0.646477 2.10367 0.478759 -0.72669 -0.492658 0 255 0 255
-0.113918 0.64721 2.10333 0.558409 -0.295248 -0.775247 0 255 0 255
-0.107391 0.648986 2.11093 0.651475 -0.4348 -0.621714 0 255 0 255
-0.101746 0.650851 2.11919 0.560652 -0.350552 -0.750188 0 255 0 255
-0.093436 0.652469 2.12552 0.614692 -0.382011 -0.690088 0 255 0 255
-0.085117 0.654094 2.13188 0.789487 -0.28772 -0.54215 0 255 0 255
-0.322591 0.543687 2.075 0.617846 -0.482623 0.620759 255 0 0 255
-0.315881 0.541874 2.068 0.423006 -0.515862 0.744951 255 0 0 255
-0.309659 0.540847 2.064 0.259881 -0.537412 0.802278 255 0 0 255
-0.3039 0.540607 2.063 0.145093 -0.577313 0.803528 255 0 0 255
-0.298002 0.540103 2.061 0.0532891 -0.610371 0.790321 255 0 0 255
-0.292539 0.540386 2.062 0.0082823 -0.584151 0.811603 255 0 0 255
-0.286931 0.540407 2.062 0.0816343 -0.488855 0.868537 255 0 0 255
-0.281186 0.540165 2.061 0.120572 -0.296802 0.947297 255 0 0 255
-0.275446 0.539923 2.06 0.0296885 -0.101859 0.994356 255 0 0 255
-0.269973 0.540205 2.061 -0.0863572 -0.0755659 0.993394 255 0 0 255
-0.264237 0.539962 2.06 -0.191875 -0.0756534 0.978499 255 0 0 255
-0.258883 0.540505 2.062 -0.296912 -0.128352 0.946239 255 0 0 255
-0.253517 0.541049 2.064 -0.301846 -0.244479 0.921476 255 0 0 255
-0.24838 0.542116 2.068 -0.148876 -0.41846 0.895951 255 0 0 255
-0.242634 0.541872 2.067 0.293737 -0.358474 0.886123 255 0 0 255
-0.237123 0.542152 2.068 -0.142418 -0.329861 0.933225 255 0 0 255
-0.231493 0.54217 2.068 0.0689112 -0.233645 0.969877 255 0 0 255
-0.225754 0.541925 2.067 0.195752 -0.138134 0.970876 255 0 0 255
-0.219913 0.541418 2.065 0.412909 -0.0520813 0.909282 255 0 0 255
-0.213875 0.540386 2.061 0.459412 0.00899859 0.888178 255 0 0 255
-0.20806 0.539878 2.059 0.306827 0.0110551 0.951701 255 0 0 255
-0.202354 0.539632 2.058 0.253149 -0.0302438 0.966955 255 0 0 255
-0.196558 0.539123 2.056 0.143174 -0.0672052 0.987413 255 0 0 255
-0.190865 0.538876 2.055 0.0311141 -0.098037 0.994696 255 0 0 255
-0.185357 0.539153 2.056 0.4248 -0.101228 0.89961 255 0 0 255
-0.179231 0.537594 2.05 0.71197 -0.0483509 0.700543 255 0 0 255
-0.173053 0.535772 2.043 0.453538 -0.204904 0.867362 255 0 0 255
-0.16724 0.534999 2.04 -0.226958 -0.222595 0.948125 255 0 0 255
-0.162078 0.536324 2.045 -0.529259 -0.432363 0.730033 255 0 0 255
-0.157194 0.538697 2.054 -0.699552 -0.474852 0.533987 255 0 0 255
-0.152186 0.540807 2.062 -0.505788 -0.421739 0.752539 255 0 0 255
-0.146851 0.541869 2.066 -0.114642 -0.215322 0.969791 255 0 0 255
-0.141219 0.54188 2.066 0.00594225 0.0334472 0.999423 255 0 0 255
-0.135522 0.541629 2.065 0.00196538 0.262102 0.965038 255 0 0 255
-0.130019 0.542165 2.067 0.032033 0.345765 0.937774 255 0 0 255
-0.124264 0.541651 2.065 0.0349686 0.229549 0.972669 255 0 0 255
-0.118691 0.541923 2.066 0.0652374 0.145545 0.987198 255 0 0 255
-0.112949 0.541408 2.064 0.161164 0.16156 0.973614 255 0 0 255
-0.107321 0.541417 2.064 -0.0296263 0.154037 0.987621 255 0 0 255
-0.101743 0.541688 2.065 -0.107007 -0.0367358 0.993579 255 0 0 255
-0.096158 0.541959 2.066 -0.239809 -0.0501157 0.969526 255 0 0 255
-0.090612 0.542491 2.068 -0.202596 -0.130379 0.970544 255 0 0 255
-0.084973 0.542499 2.068 -0.0647532 -0.297864 0.95241 255 0 0 255
-0.079294 0.542243 2.067 -0.0817477 -0.342238 0.936051 255 0 0 255
-0.073728 0.542774 2.069 -0.154007 -0.440659 0.884365 255 0 0 255
-0.068151 0.543305 2.071 -0.0676944 -0.539647 0.839166 255 0 0 255
-0.062442 0.542786 2.069 0.295546 -0.573889 0.763744 255 0 0 255
-0.056607 0.540954 2.062 0.637438 -0.446987 0.627595 255 0 0 255
-0.050711 0.538073 2.051 0.576028 -0.333822 0.74616 255 0 0 255
-0.044984 0.536503 2.045 0.265558 -0.152136 0.952016 255 0 0 255
-0.039425 0.536769 2.046 -0.709401 -0.0935661 0.698566 255 0 0 255
-0.033993 0.539133 2.055 -0.82505 -0.0584436 0.56203 255 0 0 255
-0.028512 0.541497 2.064 -0.596411 -0.231936 0.768439 255 0 0 255
-0.022893 0.541762 2.065 -0.301231 -0.219146 0.928028 255 0 0 255
-0.017276 0.542288 2.067 -0.293347 -0.264755 0.918614 255 0 0 255
-0.011643 0.542552 2.068 -0.303488 -0.285743 0.908981 255 0 0 255
-0.006011 0.543339 2.071 -0.191499 -0.234214 0.953138 255 0 0 255
-0.000361 0.54334 2.071 -0.321828 -0.213428 0.922429 255 0 0 255
0.005301 0.544651 2.076 -0.371 -0.159944 0.914755 255 0 0 255
0.01097 0.544913 2.077 -0.198653 -0.120957 0.972577 255 0 0 255
0.016652 0.545437 2.079 -0.0617034 -0.23204 0.970747 255 0 0 255
0.022312 0.545173 2.078 0.0401391 -0.253445 0.966517 255 0 0 255
0.027981 0.54517 2.078 0.0974622 -0.298189 0.949518 255 0 0 255
0.033617 0.544643 2.076 -0.0067406 -0.340339 0.940279 255 0 0 255
0.03928 0.54464 2.076 -0.0510319 -0.419271 0.906426 255 0 0 255
0.044964 0.544899 2.077 -0.153674 -0.44071 0.884398 255 0 0 255
0.050678 0.545419 2.079 -0.280936 -0.447682 0.848915 255 0 0 255
0.05643 0.546202 2.082 -0.379683 -0.529944 0.758287 255 0 0 255
0.062288 0.547771 2.088 -0.543799 -0.606245 0.580301 255 0 0 255
0.068471 0.551701 2.103 -0.540642 -0.701388 0.4645 255 0 0 255
-0.118302 0.627511 2.05789 0.937296 -0.346581 -0.036861 0 255 0 255
-0.126769 0.630799 2.07679 -0.821967 0.347686 -0.451092 0 255 0 255
-0.142315 0.634791 2.1009 0.700659 -0.660103 -0.270815 0 255 0 255
-0.13758 0.636715 2.10975 0.365383 -0.718629 -0.591665 0 255 0 255
-0.122235 0.637583 2.11072 0.18858 -0.72477 -0.662681 0 255 0 255
-0.109522 0.63873 2.11372 0.386559 -0.542709 -0.74568 0 255 0 255
-0.102108 0.640414 2.12069 0.582082 -0.136035 -0.801671 0 255 0 255
-0.092914 0.641931 2.12637 0.629201 -0.213617 -0.747311 0 255 0 255
-0.088145 0.643889 2.13533 0.847591 -0.221039 -0.482422 0 255 0 255
-0.086036 0.646107 2.14621 0.904073 -0.304389 -0.299999 0 255 0 255
-0.329519 0.540122 2.083 0.71214 -0.451648 0.537467 255 0 0 255
-0.321991 0.537033 2.071 0.622681 -0.44764 0.641784 255 0 0 255
-0.315445 0.535498 2.065 0.453288 -0.395909 0.798615 255 0 0 255
-0.309231 0.534483 2.061 0.355893 -0.35452 0.864671 255 0 0 255
-0.303185 0.533726 2.058 0.21378 -0.41471 0.884485 255 0 0 255
-0.297299 0.533228 2.056 0.0411534 -0.387364 0.921008 255 0 0 255
-0.29185 0.533508 2.057 -0.0564869 -0.48586 0.87221 255 0 0 255
-0.286395 0.533788 2.058 -0.102152 -0.458494 0.882807 255 0 0 255
-0.280933 0.534068 2.059 -0.0329373 -0.407508 0.912607 255 0 0 255
-0.275198 0.533829 2.058 -0.00797823 -0.316133 0.948681 255 0 0 255
-0.26973 0.534108 2.059 -0.0222348 -0.234119 0.971954 255 0 0 255
-0.264128 0.534127 2.059 -0.182143 -0.294379 0.938171 255 0 0 255
-0.259027 0.535184 2.063 -0.290525 -0.179594 0.939862 255 0 0 255
-0.253536 0.535463 2.064 -0.157981 -0.298515 0.941239 255 0 0 255
-0.247919 0.535481 2.064 -0.0527657 -0.37531 0.925396 255 0 0 255
-0.242183 0.53524 2.063 0.0152058 -0.421706 0.906605 255 0 0 255
-0.236567 0.535258 2.063 -0.0881361 -0.418548 0.903908 255 0 0 255
-0.231175 0.535795 2.065 -0.101663 -0.365848 0.925106 255 0 0 255
-0.225553 0.535812 2.065 -0.0268907 -0.243261 0.969588 255 0 0 255
-0.219823 0.53557 2.064 0.31621 -0.0224902 0.948423 255 0 0 255
-0.213891 0.534808 2.061 0.463289 0.067318 0.883647 255 0 0 255
-0.207975 0.534046 2.058 0.377627 -0.0695324 0.923343 255 0 0 255
-0.202272 0.533803 2.057 0.324176 -0.0944941 0.941266 255 0 0 255
-0.196478 0.533299 2.055 0.173292 -0.227026 0.958347 255 0 0 255
-0.190787 0.533055 2.054 0.00297138 -0.185763 0.98259 255 0 0 255
-0.185281 0.53333 2.055 0.269564 -0.198359 0.942331 255 0 0 255
-0.179245 0.532046 2.05 0.697979 -0.120337 0.705935 255 0 0 255
-0.172982 0.529984 2.042 0.544404 -0.13802 0.82739 255 0 0 255
-0.166926 0.52844 2.036 0.138597 -0.24102 0.960573 255 0 0 255
-0.161774 0.529751 2.041 -0.162809 -0.546068 0.821768 255 0 0 255
-0.156671 0.531322 2.047 -0.66009 -0.485556 0.573164 255 0 0 255
-0.15183 0.53393 2.057 -0.611265 -0.498623 0.614598 255 0 0 255
-0.146649 0.5355 2.063 -0.464682 -0.304337 0.831535 255 0 0 255
-0.141231 0.53629 2.066 -0.150737 0.06265 0.986587 255 0 0 255
