ply
format ascii 1.0
comment VCGLIB generated
element vertex 715
property float x
property float y
property float z
property float nx
property float ny
property float nz
property uchar red
property uchar green
property uchar blue
property uchar alpha
element face 0
property list uchar int vertex_indices
end_header
-0.037085 -0.03563 2.23 0.576378 0.325901 0.749384 255 0 0 255
-0.030914 -0.035567 2.226 0.478395 0.165202 0.862465 255 0 0 255
-0.024776 -0.035519 2.223 -0.0295033 0.0715401 0.997001 255 0 0 255
-0.018713 -0.035583 2.227 -0.520962 0.19261 0.831565 255 0 0 255
-0.012645 -0.035695 2.234 -0.656131 0.239489 0.715638 255 0 0 255
-0.006527 -0.035743 2.237 -0.675364 0.182388 0.714576 255 0 0 255
-0.000393 -0.035871 2.245 -0.64778 0.157539 0.74536 255 0 0 255
0.005771 -0.035919 2.248 -0.482096 -0.0208396 0.875871 255 0 0 255
0.011963 -0.035999 2.253 -0.475806 -0.133731 0.869325 255 0 0 255
0.018166 -0.036047 2.256 -0.417325 -0.100879 0.903141 255 0 0 255
0.024364 -0.036062 2.257 -0.505462 -0.0411663 0.861866 255 0 0 255
0.030621 -0.036142 2.262 -0.351247 -0.111248 0.92965 255 0 0 255
0.036792 -0.03611 2.26 -0.532571 -0.25663 0.806542 255 0 0 255
0.04318 -0.036269 2.27 -0.85459 -0.0948981 0.510559 255 0 0 255
0.049666 -0.036461 2.282 -0.865782 -0.0283791 0.499616 255 0 0 255
-0.192718 -0.368218 2.58445 -0.144658 -0.748221 -0.647488 255 255 0 255
-0.185463 -0.368981 2.57573 -0.271831 -0.765071 -0.583759 255 255 0 255
-0.105099 -0.367209 2.5212 -0.158237 -0.788424 -0.594431 255 255 0 255
-0.097103 -0.367638 2.51328 -0.0124642 -0.828912 -0.55924 255 255 0 255
-0.081595 -0.365476 2.51026 0.014033 -0.873248 -0.487073 255 255 0 255
-0.080304 -0.368195 2.49807 0.142508 -0.785024 -0.60285 255 255 0 255
-0.054827 -0.362556 2.50169 0.0815512 -0.725743 -0.683115 255 255 0 255
-0.027731 -0.356317 2.50654 -0.184089 -0.212132 -0.959745 255 255 0 255
-0.013167 -0.354391 2.50327 -0.144618 -0.313305 -0.938576 255 255 0 255
0.003036 -0.351873 2.50117 -0.253757 -0.694466 -0.673294 255 255 0 255
0.018381 -0.349632 2.4986 -0.576181 -0.735721 -0.355991 255 255 0 255
0.011307 -0.35522 2.48102 -0.898039 -0.439835 -0.00846158 255 255 0 255
-0.009827 -0.365765 2.45386 0.86059 0.071641 -0.504235 255 255 0 255
-0.014357 -0.37051 2.43781 0.932035 -0.143674 -0.332669 255 255 0 255
-0.018869 -0.375263 2.42171 0.873613 -0.0501131 -0.484034 255 255 0 255
-0.239308 -0.399194 2.49515 0.977227 0.0628527 -0.202673 0 255 0 255
-0.221521 -0.399693 2.50806 -0.961688 -0.2635 -0.0756536 0 255 0 255
-0.257235 -0.381818 2.54331 0.521456 -0.00224879 -0.853275 0 255 0 255
-0.231031 -0.385737 2.55078 0.988585 -0.143685 -0.0453203 0 255 0 255
-0.234785 -0.380874 2.56531 0.995643 -0.0918418 -0.0161207 0 255 0 255
-0.228413 -0.380095 2.5734 0.741176 0.0746187 -0.66715 0 255 0 255
-0.227954 -0.376938 2.58523 0.639588 -0.0590217 -0.766449 0 255 0 255
-0.214804 -0.378863 2.58913 0.457008 -0.0158202 -0.889322 0 255 0 255
-0.148599 -0.39854 2.57258 0.428225 -0.423137 -0.798485 0 255 0 255
-0.047036 -0.42503 2.56058 -0.249794 -0.475495 -0.843509 0 255 0 255
-0.038793 -0.424801 2.56823 -0.0110474 -0.929788 -0.367929 0 255 0 255
-0.028835 -0.425234 2.5749 0.00939901 -0.916275 -0.40044 0 255 0 255
-0.371815 -0.040894 2.19 0.686358 0.476319 0.549576 255 0 0 255
-0.365183 -0.040822 2.186 0.64726 0.515488 0.56154 255 0 0 255
-0.358079 -0.040694 2.179 0.561075 0.432566 0.705749 255 0 0 255
-0.351496 -0.040622 2.175 0.595702 0.300084 0.745043 255 0 0 255
-0.344299 -0.040476 2.167 0.613772 0.223498 0.757187 255 0 0 255
-0.337769 -0.040404 2.163 0.395125 0.201022 0.896363 255 0 0 255
-0.331566 -0.04037 2.161 -0.658164 0.237496 0.714434 255 0 0 255
-0.327483 -0.040597 2.173 -0.793405 0.279772 0.540588 255 0 0 255
-0.325258 -0.041066 2.198 -0.743593 0.354295 0.567049 255 0 0 255
-0.323185 -0.041574 2.225 0.953207 -0.0693872 0.294249 255 0 0 255
-0.314265 -0.041203 2.205 -0.998647 0.0184643 0.0486094 255 0 0 255
-0.305174 -0.040794 2.183 0.526621 0.275921 0.804076 255 0 0 255
-0.298257 -0.040666 2.176 0.272932 0.173993 0.946168 255 0 0 255
-0.293931 -0.040893 2.188 -0.905387 0.115023 0.408711 255 0 0 255
-0.28978 -0.043894 2.348 0.93722 0.161711 0.308979 255 0 0 255
-0.280832 -0.043504 2.327 0.87023 0.0770487 0.486583 255 0 0 255
-0.272942 -0.043264 2.314 0.742837 0.118468 0.658907 255 0 0 255
-0.265927 -0.043154 2.308 0.303854 0.482912 0.82126 255 0 0 255
-0.259507 -0.043138 2.307 0.00987031 0.461381 0.887147 255 0 0 255
-0.253201 -0.04314 2.307 0.062503 0.329623 0.942041 255 0 0 255
-0.246574 -0.043086 2.304 0.31901 0.289571 0.902431 255 0 0 255
-0.239961 -0.043032 2.301 0.410952 0.251876 0.876172 255 0 0 255
-0.233364 -0.042978 2.298 0.388945 0.205635 0.898018 255 0 0 255
-0.226882 -0.042943 2.296 0.404766 0.228052 0.885527 255 0 0 255
-0.220313 -0.042889 2.293 0.0726119 0.344659 0.935915 255 0 0 255
-0.214134 -0.04291 2.294 -0.202444 0.57729 0.791045 255 0 0 255
-0.208129 -0.042968 2.297 -0.199647 0.554969 0.807559 255 0 0 255
-0.201667 -0.042932 2.295 0.00327247 0.356826 0.934165 255 0 0 255
-0.195301 -0.042916 2.294 0.281906 0.125416 0.95121 255 0 0 255
-0.18894 -0.042899 2.293 -0.0768931 0.227565 0.970722 255 0 0 255
-0.183141 -0.043013 2.299 -0.27484 0.229903 0.933599 255 0 0 255
-0.176769 -0.042996 2.298 -0.0388529 0.439253 0.897523 255 0 0 255
-0.170551 -0.043016 2.299 0.0191143 0.481607 0.876179 255 0 0 255
-0.164184 -0.042999 2.298 0.0866922 0.515757 0.852337 255 0 0 255
-0.157822 -0.042982 2.297 0.0601614 0.640262 0.765797 255 0 0 255
-0.151596 -0.043002 2.298 0.149391 0.619383 0.770745 255 0 0 255
-0.144922 -0.042891 2.292 0.378361 0.567397 0.731371 255 0 0 255
-0.138522 -0.042855 2.29 0.158853 0.602291 0.782312 255 0 0 255
-0.132075 -0.0428 2.287 0.0235823 0.472947 0.880775 255 0 0 255
-0.126138 -0.042914 2.293 -0.678268 -0.00124074 0.734813 255 0 0 255
-0.120325 -0.043084 2.302 -0.904599 0.0925202 0.416102 255 0 0 255
-0.11466 -0.043328 2.315 -0.628549 0.375654 0.681036 255 0 0 255
-0.108596 -0.043441 2.321 0.298392 0.234659 0.925147 255 0 0 255
-0.101882 -0.043293 2.313 0.666461 -0.11728 0.736257 255 0 0 255
-0.095046 -0.043069 2.301 0.839265 -0.157687 0.520354 255 0 0 255
-0.088315 -0.042864 2.29 0.813984 -0.022159 0.580465 255 0 0 255
-0.081714 -0.042696 2.281 0.525103 0.343301 0.778724 255 0 0 255
-0.075295 -0.042604 2.276 0.550737 0.456955 0.698485 255 0 0 255
-0.068994 -0.042567 2.274 0.571885 0.478418 0.666381 255 0 0 255
-0.062594 -0.042455 2.268 0.663684 0.41754 0.620632 255 0 0 255
-0.056151 -0.042287 2.259 0.845606 0.172363 0.505214 255 0 0 255
-0.049669 -0.042044 2.246 0.810044 0.170188 0.561128 255 0 0 255
-0.043375 -0.041914 2.239 0.732667 0.146914 0.664542 255 0 0 255
-0.037135 -0.041802 2.233 0.639277 0.211468 0.739329 255 0 0 255
-0.030942 -0.041709 2.228 0.536766 0.141271 0.83182 255 0 0 255
-0.024787 -0.041634 2.224 -0.0276894 0.250596 0.967696 255 0 0 255
-0.018713 -0.04169 2.227 -0.507502 0.251697 0.824069 255 0 0 255
-0.012651 -0.04184 2.235 -0.676773 0.18758 0.711893 255 0 0 255
-0.006536 -0.041934 2.24 -0.654472 0.0114831 0.755999 255 0 0 255
-0.000394 -0.042046 2.246 -0.509938 0.0524552 0.85861 255 0 0 255
0.005771 -0.042084 2.248 -0.349742 -0.0814482 0.933299 255 0 0 255
0.011936 -0.042084 2.248 -0.4441 -0.226368 0.86691 255 0 0 255
0.018134 -0.042159 2.252 -0.503868 -0.178767 0.845079 255 0 0 255
0.024353 -0.042233 2.256 -0.505158 -0.0471066 0.86174 255 0 0 255
0.030594 -0.042308 2.26 -0.206818 -0.10386 0.972851 255 0 0 255
0.036743 -0.042251 2.257 -0.421319 -0.0752446 0.903786 255 0 0 255
0.043123 -0.042438 2.267 -0.818529 0.0174574 0.5742 255 0 0 255
0.049622 -0.042681 2.28 -0.893349 -0.0665238 0.444413 255 0 0 255
-0.204834 -0.380972 2.59179 -0.00863721 -0.101709 -0.994777 255 255 0 255
-0.063852 -0.370973 2.52313 0.021381 -0.760765 -0.648675 255 255 0 255
-0.052565 -0.370204 2.5175 -0.182952 -0.75025 -0.635337 255 255 0 255
-0.033795 -0.36681 2.51683 0.120603 -0.816904 -0.564024 255 255 0 255
-0.021717 -0.365731 2.51186 0.0499763 -0.659188 -0.750316 255 255 0 255
-0.008827 -0.36435 2.5075 -0.224931 -0.222986 -0.948516 255 255 0 255
0.009028 -0.361207 2.5065 -0.304212 -0.262595 -0.915696 255 255 0 255
0.020213 -0.360389 2.50116 -0.761138 -0.609739 -0.221107 255 255 0 255
0.022263 -0.362787 2.48973 0.933266 0.309841 -0.181693 255 255 0 255
0.011896 -0.369589 2.46989 0.759249 0.401864 -0.511905 255 255 0 255
0.002386 -0.376112 2.45052 0.764378 0.283926 -0.578889 255 255 0 255
-0.221335 -0.417903 2.48479 -0.217724 0.680035 -0.700106 0 255 0 255
-0.231619 -0.403507 2.52823 -0.83597 -0.544323 -0.0697717 0 255 0 255
-0.250509 -0.392422 2.55252 0.709533 0.0800025 -0.700116 0 255 0 255
-0.234413 -0.392271 2.56651 0.721498 0.285167 -0.630968 0 255 0 255
-0.233107 -0.389448 2.57781 0.691272 0.342741 -0.636138 0 255 0 255
-0.215747 -0.39312 2.57905 0.518274 0.429569 -0.739501 0 255 0 255
-0.208511 -0.39268 2.58668 0.205049 0.450394 -0.868965 0 255 0 255
-0.165711 -0.406541 2.57234 0.137962 -0.267624 -0.953595 0 255 0 255
-0.137902 -0.407479 2.5922 0.519417 -0.218837 -0.826024 0 255 0 255
-0.040207 -0.436017 2.57067 0.224003 -0.919306 -0.323571 0 255 0 255
-0.373679 -0.047119 2.201 0.736811 0.403397 0.542568 255 0 0 255
-0.365514 -0.046845 2.188 0.736811 0.403397 0.542568 255 0 0 255
-0.358076 -0.046655 2.179 0.638534 0.246455 0.729063 255 0 0 255
-0.351493 -0.046573 2.175 0.647859 0.101334 0.75499 255 0 0 255
-0.344455 -0.046427 2.168 0.640402 0.150595 0.753132 255 0 0 255
-0.337922 -0.046344 2.164 0.430789 0.212375 0.877108 255 0 0 255
-0.33187 -0.046326 2.163 -0.760717 0.156233 0.630001 255 0 0 255
-0.327782 -0.046586 2.175 -0.848745 0.0851258 0.521905 255 0 0 255
-0.325402 -0.047104 2.199 -0.913099 0.104785 0.394045 255 0 0 255
-0.322456 -0.047557 2.22 0.962729 0.157203 0.220092 255 0 0 255
-0.314262 -0.047238 2.205 -0.710597 0.255813 0.655448 255 0 0 255
-0.30559 -0.046834 2.186 -0.600677 0.113055 0.791458 255 0 0 255
-0.298666 -0.046688 2.179 -0.838462 -0.010424 0.54486 255 0 0 255
-0.294331 -0.046948 2.191 -0.55096 0.0707197 0.83153 255 0 0 255
-0.280106 -0.049748 2.321 0.796066 0.0724862 0.600853 255 0 0 255
-0.272585 -0.049537 2.311 0.511566 0.278278 0.812934 255 0 0 255
-0.265694 -0.049433 2.306 0.322386 0.139015 0.936345 255 0 0 255
-0.259505 -0.049457 2.307 0.125305 0.220529 0.967298 255 0 0 255
-0.252979 -0.049417 2.305 0.0459803 0.352779 0.934576 255 0 0 255
-0.246785 -0.049441 2.306 0.237981 0.314125 0.919071 255 0 0 255
-0.240063 -0.049357 2.302 0.307695 0.204893 0.929162 255 0 0 255
-0.233667 -0.049338 2.301 0.533835 0.0763208 0.842138 255 0 0 255
-0.226781 -0.049212 2.295 0.430481 0.120647 0.8945 255 0 0 255
-0.220503 -0.049215 2.295 -0.199434 -0.0198631 0.97971 255 0 0 255
-0.214598 -0.049303 2.299 -0.351505 0.263857 0.898234 255 0 0 255
-0.20858 -0.049369 2.302 -0.0752249 0.235341 0.968997 255 0 0 255
-0.202105 -0.049329 2.3 0.295679 0.234723 0.926002 255 0 0 255
-0.195384 -0.049224 2.295 0.0677357 0.241556 0.96802 255 0 0 255
-0.189185 -0.049247 2.296 -0.245001 0.056779 0.967859 255 0 0 255
-0.183139 -0.049314 2.299 -0.270937 0.0881221 0.958555 255 0 0 255
-0.176768 -0.049294 2.298 -0.110612 0.029338 0.993431 255 0 0 255
-0.170401 -0.049275 2.297 -0.209604 0.294596 0.932351 255 0 0 255
-0.164326 -0.049341 2.3 -0.186073 0.473579 0.860872 255 0 0 255
-0.158095 -0.049364 2.301 -0.138015 0.545013 0.82699 255 0 0 255
-0.151859 -0.049387 2.302 0.16708 0.601095 0.781518 255 0 0 255
-0.145237 -0.049281 2.297 0.409525 0.490547 0.76919 255 0 0 255
-0.138702 -0.049197 2.293 0.363222 0.501408 0.785277 255 0 0 255
-0.132189 -0.049113 2.289 0.00931465 0.298603 0.954332 255 0 0 255
-0.125972 -0.049136 2.29 -0.349867 0.308752 0.884458 255 0 0 255
-0.120272 -0.049373 2.301 -0.815548 0.23059 0.530763 255 0 0 255
-0.114709 -0.049696 2.316 0.36426 0.228068 0.902939 255 0 0 255
-0.108548 -0.049783 2.32 0.641315 -0.0441826 0.766005 255 0 0 255
-0.101749 -0.04957 2.31 0.7889 -0.104478 0.605575 255 0 0 255
-0.094922 -0.049314 2.298 0.825237 -0.100323 0.555804 255 0 0 255
-0.088314 -0.049143 2.29 0.728705 -0.0310026 0.684126 255 0 0 255
-0.081857 -0.049037 2.285 0.529325 0.339476 0.777542 255 0 0 255
-0.075526 -0.048995 2.283 0.367737 0.536945 0.759249 255 0 0 255
-0.069176 -0.048931 2.28 0.555387 0.3739 0.742795 255 0 0 255
-0.062731 -0.048782 2.273 0.760663 0.303384 0.57389 255 0 0 255
-0.056151 -0.048482 2.259 0.866833 0.0114583 0.498467 255 0 0 255
-0.049713 -0.048246 2.248 0.802665 0.0399329 0.595092 255 0 0 255
-0.043374 -0.048054 2.239 0.716585 0.0222364 0.697145 255 0 0 255
-0.037151 -0.047947 2.234 0.674645 0.106396 0.730434 255 0 0 255
-0.030941 -0.047818 2.228 0.347911 0.268102 0.898376 255 0 0 255
-0.02482 -0.047797 2.227 -0.0539985 0.318348 0.946435 255 0 0 255
-0.01873 -0.04784 2.229 -0.495384 0.308335 0.812111 255 0 0 255
-0.012662 -0.048012 2.237 -0.637203 0.05963 0.768386 255 0 0 255
-0.006536 -0.048077 2.24 -0.558727 0.00426564 0.829341 255 0 0 255
-0.000393 -0.048184 2.245 -0.513915 -0.221653 0.828711 255 0 0 255
0.005769 -0.048227 2.247 -0.287841 -0.219238 0.932246 255 0 0 255
0.011936 -0.048248 2.248 -0.426101 -0.138627 0.893991 255 0 0 255
0.018142 -0.048356 2.253 -0.608345 -0.0534523 0.791871 255 0 0 255
0.024364 -0.048441 2.257 -0.609093 0.0730505 0.789727 255 0 0 255
0.030594 -0.048505 2.26 -0.400425 0.212688 0.891305 255 0 0 255
0.036791 -0.048505 2.26 -0.405781 0.307157 0.860812 255 0 0 255
0.043084 -0.048612 2.265 -0.734594 0.0791959 0.673869 255 0 0 255
0.049556 -0.048869 2.277 -0.886011 -0.0322235 0.462544 255 0 0 255
-0.21391 -0.39597 2.58786 0.454836 0.23537 -0.85891 255 255 0 255
-0.216769 -0.400176 2.57292 0.437522 0.71462 -0.545795 255 255 0 255
-0.095477 -0.387281 2.53021 0.0270907 -0.709906 -0.703775 255 255 0 255
-0.079135 -0.384758 2.52767 0.131048 -0.691833 -0.710065 255 255 0 255
-0.052804 -0.37871 2.53168 -0.0870201 -0.727897 -0.680143 255 255 0 255
-0.043199 -0.378498 2.52498 -0.124214 -0.829593 -0.544377 255 255 0 255
-0.02028 -0.373585 2.52704 -0.262642 -0.71634 -0.646433 255 255 0 255
-0.011548 -0.373648 2.51991 -0.479258 -0.589109 -0.650586 255 255 0 255
-0.005321 -0.374588 2.51117 -0.244583 -0.540803 -0.804805 255 255 0 255
-0.006572 -0.378179 2.49748 0.867733 0.404565 -0.288733 255 255 0 255
0.02702 -0.369374 2.50704 -0.615108 0.210468 -0.759833 255 255 0 255
0.022438 -0.374139 2.49117 0.163888 0.848819 -0.50264 255 255 0 255
0.022011 -0.377433 2.47805 0.855669 0.417305 -0.306083 255 255 0 255
0.035646 -0.375689 2.47446 0.862007 0.405542 -0.304104 255 255 0 255
-0.187454 -0.443358 2.46404 0.680909 -0.312326 -0.662432 0 255 0 255
-0.235831 -0.409694 2.54455 -0.790071 -0.387313 -0.475159 0 255 0 255
-0.231145 -0.408244 2.55374 -0.0271987 -0.327591 -0.944428 0 255 0 255
-0.21381 -0.411972 2.55493 0.288165 0.886416 -0.362253 0 255 0 255
-0.204888 -0.412233 2.56151 0.558164 0.557978 -0.614096 0 255 0 255
-0.199335 -0.411111 2.57025 0.648028 0.06022 -0.759232 0 255 0 255
-0.18955 -0.411704 2.57637 0.161302 -0.926517 -0.339922 0 255 0 255
-0.187367 -0.409199 2.58724 0.204001 -0.951599 -0.229876 0 255 0 255
-0.146049 -0.415698 2.59868 0.261644 -0.171257 -0.949849 0 255 0 255
-0.021456 -0.451788 2.57374 -0.649271 0.436978 -0.622492 0 255 0 255
-0.019152 -0.449198 2.58502 -0.637978 0.563391 -0.524952 0 255 0 255
-0.367014 -0.053047 2.197 0.736811 0.403398 0.542568 255 0 0 255
-0.358565 -0.052689 2.182 0.691441 0.160559 0.704365 255 0 0 255
-0.35149 -0.052524 2.175 0.634865 0.133236 0.761048 255 0 0 255
-0.344769 -0.052407 2.17 0.591399 0.180527 0.785912 255 0 0 255
-0.337919 -0.052265 2.164 0.441642 0.227633 0.867834 255 0 0 255
-0.331867 -0.052245 2.163 -0.496915 0.240312 0.833862 255 0 0 255
-0.327477 -0.05249 2.173 -0.699798 -0.0696568 0.710937 255 0 0 255
-0.324659 -0.053001 2.194 -0.942497 -0.109463 0.31578 255 0 0 255
-0.321435 -0.053464 2.213 0.962729 0.157203 0.220092 255 0 0 255
-0.314116 -0.05325 2.204 0.830747 0.115368 0.544564 255 0 0 255
-0.306006 -0.052891 2.189 -0.125254 0.256675 0.958347 255 0 0 255
-0.298937 -0.052701 2.181 0.851317 0.476958 0.218565 255 0 0 255
-0.294596 -0.052994 2.193 -0.670562 0.351116 0.653502 255 0 0 255
-0.295322 -0.05423 2.244 -0.815431 -0.447688 0.366943 255 0 0 255
-0.280102 -0.056105 2.321 0.7755 0.243388 0.582549 255 0 0 255
-0.2727 -0.05589 2.312 0.553399 0.365436 0.748469 255 0 0 255
-0.266152 -0.055845 2.31 0.21034 0.404045 0.890228 255 0 0 255
-0.260064 -0.055896 2.312 0.18781 0.478456 0.857792 255 0 0 255
-0.253306 -0.055803 2.308 0.11576 0.321095 0.939945 255 0 0 255
-0.247318 -0.055878 2.311 0.307274 0.327939 0.89333 255 0 0 255
-0.240373 -0.055736 2.305 0.464745 0.169134 0.869141 255 0 0 255
-0.233664 -0.055642 2.301 0.633431 0.0174554 0.773602 255 0 0 255
-0.226581 -0.055452 2.293 0.483103 -0.0837302 0.871551 255 0 0 255
-0.220501 -0.055503 2.295 -0.37627 -0.0492375 0.925201 255 0 0 255
-0.214502 -0.055578 2.298 -0.348813 -0.18726 0.918293 255 0 0 255
-0.208487 -0.055653 2.301 -0.163321 -0.0541001 0.985089 255 0 0 255
-0.202014 -0.055607 2.299 0.222397 0.0330311 0.974397 255 0 0 255
-0.195382 -0.055513 2.295 0.172981 0.192931 0.965844 255 0 0 255
-0.189183 -0.055539 2.296 -0.171132 0.162578 0.971742 255 0 0 255
-0.182977 -0.055566 2.297 -0.246572 0.214207 0.945155 255 0 0 255
-0.176843 -0.055616 2.299 -0.241632 0.290614 0.925828 255 0 0 255
-0.170696 -0.055667 2.301 -0.293658 0.394509 0.870705 255 0 0 255
-0.164681 -0.055766 2.305 -0.211207 0.536261 0.8172 255 0 0 255
-0.158506 -0.055816 2.307 -0.0153712 0.530783 0.847368 255 0 0 255
-0.152055 -0.05577 2.305 0.111625 0.59584 0.795308 255 0 0 255
-0.145614 -0.055723 2.303 0.427409 0.534169 0.729373 255 0 0 255
-0.138882 -0.055556 2.296 0.406663 0.467245 0.785053 255 0 0 255
-0.132476 -0.055509 2.294 0.0219724 0.472859 0.880864 255 0 0 255
-0.12619 -0.05551 2.294 -0.48029 0.461232 0.746048 255 0 0 255
-0.120375 -0.05573 2.303 -0.797551 0.35784 0.485658 255 0 0 255
-0.114806 -0.056094 2.318 -0.556119 0.190607 0.80895 255 0 0 255
-0.108734 -0.056241 2.324 0.764143 0.382498 0.519404 255 0 0 255
-0.101704 -0.055879 2.309 0.800122 0.0409997 0.598434 255 0 0 255
-0.094838 -0.055566 2.296 0.806304 0.0719889 0.587104 255 0 0 255
-0.088313 -0.055422 2.29 0.500777 0.0493779 0.864167 255 0 0 255
-0.081927 -0.05535 2.287 0.210252 0.231927 0.949739 255 0 0 255
-0.07579 -0.055448 2.291 0.404876 0.29778 0.864524 255 0 0 255
-0.069235 -0.055231 2.282 0.709777 0.106101 0.69639 255 0 0 255
-0.062675 -0.054966 2.271 0.841203 0.0867266 0.533719 255 0 0 255
-0.056001 -0.054531 2.253 0.845466 -0.0292732 0.533226 255 0 0 255
-0.04969 -0.054386 2.247 0.753277 0.00929854 0.657638 255 0 0 255
-0.043393 -0.054218 2.24 0.698412 0.0370758 0.714735 255 0 0 255
-0.037201 -0.054145 2.237 0.654025 0.0292832 0.755906 255 0 0 255
-0.030941 -0.053928 2.228 0.421663 0.287715 0.859895 255 0 0 255
-0.024865 -0.054001 2.231 -0.155253 0.35199 0.923038 255 0 0 255
-0.018738 -0.053977 2.23 -0.446993 0.290444 0.846073 255 0 0 255
-0.012668 -0.054171 2.238 -0.498961 -0.0240668 0.86629 255 0 0 255
-0.006527 -0.054147 2.237 -0.342334 -0.311966 0.886276 255 0 0 255
-0.000393 -0.054244 2.241 -0.390865 -0.380569 0.838088 255 0 0 255
0.005761 -0.054316 2.244 -0.418036 -0.248537 0.87377 255 0 0 255
0.011931 -0.054389 2.247 -0.500212 -0.141043 0.854339 255 0 0 255
0.018125 -0.054485 2.251 -0.630342 -0.0988999 0.769992 255 0 0 255
0.024374 -0.054655 2.258 -0.662575 -0.00960591 0.748934 255 0 0 255
0.030648 -0.054799 2.264 -0.495376 0.272283 0.824903 255 0 0 255
0.036905 -0.054872 2.267 -0.384725 0.293289 0.875196 255 0 0 255
0.043122 -0.054871 2.267 -0.549865 0.242388 0.79931 255 0 0 255
0.049556 -0.055113 2.277 -0.814841 0.102731 0.570509 255 0 0 255
0.056412 -0.055717 2.302 -0.967301 -0.0421407 0.250104 255 0 0 255
-0.156485 -0.397829 2.58484 0.215401 -0.401507 -0.890165 255 255 0 255
-0.100753 -0.397637 2.54131 -0.0348249 -0.686192 -0.726587 255 255 0 255
-0.081892 -0.394199 2.54031 0.00957681 -0.732374 -0.680835 255 255 0 255
-0.06557 -0.391629 2.53779 -0.1191 -0.601246 -0.790139 255 255 0 255
-0.0426 -0.386684 2.53966 0.240382 -0.722467 -0.648274 255 255 0 255
-0.039676 -0.388815 2.52867 -0.271444 -0.394391 -0.877938 255 255 0 255
-0.022596 -0.385912 2.5269 -0.299884 -0.37204 -0.878439 255 255 0 255
-0.008873 -0.384181 2.52304 -0.651781 -0.206298 -0.72981 255 255 0 255
-0.001818 -0.384815 2.51485 -0.968065 -0.249227 -0.0271369 255 255 0 255
-0.027133 -0.397045 2.48518 0.57589 0.594914 -0.560739 255 255 0 255
-0.01094 -0.394413 2.48303 0.948555 -0.189536 -0.253614 255 255 0 255
0.010194 -0.389977 2.48428 -0.525654 0.59787 -0.605177 255 255 0 255
0.027982 -0.386717 2.48341 0.89714 0.360629 -0.25512 255 255 0 255
0.027561 -0.390025 2.47028 0.759249 0.401864 -0.511905 255 255 0 255
-0.191332 -0.453234 2.468 0.962191 -0.046016 -0.268461 0 255 0 255
-0.222855 -0.426372 2.53769 0.783591 -0.399237 -0.47602 0 255 0 255
-0.247621 -0.412722 2.56566 0.998225 -0.0578572 -0.0141027 0 255 0 255
-0.23452 -0.414764 2.56948 0.564844 -0.549119 -0.615971 0 255 0 255
-0.216343 -0.418877 2.57018 0.264586 -0.84493 -0.464852 0 255 0 255
-0.204046 -0.420543 2.57467 0.648028 0.0602198 -0.759232 0 255 0 255
-0.195958 -0.420466 2.58184 0.306008 0.940723 -0.146286 0 255 0 255
-0.175178 -0.42557 2.5812 0.295825 -0.082986 -0.951631 0 255 0 255
-0.147922 -0.42985 2.58904 0.259257 -0.138745 -0.955791 0 255 0 255
-0.141472 -0.429044 2.59744 0.0847195 0.000459856 -0.996405 0 255 0 255
-0.127379 -0.431328 2.60124 0.150036 0.0129568 -0.988596 0 255 0 255
-0.071654 -0.450411 2.58012 0.338877 -0.357166 -0.870399 0 255 0 255
-0.027985 -0.461014 2.57923 -0.645686 0.448304 -0.618153 0 255 0 255
-0.037607 -0.453642 2.59753 -0.40404 0.284335 -0.869428 0 255 0 255
-0.35889 -0.058712 2.184 0.755611 0.289456 0.587594 255 0 0 255
-0.351647 -0.058501 2.176 0.607514 0.279558 0.743487 255 0 0 255
-0.345083 -0.058397 2.172 0.521918 0.322126 0.789833 255 0 0 255
-0.338539 -0.058294 2.168 0.319745 0.467184 0.824319 255 0 0 255
-0.33217 -0.058218 2.165 -0.260176 0.327979 0.908151 255 0 0 255
-0.327172 -0.058383 2.171 -0.796722 -0.17028 0.57986 255 0 0 255
-0.323768 -0.058844 2.188 -0.840667 -0.444887 0.308794 255 0 0 255
-0.320705 -0.059386 2.208 -0.900996 -0.226491 0.370011 255 0 0 255
-0.314968 -0.059444 2.21 0.681945 -0.0563351 0.729231 255 0 0 255
-0.306562 -0.05899 2.193 0.577986 0.544204 0.60809 255 0 0 255
-0.299207 -0.058725 2.183 -0.00224889 0.478366 0.878158 255 0 0 255
-0.293921 -0.058863 2.188 -0.587039 0.523611 0.617427 255 0 0 255
-0.280702 -0.062595 2.326 0.695565 0.393263 0.601277 255 0 0 255
-0.273758 -0.062464 2.321 0.653741 0.338913 0.676581 255 0 0 255
-0.26684 -0.062333 2.316 0.373165 0.332449 0.866156 255 0 0 255
-0.260173 -0.062256 2.313 0.226016 0.436534 0.870836 255 0 0 255
-0.253522 -0.062178 2.31 0.0336591 0.447666 0.893567 255 0 0 255
-0.247314 -0.062209 2.311 0.213996 0.50912 0.833668 255 0 0 255
-0.24037 -0.06205 2.305 0.479641 0.312233 0.820034 255 0 0 255
-0.23356 -0.061919 2.3 0.649206 0.200314 0.733761 255 0 0 255
-0.226479 -0.061707 2.292 0.296074 0.23515 0.925767 255 0 0 255
-0.220306 -0.061737 2.293 -0.303462 0.223482 0.926265 255 0 0 255
-0.214406 -0.061847 2.297 -0.3798 0.0345425 0.924424 255 0 0 255
-0.208303 -0.061904 2.299 -0.0376467 0.0580953 0.997601 255 0 0 255
-0.202188 -0.06196 2.301 0.198421 0.061064 0.978213 255 0 0 255
-0.195635 -0.061882 2.298 0.0359298 0.34452 0.938091 255 0 0 255
-0.189428 -0.061912 2.299 -0.215902 0.466307 0.857872 255 0 0 255
-0.183134 -0.061915 2.299 -0.210503 0.497922 0.841286 255 0 0 255
-0.177148 -0.062025 2.303 -0.319967 0.533864 0.782694 255 0 0 255
-0.171065 -0.062108 2.306 -0.298477 0.522067 0.798973 255 0 0 255
-0.164822 -0.062137 2.307 -0.221044 0.547629 0.806995 255 0 0 255
-0.158641 -0.062193 2.309 -0.0701173 0.558937 0.826241 255 0 0 255
-0.152383 -0.062222 2.31 -0.0816986 0.696555 0.712837 255 0 0 255
-0.145992 -0.062197 2.309 0.203708 0.767145 0.608269 255 0 0 255
-0.139183 -0.061984 2.301 0.373166 0.70708 0.600654 255 0 0 255
-0.13259 -0.061851 2.296 -0.129301 0.645193 0.752999 255 0 0 255
-0.126574 -0.061988 2.301 -0.454216 0.70537 0.544189 255 0 0 255
-0.120739 -0.062232 2.31 -0.732642 0.495542 0.466556 255 0 0 255
-0.1153 -0.062718 2.328 -0.60098 0.492094 0.629814 255 0 0 255
-0.109014 -0.062774 2.33 0.550181 0.479553 0.683615 255 0 0 255
-0.101923 -0.062344 2.314 0.807162 0.333239 0.487279 255 0 0 255
-0.09496 -0.061942 2.299 0.760308 0.303954 0.574059 255 0 0 255
-0.088311 -0.0617 2.29 0.518171 0.294305 0.803046 255 0 0 255
-0.081926 -0.061621 2.287 0.0283098 0.206741 0.977986 255 0 0 255
-0.075723 -0.061676 2.289 0.486762 0.0388541 0.87267 255 0 0 255
-0.069204 -0.061461 2.281 0.829928 -0.0303163 0.557047 255 0 0 255
-0.062647 -0.061166 2.27 0.856788 0.00237724 0.515663 255 0 0 255
-0.056 -0.060709 2.253 0.857024 0.0771405 0.50947 255 0 0 255
-0.04969 -0.060548 2.247 0.788897 0.0480287 0.612646 255 0 0 255
-0.043354 -0.060306 2.238 0.661355 -0.11055 0.741882 255 0 0 255
-0.037183 -0.060252 2.236 0.450382 -0.0541902 0.89119 255 0 0 255
-0.030968 -0.060091 2.23 0.273433 -0.0382052 0.961132 255 0 0 255
-0.024898 -0.060199 2.234 0.00821162 0.352738 0.935686 255 0 0 255
-0.018763 -0.060173 2.233 -0.278913 0.0428217 0.959361 255 0 0 255
-0.012662 -0.060281 2.237 -0.271936 -0.1263 0.953991 255 0 0 255
-0.006521 -0.060227 2.235 -0.245257 -0.292257 0.924357 255 0 0 255
-0.000392 -0.060335 2.239 -0.518257 -0.130992 0.845133 255 0 0 255
0.005756 -0.060416 2.242 -0.589036 -0.0579954 0.806023 255 0 0 255
0.011931 -0.06055 2.247 -0.537852 -0.0430398 0.84194 255 0 0 255
0.018117 -0.060631 2.25 -0.628664 -0.0289789 0.777137 255 0 0 255
0.024363 -0.060819 2.257 -0.687158 -0.0828596 0.721767 255 0 0 255
0.03062 -0.060954 2.262 -0.651765 -0.0100039 0.758355 255 0 0 255
0.036937 -0.061142 2.269 -0.526355 -0.0584319 0.848255 255 0 0 255
0.043159 -0.061141 2.269 -0.706598 0.132279 0.695141 255 0 0 255
0.04962 -0.061437 2.28 -0.767359 0.0744952 0.636875 255 0 0 255
0.056509 -0.062137 2.306 -0.960979 -0.0811909 0.264438 255 0 0 255
-0.198238 -0.414467 2.60035 -0.91617 -0.375296 -0.140661 255 255 0 255
-0.162164 -0.411631 2.58286 0.210863 -0.490372 -0.845619 255 255 0 255
-0.079631 -0.401867 2.55614 -0.0142606 -0.640496 -0.767829 255 255 0 255
-0.06832 -0.401043 2.55039 -0.214257 -0.673252 -0.707691 255 255 0 255
-0.051183 -0.39813 2.54844 -0.153718 -0.816143 -0.557029 255 255 0 255
-0.025325 -0.395242 2.53937 -0.710901 -0.196616 -0.675249 255 255 0 255
-0.023244 -0.397667 2.52786 -0.527714 -0.141756 -0.83751 255 255 0 255
-0.009524 -0.395905 2.52398 -0.620807 -0.445191 -0.645293 255 255 0 255
-0.006619 -0.398027 2.51304 -0.775931 0.0480981 -0.628982 255 255 0 255
-0.006201 -0.40105 2.50044 0.977373 0.0210038 -0.210479 255 255 0 255
-0.019032 -0.408884 2.47898 0.977659 -0.0303894 -0.20799 255 255 0 255
-0.008655 -0.40831 2.47297 0.929806 0.368032 -0.00358427 255 255 0 255
-0.009867 -0.411947 2.45919 0.680459 0.232495 -0.694925 255 255 0 255
-0.235475 -0.429046 2.55938 -0.84736 -0.361977 -0.388527 0 255 0 255
-0.231157 -0.424063 2.58096 0.248443 -0.901379 -0.354671 0 255 0 255
-0.234061 -0.419477 2.5949 -0.650258 0.682713 -0.333267 0 255 0 255
-0.19223 -0.433389 2.58101 0.0190001 -0.386154 -0.922239 0 255 0 255
-0.175681 -0.436802 2.58301 0.305917 -0.732349 -0.608341 0 255 0 255
-0.175176 -0.433589 2.59497 0.0856778 -0.828566 -0.553297 0 255 0 255
-0.150128 -0.440452 2.59192 -0.0353481 -0.0567054 -0.997765 0 255 0 255
-0.136903 -0.442431 2.5962 0.257004 0.168984 -0.951522 0 255 0 255
-0.116876 -0.447168 2.59645 0.763305 0.149625 -0.628473 0 255 0 255
-0.056345 -0.464863 2.5851 0.440356 0.244882 -0.863782 0 255 0 255
-0.045562 -0.465732 2.59126 -0.154682 0.510549 -0.845821 0 255 0 255
-0.03817 -0.465216 2.59948 0.0947802 -0.504057 -0.858454 0 255 0 255
-0.352128 -0.064543 2.179 0.572631 0.31903 0.755191 255 0 0 255
-0.345714 -0.064458 2.176 0.51609 0.351287 0.781184 255 0 0 255
-0.33916 -0.064344 2.172 0.471361 0.355917 0.806934 255 0 0 255
-0.332319 -0.064171 2.166 0.268457 0.260507 0.927398 255 0 0 255
-0.326715 -0.064235 2.168 -0.342918 -0.0813409 0.935837 255 0 0 255
-0.322728 -0.064624 2.181 -0.963892 -0.0255694 0.265064 255 0 0 255
-0.319539 -0.065192 2.2 -0.395021 -0.628923 0.669638 255 0 0 255
-0.314963 -0.065493 2.21 0.725538 0.0102386 0.688106 255 0 0 255
-0.307397 -0.065171 2.199 0.335659 0.820748 0.462283 255 0 0 255
-0.3003 -0.064938 2.191 0.063616 0.714064 0.697185 255 0 0 255
-0.29526 -0.06515 2.198 0.0462138 0.715676 0.696902 255 0 0 255
-0.282026 -0.069291 2.337 0.828208 0.19544 0.525239 255 0 0 255
-0.274462 -0.068998 2.327 0.746509 0.175054 0.641935 255 0 0 255
-0.267182 -0.068765 2.319 0.481853 0.16838 0.859922 255 0 0 255
-0.260395 -0.06865 2.315 0.138767 0.323434 0.93602 255 0 0 255
-0.254067 -0.068654 2.315 0.00758438 0.316421 0.948588 255 0 0 255
-0.247953 -0.068717 2.317 0.0974084 0.294701 0.950612 255 0 0 255
-0.241201 -0.068602 2.313 0.437285 0.408127 0.801383 255 0 0 255
-0.234064 -0.068368 2.305 0.555487 0.436439 0.707782 255 0 0 255
-0.227167 -0.068193 2.299 0.279347 0.63812 0.717473 255 0 0 255
-0.220783 -0.068167 2.298 -0.145328 0.524749 0.83876 255 0 0 255
-0.214683 -0.068229 2.3 -0.119402 0.53513 0.836289 255 0 0 255
-0.20839 -0.068233 2.3 -0.110804 0.364973 0.924401 255 0 0 255
-0.202097 -0.068236 2.3 -0.00461172 0.285724 0.958301 255 0 0 255
-0.195802 -0.068239 2.3 -0.0833579 0.337698 0.937556 255 0 0 255
-0.189754 -0.068331 2.303 -0.200937 0.449055 0.870617 255 0 0 255
-0.18361 -0.068393 2.305 -0.231879 0.429777 0.872653 255 0 0 255
-0.177376 -0.068425 2.306 -0.343171 0.428015 0.836084 255 0 0 255
-0.171433 -0.068576 2.311 -0.408102 0.409849 0.815768 255 0 0 255
-0.165176 -0.068608 2.312 -0.274531 0.543719 0.793097 255 0 0 255
-0.159051 -0.0687 2.315 -0.236669 0.634492 0.735804 255 0 0 255
-0.15271 -0.068702 2.315 -0.144754 0.713898 0.685125 255 0 0 255
-0.146685 -0.068853 2.32 -0.192844 0.778521 0.597256 255 0 0 255
-0.140148 -0.068766 2.317 0.185096 0.835703 0.517049 255 0 0 255
-0.133454 -0.06859 2.311 -0.0173384 0.82186 0.569425 255 0 0 255
-0.127232 -0.068651 2.313 -0.0543618 0.74292 0.667169 255 0 0 255
-0.121208 -0.068831 2.319 -0.700178 0.493816 0.515651 255 0 0 255
-0.115447 -0.069189 2.331 -0.754432 0.224877 0.616654 255 0 0 255
-0.109152 -0.06925 2.333 0.456098 0.327186 0.827601 255 0 0 255
-0.10223 -0.068896 2.321 0.74738 0.312489 0.586322 255 0 0 255
-0.095207 -0.068422 2.305 0.80154 0.399425 0.444964 255 0 0 255
-0.08858 -0.068186 2.297 0.687028 0.366724 0.627301 255 0 0 255
-0.082068 -0.06801 2.291 0.510102 0.255071 0.821422 255 0 0 255
-0.075755 -0.067981 2.29 0.655867 -0.0652076 0.752055 255 0 0 255
-0.069173 -0.067685 2.28 0.771469 -0.126987 0.623467 255 0 0 255
-0.062673 -0.067419 2.271 0.790111 -0.0417038 0.611544 255 0 0 255
-0.056099 -0.067005 2.257 0.817175 0.278057 0.504886 255 0 0 255
-0.049711 -0.066738 2.248 0.819409 0.169588 0.547547 255 0 0 255
-0.043334 -0.066412 2.237 0.665098 -0.130102 0.735335 255 0 0 255
-0.03715 -0.066324 2.234 0.33387 -0.208496 0.919272 255 0 0 255
-0.030996 -0.066265 2.232 0.0648618 -0.224803 0.972243 255 0 0 255
-0.024908 -0.066355 2.235 -0.105287 -0.150922 0.982923 255 0 0 255
-0.018771 -0.066325 2.234 -0.110905 -0.197826 0.973943 255 0 0 255
-0.012645 -0.066326 2.234 -0.114052 0.00283038 0.993471 255 0 0 255
-0.006518 -0.066326 2.234 -0.246628 0.00255288 0.969107 255 0 0 255
-0.000392 -0.066415 2.237 -0.44293 0.101934 0.890743 255 0 0 255
0.005756 -0.066563 2.242 -0.638398 0.0159609 0.769541 255 0 0 255
0.011941 -0.066771 2.249 -0.582196 0.0888617 0.808178 255 0 0 255
0.018117 -0.0668 2.25 -0.592443 0.111522 0.797856 255 0 0 255
0.024363 -0.067008 2.257 -0.610986 -0.0459078 0.790309 255 0 0 255
0.030593 -0.067096 2.26 -0.622376 -0.0906241 0.777454 255 0 0 255
0.036904 -0.067304 2.267 -0.636073 -0.13732 0.759312 255 0 0 255
0.043196 -0.067422 2.271 -0.746317 -0.0488374 0.663796 255 0 0 255
0.04962 -0.067688 2.28 -0.748685 0.0188339 0.662658 255 0 0 255
0.056508 -0.068459 2.306 -0.953165 -0.107394 0.282742 255 0 0 255
-0.078597 -0.413155 2.55823 0.0849618 -0.549293 -0.831299 255 255 0 255
-0.063113 -0.410809 2.55514 -0.248598 -0.600362 -0.760108 255 255 0 255
-0.04098 -0.406051 2.55639 0.119526 -0.583021 -0.803617 255 255 0 255
-0.016387 -0.400372 2.55937 -0.162332 -0.874721 -0.456631 255 255 0 255
-0.003496 -0.398883 2.55492 -0.605236 -0.70234 -0.374709 255 255 0 255
-0.003099 -0.401904 2.54239 -0.759583 -0.635474 -0.138585 255 255 0 255
-0.015987 -0.409757 2.52112 -0.591089 -0.165905 -0.78936 255 255 0 255
0.001864 -0.406446 2.52 0.994594 0.102688 -0.0154397 255 255 0 255
0.000618 -0.41008 2.50633 -0.97573 -0.189327 -0.110034 255 255 0 255
-0.012209 -0.417963 2.48489 0.927891 0.116995 -0.354021 255 255 0 255
-0.027483 -0.426773 2.46169 0.889211 -0.00741993 -0.457437 255 255 0 255
-0.01545 -0.425573 2.45677 0.665036 0.281328 -0.691796 255 255 0 255
-0.227551 -0.44369 2.55579 -0.918866 -0.287954 -0.269756 0 255 0 255
-0.250626 -0.430598 2.58256 -0.799772 0.0376854 -0.599119 0 255 0 255
-0.25943 -0.423532 2.60017 -0.961028 -0.231712 -0.15078 0 255 0 255
-0.189353 -0.445997 2.58072 -0.539249 0.738999 -0.403846 0 255 0 255
-0.193919 -0.440675 2.59578 0.157226 -0.883688 -0.440881 0 255 0 255
-0.172297 -0.446226 2.59472 0.489553 -0.26041 -0.83218 0 255 0 255
-0.15318 -0.450703 2.59531 -0.0526806 -0.106408 -0.992926 0 255 0 255
-0.132342 -0.455859 2.59498 0.0295409 -0.502208 -0.864242 0 255 0 255
-0.060301 -0.475019 2.58906 -0.198684 -0.0938531 -0.975559 0 255 0 255
-0.033633 -0.478878 2.59843 0.94436 0.284107 -0.165733 0 255 0 255
-0.031336 -0.476289 2.60969 0.85312 0.365021 -0.372755 0 255 0 255
-0.352769 -0.070633 2.183 0.523358 0.638248 0.564567 255 0 0 255
-0.346345 -0.070541 2.18 0.402728 0.696303 0.594115 255 0 0 255
-0.339311 -0.070319 2.173 0.505721 0.583322 0.635596 255 0 0 255
-0.332621 -0.070162 2.168 0.0065788 0.374048 0.927386 255 0 0 255
-0.32656 -0.070135 2.167 -0.359078 0.584487 0.727625 255 0 0 255
-0.321983 -0.070431 2.176 -0.815522 0.302718 0.49324 255 0 0 255
-0.317937 -0.070857 2.189 -0.864129 0.0779875 0.49719 255 0 0 255
-0.313676 -0.07125 2.201 -0.519525 -0.63149 0.575599 255 0 0 255
-0.307672 -0.071254 2.201 0.327725 -0.944369 0.027642 255 0 0 255
-0.302351 -0.071421 2.206 0.641078 0.189995 0.743587 255 0 0 255
-0.300226 -0.072364 2.235 -0.797215 -0.415331 0.438119 255 0 0 255
-0.282384 -0.075787 2.34 0.90337 0.0697218 0.423157 255 0 0 255
-0.273986 -0.075241 2.323 0.607404 -0.0498998 0.792825 255 0 0 255
-0.267063 -0.075083 2.318 0.309877 -0.0875693 0.946736 255 0 0 255
-0.260503 -0.075022 2.316 0.0318032 -0.0834176 0.996007 255 0 0 255
-0.254283 -0.075059 2.317 -0.0243357 0.0171694 0.999556 255 0 0 255
-0.247842 -0.07503 2.316 0.114363 0.0544851 0.991944 255 0 0 255
-0.241406 -0.075002 2.315 0.377633 0.233626 0.895998 255 0 0 255
-0.23467 -0.074876 2.311 0.388754 0.243402 0.888609 255 0 0 255
-0.228152 -0.074815 2.309 0.248498 0.564356 0.787243 255 0 0 255
-0.221356 -0.074657 2.304 0.132809 0.69607 0.705583 255 0 0 255
-0.215147 -0.074693 2.305 0.0565204 0.628506 0.775748 255 0 0 255
-0.208659 -0.074631 2.303 0.104581 0.52654 0.843693 255 0 0 255
-0.202357 -0.074635 2.303 -0.0388627 0.502303 0.863818 255 0 0 255
-0.196055 -0.074638 2.303 -0.159403 0.485305 0.859692 255 0 0 255
-0.189916 -0.074706 2.305 -0.23968 0.477873 0.845098 255 0 0 255
-0.183766 -0.074774 2.307 -0.199825 0.430931 0.879982 255 0 0 255
-0.17745 -0.074777 2.307 -0.354353 0.384926 0.852212 255 0 0 255
-0.171505 -0.074942 2.312 -0.455528 0.420919 0.784424 255 0 0 255
-0.165388 -0.075042 2.315 -0.386115 0.491036 0.780896 255 0 0 255
-0.159392 -0.075206 2.32 -0.3527 0.655477 0.667797 255 0 0 255
-0.153236 -0.075306 2.323 -0.318729 0.691544 0.648211 255 0 0 255
-0.147252 -0.075503 2.329 -0.104231 0.505934 0.856252 255 0 0 255
-0.140872 -0.075506 2.329 0.266448 0.608247 0.747691 255 0 0 255
-0.134029 -0.075249 2.321 0.275235 0.606873 0.745621 255 0 0 255
-0.12756 -0.075186 2.319 -0.0945948 0.576641 0.811503 255 0 0 255
-0.12131 -0.075253 2.321 -0.608186 0.400003 0.685644 255 0 0 255
-0.115495 -0.075612 2.332 -0.572778 0.105191 0.812933 255 0 0 255
-0.109291 -0.075743 2.336 0.262107 0.292553 0.919626 255 0 0 255
-0.102404 -0.075388 2.325 0.731348 0.373208 0.570829 255 0 0 255
-0.095536 -0.075001 2.313 0.83298 0.281921 0.476093 255 0 0 255
-0.088733 -0.074613 2.301 0.747184 0.35625 0.561072 255 0 0 255
-0.082103 -0.074323 2.292 0.70838 0.190012 0.679775 255 0 0 255
-0.075588 -0.074097 2.285 0.728793 -0.123642 0.673479 255 0 0 255
-0.069141 -0.073904 2.279 0.781135 -0.116533 0.61339 255 0 0 255
-0.062727 -0.073711 2.273 0.729628 -0.12916 0.671536 255 0 0 255
-0.056247 -0.073387 2.263 0.814284 0.0299953 0.579691 255 0 0 255
-0.049776 -0.072999 2.251 0.796037 0.301142 0.525012 255 0 0 255
-0.043333 -0.072546 2.237 0.706308 0.118197 0.697968 255 0 0 255
-0.037099 -0.072352 2.231 0.431031 -0.0210228 0.902092 255 0 0 255
-0.030954 -0.072288 2.229 0.142346 0.0909413 0.98563 255 0 0 255
-0.024852 -0.07232 2.23 -0.243542 -0.0259559 0.969543 255 0 0 255
-0.018762 -0.072418 2.233 -0.174585 0.0653628 0.98247 255 0 0 255
-0.012644 -0.072451 2.234 -0.230585 0.10614 0.967246 255 0 0 255
-0.00653 -0.072581 2.238 -0.329125 0.22639 0.916747 255 0 0 255
-0.000392 -0.072613 2.239 -0.515077 0.24424 0.82161 255 0 0 255
0.005758 -0.072743 2.243 -0.653704 0.214058 0.725845 255 0 0 255
0.011941 -0.072937 2.249 -0.579289 0.26432 0.771076 255 0 0 255
0.018141 -0.073067 2.253 -0.54116 0.268561 0.796882 255 0 0 255
0.024373 -0.073229 2.258 -0.49379 0.186115 0.849431 255 0 0 255
0.030565 -0.073228 2.258 -0.500753 0.0288498 0.865109 255 0 0 255
0.036854 -0.073422 2.264 -0.672368 -0.00659993 0.740188 255 0 0 255
0.043177 -0.073616 2.27 -0.768269 0.0101211 0.640047 255 0 0 255
0.049619 -0.07394 2.28 -0.864806 0.0179097 0.501787 255 0 0 255
0.05636 -0.074587 2.3 -0.943633 -0.114514 0.310553 255 0 0 255
-0.164744 -0.433007 2.5974 -0.0449486 -0.602897 -0.796552 255 255 0 255
-0.1735 -0.439375 2.57894 0.603899 -0.213775 -0.767858 255 255 0 255
-0.072548 -0.422637 2.5635 -0.0307279 -0.495332 -0.86816 255 255 0 255
-0.057075 -0.420252 2.56041 0.0533435 -0.661534 -0.748016 255 255 0 255
-0.036624 -0.416038 2.56059 -0.10207 -0.262369 -0.959554 255 255 0 255
-0.021209 -0.413625 2.55766 -0.0537033 0.0968616 -0.993848 255 255 0 255
-0.00249 -0.409986 2.55695 -0.865224 -0.0236466 -0.500828 255 255 0 255
-0.006247 -0.414537 2.54171 -0.915425 0.399307 -0.0505091 255 255 0 255
0.000806 -0.415138 2.5335 0.968667 0.0561858 -0.241925 255 255 0 255
-0.007908 -0.421528 2.51493 -0.987965 0.0936439 -0.123112 255 255 0 255
-0.006652 -0.424267 2.50287 0.914629 0.2498 -0.317889 255 255 0 255
-0.016151 -0.430984 2.48362 0.937631 -0.0683878 -0.340839 255 255 0 255
-0.014874 -0.433734 2.4715 0.974239 0.0162504 -0.22493 255 255 0 255
0.011181 -0.427289 2.47607 0.803656 -0.114172 -0.584039 255 255 0 255
-0.204192 -0.468396 2.53012 0.93369 0.27226 -0.232588 0 255 0 255
-0.214938 -0.456954 2.56149 -0.773219 -0.612015 -0.166043 0 255 0 255
-0.200975 -0.459416 2.56495 0.788351 -0.554063 -0.267429 0 255 0 255
-0.21262 -0.44766 2.59665 0.191393 -0.704602 -0.683304 0 255 0 255
-0.193571 -0.452227 2.59706 -0.0586137 -0.488294 -0.870709 0 255 0 255
-0.171114 -0.458186 2.59551 -0.148346 -0.257391 -0.954853 0 255 0 255
-0.152005 -0.462711 2.59613 0.00724408 -0.304714 -0.952416 0 255 0 255
-0.132867 -0.467216 2.59685 0.0958853 -0.158881 -0.982631 0 255 0 255
-0.126404 -0.46643 2.60532 0.124031 -0.184608 -0.974954 0 255 0 255
-0.064255 -0.485165 2.59301 0.121224 -0.690288 -0.713307 0 255 0 255
-0.051787 -0.486784 2.59818 0.0470143 -0.845317 -0.532193 0 255 0 255
-0.044402 -0.486295 2.6064 0.227032 -0.839624 -0.493444 0 255 0 255
-0.020847 -0.492428 2.60519 0.967983 0.221948 -0.117251 0 255 0 255
-0.029608 -0.485302 2.62291 0.225666 -0.492472 -0.840563 0 255 0 255
-0.017939 -0.486536 2.62875 -0.868372 0.0495344 -0.493433 0 255 0 255
-0.350947 -0.077522 2.209 0.378396 0.925643 0.000944222 255 0 0 255
-0.342429 -0.076966 2.193 0.316681 0.881883 0.349279 255 0 0 255
-0.335071 -0.076656 2.184 0.0113741 0.877609 0.479243 255 0 0 255
-0.328815 -0.076591 2.182 -0.33746 0.852898 0.398353 255 0 0 255
-0.323162 -0.076666 2.184 -0.829687 0.398745 0.390668 255 0 0 255
-0.318658 -0.077022 2.194 -0.773532 0.386801 0.502029 255 0 0 255
-0.314384 -0.077449 2.206 -0.968069 -0.133759 0.212017 255 0 0 255
-0.310602 -0.078016 2.222 -0.782714 -0.616813 0.0830698 255 0 0 255
-0.27351 -0.081461 2.319 0.407473 0.0678582 0.910693 255 0 0 255
-0.266482 -0.081255 2.313 0.261804 -0.0226254 0.964856 255 0 0 255
-0.260499 -0.081365 2.316 0.0119704 0.0680748 0.997608 255 0 0 255
-0.254279 -0.081404 2.317 0.0476344 -0.142715 0.988617 255 0 0 255
-0.247731 -0.081339 2.315 0.34536 -0.249931 0.904578 255 0 0 255
-0.241402 -0.081343 2.315 0.097977 -0.414795 0.904625 255 0 0 255
-0.23497 -0.081312 2.314 0.162673 -0.221775 0.961433 255 0 0 255
-0.228642 -0.081316 2.314 0.139224 0.0671602 0.987981 255 0 0 255
-0.222025 -0.081214 2.311 0.261681 0.335658 0.904907 255 0 0 255
-0.21561 -0.081183 2.31 0.221268 0.316824 0.922314 255 0 0 255
-0.209108 -0.081116 2.308 0.0666139 0.42144 0.904406 255 0 0 255
-0.202617 -0.08105 2.306 -0.139349 0.491502 0.859655 255 0 0 255
-0.196477 -0.081124 2.308 -0.086498 0.507049 0.857566 255 0 0 255
-0.190325 -0.081197 2.31 -0.138602 0.443545 0.88547 255 0 0 255
-0.184081 -0.081236 2.311 -0.126347 0.314255 0.940893 255 0 0 255
-0.177755 -0.081239 2.311 -0.331238 0.405106 0.852156 255 0 0 255
-0.171798 -0.081418 2.316 -0.467973 0.453159 0.758715 255 0 0 255
-0.165814 -0.081597 2.321 -0.559152 0.415786 0.717267 255 0 0 255
-0.15987 -0.081811 2.327 -0.519293 0.381081 0.764926 255 0 0 255
-0.153695 -0.081919 2.33 -0.273761 0.249696 0.92882 255 0 0 255
-0.147502 -0.082027 2.333 0.0320427 0.187036 0.98183 255 0 0 255
-0.14099 -0.081959 2.331 0.281816 -0.117562 0.952239 255 0 0 255
-0.134431 -0.081856 2.328 0.519193 0.114361 0.846971 255 0 0 255
-0.127778 -0.081683 2.323 -0.075822 0.393614 0.916144 255 0 0 255
-0.121465 -0.08172 2.324 -0.477229 0.492584 0.727746 255 0 0 255
-0.115493 -0.082004 2.332 -0.612154 0.292151 0.734789 255 0 0 255
-0.110038 -0.082709 2.352 -0.628876 0.523823 0.574565 255 0 0 255
-0.102799 -0.082078 2.334 0.535593 0.635261 0.556403 255 0 0 255
-0.095741 -0.081517 2.318 0.867912 0.155991 0.471589 255 0 0 255
-0.08904 -0.081203 2.309 0.819102 0.224496 0.527895 255 0 0 255
-0.082245 -0.080747 2.296 0.765671 0.162233 0.622438 255 0 0 255
-0.075653 -0.080432 2.287 0.816338 -0.0924051 0.570134 255 0 0 255
-0.069049 -0.080046 2.276 0.774667 -0.226851 0.59028 255 0 0 255
-0.062644 -0.079837 2.27 0.686784 -0.222813 0.691868 255 0 0 255
-0.056296 -0.079662 2.265 0.601863 -0.253596 0.757265 255 0 0 255
-0.04993 -0.079417 2.258 0.786082 0.227438 0.574759 255 0 0 255
-0.043507 -0.078995 2.246 0.785342 0.376687 0.491269 255 0 0 255
-0.037198 -0.07868 2.237 0.546659 0.464088 0.696984 255 0 0 255
-0.030981 -0.078469 2.231 0.0223681 0.369898 0.928803 255 0 0 255
-0.024885 -0.07854 2.233 -0.263265 0.228624 0.937242 255 0 0 255
-0.018787 -0.078646 2.236 -0.263898 0.25071 0.931398 255 0 0 255
-0.012655 -0.078646 2.236 -0.325101 0.252076 0.911464 255 0 0 255
-0.006532 -0.078752 2.239 -0.390115 0.263036 0.882396 255 0 0 255
-0.000393 -0.078822 2.241 -0.500209 0.352804 0.790772 255 0 0 255
0.005771 -0.079068 2.248 -0.594649 0.336754 0.730061 255 0 0 255
0.011957 -0.079209 2.252 -0.578945 0.2924 0.761134 255 0 0 255
0.018173 -0.079385 2.257 -0.530157 0.293519 0.795475 255 0 0 255
0.024394 -0.07949 2.26 -0.308556 0.264836 0.913595 255 0 0 255
0.030619 -0.07956 2.262 -0.337593 0.172596 0.925333 255 0 0 255
0.036854 -0.079629 2.264 -0.655673 0.059003 0.752736 255 0 0 255
0.043214 -0.07991 2.272 -0.771132 0.0172715 0.636441 255 0 0 255
0.049618 -0.08019 2.28 -0.826084 0.000220969 0.563546 255 0 0 255
0.056237 -0.080717 2.295 -0.938233 -0.133295 0.319299 255 0 0 255
-0.195022 -0.449144 2.60689 -0.0960459 -0.395738 -0.913327 255 255 0 255
-0.177654 -0.446225 2.6042 -0.203291 -0.0629037 -0.977096 255 255 0 255
-0.167048 -0.445701 2.59751 -0.0446635 -0.166256 -0.985071 255 255 0 255
-0.088681 -0.436936 2.56771 0.203305 -0.534317 -0.820471 255 255 0 255
-0.061493 -0.430266 2.57193 -0.00296701 -0.650228 -0.759734 255 255 0 255
-0.031852 -0.422657 2.57789 0.347136 -0.867011 -0.357476 255 255 0 255
-0.035606 -0.42723 2.56265 0.466212 -0.805797 -0.365154 255 255 0 255
-0.028521 -0.427837 2.55435 -0.460803 -0.697398 -0.548905 255 255 0 255
-0.015622 -0.426297 2.54983 -0.934618 0.237848 -0.264419 255 255 0 255
-0.000252 -0.423828 2.547 -0.945049 0.150861 -0.29004 255 255 0 255
-0.013122 -0.431784 2.52575 -0.982324 0.00980935 -0.186932 255 255 0 255
0.001399 -0.429612 2.52243 0.977993 -0.178397 -0.108188 255 255 0 255
0.000991 -0.43297 2.5093 -0.91627 -0.0833675 -0.391789 255 255 0 255
-0.006852 -0.439107 2.49118 0.790208 0.043429 -0.611298 255 255 0 255
0.011768 -0.435377 2.49072 0.807992 0.315073 -0.497873 255 255 0 255
-0.00926 -0.446472 2.46364 0.793923 -0.00222085 -0.608014 255 255 0 255
-0.212581 -0.472804 2.54921 0.714906 0.695744 -0.0696373 0 255 0 255
-0.233925 -0.460257 2.57493 0.831826 0.540177 -0.127569 0 255 0 255
-0.20232 -0.470276 2.56727 0.0511547 0.977951 -0.202471 0 255 0 255
-0.219493 -0.459543 2.59023 0.544799 0.594304 -0.591605 0 255 0 255
-0.21985 -0.455969 2.60262 -0.244796 0.404844 -0.881009 0 255 0 255
-0.215153 -0.454535 2.61187 0.253836 -0.366613 -0.895077 0 255 0 255
-0.176687 -0.467323 2.60044 -0.314613 -0.370954 -0.873734 0 255 0 255
-0.160971 -0.470479 2.60313 -0.132537 -0.467772 -0.873855 0 255 0 255
-0.14185 -0.475038 2.60384 -0.0326393 -0.245584 -0.968826 0 255 0 255
-0.121853 -0.479931 2.60414 -0.430156 -0.265466 -0.86284 0 255 0 255
-0.07075 -0.494241 2.59848 0.0233183 -0.64761 -0.761615 0 255 0 255
-0.041826 -0.495645 2.61909 0.231999 -0.399003 -0.887115 0 255 0 255
-0.026773 -0.498318 2.62291 -0.0776579 0.207565 -0.975134 0 255 0 255
-0.282495 -0.088639 2.341 0.900468 0.149827 0.408301 255 0 0 255
-0.273623 -0.087849 2.32 0.436121 0.278287 0.855777 255 0 0 255
-0.267169 -0.087816 2.319 0.266628 0.368455 0.89059 255 0 0 255
-0.260607 -0.087745 2.317 0.0381693 0.348554 0.936511 255 0 0 255
-0.254165 -0.087712 2.316 0.427008 0.0913907 0.899617 255 0 0 255
-0.247299 -0.087527 2.311 0.470223 -0.122572 0.873994 255 0 0 255
-0.240563 -0.08738 2.307 0.107277 -0.366269 0.924305 255 0 0 255
-0.234458 -0.08746 2.309 -0.134549 -0.36071 0.922922 255 0 0 255
-0.22844 -0.087578 2.312 -0.106871 -0.0470226 0.99316 255 0 0 255
-0.222117 -0.087583 2.312 0.085863 -0.0247052 0.996001 255 0 0 255
-0.215606 -0.087511 2.31 0.181676 0.0546865 0.981837 255 0 0 255
-0.209105 -0.087439 2.308 0.0610406 0.0858236 0.994439 255 0 0 255
-0.202965 -0.087519 2.31 -0.170439 0.286436 0.942818 255 0 0 255
-0.196814 -0.087598 2.312 -0.154988 0.244597 0.957158 255 0 0 255
-0.190404 -0.087564 2.311 -0.0276101 0.212183 0.97684 255 0 0 255
-0.183998 -0.08753 2.31 -0.125335 0.246343 0.961044 255 0 0 255
-0.177905 -0.087647 2.313 -0.459195 0.342304 0.819737 255 0 0 255
-0.172018 -0.087878 2.319 -0.605538 0.323065 0.727291 255 0 0 255
-0.165954 -0.088033 2.323 -0.543 0.309741 0.78052 255 0 0 255
-0.159936 -0.088225 2.328 -0.387406 0.162167 0.907534 255 0 0 255
-0.153758 -0.088342 2.331 -0.295261 0.127432 0.94688 255 0 0 255
-0.147247 -0.088269 2.329 0.0769088 -0.0885602 0.993097 255 0 0 255
-0.140564 -0.088082 2.324 0.411388 -0.0762863 0.908262 255 0 0 255
-0.13414 -0.088047 2.323 0.321935 0.221469 0.920494 255 0 0 255
-0.127775 -0.08805 2.323 -0.204015 0.413278 0.887457 255 0 0 255
-0.121776 -0.088318 2.33 -0.592743 0.432575 0.679363 255 0 0 255
-0.115837 -0.088661 2.339 -0.853261 0.305168 0.42287 255 0 0 255
-0.103457 -0.089044 2.349 -0.877022 0.308031 0.368712 255 0 0 255
-0.095615 -0.087758 2.315 0.82358 0.0575115 0.564276 255 0 0 255
-0.088922 -0.087418 2.306 0.839005 0.0662664 0.540074 255 0 0 255
-0.082243 -0.087041 2.296 0.836425 0.0628173 0.544469 255 0 0 255
-0.075552 -0.086587 2.284 0.865122 -0.0824494 0.494739 255 0 0 255
-0.068896 -0.086096 2.271 0.777038 -0.280239 0.56363 255 0 0 255
