ply
format ascii 1.0
comment VCGLIB generated
element vertex 736
property float x
property float y
property float z
property float nx
property float ny
property float nz
property uchar red
property uchar green
property uchar blue
property uchar alpha
element face 0
property list uchar int vertex_indices
end_header
-0.044859 0.624021 2.042 -0.616069 0.614386 0.492939 255 0 0 255
-0.039373 0.625247 2.046 -0.372543 0.734214 0.567576 255 0 0 255
-0.033849 0.626166 2.049 -0.119177 0.911147 0.394472 255 0 0 255
-0.028254 0.625863 2.048 -0.164505 0.886811 0.431861 255 0 0 255
-0.022674 0.625865 2.048 0.0746955 0.946199 0.314847 255 0 0 255
-0.017228 0.630756 2.064 -0.402157 0.909116 0.108526 255 0 0 255
-0.141803 0.628985 2.077 0.47502 0.878511 0.050735 255 0 0 255
-0.135558 0.62627 2.068 0.431603 0.8934 0.12472 255 0 0 255
-0.129738 0.625372 2.065 0.466157 0.868817 0.166898 255 0 0 255
-0.123754 0.623564 2.059 0.446293 0.861087 0.243622 255 0 0 255
-0.117803 0.621756 2.053 0.550779 0.742635 0.380968 255 0 0 255
-0.111938 0.620251 2.048 0.503836 0.697029 0.510196 255 0 0 255
-0.106205 0.619351 2.045 0.494809 0.662389 0.562499 255 0 0 255
-0.100488 0.61845 2.042 0.545441 0.639366 0.541946 255 0 0 255
-0.094694 0.616943 2.037 0.610022 0.627949 0.483273 255 0 0 255
-0.088839 0.61483 2.03 0.410066 0.74819 0.521591 255 0 0 255
-0.083268 0.614534 2.029 0.0437096 0.82365 0.565412 255 0 0 255
-0.077741 0.61454 2.029 -0.235097 0.646919 0.725414 255 0 0 255
-0.072286 0.615152 2.031 -0.217732 0.581761 0.783675 255 0 0 255
-0.06672 0.614854 2.03 -0.216069 0.563082 0.797655 255 0 0 255
-0.06128 0.615768 2.033 -0.317264 0.590313 0.742209 255 0 0 255
-0.055797 0.616378 2.035 -0.497337 0.550365 0.670637 255 0 0 255
-0.050401 0.6182 2.041 -0.675772 0.555226 0.484826 255 0 0 255
-0.044973 0.620021 2.047 -0.624241 0.617651 0.478361 255 0 0 255
-0.039492 0.621539 2.052 -0.42101 0.820556 0.386573 255 0 0 255
-0.033984 0.623056 2.057 -0.357133 0.91409 0.192081 255 0 0 255
-0.028408 0.623664 2.059 -0.417732 0.905764 0.0713585 255 0 0 255
-0.022931 0.627301 2.071 -0.49273 0.86961 0.0315491 255 0 0 255
-0.017572 0.637601 2.105 -0.771874 0.635455 0.0201811 255 0 0 255
-0.145569 0.639882 2.132 0.766909 0.198985 0.610128 255 0 0 255
-0.1376 0.629988 2.099 -0.650036 -0.759436 0.0266592 255 0 0 255
-0.130816 0.624896 2.082 -0.576586 -0.817037 0.000460844 255 0 0 255
-0.124425 0.621304 2.07 0.623214 0.766862 0.153389 255 0 0 255
-0.118386 0.619212 2.063 0.651843 0.697839 0.296853 255 0 0 255
-0.112275 0.61652 2.054 0.644924 0.62053 0.446111 255 0 0 255
-0.106473 0.615328 2.05 0.558187 0.563145 0.60934 255 0 0 255
-0.100742 0.614435 2.047 0.55754 0.504314 0.659406 255 0 0 255
-0.09498 0.613242 2.043 0.561013 0.468347 0.68258 255 0 0 255
-0.089196 0.611749 2.038 0.543629 0.594477 0.592507 255 0 0 255
-0.08348 0.610555 2.034 0.118501 0.778646 0.616172 255 0 0 255
-0.077939 0.610561 2.034 -0.115509 0.702649 0.702098 255 0 0 255
-0.072434 0.610867 2.035 -0.147575 0.655715 0.740445 255 0 0 255
-0.066923 0.611173 2.036 -0.210473 0.713354 0.668452 255 0 0 255
-0.061436 0.611778 2.038 -0.347078 0.676563 0.64946 255 0 0 255
-0.055911 0.612083 2.039 -0.485633 0.661488 0.571485 255 0 0 255
-0.050529 0.614188 2.046 -0.688909 0.577066 0.438633 255 0 0 255
-0.045086 0.615993 2.052 -0.665456 0.64573 0.374434 255 0 0 255
-0.03963 0.618098 2.059 -0.533185 0.813906 0.230806 255 0 0 255
-0.034185 0.621103 2.069 -0.55811 0.824515 0.0932092 255 0 0 255
-0.028644 0.623207 2.076 -0.526696 0.848019 0.0587861 255 0 0 255
-0.023254 0.630414 2.1 -0.722483 0.69121 0.0157185 255 0 0 255
-0.017874 0.642723 2.141 -0.899597 0.255932 0.35387 255 0 0 255
-0.012175 0.649929 2.165 -0.0371762 0.540356 0.840615 255 0 0 255
-0.154581 0.647495 2.177 0.789953 -0.438805 0.428282 255 0 0 255
-0.146195 0.636799 2.141 0.457229 0.245336 0.85484 255 0 0 255
-0.13925 0.631754 2.124 0.702773 0.327132 0.631739 255 0 0 255
-0.132146 0.625518 2.103 0.704282 0.709807 0.012697 255 0 0 255
-0.125156 0.619282 2.082 0.597217 0.793284 0.118462 255 0 0 255
-0.118854 0.616019 2.071 0.688748 0.699591 0.19026 255 0 0 255
-0.112557 0.612459 2.059 0.697355 0.592914 0.402677 255 0 0 255
-0.106585 0.610385 2.052 0.580909 0.561595 0.589199 255 0 0 255
-0.100799 0.609203 2.048 0.55894 0.46136 0.689009 255 0 0 255
-0.095034 0.608021 2.044 0.587378 0.389933 0.709182 255 0 0 255
-0.089334 0.607136 2.041 0.437843 0.513918 0.737687 255 0 0 255
-0.083651 0.60625 2.038 0.226954 0.630179 0.742541 255 0 0 255
-0.078099 0.606257 2.038 -0.0838021 0.642544 0.761653 255 0 0 255
-0.072546 0.606263 2.038 -0.14773 0.63859 0.755235 255 0 0 255
-0.067059 0.606863 2.04 -0.289852 0.681113 0.672362 255 0 0 255
-0.061562 0.607463 2.042 -0.353429 0.738751 0.573878 255 0 0 255
-0.05608 0.60836 2.045 -0.515776 0.679504 0.521775 255 0 0 255
-0.050656 0.61015 2.051 -0.729913 0.612759 0.302909 255 0 0 255
-0.045287 0.613128 2.061 -0.657832 0.737641 0.152131 255 0 0 255
-0.039864 0.616107 2.071 -0.631386 0.769492 0.0960956 255 0 0 255
-0.034386 0.619085 2.081 -0.581715 0.811032 0.0619346 255 0 0 255
-0.028895 0.622954 2.094 -0.722483 0.691211 0.0157185 255 0 0 255
-0.023554 0.632774 2.127 -0.871235 0.490177 0.0259994 255 0 0 255
-0.018026 0.642295 2.159 -0.754682 0.271928 0.597085 255 0 0 255
-0.012193 0.644974 2.168 -0.104719 0.745829 0.657856 255 0 0 255
-0.006291 0.64557 2.17 -0.0371761 0.540355 0.840615 255 0 0 255
-0.152321 0.632182 2.145 0.552075 -0.315338 0.771865 255 0 0 255
-0.146343 0.631604 2.143 0.522582 0.239455 0.818272 255 0 0 255
-0.140113 0.629847 2.137 0.562973 0.330222 0.757638 255 0 0 255
-0.133664 0.62691 2.127 0.240322 0.847907 0.472545 255 0 0 255
-0.126368 0.619552 2.102 0.703517 0.710386 0.0203848 255 0 0 255
-0.119437 0.613372 2.081 0.699036 0.700691 0.14276 255 0 0 255
-0.113003 0.609254 2.067 0.769555 0.580427 0.266252 255 0 0 255
-0.106905 0.60661 2.058 0.684034 0.570224 0.454909 255 0 0 255
-0.101053 0.605144 2.053 0.648929 0.459365 0.606527 255 0 0 255
-0.095181 0.603384 2.047 0.563452 0.486099 0.668004 255 0 0 255
-0.089516 0.602801 2.045 0.371829 0.585236 0.720584 255 0 0 255
-0.083822 0.601924 2.042 0.184546 0.707644 0.682043 255 0 0 255
-0.07822 0.601636 2.041 -0.000555945 0.719714 0.69427 255 0 0 255
-0.072694 0.601936 2.042 -0.107798 0.700944 0.705023 255 0 0 255
-0.067196 0.602532 2.044 -0.331787 0.670555 0.663531 255 0 0 255
-0.061747 0.603716 2.048 -0.46102 0.698002 0.547954 255 0 0 255
-0.056249 0.604605 2.051 -0.617925 0.679093 0.396233 255 0 0 255
-0.050932 0.607852 2.062 -0.715449 0.686508 0.129769 255 0 0 255
-0.045577 0.611393 2.074 -0.67466 0.734011 0.0778625 255 0 0 255
-0.040156 0.614934 2.086 -0.614996 0.786153 0.0611784 255 0 0 255
-0.034604 0.617296 2.094 -0.666536 0.743775 0.0502892 255 0 0 255
-0.029132 0.62231 2.111 -0.758913 0.65101 0.0154155 255 0 0 255
-0.023756 0.632335 2.145 -0.939261 0.325073 0.110072 255 0 0 255
-0.018119 0.639706 2.17 -0.40131 0.691954 0.600125 255 0 0 255
-0.012211 0.640002 2.171 0.327333 0.340395 0.881467 255 0 0 255
-0.00628 0.638529 2.166 0.305195 0.244454 0.920379 255 0 0 255
-0.000378 0.639414 2.169 0.777729 0.241267 0.580455 255 0 0 255
-0.158395 0.62725 2.148 0.811448 -0.216803 0.542723 255 0 0 255
-0.151835 0.624342 2.138 0.334576 -0.29929 0.89358 255 0 0 255
-0.145944 0.624062 2.137 0.0237914 -0.251314 0.967613 255 0 0 255
-0.140255 0.624657 2.139 -0.242783 -0.100891 0.96482 255 0 0 255
-0.134366 0.624376 2.138 0.0163407 0.698484 0.715439 255 0 0 255
-0.127821 0.620881 2.126 0.686834 0.706344 0.17128 255 0 0 255
-0.120422 0.612714 2.098 -0.64975 -0.759779 0.0236723 255 0 0 255
-0.113668 0.607174 2.079 0.693415 0.707352 0.137221 255 0 0 255
-0.107277 0.603094 2.065 0.611392 0.764543 0.204142 255 0 0 255
-0.101258 0.600766 2.057 0.538179 0.774379 0.332718 255 0 0 255
-0.095328 0.598729 2.05 0.476481 0.753505 0.452985 255 0 0 255
-0.089699 0.598445 2.049 0.27669 0.788604 0.549132 255 0 0 255
-0.084034 0.597867 2.047 0.108731 0.914739 0.389141 255 0 0 255
-0.078456 0.597874 2.047 0.0348973 0.912902 0.406685 255 0 0 255
-0.072878 0.59788 2.047 -0.125099 0.887287 0.443928 255 0 0 255
-0.0673 0.597886 2.047 -0.266643 0.820109 0.506283 255 0 0 255
-0.061843 0.599059 2.051 -0.460672 0.782597 0.418716 255 0 0 255
-0.056418 0.600816 2.057 -0.63242 0.738474 0.233882 255 0 0 255
-0.051183 0.605202 2.072 -0.701248 0.71031 0.0609254 255 0 0 255
-0.045888 0.609879 2.088 -0.621879 0.781964 0.0424262 255 0 0 255
-0.040429 0.613388 2.1 -0.615571 0.78368 0.0831739 255 0 0 255
-0.034887 0.616604 2.111 -0.68153 0.726851 0.0848826 255 0 0 255
-0.029355 0.62128 2.127 -0.879399 0.425305 0.213946 255 0 0 255
-0.023868 0.629461 2.155 -0.885287 0.308649 0.347854 255 0 0 255
-0.018162 0.635304 2.175 0.35879 0.462403 0.810835 255 0 0 255
-0.01224 0.635598 2.176 0.556698 0.574971 0.599579 255 0 0 255
-0.006281 0.632678 2.166 0.82353 0.00418068 0.567258 255 0 0 255
-0.000376 0.630341 2.158 0.831818 -0.104316 0.545158 255 0 0 255
-0.180953 0.639054 2.209 -0.736999 0.566211 0.369103 255 0 0 255
-0.173354 0.633282 2.189 0.421278 -0.746195 0.515478 255 0 0 255
-0.166093 0.628377 2.172 0.514423 -0.571969 0.638922 255 0 0 255
-0.158555 0.622024 2.15 0.905778 -0.0178093 0.423377 255 0 0 255
-0.151847 0.618565 2.138 -0.0176968 -0.0500458 0.99859 255 0 0 255
-0.145887 0.617998 2.136 -0.0176968 -0.0500458 0.99859 255 0 0 255
-0.140397 0.619455 2.141 -0.576173 0.142989 0.804723 255 0 0 255
-0.134816 0.620624 2.145 -0.490741 0.30536 0.816044 255 0 0 255
-0.128793 0.619766 2.142 0.485218 0.606406 0.629949 255 0 0 255
-0.121867 0.614278 2.123 0.715929 0.642467 0.273281 255 0 0 255
-0.11499 0.608501 2.103 0.569848 0.821353 0.0255296 255 0 0 255
-0.108377 0.603591 2.086 0.487175 0.873219 0.0122119 255 0 0 255
-0.102201 0.600706 2.076 -0.394043 -0.918704 0.0267215 255 0 0 255
-0.096033 0.597531 2.065 0.437597 0.887765 0.142767 255 0 0 255
-0.090231 0.596381 2.061 0.32443 0.915854 0.236551 255 0 0 255
-0.084492 0.59552 2.058 0.179633 0.954051 0.23983 255 0 0 255
-0.078846 0.595237 2.057 0.0623718 0.972385 0.224894 255 0 0 255
-0.073205 0.594953 2.056 -0.0722473 0.97559 0.207374 255 0 0 255
-0.067634 0.595249 2.057 -0.278894 0.905735 0.31916 255 0 0 255
-0.062179 0.596701 2.062 -0.540884 0.815081 0.207574 255 0 0 255
-0.056807 0.59931 2.071 0.558653 -0.829054 0.0240272 255 0 0 255
-0.051582 0.604234 2.088 -0.621377 0.783389 0.0138714 255 0 0 255
-0.0462 0.608289 2.102 -0.610359 0.78954 0.0639418 255 0 0 255
-0.040682 0.611476 2.113 -0.648913 0.724847 0.231321 255 0 0 255
-0.035072 0.614084 2.122 -0.785101 0.578163 0.222134 255 0 0 255
-0.029454 0.617559 2.134 -0.912169 0.347237 0.217657 255 0 0 255
-0.023881 0.623928 2.156 -0.939119 0.149589 0.30932 255 0 0 255
-0.01818 0.630007 2.177 0.435078 0.412031 0.800586 255 0 0 255
-0.012269 0.631166 2.181 0.610201 0.267532 0.745708 255 0 0 255
-0.006293 0.627983 2.17 0.839814 0.0568134 0.539893 255 0 0 255
-0.000376 0.62451 2.158 0.865333 -0.0574903 0.49789 255 0 0 255
0.005511 0.625089 2.16 0.857085 0.189288 0.47914 255 0 0 255
-0.18495 0.626192 2.185 0.121098 -0.730942 0.67161 255 0 0 255
-0.178673 0.625059 2.181 0.338391 -0.709485 0.618161 255 0 0 255
-0.172496 0.624213 2.178 0.377447 -0.647464 0.662061 255 0 0 255
-0.165952 0.621933 2.17 0.587338 -0.374693 0.717384 255 0 0 255
-0.159084 0.61822 2.157 0.83953 0.257135 0.478613 255 0 0 255
-0.152143 0.613933 2.142 0.505256 0.241207 0.828574 255 0 0 255
-0.14583 0.611938 2.135 0.0496785 0.036984 0.99808 255 0 0 255
-0.140277 0.613096 2.139 -0.624895 -0.0217053 0.780407 255 0 0 255
-0.134827 0.614827 2.145 -0.647124 0.228425 0.72736 255 0 0 255
-0.129104 0.615411 2.147 0.594257 0.506611 0.624663 255 0 0 255
-0.122623 0.612268 2.136 0.72524 0.596026 0.344645 255 0 0 255
-0.116092 0.608551 2.123 0.61218 0.736415 0.287972 255 0 0 255
-0.109788 0.605693 2.113 0.440922 0.89398 0.0799283 255 0 0 255
-0.103489 0.602549 2.102 -0.379059 -0.923058 0.0654115 255 0 0 255
-0.09725 0.599404 2.091 -0.291661 -0.954953 0.0547603 255 0 0 255
-0.091333 0.597978 2.086 -0.146692 -0.985711 0.0827951 255 0 0 255
-0.085566 0.597412 2.084 -0.0682005 -0.994712 0.076797 255 0 0 255
-0.079887 0.597418 2.084 -0.0379246 -0.994442 0.0982193 255 0 0 255
-0.074101 0.596565 2.081 0.066685 -0.99405 0.0861308 255 0 0 255
-0.068462 0.596857 2.082 0.209738 -0.974838 0.0755047 255 0 0 255
-0.062969 0.598583 2.088 0.333895 -0.942473 0.0160981 255 0 0 255
-0.05747 0.600594 2.095 0.428912 -0.90312 0.020204 255 0 0 255
-0.052031 0.603752 2.106 -0.485043 0.866463 0.118219 255 0 0 255
-0.046467 0.60605 2.114 -0.477384 0.839952 0.258041 255 0 0 255
-0.04082 0.607773 2.12 -0.565932 0.732914 0.377568 255 0 0 255
-0.035174 0.61007 2.128 -0.800906 0.473937 0.365969 255 0 0 255
-0.029512 0.612939 2.138 -0.846083 0.420899 0.32709 255 0 0 255
-0.023906 0.618675 2.158 -0.885514 0.0322617 0.46349 255 0 0 255
-0.018173 0.623838 2.176 -0.36603 -0.199481 0.908971 255 0 0 255
-0.012276 0.625559 2.182 0.393431 -0.151705 0.906751 255 0 0 255
-0.006299 0.622693 2.172 0.798944 -0.220203 0.559642 255 0 0 255
-0.000376 0.618393 2.157 0.74964 -0.183409 0.635925 255 0 0 255
0.005478 0.615526 2.147 -0.585067 -0.510403 0.630227 255 0 0 255
-0.202163 0.618254 2.178 0.259382 -0.658739 0.706246 255 0 0 255
-0.195963 0.617417 2.175 0.13097 -0.706174 0.69582 255 0 0 255
-0.190041 0.617432 2.175 0.0929636 -0.707601 0.70047 255 0 0 255
-0.184118 0.617447 2.175 0.126469 -0.696711 0.706116 255 0 0 255
-0.177949 0.616609 2.172 0.172107 -0.645752 0.743897 255 0 0 255
-0.171955 0.616339 2.171 0.318078 -0.467237 0.824934 255 0 0 255
-0.165736 0.615216 2.167 0.461111 -0.333833 0.822151 255 0 0 255
-0.159465 0.613809 2.162 0.594835 -0.212849 0.775156 255 0 0 255
-0.152652 0.610131 2.149 0.856928 0.336044 0.390831 255 0 0 255
-0.145979 0.606736 2.137 0.157911 0.202767 0.966411 255 0 0 255
-0.140222 0.607031 2.138 -0.525221 -0.0366985 0.850174 255 0 0 255
-0.134775 0.608746 2.144 -0.583122 -0.192721 0.789194 255 0 0 255
-0.129355 0.610744 2.151 0.220622 0.325534 0.919431 255 0 0 255
-0.123035 0.608482 2.143 0.689393 0.540114 0.482716 255 0 0 255
-0.116649 0.605652 2.133 0.698986 0.571437 0.429975 255 0 0 255
-0.110525 0.603958 2.127 0.442088 0.695378 0.566575 255 0 0 255
-0.104532 0.602831 2.123 0.302209 0.852578 0.426358 255 0 0 255
-0.09856 0.601703 2.119 0.285955 0.907907 0.306486 255 0 0 255
-0.09261 0.600575 2.115 0.293728 0.908638 0.296817 255 0 0 255
-0.086682 0.599446 2.111 0.120741 0.975638 0.18317 255 0 0 255
-0.08089 0.599169 2.11 0.0608409 0.961106 0.269394 255 0 0 255
-0.075104 0.598892 2.109 -0.0626397 0.977234 0.202706 255 0 0 255
-0.069421 0.599466 2.111 -0.128067 0.934994 0.330734 255 0 0 255
-0.063758 0.600323 2.114 -0.192193 0.918234 0.346279 255 0 0 255
-0.058023 0.600612 2.115 -0.264448 0.917815 0.296114 255 0 0 255
-0.052357 0.601752 2.119 -0.368679 0.872387 0.320964 255 0 0 255
-0.046647 0.602608 2.122 -0.397074 0.814621 0.422759 255 0 0 255
-0.040939 0.603748 2.126 -0.570966 0.702099 0.425506 255 0 0 255
-0.035227 0.605171 2.131 -0.698921 0.594355 0.397808 255 0 0 255
-0.029542 0.60773 2.14 -0.806498 0.461559 0.369492 255 0 0 255
-0.023919 0.613127 2.159 -0.862453 0.0333133 0.505039 255 0 0 255
-0.018133 0.616537 2.171 -0.705986 -0.102706 0.700739 255 0 0 255
-0.01226 0.61881 2.179 0.105609 -0.471375 0.875587 255 0 0 255
-0.006291 0.615971 2.169 0.687055 -0.41963 0.593183 255 0 0 255
-0.000376 0.61228 2.156 0.499013 -0.317899 0.80618 255 0 0 255
0.005474 0.609156 2.145 -0.744816 -0.294827 0.598603 255 0 0 255
0.011385 0.612563 2.157 -0.73523 -0.360402 0.574062 255 0 0 255
-0.221078 0.61541 2.189 0.27714 -0.726477 0.628829 255 0 0 255
-0.214431 0.613459 2.182 0.289797 -0.721574 0.628767 255 0 0 255
-0.207917 0.611788 2.176 0.345128 -0.628799 0.696777 255 0 0 255
-0.201529 0.610398 2.171 0.291945 -0.607767 0.738504 255 0 0 255
-0.195347 0.609569 2.168 0.201512 -0.650809 0.732011 255 0 0 255
-0.189444 0.609584 2.168 0.0828501 -0.680642 0.727916 255 0 0 255
-0.18354 0.609599 2.168 0.0629902 -0.687863 0.723102 255 0 0 255
-0.177471 0.60905 2.166 0.0741637 -0.666228 0.742051 255 0 0 255
-0.171572 0.609064 2.166 0.159608 -0.567401 0.807826 255 0 0 255
-0.165596 0.608796 2.165 0.216896 -0.488238 0.845328 255 0 0 255
-0.159477 0.607965 2.162 0.543699 -0.0872164 0.834736 255 0 0 255
-0.15302 0.605728 2.154 0.688808 -0.0302685 0.724312 255 0 0 255
-0.146195 0.601803 2.14 0.0588724 0.186134 0.980759 255 0 0 255
-0.140168 0.600971 2.137 -0.0863825 -0.165429 0.982431 255 0 0 255
-0.134597 0.602106 2.141 -0.644727 -0.320294 0.694074 255 0 0 255
-0.129365 0.604929 2.151 -0.488816 -0.00764417 0.872354 255 0 0 255
-0.123332 0.604096 2.148 0.708574 0.251947 0.659125 255 0 0 255
-0.116931 0.601293 2.138 0.777639 0.439078 0.449987 255 0 0 255
-0.110741 0.599334 2.131 0.484852 0.542302 0.686168 255 0 0 255
-0.104885 0.599061 2.13 0.233885 0.606514 0.759894 255 0 0 255
-0.099033 0.598788 2.129 0.325544 0.64984 0.686826 255 0 0 255
-0.093099 0.597952 2.126 0.220063 0.776815 0.590027 255 0 0 255
-0.087223 0.597397 2.124 0.0579041 0.782023 0.620554 255 0 0 255
-0.081395 0.597123 2.123 0.115413 0.597386 0.793606 255 0 0 255
-0.075609 0.597129 2.123 0.0523515 0.600131 0.798187 255 0 0 255
-0.069789 0.596854 2.122 0.0079056 0.891009 0.453917 255 0 0 255
-0.064035 0.597141 2.123 0.0215352 0.787019 0.616553 255 0 0 255
-0.058247 0.597146 2.123 -0.212598 0.846756 0.487654 255 0 0 255
-0.052534 0.597994 2.126 -0.317294 0.824065 0.469299 255 0 0 255
-0.046804 0.598842 2.129 -0.472844 0.739528 0.479079 255 0 0 255
-0.041058 0.59969 2.132 -0.526353 0.723214 0.447118 255 0 0 255
-0.035345 0.60138 2.138 -0.749938 0.562378 0.348315 255 0 0 255
-0.029668 0.604477 2.149 -0.755573 0.433005 0.491544 255 0 0 255
-0.023954 0.608136 2.162 -0.700119 -0.215955 0.680586 255 0 0 255
-0.018126 0.610388 2.17 -0.240549 -0.70056 0.671827 255 0 0 255
-0.012233 0.611514 2.174 0.273538 -0.545656 0.792109 255 0 0 255
-0.006274 0.608421 2.163 0.641441 -0.522532 0.561706 255 0 0 255
-0.000375 0.605046 2.151 0.725935 -0.324142 0.606589 255 0 0 255
0.005472 0.603077 2.144 -0.180526 -0.189112 0.965219 255 0 0 255
0.011391 0.607014 2.158 -0.751249 -0.288504 0.593625 255 0 0 255
0.017386 0.610951 2.172 -0.557359 -0.63805 0.531265 255 0 0 255
0.023415 0.613762 2.182 -0.298853 -0.745188 0.596139 255 0 0 255
-0.232161 0.60723 2.181 0.30263 -0.750481 0.587531 255 0 0 255
-0.225498 0.605298 2.174 0.178202 -0.675744 0.715272 255 0 0 255
-0.219681 0.605593 2.175 0.202447 -0.657209 0.726011 255 0 0 255
-0.213465 0.604775 2.172 0.218493 -0.602182 0.767878 255 0 0 255
-0.20736 0.604234 2.17 0.334955 -0.515986 0.788393 255 0 0 255
-0.200894 0.602579 2.164 0.39933 -0.441236 0.803646 255 0 0 255
-0.194822 0.602037 2.162 0.304412 -0.538387 0.785795 255 0 0 255
-0.188672 0.601216 2.159 0.17066 -0.620414 0.765481 255 0 0 255
-0.182792 0.601231 2.159 0.096644 -0.663904 0.741547 255 0 0 255
-0.176748 0.600688 2.157 0.0155538 -0.654343 0.756038 255 0 0 255
-0.171031 0.601259 2.159 -0.0249863 -0.650048 0.759483 255 0 0 255
-0.16515 0.601272 2.159 -0.0095051 -0.578173 0.815859 255 0 0 255
-0.159342 0.601563 2.16 0.203445 -0.485846 0.850038 255 0 0 255
-0.153245 0.60074 2.157 0.517374 -0.161265 0.840427 255 0 0 255
-0.146343 0.596574 2.142 0.49675 0.0103034 0.867832 255 0 0 255
-0.140048 0.594636 2.135 0.387182 -0.245282 0.888778 255 0 0 255
-0.134356 0.595204 2.137 -0.5113 -0.264966 0.817536 255 0 0 255
-0.129255 0.598557 2.149 -0.651845 -0.194814 0.732903 255 0 0 255
-0.123514 0.599124 2.151 0.419967 0.105656 0.901368 255 0 0 255
-0.117214 0.596906 2.143 0.746685 0.402781 0.529367 255 0 0 255
-0.110958 0.594687 2.135 0.53757 0.542756 0.645317 255 0 0 255
-0.104992 0.59386 2.132 0.366032 0.447048 0.816191 255 0 0 255
-0.099181 0.593869 2.132 0.314368 0.350393 0.882268 255 0 0 255
-0.093239 0.593041 2.129 0.268989 0.428109 0.862767 255 0 0 255
-0.087353 0.592491 2.127 0.1253 0.591133 0.796782 255 0 0 255
-0.081517 0.592219 2.126 0.0667829 0.653675 0.753823 255 0 0 255
-0.075757 0.592505 2.127 0.068008 0.634589 0.769852 255 0 0 255
-0.069926 0.592232 2.126 0.0240614 0.616861 0.786704 255 0 0 255
-0.06413 0.592237 2.126 -0.0896474 0.640035 0.763098 255 0 0 255
-0.058389 0.5928 2.128 -0.295317 0.656353 0.694254 255 0 0 255
-0.052687 0.593919 2.132 -0.478194 0.604822 0.636805 255 0 0 255
-0.04694 0.594758 2.135 -0.534496 0.603963 0.591221 255 0 0 255
-0.041216 0.596155 2.14 -0.591272 0.581693 0.558598 255 0 0 255
-0.035447 0.597273 2.144 -0.72996 0.463692 0.502143 255 0 0 255
-0.029726 0.599782 2.153 -0.73974 -0.103544 0.664878 255 0 0 255
-0.023923 0.601456 2.159 -0.618756 -0.109393 0.77793 255 0 0 255
-0.018069 0.602572 2.163 -0.216378 -0.412255 0.885001 255 0 0 255
-0.012178 0.602852 2.164 0.0733313 -0.72327 0.686661 255 0 0 255
-0.006245 0.599788 2.153 0.660284 -0.521077 0.540836 255 0 0 255
-0.000373 0.597003 2.143 0.518818 -0.380074 0.765749 255 0 0 255
0.005467 0.596724 2.142 -0.55136 -0.129872 0.824096 255 0 0 255
0.011376 0.600345 2.155 -0.674772 -0.351295 0.649057 255 0 0 255
0.017332 0.60313 2.165 -0.610073 -0.48887 0.623552 255 0 0 255
0.023288 0.604521 2.17 -0.246673 -0.707471 0.662297 255 0 0 255
0.029232 0.605076 2.172 -0.261879 -0.717425 0.645539 255 0 0 255
0.035202 0.605909 2.175 -0.309276 -0.746606 0.589006 255 0 0 255
0.041302 0.608413 2.184 -0.358888 -0.768274 0.530052 255 0 0 255
-0.244274 0.601848 2.183 0.347327 -0.706488 0.616636 255 0 0 255
-0.237459 0.59966 2.175 0.335678 -0.682501 0.64924 255 0 0 255
-0.231113 0.598575 2.171 0.236017 -0.653096 0.719556 255 0 0 255
-0.224996 0.598041 2.169 0.0772031 -0.59645 0.798929 255 0 0 255
-0.21899 0.597782 2.168 0.086313 -0.54916 0.831248 255 0 0 255
-0.213088 0.597798 2.168 0.127298 -0.511693 0.849685 255 0 0 255
-0.206994 0.597263 2.166 0.319344 -0.409581 0.854554 255 0 0 255
-0.200724 0.596176 2.162 0.422126 -0.311003 0.85152 255 0 0 255
-0.194656 0.595639 2.16 0.411403 -0.257103 0.87444 255 0 0 255
-0.188337 0.594275 2.155 0.264897 -0.324382 0.908078 255 0 0 255
-0.182468 0.59429 2.155 0.172199 -0.420549 0.890778 255 0 0 255
-0.17627 0.593201 2.151 0.0919837 -0.478879 0.873048 255 0 0 255
-0.170569 0.593766 2.153 -0.0821574 -0.524811 0.847245 255 0 0 255
-0.164704 0.59378 2.153 -0.0767825 -0.539134 0.838713 255 0 0 255
-0.158986 0.594344 2.155 -0.0477056 -0.500954 0.864158 255 0 0 255
-0.153044 0.594081 2.154 0.596762 -0.358736 0.717763 255 0 0 255
-0.146423 0.591059 2.143 0.767572 -0.0395955 0.639739 255 0 0 255
-0.139994 0.588588 2.134 0.597574 -0.106777 0.794673 255 0 0 255
-0.134179 0.588599 2.134 -0.62603 -0.307205 0.716737 255 0 0 255
-0.129025 0.591644 2.145 -0.677315 -0.309003 0.667653 255 0 0 255
-0.123466 0.593033 2.15 -0.187604 -0.137274 0.972605 255 0 0 255
-0.117443 0.592215 2.147 0.500783 0.374202 0.780506 255 0 0 255
-0.111175 0.590018 2.139 0.663329 0.510411 0.547244 255 0 0 255
-0.105148 0.588924 2.135 0.525571 0.460675 0.71523 255 0 0 255
-0.099143 0.587829 2.131 0.341896 0.387111 0.856302 255 0 0 255
-0.093334 0.587837 2.131 0.0358515 0.557259 0.829565 255 0 0 255
-0.087566 0.58812 2.132 -0.019468 0.725736 0.687698 255 0 0 255
-0.081715 0.587851 2.131 0.0271945 0.769591 0.637957 255 0 0 255
-0.075906 0.587857 2.131 0.116208 0.708437 0.696141 255 0 0 255
-0.070031 0.587312 2.129 0.108231 0.655512 0.747389 255 0 0 255
-0.064256 0.587593 2.13 -0.12031 0.639203 0.759569 255 0 0 255
-0.058504 0.58815 2.132 -0.390203 0.553952 0.735444 255 0 0 255
-0.052765 0.588982 2.135 -0.493736 0.435069 0.752954 255 0 0 255
-0.047032 0.59009 2.139 -0.588945 0.346919 0.729925 255 0 0 255
-0.041296 0.591473 2.144 -0.631583 0.268659 0.727273 255 0 0 255
-0.035517 0.59258 2.148 -0.682949 0.117266 0.720992 255 0 0 255
-0.029742 0.594238 2.154 -0.677371 0.0333759 0.734885 255 0 0 255
-0.023891 0.594792 2.156 -0.313924 -0.388398 0.866371 255 0 0 255
-0.018054 0.596173 2.161 -0.23306 -0.428742 0.872848 255 0 0 255
-0.012134 0.594795 2.156 0.361297 -0.520867 0.77341 255 0 0 255
-0.00622 0.591485 2.144 0.568405 -0.553094 0.609101 255 0 0 255
-0.000372 0.589278 2.136 -0.11353 -0.485554 0.866804 255 0 0 255
0.005465 0.590657 2.141 -0.544454 -0.263186 0.796431 255 0 0 255
0.011356 0.593415 2.151 -0.792953 -0.206601 0.573186 255 0 0 255
0.017285 0.595621 2.159 -0.462131 -0.502593 0.730641 255 0 0 255
0.023204 0.596447 2.162 -0.339625 -0.601659 0.722954 255 0 0 255
0.029126 0.596997 2.164 -0.200381 -0.670215 0.714605 255 0 0 255
0.035059 0.597546 2.166 -0.235789 -0.693134 0.681153 255 0 0 255
0.041041 0.598646 2.17 -0.35567 -0.719738 0.596219 255 0 0 255
0.047087 0.600298 2.176 -0.42471 -0.724633 0.542705 255 0 0 255
0.053337 0.60388 2.189 -0.426742 -0.730535 0.533114 255 0 0 255
-0.084124 0.686395 2.07628 -0.788068 -0.523004 -0.324677 0 255 0 255
-0.077571 0.688219 2.08394 0.991523 0.0144821 -0.129119 0 255 0 255
-0.255823 0.595087 2.18 0.375947 -0.761176 0.528464 255 0 0 255
-0.249317 0.593741 2.175 0.279573 -0.720636 0.634447 255 0 0 255
-0.24295 0.592668 2.171 0.31662 -0.700339 0.639748 255 0 0 255
-0.236495 0.591321 2.166 0.245976 -0.659882 0.709966 255 0 0 255
-0.230279 0.590519 2.163 0.0865432 -0.612142 0.785998 255 0 0 255
-0.224495 0.590809 2.164 -0.00464241 -0.572368 0.819984 255 0 0 255
-0.218603 0.590826 2.164 -0.0421365 -0.503281 0.863095 255 0 0 255
-0.212809 0.591116 2.165 0.0451581 -0.460827 0.88634 255 0 0 255
-0.206723 0.590586 2.163 0.234987 -0.375666 0.896469 255 0 0 255
-0.200461 0.58951 2.159 0.338085 -0.23502 0.911298 255 0 0 255
-0.194401 0.588979 2.157 0.439859 -0.109449 0.891373 255 0 0 255
-0.188177 0.587902 2.153 0.341284 -0.130845 0.930809 255 0 0 255
-0.182397 0.588189 2.154 0.330578 -0.166315 0.929009 255 0 0 255
-0.176202 0.587111 2.15 0.222346 -0.299222 0.927916 255 0 0 255
-0.170345 0.587125 2.15 -0.0180545 -0.41002 0.911898 255 0 0 255
-0.164488 0.587138 2.15 -0.00834752 -0.509749 0.860282 255 0 0 255
-0.158704 0.587424 2.151 -0.035129 -0.547369 0.836154 255 0 0 255
-0.152914 0.58771 2.152 0.31422 -0.491932 0.811954 255 0 0 255
-0.146435 0.585264 2.143 0.671626 -0.247051 0.698487 255 0 0 255
-0.140071 0.58309 2.135 0.5726 -0.0936863 0.814464 255 0 0 255
-0.134127 0.582555 2.133 -0.408652 -0.242791 0.879804 255 0 0 255
-0.128855 0.585024 2.142 -0.777908 -0.255343 0.57416 255 0 0 255
-0.123419 0.586946 2.149 -0.273444 -0.254122 0.927713 255 0 0 255
-0.117671 0.587502 2.151 0.264701 0.1426 0.953729 255 0 0 255
-0.111496 0.585873 2.145 0.66678 0.371688 0.645951 255 0 0 255
-0.105354 0.584243 2.139 0.558376 0.546847 0.623839 255 0 0 255
-0.099337 0.583159 2.135 0.39983 0.528888 0.748607 255 0 0 255
-0.093473 0.582894 2.134 -0.11341 0.623006 0.773952 255 0 0 255
-0.087819 0.583994 2.138 -0.173302 0.605287 0.776913 255 0 0 255
-0.081952 0.583728 2.137 0.0846254 0.641811 0.762179 255 0 0 255
-0.07609 0.583461 2.136 0.260516 0.640326 0.722575 255 0 0 255
-0.070168 0.582648 2.133 0.173929 0.574847 0.799562 255 0 0 255
-0.064382 0.582927 2.134 -0.231341 0.516165 0.824654 255 0 0 255
-0.058619 0.583478 2.136 -0.311944 0.456882 0.833037 255 0 0 255
-0.052844 0.584029 2.138 -0.416461 0.36626 0.832114 255 0 0 255
-0.04708 0.584853 2.141 -0.54221 0.203442 0.815242 255 0 0 255
-0.041319 0.585949 2.145 -0.582032 0.167451 0.795738 255 0 0 255
-0.035536 0.587045 2.149 -0.573173 0.0413225 0.818392 255 0 0 255
-0.029704 0.587594 2.151 -0.465404 -0.135022 0.874739 255 0 0 255
-0.023871 0.588416 2.154 -0.412364 -0.229076 0.881748 255 0 0 255
-0.018014 0.588964 2.156 -0.0597307 -0.4106 0.909857 255 0 0 255
-0.012095 0.587053 2.149 0.632409 -0.438878 0.638314 255 0 0 255
-0.0062 0.583776 2.137 0.3588 -0.502598 0.786548 255 0 0 255
-0.000371 0.582137 2.131 -0.496497 -0.278118 0.822278 255 0 0 255
0.00546 0.584322 2.139 -0.702227 -0.227907 0.674489 255 0 0 255
0.011346 0.587053 2.149 -0.664798 -0.192414 0.721818 255 0 0 255
0.017247 0.588418 2.154 -0.375353 -0.430605 0.820786 255 0 0 255
0.023142 0.588962 2.156 -0.129625 -0.535119 0.834773 255 0 0 255
0.029035 0.589233 2.157 -0.128734 -0.563784 0.815828 255 0 0 255
0.034917 0.589231 2.157 -0.24223 -0.568516 0.786202 255 0 0 255
0.040855 0.590047 2.16 -0.352792 -0.586763 0.728867 255 0 0 255
0.046875 0.591682 2.166 -0.412622 -0.621508 0.665936 255 0 0 255
0.052976 0.593864 2.174 -0.437747 -0.691337 0.574831 255 0 0 255
-0.090156 0.674036 2.06947 -0.788068 -0.523004 -0.324677 0 255 0 255
-0.085922 0.67844 2.09136 -0.788068 -0.523004 -0.324677 0 255 0 255
-0.268934 0.591854 2.19 0.400061 -0.768255 0.499736 255 0 0 255
-0.260573 0.586469 2.17 0.300642 -0.714803 0.631405 255 0 0 255
-0.254551 0.586218 2.169 0.254713 -0.714002 0.652168 255 0 0 255
-0.248304 0.585425 2.166 0.245375 -0.684915 0.686063 255 0 0 255
-0.241961 0.584363 2.162 0.267839 -0.663412 0.698675 255 0 0 255
-0.235748 0.58357 2.159 0.158109 -0.641927 0.750288 255 0 0 255
-0.229658 0.583047 2.157 -0.138288 -0.581313 0.801843 255 0 0 255
-0.224097 0.583875 2.16 -0.0896736 -0.513659 0.853295 255 0 0 255
-0.218216 0.583892 2.16 -0.0647036 -0.483827 0.872769 255 0 0 255
-0.212432 0.584179 2.161 -0.035222 -0.40535 0.913483 255 0 0 255
-0.206452 0.583925 2.16 0.134952 -0.296879 0.945331 255 0 0 255
-0.200477 0.58367 2.159 0.226878 -0.140898 0.963677 255 0 0 255
-0.194506 0.583415 2.158 0.346533 -0.00737708 0.938009 255 0 0 255
-0.188279 0.582349 2.154 0.366386 -0.0517437 0.929023 255 0 0 255
-0.182327 0.582093 2.153 0.381549 -0.154672 0.911316 255 0 0 255
-0.176052 0.580755 2.148 0.347519 -0.347119 0.871056 255 0 0 255
-0.170121 0.580499 2.147 0.123771 -0.442535 0.888169 255 0 0 255
-0.164118 0.579972 2.145 0.0531944 -0.505078 0.861433 255 0 0 255
-0.158274 0.579984 2.145 -0.000426762 -0.547485 0.836816 255 0 0 255
-0.152429 0.579997 2.145 0.361815 -0.446307 0.818474 255 0 0 255
-0.146242 0.578657 2.14 0.490571 -0.301949 0.817415 255 0 0 255
-0.140016 0.577046 2.134 0.352718 -0.303911 0.885002 255 0 0 255
-0.134012 0.576246 2.131 -0.216959 -0.335999 0.916533 255 0 0 255
-0.128565 0.577879 2.137 -0.671408 -0.278158 0.686906 255 0 0 255
-0.123257 0.580323 2.146 -0.544519 -0.343054 0.765384 255 0 0 255
-0.117681 0.581685 2.151 -0.0893789 -0.143737 0.985572 255 0 0 255
-0.111661 0.580883 2.148 0.402471 0.161885 0.901005 255 0 0 255
-0.105609 0.579811 2.144 0.573865 0.316444 0.755343 255 0 0 255
-0.099578 0.578737 2.14 0.442791 0.452586 0.774017 255 0 0 255
-0.093656 0.578205 2.138 -0.0285461 0.430961 0.901919 255 0 0 255
-0.087909 0.578753 2.14 -0.239617 0.355623 0.903391 255 0 0 255
-0.082113 0.579031 2.141 0.031935 0.339771 0.939966 255 0 0 255
-0.076239 0.578767 2.14 0.314125 0.403683 0.859282 255 0 0 255
-0.070305 0.577961 2.137 0.260546 0.431427 0.863705 255 0 0 255
-0.064478 0.577967 2.137 -0.182963 0.326302 0.92739 255 0 0 255
-0.058706 0.578513 2.139 -0.291834 0.277597 0.915299 255 0 0 255
-0.052873 0.578518 2.139 -0.340232 0.356327 0.870215 255 0 0 255
-0.047106 0.579333 2.142 -0.398124 0.199045 0.895476 255 0 0 255
-0.041303 0.579878 2.144 -0.451267 -0.00175564 0.892387 255 0 0 255
-0.035522 0.580963 2.148 -0.407429 -0.117358 0.905665 255 0 0 255
-0.029692 0.581507 2.15 -0.419027 -0.162842 0.893252 255 0 0 255
-0.023873 0.582591 2.154 -0.261065 -0.318245 0.911354 255 0 0 255
-0.018007 0.582863 2.155 0.209874 -0.402374 0.891094 255 0 0 255
-0.012068 0.579889 2.144 0.715633 -0.448012 0.535868 255 0 0 255
-0.006189 0.576915 2.133 0.0933427 -0.721784 0.685795 255 0 0 255
-0.000371 0.576374 2.131 -0.478604 -0.372516 0.795091 255 0 0 255
0.005461 0.578538 2.139 -0.808921 -0.104985 0.578468 255 0 0 255
0.011342 0.580971 2.148 -0.72851 -0.146869 0.669106 255 0 0 255
0.017232 0.582052 2.152 -0.274773 -0.346721 0.896819 255 0 0 255
0.023112 0.582321 2.153 -0.106594 -0.477456 0.872166 255 0 0 255
0.028997 0.582589 2.154 -0.0492933 -0.504552 0.861973 255 0 0 255
0.034871 0.582586 2.154 -0.168597 -0.519629 0.837592 255 0 0 255
0.040821 0.583665 2.158 -0.302193 -0.52204 0.797592 255 0 0 255
0.046771 0.584473 2.161 -0.362335 -0.54389 0.7569 255 0 0 255
0.052761 0.58555 2.165 -0.34272 -0.670093 0.658421 255 0 0 255
0.0588 0.586898 2.17 -0.311337 -0.701444 0.641129 255 0 0 255
0.064867 0.588245 2.175 -0.308176 -0.724035 0.61709 255 0 0 255
-0.088407 0.66577 2.08192 -0.788068 -0.523004 -0.324677 0 255 0 255
-0.089834 0.668298 2.09548 0.497397 0.867476 -0.00909337 0 255 0 255
-0.098367 0.671459 2.11425 -0.657259 -0.725078 -0.205605 0 255 0 255
-0.087388 0.672867 2.11862 0.519351 0.84463 -0.1299 0 255 0 255
-0.084392 0.674993 2.12887 0.636057 0.771241 -0.024864 0 255 0 255
-0.082536 0.681995 2.16472 0.0761019 -0.929119 -0.361866 0 255 0 255
-0.272904 0.581629 2.174 0.466814 -0.725646 0.505492 255 0 0 255
-0.266129 0.579776 2.167 0.353632 -0.6739 0.648693 255 0 0 255
-0.259632 0.578458 2.162 0.229731 -0.65672 0.718291 255 0 0 255
-0.253513 0.577942 2.16 0.213537 -0.648155 0.730956 255 0 0 255
-0.247405 0.577425 2.158 0.241115 -0.632851 0.735774 255 0 0 255
-0.241084 0.576373 2.154 0.23421 -0.598851 0.765848 255 0 0 255
-0.235002 0.575856 2.152 0.0887654 -0.568305 0.818016 255 0 0 255
-0.229036 0.575606 2.151 -0.160061 -0.534934 0.829594 255 0 0 255
-0.223595 0.576694 2.155 -0.25471 -0.506168 0.823964 255 0 0 255
-0.217929 0.577246 2.157 -0.172193 -0.46493 0.868441 255 0 0 255
-0.212252 0.577798 2.159 -0.0727594 -0.369691 0.926302 255 0 0 255
-0.206373 0.577814 2.159 -0.0197514 -0.291481 0.956373 255 0 0 255
-0.2004 0.577562 2.158 0.114518 -0.184716 0.976097 255 0 0 255
-0.194432 0.57731 2.157 0.351306 -0.122413 0.928224 255 0 0 255
-0.188294 0.576522 2.154 0.43895 -0.105684 0.892275 255 0 0 255
-0.182172 0.575734 2.151 0.489543 -0.181433 0.852895 255 0 0 255
-0.17582 0.574142 2.145 0.405967 -0.200479 0.891627 255 0 0 255
-0.169817 0.573621 2.143 0.279414 -0.227835 0.932748 255 0 0 255
-0.163902 0.573366 2.142 0.128438 -0.364657 0.922242 255 0 0 255
-0.158065 0.573379 2.142 0.0551331 -0.413962 0.908623 255 0 0 255
-0.152228 0.573392 2.142 0.25307 -0.381733 0.888952 255 0 0 255
-0.146049 0.572066 2.137 0.628321 -0.309088 0.713917 255 0 0 255
-0.1397 0.569936 2.129 0.390817 -0.443869 0.806376 255 0 0 255
-0.133771 0.569411 2.127 -0.143544 -0.434302 0.889257 255 0 0 255
-0.128335 0.571028 2.133 -0.644104 -0.338602 0.685915 255 0 0 255
-0.123095 0.573716 2.143 -0.618849 -0.383973 0.685267 255 0 0 255
-0.117526 0.575064 2.148 -0.0983738 -0.148221 0.984049 255 0 0 255
-0.111671 0.575074 2.148 0.252599 -0.094225 0.962972 255 0 0 255
-0.105716 0.574547 2.146 0.427049 0.0593887 0.902276 255 0 0 255
-0.099726 0.573753 2.143 0.406476 0.225794 0.885322 255 0 0 255
-0.093751 0.572957 2.14 0.122526 0.313107 0.941781 255 0 0 255
-0.087957 0.573233 2.141 -0.148773 0.225873 0.962729 255 0 0 255
-0.082158 0.573508 2.142 -0.0294807 0.147412 0.988636 255 0 0 255
-0.076317 0.573514 2.142 0.209497 0.181701 0.960779 255 0 0 255
-0.070377 0.572717 2.139 0.286719 0.236369 0.928398 255 0 0 255
-0.064514 0.572455 2.138 -0.0299587 0.319246 0.947198 255 0 0 255
-0.058738 0.572996 2.14 -0.236713 0.203239 0.950085 255 0 0 255
-0.052952 0.573536 2.142 -0.319409 0.190886 0.928192 255 0 0 255
-0.047154 0.574076 2.144 -0.315848 0.14343 0.937906 255 0 0 255
-0.041307 0.574079 2.144 -0.333896 -0.00123218 0.942609 255 0 0 255
-0.035509 0.574886 2.147 -0.305405 -0.0621603 0.950191 255 0 0 255
-0.029667 0.575156 2.148 -0.162781 -0.310397 0.936566 255 0 0 255
-0.023864 0.576498 2.153 -0.221166 -0.313721 0.923398 255 0 0 255
-0.01795 0.57516 2.148 0.437916 -0.540024 0.718751 255 0 0 255
-0.012024 0.571949 2.136 0.59803 -0.469555 0.649521 255 0 0 255
-0.006172 0.569539 2.127 0.288262 -0.365539 0.885035 255 0 0 255
-0.000371 0.570075 2.129 -0.706005 -0.224944 0.671533 255 0 0 255
0.005459 0.572485 2.138 -0.813551 -0.0891726 0.574616 255 0 0 255
0.011343 0.575162 2.148 -0.541071 -0.301226 0.785179 255 0 0 255
0.017201 0.575161 2.148 -0.0798282 -0.396718 0.914463 255 0 0 255
0.023071 0.575427 2.149 -0.0405031 -0.480084 0.876287 255 0 0 255
0.028918 0.575157 2.148 -0.0816439 -0.468001 0.879949 255 0 0 255
0.034793 0.575422 2.149 -0.203663 -0.381249 0.90176 255 0 0 255
0.040711 0.576222 2.152 -0.332669 -0.379916 0.863131 255 0 0 255
0.046645 0.577022 2.155 -0.274547 -0.489985 0.827368 255 0 0 255
0.052595 0.577821 2.158 -0.20793 -0.584211 0.784514 255 0 0 255
0.058534 0.578351 2.16 -0.210965 -0.670346 0.711428 255 0 0 255
0.064455 0.578614 2.161 -0.161066 -0.718478 0.676644 255 0 0 255
0.070511 0.579947 2.166 -0.226068 -0.768887 0.598086 255 0 0 255
0.076593 0.58128 2.171 -0.186483 -0.809148 0.557228 255 0 0 255
0.082627 0.582076 2.174 -0.169894 -0.832178 0.527841 255 0 0 255
-0.080458 0.656926 2.08978 0.724804 0.679636 -0.112935 0 255 0 255
-0.083313 0.662011 2.11687 0.382718 0.551743 -0.741017 0 255 0 255
-0.066105 0.662845 2.11677 -0.517419 -0.819264 -0.247153 0 255 0 255
-0.082321 0.669129 2.15343 -0.789783 0.41638 -0.450412 0 255 0 255
-0.08467 0.671736 2.16751 -0.878484 0.434869 -0.197877 0 255 0 255
-0.073663 0.673154 2.17198 -0.175848 -0.91782 -0.355926 0 255 0 255
-0.278455 0.574932 2.171 0.537711 -0.618454 0.573046 255 0 0 255
-0.271292 0.572304 2.161 0.413741 -0.625807 0.661199 255 0 0 255
-0.265043 0.571529 2.158 0.230619 -0.648781 0.725189 255 0 0 255
-0.258931 0.571019 2.156 0.181026 -0.612047 0.769824 255 0 0 255
-0.252828 0.570508 2.154 0.207172 -0.55251 0.807349 255 0 0 255
-0.246736 0.569997 2.152 0.224841 -0.494864 0.839378 255 0 0 255
-0.240542 0.569221 2.149 0.190207 -0.334713 0.922924 255 0 0 255
-0.234583 0.568974 2.148 0.0563017 -0.415893 0.907669 255 0 0 255
-0.228734 0.568992 2.148 -0.1085 -0.436334 0.893219 255 0 0 255
-0.223197 0.569804 2.151 -0.32255 -0.425951 0.845297 255 0 0 255
-0.217643 0.570616 2.154 -0.276864 -0.41223 0.867994 255 0 0 255
-0.211875 0.570897 2.155 -0.16851 -0.366711 0.914947 255 0 0 255
-0.206197 0.571443 2.157 -0.121917 -0.289814 0.949286 255 0 0 255
-0.200322 0.571459 2.157 0.0218143 -0.245591 0.969128 255 0 0 255
-0.194357 0.57121 2.156 0.274145 -0.20832 0.938854 255 0 0 255
-0.188134 0.570165 2.152 0.443213 -0.145776 0.884484 255 0 0 255
-0.182017 0.569385 2.149 0.515226 -0.0636052 0.854691 255 0 0 255
-0.175834 0.568339 2.145 0.470658 -0.0178794 0.882134 255 0 0 255
-0.169831 0.567823 2.143 0.339732 -0.0317341 0.939987 255 0 0 255
-0.163762 0.567042 2.14 0.285484 -0.175154 0.942242 255 0 0 255
-0.157857 0.56679 2.139 0.170206 -0.30622 0.936621 255 0 0 255
-0.151956 0.566537 2.138 0.306024 -0.381878 0.872077 255 0 0 255
-0.145787 0.565225 2.133 0.64081 -0.244906 0.727588 255 0 0 255
-0.139514 0.563381 2.126 0.385668 -0.325474 0.863323 255 0 0 255
-0.133593 0.562862 2.124 0.010728 -0.26559 0.964026 255 0 0 255
-0.128104 0.564198 2.129 -0.612506 -0.391297 0.68682 255 0 0 255
-0.122875 0.566859 2.139 -0.726416 -0.338085 0.598346 255 0 0 255
-0.117317 0.568194 2.144 -0.364241 -0.26774 0.891989 255 0 0 255
-0.111628 0.568998 2.147 -0.0775454 -0.271856 0.959208 255 0 0 255
-0.105676 0.568477 2.145 0.23212 0.0100593 0.972635 255 0 0 255
-0.09978 0.568221 2.144 0.269079 0.228678 0.935576 255 0 0 255
-0.093847 0.567699 2.142 0.149002 0.343439 0.92728 255 0 0 255
-0.088006 0.567706 2.142 0.000720064 0.245332 0.969439 255 0 0 255
-0.082165 0.567713 2.142 0.0305224 0.165054 0.985812 255 0 0 255
-0.076323 0.56772 2.142 0.118985 0.129355 0.984434 255 0 0 255
-0.070482 0.567726 2.142 0.261992 0.194216 0.945325 255 0 0 255
-0.06455 0.566937 2.139 0.0926468 0.155089 0.983547 255 0 0 255
-0.058743 0.567207 2.14 -0.230012 0.0741248 0.970361 255 0 0 255
-0.052931 0.567477 2.141 -0.314256 0.0664652 0.947009 255 0 0 255
-0.047158 0.568276 2.144 -0.2283 0.0183758 0.973417 255 0 0 255
-0.041329 0.568545 2.145 -0.199107 -0.0553415 0.978414 255 0 0 255
-0.035512 0.569078 2.147 -0.186327 -0.146978 0.971432 255 0 0 255
-0.02967 0.569346 2.148 -0.109075 -0.421439 0.900273 255 0 0 255
-0.0238 0.569083 2.147 0.122449 -0.485735 0.865487 255 0 0 255
-0.017885 0.56723 2.14 0.589352 -0.531796 0.608159 255 0 0 255
-0.01198 0.56405 2.128 0.356114 -0.582491 0.730676 255 0 0 255
-0.006158 0.562461 2.122 -0.247936 -0.407217 0.879035 255 0 0 255
-0.000371 0.564051 2.128 -0.652489 -0.133812 0.745891 255 0 0 255
0.005459 0.566702 2.138 -0.723425 -0.238548 0.647882 255 0 0 255
0.011333 0.568821 2.146 -0.409743 -0.382359 0.828199 255 0 0 255
0.017179 0.568555 2.145 -0.0171112 -0.436168 0.899703 255 0 0 255
0.02304 0.568819 2.146 -0.0254207 -0.435769 0.8997 255 0 0 255
0.028894 0.568816 2.146 -0.144976 -0.353265 0.924222 255 0 0 255
0.03478 0.569344 2.148 -0.379367 -0.165444 0.910334 255 0 0 255
0.040695 0.570136 2.151 -0.333735 -0.17417 0.926437 255 0 0 255
0.046584 0.570397 2.152 -0.165592 -0.369028 0.914548 255 0 0 255
0.052478 0.570658 2.153 -0.0973419 -0.419645 0.902454 255 0 0 255
0.05835 0.570653 2.153 -0.101635 -0.501921 0.858921 255 0 0 255
0.064251 0.570913 2.154 -0.0724357 -0.543826 0.836066 255 0 0 255
0.070191 0.571438 2.156 -0.0631029 -0.664126 0.744953 255 0 0 255
0.076035 0.571166 2.155 0.00489191 -0.602476 0.798122 255 0 0 255
0.081988 0.57169 2.157 -0.0188775 -0.709046 0.704909 255 0 0 255
0.08783 0.571418 2.156 -0.147393 -0.746064 0.649356 255 0 0 255
0.093883 0.57247 2.16 -0.207548 -0.747336 0.6312 255 0 0 255
0.100049 0.574052 2.166 -0.358176 -0.786096 0.503749 255 0 0 255
0.106787 0.578549 2.183 -0.135318 -0.968927 0.207051 255 0 0 255
-0.07358 0.653006 2.12347 0.517526 -0.830848 -0.204595 0 255 0 255
-0.078567 0.655893 2.13955 -0.95193 0.101166 -0.289129 0 255 0 255
-0.086236 0.65902 2.15751 -0.832187 0.242473 -0.49867 0 255 0 255
-0.085914 0.661396 2.16965 -0.878879 0.474076 -0.0531306 0 255 0 255
-0.082927 0.663526 2.17986 0.61137 -0.731502 -0.30188 0 255 0 255
-0.077266 0.665413 2.18817 0.230442 -0.761177 -0.606223 0 255 0 255
-0.064465 0.666662 2.19144 -0.281646 -0.828944 -0.483247 0 255 0 255
-0.284513 0.569299 2.172 0.576883 -0.605177 0.548604 255 0 0 255
-0.277192 0.566436 2.161 0.537122 -0.550601 0.639014 255 0 0 255
-0.270433 0.564621 2.154 0.365386 -0.5662 0.738858 255 0 0 255
-0.26408 0.563592 2.15 0.199716 -0.583261 0.78735 255 0 0 255
-0.258229 0.563612 2.15 0.104498 -0.55968 0.822094 255 0 0 255
-0.25226 0.563369 2.149 0.032892 -0.44501 0.894921 255 0 0 255
-0.24641 0.563388 2.149 0.116136 -0.332249 0.936015 255 0 0 255
-0.240448 0.563144 2.148 0.152748 -0.212895 0.965061 255 0 0 255
-0.234491 0.5629 2.147 0.0724383 -0.197638 0.977595 255 0 0 255
-0.228433 0.562393 2.145 -0.155107 -0.270126 0.950249 255 0 0 255
-0.222903 0.563197 2.148 -0.321348 -0.27137 0.907245 255 0 0 255
-0.217357 0.564001 2.151 -0.319092 -0.256939 0.912229 255 0 0 255
-0.211794 0.564804 2.154 -0.213084 -0.303285 0.92877 255 0 0 255
-0.206022 0.565082 2.155 -0.060871 -0.309683 0.94889 255 0 0 255
-0.200245 0.565361 2.156 -0.00451614 -0.307404 0.951568 255 0 0 255
-0.194192 0.564852 2.154 0.215709 -0.196313 0.95652 255 0 0 255
-0.188061 0.56408 2.151 0.399353 -0.138999 0.906199 255 0 0 255
-0.181947 0.563308 2.148 0.452068 -0.00865839 0.891941 255 0 0 255
-0.175848 0.562536 2.145 0.452798 0.069327 0.888914 255 0 0 255
-0.169845 0.562025 2.143 0.448502 0.00626365 0.89376 255 0 0 255
-0.163775 0.561252 2.14 0.422645 -0.0652658 0.903942 255 0 0 255
-0.157722 0.560478 2.137 0.243929 -0.118722 0.962499 255 0 0 255
-0.151897 0.56049 2.137 0.426159 -0.0767798 0.901384 255 0 0 255
-0.145662 0.558929 2.131 0.673537 -0.0606356 0.736662 255 0 0 255
-0.139394 0.557105 2.124 0.498544 -0.234503 0.834543 255 0 0 255
-0.133416 0.556329 2.121 0.0212229 -0.287182 0.957641 255 0 0 255
-0.127874 0.557389 2.125 -0.544446 -0.361771 0.75677 255 0 0 255
-0.122598 0.55976 2.134 -0.743793 -0.319188 0.587275 255 0 0 255
-0.117163 0.561606 2.141 -0.539066 -0.245825 0.805591 255 0 0 255
-0.111533 0.562665 2.145 -0.250096 -0.187124 0.949967 255 0 0 255
-0.105684 0.562674 2.145 0.00285673 0.11199 0.993705 255 0 0 255
-0.099835 0.562682 2.145 0.0617401 0.307067 0.949683 255 0 0 255
-0.093986 0.56269 2.145 0.146592 0.356117 0.922871 255 0 0 255
-0.088095 0.562436 2.144 0.146964 0.339036 0.929223 255 0 0 255
-0.08221 0.562181 2.143 0.118493 0.219647 0.968357 255 0 0 255
-0.07633 0.561925 2.142 0.0597263 0.164871 0.984505 255 0 0 255
-0.070488 0.561931 2.142 0.205929 0.219673 0.953592 255 0 0 255
-0.064585 0.561412 2.14 0.205454 0.167849 0.964166 255 0 0 255
-0.058748 0.561417 2.14 -0.147691 0.145792 0.978229 255 0 0 255
-0.052961 0.561947 2.142 -0.285207 0.116574 0.95135 255 0 0 255
-0.04714 0.562213 2.143 -0.163109 0.0521464 0.985229 255 0 0 255
-0.041314 0.562479 2.144 -0.11528 -0.0453887 0.992296 255 0 0 255
-0.035465 0.562483 2.144 -0.112241 -0.227534 0.96728 255 0 0 255
-0.029644 0.56301 2.146 0.0393056 -0.309359 0.950133 255 0 0 255
-0.023746 0.561963 2.142 0.437129 -0.508784 0.741658 255 0 0 255
-0.017836 0.559866 2.134 0.682662 -0.483342 0.548044 255 0 0 255
-0.011947 0.556719 2.122 0.123891 -0.420113 0.898975 255 0 0 255
-0.00615 0.555933 2.119 -0.474386 -0.284881 0.832947 255 0 0 255
-0.000371 0.557769 2.126 -0.659584 -0.193828 0.726209 255 0 0 255
0.005457 0.560655 2.137 -0.627043 -0.301224 0.718388 255 0 0 255
0.011318 0.562228 2.143 -0.364801 -0.331871 0.869932 255 0 0 255
0.017148 0.561702 2.141 -0.0454122 -0.44105 0.896333 255 0 0 255
0.022999 0.561963 2.142 -0.123794 -0.341613 0.931652 255 0 0 255
0.028856 0.562223 2.143 -0.337478 -0.196 0.920702 255 0 0 255
0.034766 0.56327 2.147 -0.434575 -0.0613073 0.898547 255 0 0 255
0.040661 0.563792 2.149 -0.244949 -0.0988621 0.964483 255 0 0 255
0.046544 0.56405 2.15 -0.0636842 -0.194802 0.978773 255 0 0 255
0.052433 0.564308 2.151 -0.0352604 -0.286434 0.957451 255 0 0 255
0.0583 0.564304 2.151 -0.0606181 -0.342679 0.937495 255 0 0 255
0.064197 0.564561 2.152 -0.086755 -0.397843 0.913343 255 0 0 255
0.070067 0.564555 2.152 0.043454 -0.460843 0.886417 255 0 0 255
0.07583 0.563762 2.149 0.159444 -0.493931 0.854757 255 0 0 255
0.081691 0.563755 2.149 0.056896 -0.585821 0.808441 255 0 0 255
0.087511 0.563486 2.148 -0.0756694 -0.527361 0.846265 255 0 0 255
0.093456 0.564003 2.15 -0.247871 -0.613187 0.750041 255 0 0 255
0.09955 0.565307 2.155 -0.359503 -0.630789 0.68765 255 0 0 255
0.105671 0.56661 2.16 -0.452812 -0.676809 0.580423 255 0 0 255
0.112232 0.570011 2.173 -0.455321 -0.741995 0.492063 255 0 0 255
-0.078934 0.645421 2.14107 -0.662611 0.716465 -0.21823 0 255 0 255
-0.084818 0.64841 2.15774 -0.850596 0.24818 -0.463566 0 255 0 255
-0.090717 0.65139 2.17435 -0.909326 0.370087 -0.190162 0 255 0 255
-0.088622 0.653603 2.18519 0.812721 -0.519218 -0.264379 0 255 0 255
-0.086529 0.655816 2.19602 0.219857 -0.597223 -0.771355 0 255 0 255
-0.291111 0.564696 2.177 0.610569 -0.569761 0.550071 255 0 0 255
-0.283354 0.561086 2.163 0.597118 -0.568884 0.565527 255 0 0 255
-0.276571 0.55929 2.156 0.49038 -0.451391 0.745502 255 0 0 255
-0.269951 0.557754 2.15 0.42858 -0.394661 0.81275 255 0 0 255
-0.263609 0.556736 2.146 0.173927 -0.385089 0.906342 255 0 0 255
-0.257648 0.556496 2.145 -0.0499543 -0.40921 0.911072 255 0 0 255
-0.252044 0.557034 2.147 -0.118541 -0.338176 0.933587 255 0 0 255
-0.246314 0.557312 2.148 -0.0674909 -0.224143 0.972216 255 0 0 255
-0.240355 0.557071 2.147 0.0822143 -0.139327 0.986828 255 0 0 255
-0.2344 0.55683 2.146 0.0776928 -0.161272 0.983847 255 0 0 255
-0.22845 0.556588 2.145 -0.0155508 -0.166739 0.985879 255 0 0 255
-0.22292 0.557384 2.148 -0.274976 -0.230831 0.93333 255 0 0 255
-0.217273 0.55792 2.15 -0.290329 -0.262628 0.920183 255 0 0 255
-0.211613 0.558456 2.152 -0.17154 -0.351046 0.920511 255 0 0 255
-0.205752 0.558472 2.152 -0.0479502 -0.401879 0.914437 255 0 0 255
-0.199982 0.558748 2.153 -0.00391845 -0.419197 0.907887 255 0 0 255
-0.194117 0.558763 2.153 0.11582 -0.374585 0.91993 255 0 0 255
-0.188164 0.558519 2.152 0.288718 -0.203125 0.935619 255 0 0 255
-0.182131 0.558015 2.15 0.388187 -0.116443 0.914195 255 0 0 255
-0.176026 0.55725 2.147 0.450342 -0.0593244 0.890883 255 0 0 255
-0.169858 0.556226 2.143 0.425267 -0.0668002 0.9026 255 0 0 255
-0.163712 0.555201 2.139 0.408698 -0.0294038 0.912196 255 0 0 255
-0.157661 0.554436 2.136 0.27976 -0.00946363 0.960023 255 0 0 255
-0.151768 0.554189 2.135 0.456922 0.0681053 0.886896 255 0 0 255
-0.145743 0.553422 2.132 0.678959 -0.00864102 0.734125 255 0 0 255
-0.139537 0.551876 2.126 0.564487 -0.0555294 0.823572 255 0 0 255
-0.133364 0.55033 2.12 0.147803 -0.363012 0.919987 255 0 0 255
