ply
format ascii 1.0
comment VCGLIB generated
element vertex 744
property float x
property float y
property float z
property float nx
property float ny
property float nz
property uchar red
property uchar green
property uchar blue
property uchar alpha
element face 0
property list uchar int vertex_indices
end_header
-0.089164 0.701096 1.921 -0.574999 0.29294 0.763912 255 0 0 255
-0.08407 0.702196 1.924 -0.37225 0.280318 0.884789 255 0 0 255
-0.078878 0.702565 1.925 0.00255855 0.204795 0.978801 255 0 0 255
-0.073642 0.702569 1.925 0.0132714 0.555832 0.831188 255 0 0 255
-0.068477 0.703303 1.927 -0.249669 0.646821 0.720616 255 0 0 255
-0.063236 0.703307 1.927 -0.479685 0.691817 0.539715 255 0 0 255
-0.058085 0.704405 1.93 -0.509131 0.77053 0.383496 255 0 0 255
-0.053027 0.706963 1.937 -0.715162 0.588711 0.37678 255 0 0 255
-0.048226 0.7139 1.956 -0.160099 -0.284732 0.945143 255 0 0 255
-0.042972 0.714998 1.959 0.33958 -0.134514 0.930909 255 0 0 255
-0.037393 0.710255 1.946 0.565979 -0.473601 0.674811 255 0 0 255
-0.032182 0.712082 1.951 0.682794 -0.53439 0.498216 255 0 0 255
-0.201967 0.70662 1.951 -0.764417 -0.489487 0.419606 255 0 0 255
-0.198075 0.7117 1.965 0.516315 0.0689725 0.853617 255 0 0 255
-0.192439 0.710623 1.962 0.532187 0.0339682 0.845945 255 0 0 255
-0.186438 0.708097 1.955 0.452619 0.372787 0.810041 255 0 0 255
-0.18103 0.707743 1.954 0.0741716 0.7234 0.686434 255 0 0 255
-0.175898 0.708477 1.956 0.102708 0.814188 0.571444 255 0 0 255
-0.170231 0.707036 1.952 0.46268 0.73059 0.502161 255 0 0 255
-0.164501 0.705234 1.947 0.621093 0.548385 0.559927 255 0 0 255
-0.158717 0.703069 1.941 0.606955 0.435122 0.665037 255 0 0 255
-0.153281 0.702352 1.939 0.542919 0.436091 0.717679 255 0 0 255
-0.14778 0.701273 1.936 0.553776 0.460936 0.693448 255 0 0 255
-0.142148 0.69947 1.931 0.490012 0.440125 0.752448 255 0 0 255
-0.136755 0.698752 1.929 0.23721 0.345455 0.907961 255 0 0 255
-0.131441 0.698397 1.928 0.299675 0.309101 0.902581 255 0 0 255
-0.126002 0.697317 1.925 0.390718 0.300303 0.870148 255 0 0 255
-0.120641 0.696599 1.923 0.404845 0.302076 0.863047 255 0 0 255
-0.115232 0.695519 1.92 0.289429 0.390838 0.873771 255 0 0 255
-0.110125 0.696249 1.922 0.113437 0.420852 0.900008 255 0 0 255
-0.104788 0.695531 1.92 0.0708892 0.567914 0.820029 255 0 0 255
-0.099618 0.695899 1.921 -0.0653242 0.642576 0.763432 255 0 0 255
-0.094393 0.695904 1.921 -0.264298 0.60126 0.754078 255 0 0 255
-0.089308 0.696996 1.924 -0.402666 0.416851 0.81492 255 0 0 255
-0.084118 0.697363 1.925 -0.242274 0.321543 0.915376 255 0 0 255
-0.078964 0.698092 1.927 -0.134626 0.169405 0.976308 255 0 0 255
-0.073723 0.698096 1.927 -0.311053 0.200691 0.928961 255 0 0 255
-0.068623 0.699549 1.931 -0.642215 0.193385 0.741728 255 0 0 255
-0.063568 0.701726 1.937 -0.750522 0.309071 0.584116 255 0 0 255
-0.058449 0.703541 1.942 -0.78951 0.41398 0.453095 255 0 0 255
-0.053221 0.704269 1.944 -0.612105 0.664307 0.428979 255 0 0 255
-0.048106 0.706808 1.951 -0.649002 0.477721 0.592097 255 0 0 255
-0.04282 0.707173 1.952 0.641819 -0.0611157 0.764417 255 0 0 255
-0.037491 0.706813 1.951 -0.545635 0.678241 0.492211 255 0 0 255
-0.032002 0.702829 1.94 0.879979 -0.210958 0.425597 255 0 0 255
-0.195967 0.698841 1.944 0.385545 -0.829402 0.404286 255 0 0 255
-0.192252 0.704602 1.96 0.517134 0.10778 0.849091 255 0 0 255
-0.186733 0.703893 1.958 0.206732 0.0861494 0.974598 255 0 0 255
-0.181595 0.704621 1.96 0.0108203 0.913094 0.407605 255 0 0 255
-0.176356 0.70499 1.961 0.157163 0.725006 0.670571 255 0 0 255
-0.17085 0.704279 1.959 0.557649 0.397779 0.72856 255 0 0 255
-0.165017 0.702131 1.953 0.698736 0.31553 0.642035 255 0 0 255
-0.159134 0.699623 1.946 0.706696 0.372534 0.601498 255 0 0 255
-0.153368 0.697474 1.94 0.540457 0.454308 0.708175 255 0 0 255
-0.147941 0.696763 1.938 0.540351 0.421747 0.728114 255 0 0 255
-0.142376 0.695332 1.934 0.535677 0.46617 0.704085 255 0 0 255
-0.136975 0.694621 1.932 0.367671 0.41989 0.829765 255 0 0 255
-0.131585 0.693909 1.93 0.326508 0.365523 0.871657 255 0 0 255
-0.126271 0.693557 1.929 0.30532 0.445924 0.841387 255 0 0 255
-0.120899 0.692844 1.927 0.417821 0.494759 0.761997 255 0 0 255
-0.115478 0.691772 1.924 0.199847 0.643564 0.738842 255 0 0 255
-0.110245 0.691778 1.924 0.00104896 0.657484 0.753468 255 0 0 255
-0.105012 0.691784 1.924 0.0334439 0.641334 0.766533 255 0 0 255
-0.099831 0.692149 1.925 -0.0670263 0.591164 0.803762 255 0 0 255
-0.094595 0.692155 1.925 -0.174249 0.506444 0.844483 255 0 0 255
-0.089406 0.69252 1.926 -0.210979 0.4183 0.883466 255 0 0 255
-0.084167 0.692525 1.926 -0.104212 0.357471 0.928092 255 0 0 255
-0.078928 0.692529 1.926 -0.138633 0.290702 0.946717 255 0 0 255
-0.073727 0.692893 1.927 -0.280748 0.201312 0.938432 255 0 0 255
-0.068556 0.693616 1.929 -0.566106 0.209646 0.797228 255 0 0 255
-0.063473 0.695418 1.934 -0.766577 0.18194 0.615839 255 0 0 255
-0.058392 0.697579 1.94 -0.658957 0.0951282 0.746141 255 0 0 255
-0.053252 0.69938 1.945 -0.873712 0.254815 0.414364 255 0 0 255
-0.048158 0.70226 1.953 -0.614762 0.339854 0.711735 255 0 0 255
-0.042911 0.703341 1.956 -0.590363 0.316186 0.742629 255 0 0 255
-0.037724 0.70586 1.963 -0.875127 0.0319673 0.482836 255 0 0 255
-0.032433 0.706941 1.966 -0.900955 0.22429 0.371449 255 0 0 255
-0.195574 0.692161 1.94 -0.602654 -0.590203 0.537093 255 0 0 255
-0.19236 0.699663 1.961 0.352021 0.619491 0.701649 255 0 0 255
-0.188459 0.705025 1.976 -0.627225 -0.719535 0.298093 255 0 0 255
-0.182531 0.702894 1.97 -0.0684012 0.976125 0.206158 255 0 0 255
-0.176635 0.700762 1.964 0.708558 0.312773 0.63255 255 0 0 255
-0.170772 0.698631 1.958 0.674431 0.291048 0.678553 255 0 0 255
-0.16511 0.697212 1.954 0.696712 0.136687 0.704209 255 0 0 255
-0.159306 0.69508 1.948 0.730021 0.217564 0.64787 255 0 0 255
-0.153614 0.693304 1.943 0.562164 0.381842 0.7336 255 0 0 255
-0.148177 0.692599 1.941 0.49763 0.453579 0.739344 255 0 0 255
-0.142605 0.69118 1.937 0.54252 0.39297 0.74246 255 0 0 255
-0.137124 0.690117 1.934 0.417827 0.410819 0.810338 255 0 0 255
-0.131728 0.689411 1.932 0.311683 0.434025 0.845267 255 0 0 255
-0.126408 0.689061 1.931 0.26733 0.333243 0.904148 255 0 0 255
-0.121157 0.689068 1.931 0.386061 0.308809 0.869249 255 0 0 255
-0.115725 0.688004 1.928 0.227429 0.37902 0.897006 255 0 0 255
-0.110538 0.688367 1.929 -0.0329734 0.53312 0.845397 255 0 0 255
-0.105237 0.688016 1.928 0.0710648 0.527015 0.84688 255 0 0 255
-0.099992 0.688022 1.928 0.0370096 0.403743 0.914123 255 0 0 255
-0.094748 0.688028 1.928 -0.0686631 0.274089 0.95925 255 0 0 255
-0.08955 0.68839 1.929 -0.138781 0.330548 0.93353 255 0 0 255
-0.084303 0.688395 1.929 -0.0688317 0.331726 0.940862 255 0 0 255
-0.079055 0.6884 1.929 -0.171833 0.413278 0.894245 255 0 0 255
-0.073846 0.688761 1.93 -0.238105 0.392081 0.888583 255 0 0 255
-0.068596 0.688765 1.93 -0.452112 0.408407 0.792968 255 0 0 255
-0.063542 0.69091 1.936 -0.710397 0.279056 0.646115 255 0 0 255
-0.058396 0.692342 1.94 -0.718981 0.105054 0.687045 255 0 0 255
-0.053529 0.697698 1.955 -0.693692 -0.0867715 0.715025 255 0 0 255
-0.048235 0.698058 1.956 -0.644322 0.08108 0.760445 255 0 0 255
-0.042935 0.698417 1.957 -0.542085 0.220603 0.81085 255 0 0 255
-0.037803 0.701989 1.967 -0.691177 -0.210816 0.691253 255 0 0 255
-0.032501 0.703061 1.97 -0.785649 -0.185071 0.590342 255 0 0 255
-0.192958 0.69649 1.967 -0.866144 -0.409941 0.285907 255 0 0 255
-0.187706 0.696854 1.968 -0.622541 -0.717008 0.313595 255 0 0 255
-0.182818 0.698634 1.973 0.459654 -0.308148 0.832924 255 0 0 255
-0.176824 0.696165 1.966 0.643721 -0.119539 0.755867 255 0 0 255
-0.170868 0.693696 1.959 0.685318 0.0485392 0.726624 255 0 0 255
-0.165288 0.692643 1.956 0.621675 0.0724217 0.77992 255 0 0 255
-0.15956 0.690881 1.951 0.669666 0.221271 0.708934 255 0 0 255
-0.153859 0.689119 1.946 0.538126 0.204662 0.817639 255 0 0 255
-0.148415 0.688419 1.944 0.529709 0.28927 0.797328 255 0 0 255
-0.142833 0.687011 1.94 0.560608 0.357356 0.747004 255 0 0 255
-0.137345 0.685956 1.937 0.441589 0.372779 0.81611 255 0 0 255
-0.13194 0.685256 1.935 0.37311 0.340221 0.863156 255 0 0 255
-0.126546 0.684555 1.933 0.325325 0.239585 0.914748 255 0 0 255
-0.121163 0.683854 1.931 0.322169 0.207934 0.923564 255 0 0 255
-0.115791 0.683152 1.929 0.0738768 0.20764 0.975412 255 0 0 255
-0.110602 0.683513 1.93 -0.136995 0.368622 0.919429 255 0 0 255
-0.105352 0.683519 1.93 0.13906 0.450461 0.8819 255 0 0 255
-0.099998 0.682817 1.928 0.172073 0.369537 0.913145 255 0 0 255
-0.094753 0.682822 1.928 0.0376317 0.245521 0.96866 255 0 0 255
-0.089509 0.682828 1.928 -0.101726 0.171878 0.979852 255 0 0 255
-0.084351 0.683541 1.93 -0.171355 0.214233 0.961635 255 0 0 255
-0.079101 0.683546 1.93 -0.272377 0.343304 0.898862 255 0 0 255
-0.073965 0.684613 1.933 -0.331636 0.479231 0.812622 255 0 0 255
-0.068706 0.684617 1.933 -0.532129 0.507881 0.677419 255 0 0 255
-0.063579 0.686038 1.937 -0.653497 0.438576 0.616922 255 0 0 255
-0.058369 0.68675 1.939 -0.644851 0.307169 0.699867 255 0 0 255
-0.053285 0.689233 1.946 -0.529932 0.349122 0.772843 255 0 0 255
-0.048065 0.690298 1.949 -0.586121 -0.378391 0.716437 255 0 0 255
-0.042894 0.692426 1.955 -0.487713 -0.436326 0.756146 255 0 0 255
-0.037709 0.694908 1.962 -0.694914 -0.383099 0.608548 255 0 0 255
-0.032536 0.698452 1.972 -0.81304 -0.341183 0.471763 255 0 0 255
-0.181809 0.689439 1.962 0.215926 -0.474687 0.853257 255 0 0 255
-0.176834 0.690855 1.966 0.571713 -0.201317 0.795371 255 0 0 255
-0.17079 0.688053 1.958 0.575528 -0.21163 0.789924 255 0 0 255
-0.165212 0.687008 1.955 0.560955 -0.0502332 0.826321 255 0 0 255
-0.159487 0.68526 1.95 0.583554 0.0958758 0.806395 255 0 0 255
-0.154026 0.684566 1.948 0.500289 0.154718 0.851923 255 0 0 255
-0.148499 0.683521 1.945 0.453256 0.238823 0.858791 255 0 0 255
-0.142915 0.682123 1.941 0.4967 0.347754 0.795209 255 0 0 255
-0.137423 0.681077 1.938 0.440528 0.445057 0.779653 255 0 0 255
-0.132016 0.680382 1.936 0.447909 0.390051 0.804511 255 0 0 255
-0.126554 0.679335 1.933 0.473306 0.283643 0.833983 255 0 0 255
-0.12117 0.67864 1.931 0.324083 0.21116 0.922162 255 0 0 255
-0.115858 0.678295 1.93 -0.0332524 0.343937 0.938404 255 0 0 255
-0.110723 0.679005 1.932 -0.23594 0.400532 0.885385 255 0 0 255
-0.105522 0.679362 1.933 0.10439 0.483931 0.868858 255 0 0 255
-0.10016 0.678666 1.931 0.290139 0.437064 0.851349 255 0 0 255
-0.094857 0.67832 1.93 0.138567 0.375994 0.916203 255 0 0 255
-0.089561 0.677974 1.929 -0.068353 0.251279 0.965498 255 0 0 255
-0.084356 0.678331 1.93 -0.307013 0.319192 0.896582 255 0 0 255
-0.079188 0.679039 1.932 -0.389413 0.369659 0.843629 255 0 0 255
-0.074008 0.679746 1.934 -0.39582 0.485891 0.779254 255 0 0 255
-0.068888 0.681157 1.938 -0.55302 0.625786 0.550055 255 0 0 255
-0.063747 0.682567 1.942 -0.539966 0.665656 0.515111 255 0 0 255
-0.058583 0.683976 1.946 -0.52982 0.586494 0.612631 255 0 0 255
-0.053316 0.684331 1.947 -0.204471 0.542393 0.814863 255 0 0 255
-0.047994 0.683983 1.946 0.0319902 0.18203 0.982772 255 0 0 255
-0.042743 0.684689 1.948 -0.257872 -0.324114 0.910193 255 0 0 255
-0.037558 0.6868 1.954 -0.54385 -0.51126 0.665462 255 0 0 255
-0.032357 0.689263 1.961 -0.695698 -0.494816 0.520731 255 0 0 255
-0.179132 0.674028 1.933 -0.614685 -0.529838 0.584323 255 0 0 255
-0.175674 0.681011 1.953 0.0015669 -0.447578 0.894244 255 0 0 255
-0.170713 0.682416 1.957 0.251562 -0.127821 0.959364 255 0 0 255
-0.165222 0.681728 1.955 0.357758 0.0381038 0.933037 255 0 0 255
-0.159496 0.679994 1.95 0.516394 0.107974 0.849517 255 0 0 255
-0.153956 0.678957 1.947 0.409669 0.271537 0.870884 255 0 0 255
-0.148508 0.678268 1.945 0.417475 0.367186 0.831197 255 0 0 255
-0.143218 0.678277 1.945 0.471819 0.412516 0.779241 255 0 0 255
-0.137715 0.677239 1.942 0.484869 0.440872 0.755337 255 0 0 255
-0.132296 0.676549 1.94 0.43688 0.461481 0.772121 255 0 0 255
-0.126758 0.675162 1.936 0.430691 0.462891 0.77475 255 0 0 255
-0.121303 0.674123 1.933 0.235346 0.567927 0.788715 255 0 0 255
-0.116045 0.67413 1.933 -0.064396 0.655894 0.752101 255 0 0 255
-0.110844 0.674486 1.934 -0.197735 0.581153 0.789406 255 0 0 255
-0.105692 0.67519 1.936 0.101349 0.54926 0.829483 255 0 0 255
-0.100321 0.674499 1.934 0.306517 0.516219 0.799728 255 0 0 255
-0.094961 0.673807 1.932 0.162954 0.541612 0.824683 255 0 0 255
-0.089705 0.673813 1.932 -0.0331355 0.539163 0.841549 255 0 0 255
-0.084449 0.673818 1.932 -0.390206 0.559663 0.731106 255 0 0 255
-0.079356 0.675219 1.936 -0.401757 0.578131 0.71018 255 0 0 255
-0.074127 0.675572 1.937 -0.510126 0.61238 0.603956 255 0 0 255
-0.069106 0.678018 1.944 -0.60281 0.615828 0.507322 255 0 0 255
-0.063882 0.67872 1.946 -0.475551 0.638545 0.605072 255 0 0 255
-0.058738 0.680467 1.951 -0.48823 0.695988 0.526529 255 0 0 255
-0.053401 0.680122 1.95 0.329883 0.655748 0.679096 255 0 0 255
-0.048021 0.679079 1.947 0.244258 0.544225 0.802594 255 0 0 255
-0.04268 0.678384 1.945 -0.159284 0.354646 0.921333 255 0 0 255
-0.037445 0.679433 1.948 -0.306455 0.23081 0.923478 255 0 0 255
-0.032243 0.681528 1.954 -0.651556 -0.473768 0.592469 255 0 0 255
-0.02705 0.684669 1.963 -0.68698 -0.456917 0.565054 255 0 0 255
-0.021974 0.693041 1.987 -0.964609 -0.238374 0.112724 255 0 0 255
-0.169676 0.672979 1.945 -0.732642 -0.28889 0.616262 255 0 0 255
-0.165231 0.676449 1.955 -0.277735 -0.438734 0.85462 255 0 0 255
-0.159669 0.67542 1.952 0.275701 0.667366 0.691818 255 0 0 255
-0.15436 0.675429 1.952 0.26191 0.822388 0.505056 255 0 0 255
-0.148822 0.6744 1.949 0.15683 0.831441 0.53302 255 0 0 255
-0.143447 0.674063 1.948 0.523876 0.612202 0.592253 255 0 0 255
-0.137794 0.672341 1.943 0.49828 0.486692 0.717529 255 0 0 255
-0.132373 0.671657 1.941 0.436361 0.490662 0.754214 255 0 0 255
-0.126962 0.670973 1.939 0.335133 0.592863 0.732256 255 0 0 255
-0.121687 0.670981 1.939 0.0698349 0.746767 0.661409 255 0 0 255
-0.116352 0.670642 1.938 -0.0331338 0.779963 0.624948 255 0 0 255
-0.111137 0.670995 1.939 -0.0557636 0.749178 0.660018 255 0 0 255
-0.105808 0.670656 1.938 0.0972616 0.662854 0.742405 255 0 0 255
-0.100483 0.670316 1.937 0.324398 0.613526 0.719966 255 0 0 255
-0.095115 0.66963 1.935 0.126881 0.686182 0.716279 255 0 0 255
-0.089897 0.669982 1.936 -0.0915179 0.71455 0.693572 255 0 0 255
-0.084629 0.669987 1.936 -0.303428 0.720217 0.623874 255 0 0 255
-0.079566 0.671723 1.941 -0.432763 0.737521 0.518439 255 0 0 255
-0.074247 0.671382 1.94 -0.50877 0.72685 0.461348 255 0 0 255
-0.069217 0.673809 1.947 -0.595115 0.647443 0.476084 255 0 0 255
-0.063984 0.674505 1.949 -0.602903 0.643974 0.470961 255 0 0 255
-0.058952 0.677624 1.958 -0.525893 0.737853 0.423096 255 0 0 255
-0.053569 0.676935 1.956 0.455816 0.71251 0.533443 255 0 0 255
-0.048148 0.675554 1.952 0.604931 0.380836 0.699302 255 0 0 255
-0.027093 0.680409 1.966 -0.68698 -0.456917 0.565054 255 0 0 255
-0.022473 0.703252 2.032 -0.986298 0.162897 0.0261022 255 0 0 255
-0.165326 0.671512 1.956 -0.598195 0.688521 0.410002 255 0 0 255
-0.160333 0.672895 1.96 -0.0598459 0.942402 0.329087 255 0 0 255
-0.155081 0.673248 1.961 0.0152122 0.951552 0.307112 255 0 0 255
-0.149671 0.672914 1.96 0.199816 0.921727 0.332405 255 0 0 255
-0.144045 0.67155 1.956 0.434233 0.865536 0.24958 255 0 0 255
-0.138157 0.668812 1.948 0.63312 0.591516 0.499267 255 0 0 255
-0.132585 0.667447 1.944 0.326745 0.622555 0.7111 255 0 0 255
-0.127231 0.667111 1.943 0.145957 0.72648 0.671508 255 0 0 255
-0.121883 0.666776 1.942 0.0339217 0.790987 0.610892 255 0 0 255
-0.1166 0.666783 1.942 -0.018492 0.793411 0.608405 255 0 0 255
-0.111373 0.667134 1.943 -0.0488616 0.806201 0.58962 255 0 0 255
-0.106087 0.66714 1.943 0.0231979 0.820792 0.570756 255 0 0 255
-0.100749 0.666804 1.942 0.151296 0.847464 0.508836 255 0 0 255
-0.095317 0.66578 1.939 0.0340212 0.849081 0.527166 255 0 0 255
-0.090134 0.666472 1.941 -0.0571029 0.899166 0.433866 255 0 0 255
-0.084853 0.666478 1.941 -0.371463 0.818957 0.437408 255 0 0 255
-0.079817 0.668544 1.947 -0.394637 0.87346 0.285184 255 0 0 255
-0.074558 0.668892 1.948 -0.466854 0.813941 0.345757 255 0 0 255
-0.069435 0.670613 1.953 -0.304684 0.806543 0.506612 255 0 0 255
-0.064153 0.670961 1.954 -0.620193 0.675926 0.398102 255 0 0 255
-0.059076 0.673712 1.962 -0.397451 0.764417 0.507642 255 0 0 255
-0.05371 0.673372 1.961 0.550183 0.614996 0.564871 255 0 0 255
-0.0482 0.670972 1.954 0.560384 0.604367 0.566313 255 0 0 255
-0.027522 0.685748 1.997 -0.95146 0.26713 0.152856 255 0 0 255
-0.022574 0.700858 2.041 -0.992361 0.105093 0.0646114 255 0 0 255
-0.170568 0.665879 1.955 0.167668 0.805423 0.568491 255 0 0 255
-0.166181 0.669636 1.966 -0.272457 0.937931 0.214597 255 0 0 255
-0.160997 0.670327 1.968 0.0807318 0.850535 0.519686 255 0 0 255
-0.155644 0.670337 1.968 0.17103 0.834258 0.524177 255 0 0 255
-0.150215 0.670006 1.967 0.238161 0.71913 0.652787 255 0 0 255
-0.144643 0.668993 1.964 0.581699 0.690983 0.429148 255 0 0 255
-0.138662 0.665936 1.955 0.569579 0.779139 0.261767 255 0 0 255
-0.132935 0.663901 1.949 0.326101 0.84227 0.42923 255 0 0 255
-0.127567 0.663569 1.948 0.0786417 0.878592 0.471053 255 0 0 255
-0.122267 0.663577 1.948 0.0436258 0.91234 0.407102 255 0 0 255
-0.116967 0.663584 1.948 0.00222811 0.900954 0.433909 255 0 0 255
-0.111667 0.663591 1.948 -0.00440876 0.883669 0.468092 255 0 0 255
-0.106367 0.663598 1.948 -0.0128665 0.883735 0.467811 255 0 0 255
-0.101067 0.663605 1.948 0.00389901 0.921074 0.389368 255 0 0 255
-0.095717 0.663271 1.947 -0.00301111 0.948852 0.315708 255 0 0 255
-0.090465 0.663617 1.948 -0.0693735 0.960177 0.270642 255 0 0 255
-0.085208 0.663964 1.949 -0.300474 0.913243 0.27514 255 0 0 255
-0.080151 0.666013 1.955 -0.386731 0.85613 0.342754 255 0 0 255
-0.074869 0.666359 1.956 -0.30615 0.85798 0.412483 255 0 0 255
-0.069652 0.667386 1.959 -0.334866 0.8539 0.398395 255 0 0 255
-0.064354 0.667731 1.96 -0.391623 0.832922 0.39099 255 0 0 255
-0.05917 0.669438 1.965 -0.254742 0.717453 0.648358 255 0 0 255
-0.053795 0.669102 1.964 0.240894 0.785124 0.57057 255 0 0 255
-0.048253 0.666379 1.956 0.516235 0.64947 0.558292 255 0 0 255
-0.027469 0.678995 1.993 -0.889264 0.435477 0.139891 255 0 0 255
-0.022664 0.698075 2.049 -0.992361 0.105093 0.0646114 255 0 0 255
-0.177155 0.66532 1.969 0.645501 -0.763743 0.00511213 255 0 0 255
-0.172498 0.668034 1.977 -0.331986 0.930916 0.152249 255 0 0 255
-0.16729 0.66872 1.979 0.0217579 0.972167 0.233278 255 0 0 255
-0.161662 0.667717 1.976 0.325159 0.834837 0.444206 255 0 0 255
-0.15597 0.666375 1.972 0.319059 0.57174 0.755854 255 0 0 255
-0.15053 0.666047 1.971 0.337062 0.517231 0.786678 255 0 0 255
-0.145168 0.666056 1.971 0.353053 0.492907 0.795233 255 0 0 255
-0.139451 0.664375 1.966 0.623547 0.618664 0.477958 255 0 0 255
-0.133625 0.662018 1.959 0.362671 0.838315 0.40706 255 0 0 255
-0.128099 0.661013 1.956 0.195619 0.923704 0.329399 255 0 0 255
-0.122777 0.661021 1.956 0.0703626 0.926426 0.369843 255 0 0 255
-0.117395 0.660691 1.955 0.0891513 0.899757 0.427188 255 0 0 255
-0.112018 0.66036 1.954 0.00218063 0.868977 0.494847 255 0 0 255
-0.106756 0.660705 1.955 -0.0349916 0.868825 0.493882 255 0 0 255
-0.101436 0.660712 1.955 -0.0791947 0.910091 0.406772 255 0 0 255
-0.096215 0.661395 1.957 -0.107079 0.952616 0.284704 255 0 0 255
-0.090843 0.661063 1.956 -0.0716682 0.964462 0.254315 255 0 0 255
-0.085607 0.661745 1.958 -0.155568 0.935119 0.318358 255 0 0 255
-0.080402 0.662764 1.961 -0.296703 0.75897 0.579596 255 0 0 255
-0.075218 0.664121 1.965 -0.42403 0.706387 0.56676 255 0 0 255
-0.069941 0.664802 1.967 -0.413342 0.751241 0.514573 255 0 0 255
-0.064654 0.665482 1.969 -0.303342 0.807965 0.50515 255 0 0 255
-0.059295 0.665487 1.969 -0.208224 0.769141 0.604206 255 0 0 255
-0.053991 0.666166 1.971 0.0466347 0.818507 0.5726 255 0 0 255
-0.048503 0.66448 1.966 0.422978 0.813848 0.398423 255 0 0 255
-0.043064 0.663131 1.962 0.577062 0.783881 0.229192 255 0 0 255
-0.02776 0.680714 2.014 0.90394 -0.427077 0.0223139 255 0 0 255
-0.022754 0.695249 2.057 -0.992361 0.105093 0.0646114 255 0 0 255
-0.178246 0.664025 1.981 -0.861152 0.452927 0.230814 255 0 0 255
-0.173294 0.665712 1.986 -0.257085 0.76353 0.592393 255 0 0 255
-0.167977 0.666058 1.987 0.261537 0.786445 0.559555 255 0 0 255
-0.162163 0.664392 1.982 0.59589 0.641774 0.482742 255 0 0 255
-0.156138 0.661721 1.974 0.601714 0.637459 0.481233 255 0 0 255
-0.15031 0.659719 1.968 0.345826 0.504716 0.79099 255 0 0 255
-0.145103 0.660399 1.97 0.365248 0.542364 0.756595 255 0 0 255
-0.139602 0.659738 1.968 0.353206 0.473599 0.806815 255 0 0 255
-0.134111 0.659076 1.966 0.470997 0.577514 0.666813 255 0 0 255
-0.128566 0.658079 1.963 0.23109 0.749369 0.620519 255 0 0 255
-0.123225 0.658087 1.963 0.147162 0.761948 0.630697 255 0 0 255
-0.117763 0.657425 1.961 0.316889 0.678989 0.662235 255 0 0 255
-0.112255 0.656426 1.958 0.101575 0.688535 0.718055 255 0 0 255
-0.106982 0.656769 1.959 -0.087367 0.800553 0.592859 255 0 0 255
-0.101754 0.657446 1.961 -0.318901 0.83071 0.456314 255 0 0 255
-0.096614 0.658794 1.965 -0.200242 0.905537 0.374041 255 0 0 255
-0.091313 0.659136 1.966 0.0185926 0.915597 0.401667 255 0 0 255
-0.085919 0.658806 1.965 0.0229238 0.870993 0.49076 255 0 0 255
-0.08053 0.658477 1.964 -0.119171 0.73134 0.671521 255 0 0 255
-0.075223 0.658817 1.965 -0.354895 0.698326 0.621603 255 0 0 255
-0.070017 0.660163 1.969 -0.445035 0.677946 0.585093 255 0 0 255
-0.064789 0.661509 1.973 -0.193109 0.797832 0.571115 255 0 0 255
-0.059419 0.661513 1.973 -0.0835546 0.782508 0.617009 255 0 0 255
-0.054077 0.661852 1.974 -0.0478472 0.864094 0.50105 255 0 0 255
-0.048728 0.662191 1.975 -0.139153 0.841774 0.521587 255 0 0 255
-0.043396 0.662865 1.977 0.267082 0.870325 0.413766 255 0 0 255
-0.022766 0.690033 2.058 -0.992361 0.105093 0.0646115 255 0 0 255
-0.177987 0.657678 1.978 -0.861152 0.452927 0.230814 255 0 0 255
-0.173654 0.661679 1.99 -0.356779 0.432882 0.827842 255 0 0 255
-0.16841 0.662355 1.992 0.0394638 0.325934 0.944569 255 0 0 255
-0.162828 0.6617 1.99 0.499938 0.358006 0.788602 255 0 0 255
-0.156781 0.65905 1.982 0.684638 0.497032 0.533132 255 0 0 255
-0.151007 0.657398 1.977 0.48605 0.626007 0.609812 255 0 0 255
-0.145481 0.656743 1.975 0.416438 0.560862 0.715551 255 0 0 255
-0.139895 0.655754 1.972 0.468199 0.469187 0.748768 255 0 0 255
-0.134256 0.654433 1.968 0.347618 0.528969 0.774179 255 0 0 255
-0.128836 0.654109 1.967 0.244538 0.534321 0.809137 255 0 0 255
-0.123421 0.653785 1.966 0.247902 0.518942 0.818074 255 0 0 255
-0.118011 0.653461 1.965 0.386478 0.438032 0.811642 255 0 0 255
-0.112492 0.652471 1.962 0.0802555 0.51268 0.85482 255 0 0 255
-0.107262 0.653143 1.964 -0.393894 0.5793 0.713624 255 0 0 255
-0.102021 0.653815 1.966 -0.52427 0.617906 0.585947 255 0 0 255
-0.096916 0.655485 1.971 -0.260263 0.74096 0.619065 255 0 0 255
-0.091552 0.655491 1.971 -0.0283027 0.787357 0.615847 255 0 0 255
-0.0861 0.654832 1.969 0.0696151 0.87143 0.485555 255 0 0 255
-0.0807 0.654506 1.968 0.0252126 0.849535 0.52693 255 0 0 255
-0.07542 0.655176 1.97 -0.370216 0.819051 0.438288 255 0 0 255
-0.070271 0.657176 1.976 -0.357608 0.801777 0.478821 255 0 0 255
-0.064991 0.658179 1.979 -0.101868 0.76605 0.634658 255 0 0 255
-0.059604 0.658183 1.979 0.000240219 0.732338 0.680941 255 0 0 255
-0.054217 0.658187 1.979 -0.151303 0.704909 0.692972 255 0 0 255
-0.04888 0.658856 1.981 -0.215366 0.648935 0.729727 255 0 0 255
-0.043509 0.659192 1.982 -0.0864968 0.563285 0.821723 255 0 0 255
-0.037902 0.655536 1.971 0.636226 0.676407 0.371066 255 0 0 255
-0.027722 0.668844 2.011 -0.868889 0.453952 0.197384 255 0 0 255
-0.022768 0.684478 2.058 -0.992361 0.105093 0.0646115 255 0 0 255
-0.177728 0.651347 1.975 -0.939722 0.179184 0.291233 255 0 0 255
-0.173752 0.656635 1.991 0.173876 0.397964 0.900773 255 0 0 255
-0.168336 0.656646 1.991 0.140065 0.218218 0.965796 255 0 0 255
-0.162756 0.655997 1.989 0.618753 0.165582 0.767937 255 0 0 255
-0.15687 0.654029 1.983 0.570566 0.382457 0.726761 255 0 0 255
-0.151323 0.653379 1.981 0.485379 0.420665 0.766452 255 0 0 255
-0.145638 0.65207 1.977 0.459954 0.525897 0.715454 255 0 0 255
-0.140046 0.65109 1.974 0.490898 0.585433 0.645203 255 0 0 255
-0.13447 0.650109 1.971 0.38474 0.52883 0.756514 255 0 0 255
-0.129041 0.649788 1.97 0.297621 0.551634 0.77918 255 0 0 255
-0.123555 0.649137 1.968 0.33311 0.440832 0.83349 255 0 0 255
-0.118079 0.648486 1.966 0.385754 0.348556 0.854226 255 0 0 255
-0.112614 0.647834 1.964 0.00441525 0.318379 0.947953 255 0 0 255
-0.107433 0.648831 1.967 -0.504989 0.384993 0.772507 255 0 0 255
-0.102235 0.649828 1.97 -0.615352 0.402455 0.677769 255 0 0 255
-0.09707 0.651154 1.974 -0.47769 0.497868 0.723837 255 0 0 255
-0.09179 0.65182 1.976 -0.129855 0.654846 0.744523 255 0 0 255
-0.086456 0.652156 1.977 -0.0939465 0.794949 0.599358 255 0 0 255
-0.081074 0.652162 1.977 -0.104839 0.86115 0.497422 255 0 0 255
-0.075808 0.653157 1.98 -0.29407 0.827921 0.477566 255 0 0 255
-0.070525 0.654152 1.983 -0.103176 0.693073 0.713445 255 0 0 255
-0.065127 0.654157 1.983 -0.0318156 0.602682 0.797347 255 0 0 255
-0.059729 0.654161 1.983 0.0329178 0.500086 0.86535 255 0 0 255
-0.054303 0.653835 1.982 -0.0916302 0.54405 0.834034 255 0 0 255
-0.048957 0.654499 1.984 -0.100146 0.488071 0.867039 255 0 0 255
-0.043534 0.654172 1.983 0.0867554 0.448633 0.889496 255 0 0 255
-0.173938 0.651912 1.993 0.226755 0.445774 0.865949 255 0 0 255
-0.168432 0.651596 1.992 0.297704 0.254725 0.920048 255 0 0 255
-0.162931 0.65128 1.991 0.574012 0.35547 0.737666 255 0 0 255
-0.157118 0.649655 1.986 0.578473 0.283586 0.764819 255 0 0 255
-0.151638 0.649339 1.985 0.446588 0.307022 0.840415 255 0 0 255
-0.146016 0.648367 1.982 0.437768 0.436522 0.786008 255 0 0 255
-0.140552 0.64805 1.981 0.412771 0.545785 0.729204 255 0 0 255
-0.13482 0.646423 1.976 0.465841 0.555715 0.688602 255 0 0 255
-0.129247 0.645451 1.973 0.346141 0.538677 0.768124 255 0 0 255
-0.123752 0.644805 1.971 0.427321 0.434515 0.792839 255 0 0 255
-0.118207 0.643832 1.968 0.434226 0.359916 0.825777 255 0 0 255
-0.112737 0.643186 1.966 -0.0317004 0.432837 0.900915 255 0 0 255
-0.107495 0.643848 1.968 -0.544173 0.353619 0.760809 255 0 0 255
-0.102398 0.645491 1.973 -0.624593 0.190023 0.757479 255 0 0 255
-0.097224 0.646807 1.977 -0.501344 0.318482 0.804502 255 0 0 255
-0.09189 0.64714 1.978 -0.318137 0.401962 0.858612 255 0 0 255
-0.086593 0.647801 1.98 -0.321478 0.451123 0.83255 255 0 0 255
-0.081326 0.648788 1.983 -0.478258 0.427406 0.767198 255 0 0 255
-0.076081 0.650103 1.987 -0.309043 0.556076 0.771539 255 0 0 255
-0.070672 0.650108 1.987 -0.0238954 0.438663 0.898334 255 0 0 255
-0.065197 0.649458 1.985 0.100271 0.274795 0.95626 255 0 0 255
-0.059793 0.649463 1.985 -0.0667666 0.381336 0.922022 255 0 0 255
-0.054389 0.649467 1.985 -0.160829 0.528679 0.833447 255 0 0 255
-0.04901 0.649798 1.986 0.101472 0.473353 0.875009 255 0 0 255
-0.043559 0.649147 1.984 0.149081 0.323184 0.93452 255 0 0 255
-0.174299 0.647828 1.997 -0.0780235 0.467238 0.880682 255 0 0 255
-0.168697 0.647191 1.995 0.281886 0.450547 0.847082 255 0 0 255
-0.163023 0.646228 1.992 0.573029 0.355209 0.738556 255 0 0 255
-0.157208 0.644617 1.987 0.584219 0.315309 0.747842 255 0 0 255
-0.151572 0.643654 1.984 0.423736 0.322327 0.846495 255 0 0 255
-0.146026 0.643016 1.982 0.274882 0.40482 0.872101 255 0 0 255
-0.140562 0.642701 1.981 0.395447 0.51383 0.761315 255 0 0 255
-0.134966 0.641737 1.978 0.484229 0.539263 0.688998 255 0 0 255
-0.129452 0.641097 1.976 0.362844 0.592576 0.719165 255 0 0 255
-0.123949 0.640457 1.974 0.437424 0.55597 0.706793 255 0 0 255
-0.118336 0.639168 1.97 0.360343 0.476883 0.801708 255 0 0 255
-0.112859 0.638527 1.968 0.181336 0.462799 0.867718 255 0 0 255
-0.107612 0.639184 1.97 -0.490694 0.216348 0.844046 255 0 0 255
-0.102457 0.640489 1.974 -0.654666 0.164212 0.737867 255 0 0 255
-0.097231 0.64147 1.977 -0.592923 0.21489 0.776057 255 0 0 255
-0.091989 0.64245 1.98 -0.376364 0.348769 0.858318 255 0 0 255
-0.086643 0.64278 1.981 -0.346736 0.389884 0.853091 255 0 0 255
-0.081373 0.64376 1.984 -0.418896 0.211648 0.883024 255 0 0 255
-0.076048 0.644415 1.986 -0.257087 0.0570008 0.964706 255 0 0 255
-0.070677 0.644744 1.987 0.00284409 0.0839558 0.996465 255 0 0 255
-0.065235 0.644425 1.986 0.0351174 0.199133 0.979343 255 0 0 255
-0.059828 0.644429 1.986 -0.23002 0.361408 0.90359 255 0 0 255
-0.054503 0.645407 1.989 -0.195983 0.48674 0.851278 255 0 0 255
-0.049087 0.645411 1.989 0.26012 0.377135 0.888879 255 0 0 255
-0.043606 0.64444 1.986 0.363126 0.276267 0.88984 255 0 0 255
-0.174398 0.642757 1.998 0.190682 0.514127 0.83625 255 0 0 255
-0.169046 0.64309 1.999 0.247877 0.541092 0.803603 255 0 0 255
-0.163362 0.642136 1.996 0.584728 0.412865 0.698309 255 0 0 255
-0.157535 0.640538 1.991 0.615876 0.392346 0.683199 255 0 0 255
-0.151735 0.638941 1.986 0.40069 0.448119 0.799147 255 0 0 255
-0.146331 0.638951 1.986 0.191297 0.536925 0.821655 255 0 0 255
-0.140855 0.638639 1.985 0.309237 0.557398 0.770506 255 0 0 255
-0.135317 0.638005 1.983 0.330651 0.650466 0.683786 255 0 0 255
-0.129723 0.637049 1.98 0.291251 0.714199 0.636468 255 0 0 255
-0.124271 0.636736 1.979 0.470463 0.649295 0.597562 255 0 0 255
-0.118644 0.635458 1.975 0.599196 0.430245 0.67517 255 0 0 255
-0.112982 0.633857 1.97 0.247513 0.291012 0.924148 255 0 0 255
-0.107619 0.633865 1.97 -0.386361 0.259339 0.885137 255 0 0 255
-0.102412 0.634838 1.973 -0.654972 0.184293 0.732835 255 0 0 255
-0.097337 0.636776 1.979 -0.67283 0.202334 0.711591 255 0 0 255
-0.092135 0.63807 1.983 -0.44899 0.408647 0.794616 255 0 0 255
-0.08678 0.638398 1.984 -0.283211 0.440297 0.852015 255 0 0 255
-0.08142 0.638726 1.985 -0.233987 0.325956 0.915971 255 0 0 255
-0.076016 0.638731 1.985 -0.192702 0.25569 0.947359 255 0 0 255
-0.070647 0.639059 1.986 -0.135311 0.22294 0.965396 255 0 0 255
-0.065272 0.639385 1.987 -0.134959 0.325765 0.935769 255 0 0 255
-0.059892 0.639712 1.988 -0.36939 0.408352 0.834746 255 0 0 255
-0.054562 0.640681 1.991 -0.253412 0.521531 0.814732 255 0 0 255
-0.049116 0.640363 1.99 0.412909 0.370494 0.83201 255 0 0 255
-0.043631 0.639401 1.987 0.519964 0.27023 0.810317 255 0 0 255
-0.17441 0.637361 1.998 0.195387 0.508523 0.838587 255 0 0 255
-0.169312 0.638649 2.002 0.170158 0.588716 0.790228 255 0 0 255
-0.163537 0.637384 1.998 0.57753 0.453378 0.678902 255 0 0 255
-0.157704 0.6358 1.993 0.583521 0.511585 0.630701 255 0 0 255
-0.152051 0.634854 1.99 0.334003 0.640312 0.691695 255 0 0 255
-0.146636 0.634864 1.99 0.171242 0.67472 0.717934 255 0 0 255
-0.141078 0.634236 1.988 0.280043 0.6222 0.731056 255 0 0 255
-0.135599 0.633927 1.987 0.24352 0.675514 0.695973 255 0 0 255
-0.130125 0.633617 1.986 0.283174 0.669934 0.686295 255 0 0 255
-0.124594 0.632988 1.984 0.592821 0.504134 0.628022 255 0 0 255
-0.118833 0.631083 1.978 0.74097 0.20778 0.638585 255 0 0 255
-0.113105 0.629177 1.972 0.539526 0.29534 0.788471 255 0 0 255
-0.107736 0.629185 1.972 -0.35808 0.245296 0.900893 255 0 0 255
-0.102524 0.630149 1.975 -0.689443 0.176591 0.702484 255 0 0 255
-0.097442 0.632071 1.981 -0.738875 0.327165 0.589091 255 0 0 255
-0.092235 0.633354 1.985 -0.465688 0.479997 0.743463 255 0 0 255
-0.086918 0.633999 1.987 -0.215138 0.551991 0.805619 255 0 0 255
-0.081549 0.634324 1.988 -0.1283 0.51399 0.848147 255 0 0 255
-0.076136 0.63433 1.988 -0.166191 0.518251 0.838925 255 0 0 255
-0.070759 0.634654 1.989 -0.169304 0.528541 0.831854 255 0 0 255
-0.065343 0.63466 1.989 -0.248434 0.613743 0.7494 255 0 0 255
-0.060017 0.635621 1.992 -0.348942 0.596856 0.722497 255 0 0 255
-0.054648 0.636264 1.994 -0.188389 0.60025 0.777309 255 0 0 255
-0.049243 0.636587 1.995 0.555854 0.367462 0.745653 255 0 0 255
-0.043656 0.634356 1.988 0.556414 0.34974 0.753714 255 0 0 255
-0.169577 0.634191 2.005 0.0326514 0.552009 0.833199 255 0 0 255
-0.163876 0.633253 2.002 0.487345 0.603438 0.631155 255 0 0 255
-0.158111 0.631999 1.998 0.539993 0.633732 0.553887 255 0 0 255
-0.152444 0.631061 1.995 0.332383 0.711785 0.618776 255 0 0 255
-0.146941 0.630756 1.994 0.292055 0.714869 0.635347 255 0 0 255
-0.141372 0.630133 1.992 0.299688 0.653904 0.694692 255 0 0 255
-0.135813 0.629511 1.99 0.168886 0.680383 0.713132 255 0 0 255
-0.130397 0.62952 1.99 0.326881 0.600914 0.729418 255 0 0 255
-0.124729 0.628264 1.986 0.652204 0.448123 0.611405 255 0 0 255
-0.118902 0.626058 1.979 0.772494 0.154888 0.615843 255 0 0 255
-0.113113 0.623852 1.972 0.539788 0.148678 0.828567 255 0 0 255
-0.107744 0.62386 1.972 -0.428331 0.195882 0.882135 255 0 0 255
-0.102635 0.62545 1.977 -0.775864 0.173595 0.606548 255 0 0 255
-0.097646 0.627988 1.985 -0.743566 0.369703 0.557162 255 0 0 255
-0.092427 0.62926 1.989 -0.524718 0.509083 0.68228 255 0 0 255
-0.087055 0.629584 1.99 -0.264763 0.631947 0.728384 255 0 0 255
-0.081678 0.629906 1.991 -0.175618 0.691265 0.700936 255 0 0 255
-0.076295 0.630228 1.992 -0.217807 0.772697 0.596238 255 0 0 255
-0.070942 0.630867 1.994 -0.158513 0.818177 0.552685 255 0 0 255
-0.065512 0.630872 1.994 -0.216326 0.810556 0.544244 255 0 0 255
-0.060172 0.631826 1.997 -0.223828 0.786803 0.575189 255 0 0 255
-0.054734 0.63183 1.997 -0.197878 0.731233 0.652796 255 0 0 255
-0.04932 0.63215 1.998 0.351218 0.742413 0.570499 255 0 0 255
-0.043682 0.629306 1.989 0.52541 0.369087 0.766628 255 0 0 255
-0.169843 0.629717 2.008 -0.0615506 0.518294 0.852985 255 0 0 255
-0.164378 0.629728 2.008 -0.0615506 0.518294 0.852985 255 0 0 255
-0.158676 0.628799 2.005 0.350132 0.808757 0.472567 255 0 0 255
-0.15299 0.627869 2.002 0.402708 0.760105 0.509967 255 0 0 255
-0.14732 0.626939 1.999 0.348801 0.724885 0.594037 255 0 0 255
-0.141666 0.626009 1.996 0.272 0.698277 0.662137 255 0 0 255
-0.136165 0.625705 1.995 0.166954 0.690631 0.703673 255 0 0 255
-0.130668 0.625401 1.994 0.368098 0.648954 0.665854 255 0 0 255
-0.124926 0.623842 1.989 0.738596 0.409035 0.535879 255 0 0 255
-0.11891 0.620715 1.979 0.802746 0.300355 0.515156 255 0 0 255
-0.113178 0.618841 1.973 0.5995 0.217599 0.770228 255 0 0 255
-0.107752 0.618536 1.972 -0.457165 0.217605 0.86235 255 0 0 255
-0.102694 0.620425 1.978 -0.832452 0.211559 0.512119 255 0 0 255
-0.097752 0.623256 1.987 -0.807248 0.307551 0.503749 255 0 0 255
-0.092574 0.624831 1.992 -0.601973 0.48507 0.6343 255 0 0 255
-0.087281 0.625779 1.995 -0.311432 0.667802 0.676056 255 0 0 255
-0.081889 0.626099 1.996 -0.218125 0.740691 0.635451 255 0 0 255
-0.07653 0.626732 1.998 -0.240841 0.79142 0.561827 255 0 0 255
-0.07116 0.627365 2 -0.206893 0.821313 0.531639 255 0 0 255
-0.065714 0.62737 2 -0.208275 0.840878 0.499546 255 0 0 255
-0.060327 0.628002 2.002 -0.195786 0.860603 0.470138 255 0 0 255
-0.054903 0.62832 2.003 -0.132521 0.855019 0.501378 255 0 0 255
-0.049497 0.628952 2.005 -0.0452776 0.788076 0.613911 255 0 0 255
-0.16977 0.623982 2.007 -0.46989 0.544534 0.694757 255 0 0 255
-0.164881 0.626171 2.014 -0.44904 0.679807 0.57985 255 0 0 255
-0.159162 0.625249 2.011 0.149555 0.895086 0.420065 255 0 0 255
-0.153383 0.624017 2.007 0.465149 0.713353 0.52418 255 0 0 255
-0.147625 0.622784 2.003 0.372268 0.738784 0.561796 255 0 0 255
-0.14196 0.621862 2 0.279545 0.755501 0.592514 255 0 0 255
-0.136447 0.621561 1.999 0.212348 0.756535 0.618516 255 0 0 255
-0.13094 0.62126 1.998 0.335521 0.749948 0.570091 255 0 0 255
-0.125186 0.619715 1.993 0.637853 0.560156 0.528554 255 0 0 255
-0.119099 0.616303 1.982 0.743373 0.523007 0.416965 255 0 0 255
-0.113302 0.614135 1.975 0.375812 0.682091 0.627309 255 0 0 255
-0.107869 0.613833 1.974 -0.457875 0.428375 0.779003 255 0 0 255
-0.102754 0.615395 1.979 -0.723801 0.384136 0.573194 255 0 0 255
-0.097857 0.618512 1.989 -0.833042 0.279654 0.47732 255 0 0 255
-0.092766 0.620696 1.996 -0.684126 0.361309 0.633583 255 0 0 255
-0.087462 0.621636 1.999 -0.46715 0.472934 0.747064 255 0 0 255
-0.0821 0.622264 2.001 -0.342143 0.620884 0.705296 255 0 0 255
-0.076689 0.622581 2.002 -0.382064 0.654273 0.652651 255 0 0 255
-0.071344 0.62352 2.005 -0.255715 0.773961 0.579304 255 0 0 255
-0.065916 0.623836 2.006 -0.281861 0.815962 0.504737 255 0 0 255
-0.060543 0.624774 2.009 -0.181852 0.877542 0.443678 255 0 0 255
-0.055099 0.625089 2.01 -0.0677395 0.865239 0.496763 255 0 0 255
-0.049575 0.624471 2.008 0.0113475 0.848342 0.529326 255 0 0 255
-0.170036 0.619486 2.01 -0.591111 0.610897 0.526681 255 0 0 255
-0.16522 0.621964 2.018 -0.218836 0.89186 0.395849 255 0 0 255
-0.159807 0.622284 2.019 -0.0488084 0.9158 0.398658 255 0 0 255
-0.153929 0.620754 2.014 0.449178 0.764137 0.462963 255 0 0 255
-0.148078 0.619224 2.009 0.421269 0.734878 0.531496 255 0 0 255
-0.142396 0.61831 2.006 0.297236 0.762569 0.574578 255 0 0 255
-0.136867 0.618012 2.005 0.274112 0.685942 0.674052 255 0 0 255
-0.131277 0.617405 2.003 0.344646 0.621718 0.70334 255 0 0 255
-0.125636 0.61649 2 0.619139 0.579247 0.530227 255 0 0 255
-0.119649 0.613725 1.991 0.644067 0.67217 0.365192 255 0 0 255
-0.113826 0.611576 1.984 0.422054 0.842593 0.334525 255 0 0 255
-0.108205 0.610351 1.98 -0.270198 0.808586 0.522667 255 0 0 255
-0.103021 0.611592 1.984 -0.545392 0.761108 0.351087 255 0 0 255
-0.097963 0.613758 1.991 -0.738161 0.388932 0.551226 255 0 0 255
-0.09282 0.615615 1.997 -0.675395 0.310157 0.669063 255 0 0 255
-0.087556 0.616855 2.001 -0.557622 0.279919 0.781475 255 0 0 255
-0.08223 0.617786 2.004 -0.467313 0.431527 0.771624 255 0 0 255
-0.076887 0.618717 2.007 -0.448031 0.539141 0.713159 255 0 0 255
-0.071527 0.619647 2.01 -0.447484 0.604385 0.659149 255 0 0 255
-0.066085 0.619961 2.011 -0.390365 0.740974 0.546417 255 0 0 255
-0.060728 0.621199 2.015 -0.186285 0.861817 0.471773 255 0 0 255
-0.055295 0.62182 2.017 -0.0829204 0.86627 0.492647 255 0 0 255
-0.049677 0.620283 2.012 0.0663009 0.855421 0.513672 255 0 0 255
-0.170387 0.615278 2.014 -0.585016 0.621792 0.520702 255 0 0 255
-0.165724 0.618346 2.024 -0.123392 0.925099 0.359118 255 0 0 255
-0.160294 0.618663 2.025 0.0369088 0.956051 0.290868 255 0 0 255
-0.154399 0.617147 2.02 0.38979 0.862611 0.322439 255 0 0 255
-0.148458 0.615325 2.014 0.514884 0.713665 0.474949 255 0 0 255
-0.142762 0.614419 2.011 0.405725 0.67701 0.614039 255 0 0 255
-0.137082 0.613513 2.008 0.415442 0.637699 0.648651 255 0 0 255
-0.131484 0.612912 2.006 0.379493 0.561385 0.735413 255 0 0 255
-0.125833 0.612005 2.003 0.357354 0.636067 0.683898 255 0 0 255
-0.120139 0.610792 1.999 0.510433 0.743555 0.431953 255 0 0 255
-0.114351 0.608968 1.993 0.327639 0.87656 0.352555 255 0 0 255
-0.10876 0.60806 1.99 -0.204512 0.918028 0.339704 255 0 0 255
-0.103497 0.608984 1.993 -0.237567 0.76292 0.601261 255 0 0 255
-0.098167 0.609603 1.995 -0.467672 0.561205 0.682885 255 0 0 255
-0.09292 0.610833 1.999 -0.601959 0.294681 0.742165 255 0 0 255
-0.087607 0.611757 2.002 -0.590988 0.272069 0.759416 255 0 0 255
-0.082359 0.613291 2.007 -0.590151 0.330275 0.736641 255 0 0 255
-0.076969 0.613908 2.009 -0.590436 0.507902 0.627233 255 0 0 255
-0.071639 0.615136 2.013 -0.493057 0.631547 0.598368 255 0 0 255
-0.066255 0.616058 2.016 -0.395623 0.788172 0.471453 255 0 0 255
-0.060914 0.617591 2.021 -0.319497 0.888541 0.329268 255 0 0 255
-0.055436 0.617901 2.022 -0.169311 0.920918 0.351061 255 0 0 255
-0.049903 0.6176 2.021 0.0294918 0.948265 0.316106 255 0 0 255
-0.044793 0.623104 2.039 -0.488376 0.87057 0.0599685 255 0 0 255
-0.171753 0.614683 2.03 -0.242522 0.927605 0.284134 255 0 0 255
-0.166555 0.615906 2.034 0.167525 0.92418 0.34326 255 0 0 255
-0.161255 0.616827 2.037 0.32892 0.941113 0.0782102 255 0 0 255
-0.155328 0.615325 2.032 0.447484 0.8709 0.2032 255 0 0 255
-0.149059 0.612308 2.022 0.577927 0.74346 0.336553 255 0 0 255
-0.143199 0.610804 2.017 0.499238 0.717152 0.486266 255 0 0 255
-0.137297 0.608998 2.011 0.438253 0.665422 0.604275 255 0 0 255
-0.13169 0.608402 2.009 0.3415 0.69067 0.637458 255 0 0 255
-0.126094 0.607807 2.007 0.358293 0.707475 0.609184 255 0 0 255
-0.120629 0.607816 2.007 0.337874 0.727323 0.597363 255 0 0 255
-0.114991 0.606916 2.004 0.463383 0.73782 0.490813 255 0 0 255
-0.109206 0.605108 1.998 0.163711 0.880171 0.44553 255 0 0 255
-0.103764 0.605116 1.998 -0.170664 0.807648 0.564427 255 0 0 255
-0.098322 0.605124 1.998 -0.274222 0.724896 0.631924 255 0 0 255
-0.09302 0.60604 2.001 -0.520192 0.550957 0.652569 255 0 0 255
-0.087657 0.606653 2.003 -0.572546 0.489626 0.657615 255 0 0 255
-0.082407 0.608174 2.008 -0.598612 0.494715 0.630017 255 0 0 255
-0.07709 0.609391 2.012 -0.605044 0.568049 0.557891 255 0 0 255
-0.071859 0.611517 2.019 -0.62595 0.660925 0.413963 255 0 0 255
-0.066556 0.61334 2.025 -0.479899 0.822937 0.30409 255 0 0 255
-0.06125 0.615465 2.032 -0.53002 0.829358 0.176759 255 0 0 255
-0.055824 0.616681 2.036 -0.441176 0.894579 0.0713603 255 0 0 255
-0.050673 0.621532 2.052 -0.622247 0.782409 0.0253756 255 0 0 255
-0.045983 0.633954 2.093 0.850345 -0.524393 0.0438714 255 0 0 255
-0.040916 0.643953 2.126 -0.580359 -0.775769 0.247722 255 0 0 255
-0.145811 0.800898 2.1468 0.95327 0.196782 -0.229243 0 255 0 255
-0.174388 0.618502 2.061 0.487364 0.872182 0.0421325 255 0 0 255
-0.168287 0.616714 2.055 0.456058 0.889099 0.0389066 255 0 0 255
-0.162534 0.616126 2.053 0.456058 0.889099 0.0389066 255 0 0 255
-0.156104 0.612836 2.042 0.530184 0.844127 0.0797125 255 0 0 255
-0.149733 0.609547 2.031 0.589275 0.786156 0.186314 255 0 0 255
-0.143564 0.606857 2.022 0.51092 0.811622 0.28325 255 0 0 255
-0.137785 0.605667 2.018 0.347377 0.872481 0.343665 255 0 0 255
-0.132094 0.604777 2.015 0.295954 0.825989 0.479743 255 0 0 255
-0.126544 0.604486 2.014 0.338825 0.822503 0.456823 255 0 0 255
-0.120818 0.603295 2.01 0.344164 0.671385 0.656349 255 0 0 255
-0.115172 0.602404 2.007 0.471488 0.587104 0.658033 255 0 0 255
-0.109487 0.601212 2.003 0.262342 0.719838 0.642658 255 0 0 255
-0.104032 0.60122 2.003 -0.150669 0.792324 0.591204 255 0 0 255
-0.098576 0.601228 2.003 -0.195352 0.779118 0.595662 255 0 0 255
-0.093306 0.602436 2.007 -0.362936 0.826949 0.429457 255 0 0 255
-0.08797 0.603344 2.01 -0.43931 0.75827 0.481698 255 0 0 255
-0.082659 0.604551 2.014 -0.467159 0.692477 0.549762 255 0 0 255
-0.077364 0.606058 2.019 -0.648035 0.661983 0.376603 255 0 0 255
-0.072113 0.608165 2.026 -0.650854 0.712895 0.261094 255 0 0 255
-0.066791 0.609972 2.032 -0.555688 0.800036 0.226169 255 0 0 255
-0.061466 0.612078 2.039 -0.614301 0.771614 0.165062 255 0 0 255
-0.056213 0.615385 2.05 -0.595326 0.797834 0.0951202 255 0 0 255
-0.051467 0.625596 2.084 0.825483 -0.563408 0.0338879 255 0 0 255
-0.046668 0.637607 2.124 -0.828188 0.524307 0.198006 255 0 0 255
-0.041131 0.641513 2.137 -0.229787 0.783822 0.576907 255 0 0 255
-0.035408 0.643317 2.143 0.185162 -0.154928 0.970419 255 0 0 255
-0.177025 0.622153 2.092 0.222309 0.865538 0.448802 255 0 0 255
-0.170674 0.619786 2.084 0.482521 0.869882 0.102362 255 0 0 255
-0.16413 0.616527 2.073 -0.519962 -0.854094 0.01277 255 0 0 255
-0.157262 0.611781 2.057 0.585125 0.808727 0.0599117 255 0 0 255
-0.150777 0.608224 2.045 0.606743 0.781796 0.143729 255 0 0 255
-0.144498 0.605261 2.035 0.54282 0.824307 0.160822 255 0 0 255
-0.138547 0.603487 2.029 0.390573 0.903528 0.176323 255 0 0 255
-0.132694 0.60201 2.024 0.348125 0.901952 0.255522 255 0 0 255
-0.127056 0.601425 2.022 0.474073 0.824591 0.308715 255 0 0 255
-0.121068 0.599055 2.014 0.493399 0.738894 0.458905 255 0 0 255
-0.115411 0.598172 2.011 0.388443 0.742312 0.545971 255 0 0 255
-0.109715 0.596991 2.007 0.239416 0.789451 0.565197 255 0 0 255
-0.1043 0.597297 2.008 0.0974214 0.883397 0.458388 255 0 0 255
-0.098879 0.597602 2.009 -0.294688 0.896722 0.330225 255 0 0 255
-0.093639 0.599097 2.014 -0.324614 0.887895 0.325988 255 0 0 255
-0.088284 0.599997 2.017 -0.276209 0.871756 0.40466 255 0 0 255
-0.082871 0.600598 2.019 -0.404223 0.822448 0.400229 255 0 0 255
-0.0776 0.60239 2.025 -0.715051 0.620596 0.321813 255 0 0 255
-0.072439 0.60537 2.035 -0.687337 0.69129 0.222903 255 0 0 255
-0.067191 0.608053 2.044 -0.649763 0.744229 0.154696 255 0 0 255
-0.061893 0.610736 2.053 -0.68088 0.729693 0.062854 255 0 0 255
-0.056738 0.6155 2.069 0.748372 -0.662735 0.0268461 255 0 0 255
-0.052138 0.627999 2.111 -0.891997 0.451995 0.00642839 255 0 0 255
-0.046979 0.636035 2.138 -0.451354 0.746633 0.488691 255 0 0 255
-0.04125 0.637526 2.143 -0.0835902 0.421095 0.903157 255 0 0 255
-0.035378 0.636934 2.141 0.115626 -0.123546 0.985579 255 0 0 255
-0.029544 0.636937 2.141 0.568153 0.0788796 0.819134 255 0 0 255
-0.194643 0.636806 2.161 0.367011 -0.710103 0.60088 255 0 0 255
-0.183694 0.619728 2.103 0.110725 0.790622 0.60221 255 0 0 255
-0.177884 0.619447 2.102 -0.18981 0.722636 0.664657 255 0 0 255
-0.171998 0.618871 2.1 0.21618 0.877097 0.428913 255 0 0 255
-0.165805 0.617115 2.094 0.420712 0.883731 0.204989 255 0 0 255
-0.158651 0.611528 2.075 0.651136 0.756915 0.0556954 255 0 0 255
-0.151821 0.606824 2.059 0.645075 0.75763 0.0993746 255 0 0 255
-0.145433 0.603594 2.048 0.601852 0.78195 0.162261 255 0 0 255
-0.139445 0.601837 2.042 0.5141 0.812566 0.27466 255 0 0 255
-0.133491 0.600079 2.036 0.558731 0.749412 0.355248 255 0 0 255
-0.127694 0.59891 2.032 0.588263 0.713189 0.381193 255 0 0 255
-0.121679 0.596562 2.024 0.655048 0.610949 0.444582 255 0 0 255
-0.115879 0.595097 2.019 0.259586 0.826916 0.498824 255 0 0 255
-0.110215 0.594222 2.016 -0.0200423 0.907796 0.418932 255 0 0 255
-0.104827 0.59482 2.018 0.00154961 0.848188 0.529693 255 0 0 255
-0.099428 0.595417 2.02 -0.300983 0.821344 0.484565 255 0 0 255
-0.094065 0.596309 2.023 -0.291045 0.791935 0.536779 255 0 0 255
-0.088597 0.596611 2.024 -0.198379 0.830273 0.520857 255 0 0 255
-0.083124 0.596913 2.025 -0.46206 0.740375 0.488207 255 0 0 255
-0.077913 0.599277 2.033 -0.688788 0.665922 0.286564 255 0 0 255
-0.07273 0.602231 2.043 -0.690125 0.712918 0.1244 255 0 0 255
-0.067525 0.605479 2.054 -0.668333 0.740019 0.0755121 255 0 0 255
-0.06226 0.608727 2.065 -0.683139 0.730051 0.0186518 255 0 0 255
-0.057291 0.615807 2.089 -0.822692 0.568354 0.012292 255 0 0 255
-0.052488 0.626423 2.125 -0.937458 0.323719 0.127981 255 0 0 255
-0.047093 0.631734 2.143 0.0274559 0.431192 0.901842 255 0 0 255
-0.041311 0.632622 2.146 0.249718 0.341642 0.906047 255 0 0 255
-0.035347 0.630561 2.139 0.677661 -0.0446745 0.734016 255 0 0 255
-0.029463 0.629385 2.135 0.506067 -0.146894 0.849893 255 0 0 255
-0.199983 0.629199 2.155 0.367011 -0.710103 0.60088 255 0 0 255
-0.191234 0.619871 2.123 0.834388 0.138317 0.53354 255 0 0 255
-0.18362 0.613753 2.102 0.14108 0.602917 0.785231 255 0 0 255
-0.177813 0.613475 2.101 -0.107299 0.651126 0.751347 255 0 0 255
-0.172502 0.614948 2.106 -0.437477 0.445591 0.781065 255 0 0 255
-0.166926 0.615545 2.108 -0.0780015 0.698591 0.711257 255 0 0 255
-0.160651 0.613513 2.101 0.47226 0.841634 0.261959 255 0 0 255
-0.153233 0.606809 2.078 0.68049 0.729896 0.0646978 255 0 0 255
-0.146367 0.601856 2.061 0.649703 0.749745 0.125573 255 0 0 255
-0.140003 0.598655 2.05 0.588642 0.769405 0.248025 255 0 0 255
-0.133895 0.59633 2.042 0.681768 0.619164 0.389652 255 0 0 255
-0.127767 0.593712 2.033 0.696815 0.59437 0.401462 255 0 0 255
-0.121809 0.591677 2.026 0.595205 0.611391 0.52147 255 0 0 255
-0.116117 0.59081 2.023 0.388687 0.680569 0.621086 255 0 0 255
-0.110442 0.589943 2.02 0.0662765 0.736798 0.672857 255 0 0 255
-0.104991 0.590244 2.021 -0.103867 0.701784 0.704777 255 0 0 255
-0.099584 0.590836 2.023 -0.423827 0.597502 0.680707 255 0 0 255
-0.094305 0.592304 2.028 -0.342193 0.704421 0.621849 255 0 0 255
-0.088736 0.592019 2.027 -0.333976 0.732829 0.592809 255 0 0 255
-0.083295 0.59261 2.029 -0.509633 0.777292 0.368905 255 0 0 255
-0.078149 0.595537 2.039 -0.71928 0.669306 0.186189 255 0 0 255
-0.073092 0.599633 2.053 -0.684532 0.728025 0.0373605 255 0 0 255
-0.068024 0.604311 2.069 -0.670079 0.742087 0.0173255 255 0 0 255
-0.062838 0.608698 2.084 -0.702078 0.711661 0.0250135 255 0 0 255
-0.057844 0.616005 2.109 -0.931305 0.349767 0.10166 255 0 0 255
-0.05269 0.623019 2.133 -0.933225 0.161485 0.320957 255 0 0 255
-0.047141 0.626528 2.145 -0.482646 0.238872 0.842611 255 0 0 255
-0.041334 0.627116 2.147 0.391133 0.154501 0.907273 255 0 0 255
-0.035367 0.625075 2.14 0.751794 0.0495866 0.657531 255 0 0 255
-0.029424 0.622741 2.132 0.516207 -0.288663 0.806352 255 0 0 255
-0.023569 0.621574 2.128 -0.211648 -0.60202 0.76992 255 0 0 255
-0.211534 0.622766 2.153 0.387594 -0.720505 0.575016 255 0 0 255
