ply
format ascii 1.0
comment VCGLIB generated
element vertex 725
property float x
property float y
property float z
property float nx
property float ny
property float nz
property uchar red
property uchar green
property uchar blue
property uchar alpha
element face 0
property list uchar int vertex_indices
end_header
-0.082361 0.100574 2.136 -0.35703 0.378021 0.854184 255 0 0 255
-0.076578 0.10067 2.138 -0.402994 0.446252 0.799034 255 0 0 255
-0.07085 0.10086 2.142 -0.432049 0.559672 0.707178 255 0 0 255
-0.065099 0.10105 2.146 -0.346423 0.687716 0.637996 255 0 0 255
-0.059299 0.101193 2.149 -0.340492 0.567064 0.750002 255 0 0 255
-0.053457 0.101289 2.151 -0.320773 0.4334 0.842181 255 0 0 255
-0.047626 0.101431 2.154 -0.331417 0.312807 0.890121 255 0 0 255
-0.041759 0.101527 2.156 -0.165562 0.491016 0.855273 255 0 0 255
-0.035848 0.101528 2.156 -0.107659 0.38081 0.918364 255 0 0 255
-0.029937 0.101528 2.156 -0.0590404 0.280797 0.95795 255 0 0 255
-0.024036 0.101576 2.157 -0.147084 0.144288 0.978543 255 0 0 255
-0.018147 0.101718 2.16 -0.301 0.0438152 0.952617 255 0 0 255
-0.012235 0.101812 2.162 -0.48732 -0.0952154 0.868017 255 0 0 255
-0.006319 0.102001 2.166 -0.538727 -0.208158 0.81636 255 0 0 255
-0.00038 0.102095 2.168 -0.470734 -0.290889 0.832943 255 0 0 255
0.00557 0.102189 2.17 -0.369447 -0.386268 0.845166 255 0 0 255
0.011531 0.102283 2.172 -0.346269 -0.534335 0.771093 255 0 0 255
0.017519 0.102471 2.176 -0.334885 -0.583412 0.739921 255 0 0 255
0.023496 0.102518 2.177 -0.371633 -0.480279 0.794494 255 0 0 255
0.029506 0.102659 2.18 -0.504057 -0.353765 0.787893 255 0 0 255
0.035548 0.102846 2.184 -0.60926 -0.247902 0.753224 255 0 0 255
0.04165 0.103128 2.19 -0.595117 -0.198505 0.778737 255 0 0 255
0.047764 0.103362 2.195 -0.444873 -0.297634 0.844691 255 0 0 255
0.05383 0.103455 2.197 -0.22176 -0.421732 0.879184 255 0 0 255
0.059908 0.103548 2.199 -0.598293 -0.440603 0.669265 255 0 0 255
0.066266 0.104064 2.21 -0.667783 -0.4221 0.613105 255 0 0 255
0.120777 0.104044 2.21 0.855079 0.176761 0.487437 255 0 0 255
0.126373 0.103664 2.202 0.838092 0.126178 0.530736 255 0 0 255
0.131864 0.103237 2.193 0.822394 0.186219 0.537578 255 0 0 255
0.137493 0.102952 2.187 0.74675 0.231342 0.623575 255 0 0 255
0.14309 0.102666 2.181 0.566668 0.277773 0.775712 255 0 0 255
0.148926 0.102568 2.179 0.408681 0.113551 0.905586 255 0 0 255
0.15475 0.10247 2.177 0.675914 0.0572205 0.734756 255 0 0 255
0.16012 0.10209 2.169 0.802193 -0.163188 0.574332 255 0 0 255
0.165216 0.101568 2.158 0.92498 -0.0484007 0.376921 255 0 0 255
-0.188774 -0.14133 2.35495 0.264027 0.240624 -0.934018 255 255 0 255
-0.179844 -0.141871 2.34757 -0.786821 0.0896717 -0.610632 255 255 0 255
-0.145709 -0.135511 2.35732 -0.079852 -0.392352 -0.916342 255 255 0 255
-0.063378 -0.11877 2.38713 0.584203 -0.00194705 -0.811606 255 255 0 255
-0.025266 -0.11115 2.40034 0.871168 -0.386039 -0.303382 255 255 0 255
-0.032422 -0.115999 2.38246 -0.882513 -0.371377 -0.28853 255 255 0 255
-0.030359 -0.118308 2.37092 0.999979 0.00283551 -0.00577387 255 255 0 255
-0.024952 -0.119687 2.3617 -0.632597 0.521768 -0.572345 255 255 0 255
-0.005367 -0.117105 2.36249 -0.432421 0.472305 -0.768075 255 255 0 255
-0.009149 -0.12104 2.34685 -0.337184 0.210939 -0.917503 255 255 0 255
0.015386 -0.117033 2.35131 -0.316288 0.640201 -0.700074 255 255 0 255
0.038212 -0.113471 2.3547 -0.684027 0.0953084 -0.723203 255 255 0 255
0.035618 -0.119927 2.32705 0.943041 -0.325756 -0.0675009 255 255 0 255
0.047598 -0.119392 2.32281 -0.94156 0.336702 -0.00982636 255 255 0 255
0.02396 -0.128999 2.29262 0.665865 -0.278117 -0.692297 255 255 0 255
-0.213247 -0.186771 2.31097 0.898939 0.385373 -0.208317 0 255 0 255
-0.219518 -0.18142 2.32778 -0.981531 0.175958 -0.0750752 0 255 0 255
-0.213126 -0.180415 2.33569 0.34907 -0.404829 -0.845141 0 255 0 255
-0.19996 -0.181713 2.33894 0.2468 -0.00910811 -0.969024 0 255 0 255
-0.19355 -0.180696 2.34692 0.129645 -0.0744852 -0.988759 0 255 0 255
-0.174421 -0.183984 2.34619 0.240441 -0.0158608 -0.970534 0 255 0 255
-0.161203 -0.185244 2.34961 0.477833 -0.112633 -0.8712 0 255 0 255
-0.154759 -0.184201 2.35771 0.2823 0.241551 -0.928418 0 255 0 255
-0.114637 -0.191229 2.35567 -0.675867 0.377381 -0.633078 0 255 0 255
-0.104748 -0.191294 2.36163 0.271307 0.0844959 -0.958777 0 255 0 255
-0.028044 -0.197134 2.38715 -0.457544 0.748419 -0.480128 0 255 0 255
-0.009491 -0.199938 2.38793 -0.5944 0.372793 -0.712541 0 255 0 255
0.001373 -0.200198 2.39374 -0.352912 0.840139 -0.411849 0 255 0 255
-0.353785 0.098549 2.227 0.225321 0.301431 0.926482 255 0 0 255
-0.347249 0.098423 2.224 0.167583 0.17854 0.969557 255 0 0 255
-0.341034 0.098386 2.223 0.258744 0.145793 0.95488 255 0 0 255
-0.334522 0.098259 2.22 0.0607228 0.111523 0.991905 255 0 0 255
-0.328765 0.098355 2.222 -0.224873 0.059315 0.972581 255 0 0 255
-0.322705 0.098361 2.222 -0.470616 0.0329117 0.881724 255 0 0 255
-0.317642 0.098678 2.229 -0.739742 0.180579 0.648207 255 0 0 255
-0.280259 0.098405 2.222 0.998964 0.0212605 0.0402379 255 0 0 255
-0.273451 0.098145 2.216 0.690777 -0.361182 0.626398 255 0 0 255
-0.266192 0.097708 2.206 0.702718 -0.179158 0.688542 255 0 0 255
-0.259576 0.097492 2.201 0.769224 0.00247631 0.638974 255 0 0 255
-0.252411 0.097054 2.191 0.711633 0.214904 0.668876 255 0 0 255
-0.245861 0.096838 2.186 0.620714 0.250934 0.742796 255 0 0 255
-0.239119 0.096533 2.179 0.58691 0.345351 0.732304 255 0 0 255
-0.232734 0.096361 2.175 0.42468 0.424621 0.79959 255 0 0 255
-0.226476 0.096233 2.172 0.419294 0.413249 0.808343 255 0 0 255
-0.220232 0.096105 2.169 0.481784 0.382163 0.788565 255 0 0 255
-0.213906 0.095933 2.165 0.371295 0.243149 0.896113 255 0 0 255
-0.207696 0.095804 2.162 0.239882 0.192422 0.951541 255 0 0 255
-0.201782 0.095809 2.162 0.204471 -0.0190113 0.978688 255 0 0 255
-0.195686 0.095725 2.16 0.433216 0.0109675 0.901223 255 0 0 255
-0.189425 0.095552 2.156 0.604427 0.00412884 0.79665 255 0 0 255
-0.1831 0.095334 2.151 0.592106 0.0503573 0.804285 255 0 0 255
-0.176966 0.095205 2.148 0.459407 0.0176506 0.888051 255 0 0 255
-0.170847 0.095076 2.145 0.50123 0.0287588 0.864836 255 0 0 255
-0.164591 0.094858 2.14 0.512927 0.0761846 0.855045 255 0 0 255
-0.158435 0.094685 2.136 0.483705 0.112429 0.86798 255 0 0 255
-0.152373 0.094555 2.133 0.363551 0.224163 0.904202 255 0 0 255
-0.146532 0.094558 2.133 0.367669 0.286738 0.884647 255 0 0 255
-0.140492 0.094429 2.13 0.233516 0.375935 0.89674 255 0 0 255
-0.134595 0.094388 2.129 -0.0785324 0.357711 0.930525 255 0 0 255
-0.128824 0.094435 2.13 -0.177252 0.406017 0.896511 255 0 0 255
-0.123105 0.094526 2.132 -0.115876 0.498116 0.859333 255 0 0 255
-0.117264 0.094529 2.132 0.0431252 0.54454 0.837625 255 0 0 255
-0.111422 0.094532 2.132 -0.00320515 0.562846 0.826555 255 0 0 255
-0.10558 0.094534 2.132 -0.040175 0.54374 0.838292 255 0 0 255
-0.099785 0.094581 2.133 -0.177976 0.544327 0.819776 255 0 0 255
-0.094071 0.094716 2.136 -0.297067 0.542262 0.785941 255 0 0 255
-0.088259 0.094763 2.137 -0.288548 0.542423 0.788998 255 0 0 255
-0.082479 0.094853 2.139 -0.297133 0.52379 0.798346 255 0 0 255
-0.076723 0.094988 2.142 -0.495115 0.41235 0.764741 255 0 0 255
-0.071017 0.095212 2.147 -0.575679 0.360299 0.734015 255 0 0 255
-0.065252 0.095391 2.151 -0.295788 0.261863 0.918661 255 0 0 255
-0.059383 0.095436 2.152 -0.156368 0.155796 0.975334 255 0 0 255
-0.053508 0.095482 2.153 -0.205101 0.0262935 0.978388 255 0 0 255
-0.047672 0.095616 2.156 -0.294588 -0.145943 0.944414 255 0 0 255
-0.04178 0.095662 2.157 -0.136335 -0.234816 0.962432 255 0 0 255
-0.035865 0.095662 2.157 -0.0660591 -0.231838 0.970509 255 0 0 255
-0.029951 0.095663 2.157 -0.013585 -0.203393 0.979003 255 0 0 255
-0.024037 0.095664 2.157 -0.0476726 -0.282082 0.958205 255 0 0 255
-0.018122 0.095664 2.157 -0.146976 -0.265427 0.952862 255 0 0 255
-0.012207 0.095665 2.157 -0.0948486 -0.373637 0.922713 255 0 0 255
-0.006301 0.095798 2.16 -0.276589 -0.589728 0.758762 255 0 0 255
-0.000379 0.095931 2.163 -0.436868 -0.452671 0.777326 255 0 0 255
0.005562 0.096108 2.167 -0.441583 -0.35501 0.823998 255 0 0 255
0.011505 0.096108 2.167 -0.464503 -0.253468 0.848523 255 0 0 255
0.017479 0.096285 2.171 -0.534156 -0.151075 0.831777 255 0 0 255
0.023453 0.096374 2.173 -0.551602 -0.0340982 0.83341 255 0 0 255
0.029479 0.096595 2.178 -0.636309 0.10646 0.764053 255 0 0 255
0.035549 0.09686 2.184 -0.642753 0.084727 0.761374 255 0 0 255
0.041632 0.097081 2.189 -0.603745 0.00785289 0.797139 255 0 0 255
0.047699 0.097213 2.192 -0.332611 -0.155819 0.930102 255 0 0 255
0.053709 0.097212 2.192 -0.164179 -0.309538 0.936607 255 0 0 255
0.059773 0.097299 2.194 -0.375074 -0.400158 0.836178 255 0 0 255
0.066148 0.09783 2.206 -0.710784 -0.396494 0.581015 255 0 0 255
0.121163 0.098298 2.217 0.919342 0.167436 0.356055 255 0 0 255
0.126548 0.097763 2.205 0.840816 0.190299 0.506769 255 0 0 255
0.132107 0.097406 2.197 0.788306 0.23208 0.569835 255 0 0 255
0.137622 0.097048 2.189 0.699951 0.276313 0.658575 255 0 0 255
0.14329 0.096823 2.184 0.583273 0.309887 0.750842 255 0 0 255
0.148998 0.096642 2.18 0.538605 0.306339 0.784895 255 0 0 255
0.154683 0.096462 2.176 0.786166 0.0219941 0.617624 255 0 0 255
0.159977 0.096059 2.167 0.899706 -0.136759 0.414519 255 0 0 255
0.164837 0.095435 2.153 0.915901 -0.0881776 0.391599 255 0 0 255
0.170811 0.095476 2.154 0.915901 -0.0881776 0.391599 255 0 0 255
-0.202848 -0.156979 2.34689 0.140679 0.232526 -0.962362 255 255 0 255
-0.175402 -0.152407 2.35192 -0.866981 0.468025 -0.171165 255 255 0 255
-0.151368 -0.14874 2.35482 0.458526 -0.76061 -0.459593 255 255 0 255
-0.061515 -0.129673 2.3897 0.399994 0.199365 -0.894572 255 255 0 255
-0.056079 -0.131062 2.3804 0.0713083 0.322195 -0.943984 255 255 0 255
-0.035591 -0.128232 2.38154 -0.270954 0.539242 -0.797372 255 255 0 255
-0.035192 -0.131017 2.36882 -0.876945 0.348645 -0.330778 255 255 0 255
-0.030614 -0.132629 2.359 -0.795911 0.114186 -0.594548 255 255 0 255
-0.022702 -0.133298 2.35154 -0.554901 -0.141751 -0.819751 255 255 0 255
-0.010636 -0.132782 2.34704 -0.304605 -0.0372153 -0.951751 255 255 0 255
-0.000252 -0.13273 2.34142 -0.322805 -0.165485 -0.931886 255 255 0 255
0.015104 -0.131249 2.3394 -0.267461 -0.745411 -0.610596 255 255 0 255
0.022133 -0.132129 2.33148 0.338696 -0.923903 -0.178013 255 255 0 255
0.029983 -0.132768 2.32418 -0.858039 0.42326 -0.290896 255 255 0 255
0.027884 -0.13626 2.30969 0.881651 -0.470275 -0.0391589 255 255 0 255
0.03159 -0.138088 2.29939 0.831336 -0.531296 -0.163111 255 255 0 255
-0.203782 -0.207702 2.2806 -0.914606 0.00166291 -0.404343 0 255 0 255
-0.206645 -0.203472 2.29513 -0.914606 0.00166287 -0.404343 0 255 0 255
-0.224697 -0.193983 2.32031 -0.965353 0.161231 -0.205177 0 255 0 255
-0.225907 -0.190362 2.33354 0.892489 -0.212839 -0.397697 0 255 0 255
-0.215297 -0.190828 2.3385 0.501879 0.257881 -0.8256 0 255 0 255
-0.200446 -0.19274 2.34058 0.350119 0.119407 -0.929063 0 255 0 255
-0.189806 -0.193184 2.34565 0.325197 0.0193429 -0.945449 0 255 0 255
-0.177459 -0.194199 2.34961 0.204826 0.0907267 -0.974585 0 255 0 255
-0.160009 -0.196938 2.35014 0.678201 0.295433 -0.672877 0 255 0 255
-0.147625 -0.197926 2.35422 0.747157 -0.0986701 -0.657282 0 255 0 255
-0.136074 -0.198613 2.35892 0.0641247 -0.396549 -0.915771 0 255 0 255
-0.124509 -0.19929 2.36368 0.103893 0.214689 -0.971141 0 255 0 255
-0.039716 -0.204862 2.39615 0.310536 0.248002 -0.91764 0 255 0 255
-0.360829 0.0927 2.233 0.555791 0.140083 0.819435 255 0 0 255
-0.353475 0.092374 2.225 0.358246 0.136335 0.923619 255 0 0 255
-0.347411 0.092381 2.225 0.16992 0.149418 0.974064 255 0 0 255
-0.341194 0.092346 2.224 0.261547 0.202353 0.943741 255 0 0 255
-0.33483 0.092269 2.222 -0.0171361 0.276793 0.960777 255 0 0 255
-0.328919 0.092317 2.223 -0.245202 0.306835 0.919635 255 0 0 255
-0.323147 0.092406 2.225 -0.575832 0.358364 0.734842 255 0 0 255
-0.318504 0.092828 2.235 -0.864646 0.259878 0.429942 255 0 0 255
-0.278499 0.091741 2.208 0.730324 -0.0692197 0.679585 255 0 0 255
-0.272593 0.091788 2.209 0.313728 -0.0873448 0.945487 255 0 0 255
-0.265956 0.091586 2.204 0.413658 0.287164 0.863958 255 0 0 255
-0.259346 0.091383 2.199 0.733303 0.0535457 0.677791 255 0 0 255
-0.252416 0.091056 2.191 0.652774 0.201919 0.730147 255 0 0 255
-0.245979 0.090894 2.187 0.635856 0.195554 0.746623 255 0 0 255
-0.239453 0.090691 2.182 0.591267 0.182861 0.785472 255 0 0 255
-0.233274 0.090613 2.18 0.46871 0.162839 0.868213 255 0 0 255
-0.227002 0.090493 2.177 0.44194 0.196749 0.875202 255 0 0 255
-0.220745 0.090373 2.174 0.525184 0.206692 0.825506 255 0 0 255
-0.214305 0.09017 2.169 0.576395 0.226544 0.785142 255 0 0 255
-0.207989 0.090008 2.165 0.513347 0.109128 0.851214 255 0 0 255
-0.20188 0.089929 2.163 0.372238 -0.0369677 0.927401 255 0 0 255
-0.195691 0.089808 2.16 0.42961 0.0022204 0.903012 255 0 0 255
-0.189517 0.089687 2.157 0.530186 -0.0720992 0.844811 255 0 0 255
-0.183189 0.089483 2.152 0.543344 0.0557176 0.837659 255 0 0 255
-0.176969 0.089321 2.148 0.442326 0.0759653 0.893632 255 0 0 255
-0.170851 0.0892 2.145 0.501444 0.0907811 0.860415 255 0 0 255
-0.164671 0.089037 2.141 0.478206 0.169458 0.861744 255 0 0 255
-0.158736 0.088999 2.14 0.350574 0.308695 0.884197 255 0 0 255
-0.152662 0.088877 2.137 0.136608 0.500775 0.854729 255 0 0 255
-0.14681 0.08888 2.137 0.220453 0.631492 0.743383 255 0 0 255
-0.140627 0.088676 2.132 0.21382 0.588942 0.779377 255 0 0 255
-0.134788 0.088678 2.132 -0.0451617 0.65487 0.754391 255 0 0 255
-0.129008 0.088723 2.133 -0.177491 0.610929 0.771533 255 0 0 255
-0.123338 0.08885 2.136 -0.148029 0.596514 0.788833 255 0 0 255
-0.117541 0.088895 2.137 -0.00615175 0.608826 0.79328 255 0 0 255
-0.111634 0.088855 2.136 0.0386004 0.593415 0.80397 255 0 0 255
-0.105781 0.088858 2.136 0.0433475 0.543934 0.838008 255 0 0 255
-0.099927 0.08886 2.136 -0.167685 0.469685 0.866763 255 0 0 255
-0.094206 0.088987 2.139 -0.303265 0.473924 0.826696 255 0 0 255
-0.088426 0.089072 2.141 -0.290612 0.472477 0.832052 255 0 0 255
-0.082635 0.089157 2.143 -0.258957 0.458221 0.850279 255 0 0 255
-0.076832 0.089242 2.145 -0.412283 0.293413 0.862515 255 0 0 255
-0.071117 0.089452 2.15 -0.469427 0.107416 0.876413 255 0 0 255
-0.065315 0.089578 2.153 -0.185723 -0.0649317 0.980454 255 0 0 255
-0.059384 0.089538 2.152 0.001416 -0.0879215 0.996126 255 0 0 255
-0.05346 0.089497 2.151 -0.146656 -0.15355 0.977197 255 0 0 255
-0.047584 0.08954 2.152 -0.133043 -0.369544 0.919639 255 0 0 255
-0.041703 0.089583 2.153 -0.0603403 -0.410964 0.909652 255 0 0 255
-0.0358 0.089583 2.153 -0.0886846 -0.40934 0.908061 255 0 0 255
-0.02991 0.089626 2.154 -0.0224175 -0.387475 0.921608 255 0 0 255
-0.024015 0.089668 2.155 0.00948686 -0.431085 0.902261 255 0 0 255
-0.018097 0.089627 2.154 -0.00926288 -0.431156 0.90223 255 0 0 255
-0.012196 0.089669 2.155 -0.141612 -0.437317 0.888088 255 0 0 255
-0.006287 0.089669 2.155 -0.405616 -0.300291 0.863308 255 0 0 255
-0.000378 0.089794 2.158 -0.568538 -0.16288 0.806372 255 0 0 255
0.00555 0.08996 2.162 -0.484531 0.00119582 0.874773 255 0 0 255
0.0115 0.090127 2.166 -0.551652 -0.0136844 0.833962 255 0 0 255
0.017479 0.090334 2.171 -0.596863 0.0452722 0.801065 255 0 0 255
0.023476 0.0905 2.175 -0.620196 0.17143 0.765486 255 0 0 255
0.029521 0.090749 2.181 -0.641653 0.196946 0.741279 255 0 0 255
0.035566 0.090915 2.185 -0.586345 0.172276 0.79153 255 0 0 255
0.041652 0.091122 2.19 -0.495351 0.0173253 0.86852 255 0 0 255
0.047722 0.091246 2.193 -0.163365 -0.0293848 0.986128 255 0 0 255
0.05371 0.091203 2.192 -0.0294402 -0.106205 0.993908 255 0 0 255
0.059747 0.091244 2.193 -0.260406 -0.211588 0.942029 255 0 0 255
0.065939 0.091492 2.199 -0.637858 -0.366203 0.677519 255 0 0 255
0.126608 0.091762 2.206 0.845542 0.104053 0.523671 255 0 0 255
0.13223 0.091469 2.199 0.824573 0.0826574 0.559685 255 0 0 255
0.137814 0.091174 2.192 0.765468 0.0749399 0.639095 255 0 0 255
0.143621 0.091047 2.189 0.657434 0.0487541 0.751934 255 0 0 255
0.149274 0.090836 2.184 0.671561 0.0777638 0.736857 255 0 0 255
0.1549 0.090624 2.179 0.729982 -0.0129898 0.683343 255 0 0 255
0.159759 0.089997 2.164 0.91512 -0.148782 0.374724 255 0 0 255
0.164535 0.08937 2.149 0.94391 -0.183061 0.274814 255 0 0 255
0.168197 0.088202 2.121 0.995604 -0.0504164 0.078931 255 0 0 255
-0.199234 -0.167809 2.35068 0.42087 0.323821 -0.847354 255 255 0 255
-0.176846 -0.16457 2.35231 0.947939 0.233196 -0.216868 255 255 0 255
-0.096125 -0.147905 2.38046 0.34675 -0.575167 -0.74091 255 255 0 255
-0.078923 -0.146003 2.37908 0.112573 -0.133585 -0.984623 255 255 0 255
-0.060077 -0.143613 2.37894 -0.00957882 0.374559 -0.927154 255 255 0 255
-0.047115 -0.142865 2.37485 -0.429835 0.0905729 -0.898353 255 255 0 255
-0.037514 -0.143057 2.36848 -0.828788 0.531124 -0.17612 255 255 0 255
-0.031263 -0.144192 2.35982 -0.73836 0.081741 -0.669435 255 255 0 255
-0.018352 -0.143419 2.35586 -0.283785 -0.439516 -0.852227 255 255 0 255
0.000367 -0.140966 2.35607 -0.278498 -0.447062 -0.850044 255 255 0 255
0.004085 -0.1428 2.34574 -0.21844 -0.336564 -0.915974 255 255 0 255
0.033553 -0.137209 2.35381 0.260755 -0.016681 -0.965261 255 255 0 255
0.033923 -0.139988 2.34117 0.649391 -0.376645 -0.660628 255 255 0 255
0.003636 -0.151666 2.30637 0.710267 -0.549011 -0.440577 255 255 0 255
0.010677 -0.152542 2.2984 0.763558 -0.509212 -0.397092 255 255 0 255
0.000345 -0.158481 2.27779 0.68693 -0.496472 -0.530699 255 255 0 255
-0.212698 -0.215815 2.28821 -0.965308 0.0689121 -0.251857 0 255 0 255
-0.207984 -0.214234 2.29736 0.98613 -0.125026 -0.109158 0 255 0 255
-0.210854 -0.209994 2.31185 0.91573 0.401715 -0.00797594 0 255 0 255
-0.219638 -0.203699 2.33044 0.432778 0.379136 -0.817899 0 255 0 255
-0.20396 -0.205948 2.33191 0.292058 0.466395 -0.834972 0 255 0 255
-0.180655 -0.210823 2.3282 0.11717 0.449684 -0.885469 0 255 0 255
-0.172537 -0.210398 2.33508 0.123057 0.562297 -0.817728 0 255 0 255
-0.156793 -0.212599 2.33678 0.533551 0.344207 -0.772557 0 255 0 255
-0.165597 -0.206317 2.3553 0.782134 0.212102 -0.5859 0 255 0 255
-0.15831 -0.205587 2.36282 -0.0119493 -0.842945 -0.537867 0 255 0 255
-0.148469 -0.205724 2.36865 -0.082643 -0.75312 -0.652672 0 255 0 255
-0.129273 -0.209047 2.36825 0.313594 -0.72442 -0.6139 0 255 0 255
-0.046282 -0.234087 2.32541 0.839939 -0.326635 -0.433373 0 255 0 255
-0.047092 -0.223864 2.36426 0.984527 0.0969744 -0.145957 0 255 0 255
-0.047374 -0.220465 2.37718 -0.910703 0.384542 -0.150821 0 255 0 255
-0.0451 -0.217931 2.3884 -0.884786 0.440763 -0.151268 0 255 0 255
-0.032571 -0.218838 2.393 0.963978 0.107401 -0.243334 0 255 0 255
-0.36132 0.086709 2.236 0.831069 0.165523 0.530967 255 0 0 255
-0.35364 0.086327 2.226 0.29161 -0.00579602 0.95652 255 0 0 255
-0.347886 0.086411 2.228 0.100207 0.131363 0.986257 255 0 0 255
-0.341353 0.0863 2.225 0.152845 0.309522 0.938528 255 0 0 255
-0.335288 0.086306 2.225 0.0318961 0.234032 0.971705 255 0 0 255
-0.329221 0.086312 2.225 -0.190703 0.37632 0.906651 255 0 0 255
-0.323734 0.086473 2.229 -0.687312 0.149357 0.710841 255 0 0 255
-0.31908 0.086867 2.239 -0.757442 0.236216 0.608673 255 0 0 255
-0.278631 0.085735 2.209 0.63169 0.280922 0.722531 255 0 0 255
-0.272845 0.085818 2.211 0.517972 0.279103 0.808583 255 0 0 255
-0.266444 0.085707 2.208 0.4264 0.232815 0.87406 255 0 0 255
-0.25994 0.085556 2.204 0.672278 0.22315 0.705866 255 0 0 255
-0.252881 0.085212 2.195 0.705222 0.21803 0.67463 255 0 0 255
-0.246208 0.084984 2.189 0.651808 0.158167 0.741708 255 0 0 255
-0.239567 0.084755 2.183 0.620342 0.0372784 0.783445 255 0 0 255
-0.233172 0.084604 2.179 0.495283 -0.090384 0.864017 255 0 0 255
-0.227006 0.084531 2.177 0.419789 -0.175578 0.890477 255 0 0 255
-0.220851 0.084458 2.175 0.453001 -0.134682 0.881278 255 0 0 255
-0.214606 0.084345 2.172 0.570142 -0.0758649 0.818036 255 0 0 255
-0.207993 0.084078 2.165 0.536861 -0.0324431 0.843047 255 0 0 255
-0.201697 0.083926 2.161 0.388394 -0.0072255 0.921465 255 0 0 255
-0.195513 0.083814 2.158 0.362941 0.080945 0.92829 255 0 0 255
-0.189433 0.08374 2.156 0.483911 0.16256 0.859886 255 0 0 255
-0.183192 0.083588 2.152 0.528563 0.267801 0.805546 255 0 0 255
-0.177055 0.083475 2.149 0.401692 0.327906 0.855056 255 0 0 255
-0.171014 0.083401 2.147 0.437695 0.374393 0.817468 255 0 0 255
-0.164829 0.083249 2.143 0.30778 0.463863 0.830724 255 0 0 255
-0.158887 0.083213 2.142 0.132855 0.593086 0.794103 255 0 0 255
-0.152951 0.083177 2.141 0.1037 0.624474 0.774131 255 0 0 255
-0.147225 0.083258 2.143 0.0897939 0.641437 0.761903 255 0 0 255
-0.141158 0.083144 2.14 0.177176 0.712887 0.678528 255 0 0 255
-0.135233 0.083108 2.139 0.00253248 0.726493 0.687169 255 0 0 255
-0.129313 0.083072 2.138 -0.133289 0.679064 0.721877 255 0 0 255
-0.123572 0.083152 2.14 -0.163683 0.636223 0.753942 255 0 0 255
-0.117764 0.083193 2.141 -0.101979 0.638816 0.762571 255 0 0 255
-0.111897 0.083196 2.141 0.0733669 0.610502 0.78861 255 0 0 255
-0.105932 0.08312 2.139 0.0586609 0.569335 0.82001 255 0 0 255
-0.10007 0.083122 2.139 -0.0453614 0.455828 0.888911 255 0 0 255
-0.094296 0.083202 2.141 -0.324666 0.411595 0.851576 255 0 0 255
-0.088593 0.083359 2.145 -0.282262 0.393239 0.875038 255 0 0 255
-0.082713 0.083361 2.145 -0.190411 0.3955 0.898512 255 0 0 255
-0.076869 0.083401 2.146 -0.239201 0.204451 0.949201 255 0 0 255
-0.071053 0.083481 2.148 -0.374999 0.0366241 0.926302 255 0 0 255
-0.065225 0.08356 2.15 -0.228889 -0.10005 0.968297 255 0 0 255
-0.05933 0.083561 2.15 0.0596948 -0.0693282 0.995806 255 0 0 255
-0.053436 0.083562 2.15 0.0113215 -0.117092 0.993057 255 0 0 255
-0.047563 0.083602 2.151 -0.0131773 -0.278981 0.960206 255 0 0 255
-0.041665 0.083603 2.151 -0.0558421 -0.346919 0.936231 255 0 0 255
-0.035784 0.083643 2.152 -0.0898864 -0.387865 0.917323 255 0 0 255
-0.029883 0.083643 2.152 -0.117945 -0.200059 0.972659 255 0 0 255
-0.023982 0.083644 2.152 -0.0201653 -0.307427 0.951358 255 0 0 255
-0.018064 0.083567 2.15 -0.15111 -0.135977 0.97912 255 0 0 255
-0.01218 0.083645 2.152 -0.380429 0.21568 0.899309 255 0 0 255
-0.006287 0.083761 2.155 -0.559398 0.163222 0.81267 255 0 0 255
-0.000379 0.084034 2.162 -0.660539 0.35439 0.661888 255 0 0 255
0.005563 0.084228 2.167 -0.56062 0.432302 0.706272 255 0 0 255
0.011521 0.084344 2.17 -0.479731 0.451085 0.752582 255 0 0 255
0.017504 0.084499 2.174 -0.517466 0.399887 0.756518 255 0 0 255
0.023508 0.084654 2.178 -0.609484 0.262325 0.748141 255 0 0 255
0.029562 0.084887 2.184 -0.585284 0.234933 0.776047 255 0 0 255
0.035599 0.085003 2.187 -0.504137 0.163339 0.848037 255 0 0 255
0.041653 0.085119 2.19 -0.394419 0.086396 0.91486 255 0 0 255
0.04768 0.085157 2.191 -0.0291013 -0.00180549 0.999575 255 0 0 255
0.053687 0.085156 2.191 -0.0396029 -0.0593181 0.997453 255 0 0 255
0.059667 0.085116 2.19 -0.133921 -0.0838759 0.987436 255 0 0 255
0.065761 0.085231 2.193 -0.534598 -0.171012 0.827623 255 0 0 255
0.126783 0.085833 2.209 0.85361 -0.033345 0.519845 255 0 0 255
0.132353 0.08552 2.201 0.811268 -0.0695931 0.580518 255 0 0 255
0.137817 0.085168 2.192 0.766824 -0.0391767 0.640661 255 0 0 255
0.143493 0.084971 2.187 0.659114 -0.0904564 0.746584 255 0 0 255
0.149141 0.084773 2.182 0.705308 -0.138486 0.695243 255 0 0 255
0.154547 0.08446 2.174 0.852411 -0.172752 0.49351 255 0 0 255
0.15954 0.083951 2.161 0.928401 -0.0880162 0.361005 255 0 0 255
0.163773 0.083094 2.139 0.983598 -0.12315 0.131795 255 0 0 255
-0.206556 -0.181708 2.34716 0.313634 0.103846 -0.943848 255 255 0 255
-0.146364 -0.167739 2.37419 0.0302345 -0.129203 -0.991157 255 255 0 255
-0.099275 -0.16034 2.37963 0.342054 -0.169906 -0.924192 255 255 0 255
-0.076213 -0.156727 2.38225 0.0512234 -0.256977 -0.965059 255 255 0 255
-0.059048 -0.154767 2.38095 -0.182162 -0.172283 -0.968058 255 255 0 255
-0.047762 -0.154469 2.37569 -0.258628 -0.564246 -0.784053 255 255 0 255
-0.037327 -0.154403 2.36989 -0.113979 -0.799657 -0.58954 255 255 0 255
-0.020237 -0.152406 2.36879 -0.418516 -0.787142 -0.453048 255 255 0 255
-0.01317 -0.153284 2.36076 -0.278918 -0.0812986 -0.956867 255 255 0 255
-0.002784 -0.153194 2.35509 -0.469838 -0.0655748 -0.880314 255 255 0 255
0.013406 -0.151405 2.3536 -0.196048 0.263258 -0.944595 255 255 0 255
0.025418 -0.150812 2.34922 0.0243085 -0.267711 -0.963193 255 255 0 255
0.041557 -0.148997 2.34787 -0.00765015 -0.512013 -0.858943 255 255 0 255
0.017079 -0.159078 2.31729 0.830718 -0.43995 -0.341105 255 255 0 255
-0.008992 -0.169674 2.28534 0.636804 -0.657338 -0.402973 255 255 0 255
-0.221605 -0.223888 2.29581 -0.696907 0.692089 -0.187974 0 255 0 255
-0.214374 -0.223211 2.30316 -0.785257 0.59901 -0.156711 0 255 0 255
-0.229035 -0.214787 2.32592 -0.260395 0.359452 -0.896097 0 255 0 255
-0.211693 -0.217681 2.32618 0.764704 0.586458 -0.267011 0 255 0 255
-0.197702 -0.219369 2.32887 -0.139084 -0.762802 -0.631497 0 255 0 255
-0.178625 -0.22282 2.32811 0.178073 -0.560059 -0.809089 0 255 0 255
-0.162055 -0.225365 2.3292 0.133749 -0.728153 -0.672238 0 255 0 255
-0.157306 -0.223761 2.33847 0.442374 -0.777972 -0.446167 0 255 0 255
-0.147473 -0.223922 2.3443 0.888173 -0.369272 -0.273471 0 255 0 255
-0.155425 -0.217901 2.36222 0.725928 -0.0760337 -0.683554 0 255 0 255
-0.151522 -0.216002 2.37207 0.421896 -0.20351 -0.883509 0 255 0 255
-0.13828 -0.217324 2.37567 0.588774 -0.566629 -0.576435 0 255 0 255
-0.051907 -0.233826 2.36886 0.828067 0.266717 -0.49312 0 255 0 255
-0.033431 -0.236805 2.36952 0.832477 0.0965996 -0.545574 0 255 0 255
-0.028582 -0.235129 2.37913 0.618282 0.112147 -0.777914 0 255 0 255
-0.019459 -0.234896 2.386 0.813838 0.302704 -0.496021 0 255 0 255
-0.363589 0.081097 2.25 0.805076 -0.1419 0.575949 255 0 0 255
-0.353963 0.08031 2.228 0.278114 -0.223129 0.934273 255 0 0 255
-0.348048 0.080352 2.229 0.0258094 -0.119869 0.992454 255 0 0 255
-0.341666 0.080285 2.227 0.0572142 -0.0612179 0.996483 255 0 0 255
-0.335595 0.080291 2.227 -0.174025 0.114653 0.978044 255 0 0 255
-0.329523 0.080296 2.227 -0.205338 0.143118 0.96817 255 0 0 255
-0.323885 0.08041 2.23 -0.609814 0.0697768 0.789467 255 0 0 255
-0.280275 0.080157 2.222 0.971771 -0.230969 0.048116 255 0 0 255
-0.27359 0.079981 2.217 0.537243 0.390178 0.74775 255 0 0 255
-0.26669 0.079734 2.21 0.597385 0.26033 0.758525 255 0 0 255
-0.260063 0.079558 2.205 0.701126 0.181268 0.689611 255 0 0 255
-0.253116 0.079274 2.197 0.74931 0.128503 0.649631 255 0 0 255
-0.246325 0.079025 2.19 0.686745 0.0741886 0.723103 255 0 0 255
-0.239681 0.078813 2.184 0.665332 0.0487074 0.744957 255 0 0 255
-0.232962 0.078565 2.177 0.556999 -0.053064 0.828816 255 0 0 255
-0.226698 0.07846 2.174 0.443385 -0.0452881 0.895186 255 0 0 255
-0.220347 0.07832 2.17 0.405662 -0.167084 0.898622 255 0 0 255
-0.214314 0.078288 2.169 0.541058 -0.086893 0.836484 255 0 0 255
-0.207901 0.078111 2.164 0.483957 0.0561535 0.873288 255 0 0 255
-0.201888 0.078079 2.163 0.368575 0.0407849 0.928703 255 0 0 255
-0.195789 0.07801 2.161 0.259228 0.145916 0.95473 255 0 0 255
-0.189876 0.078014 2.161 0.3413 0.292392 0.893321 255 0 0 255
-0.183536 0.077837 2.156 0.436456 0.332145 0.836173 255 0 0 255
-0.177471 0.077768 2.154 0.2688 0.459685 0.846425 255 0 0 255
-0.171415 0.077699 2.152 0.256007 0.581352 0.772328 255 0 0 255
-0.165293 0.077593 2.149 0.235834 0.623644 0.745285 255 0 0 255
-0.159335 0.07756 2.148 0.12781 0.655648 0.744171 255 0 0 255
-0.153311 0.077491 2.146 0.0576963 0.623833 0.779425 255 0 0 255
-0.147503 0.07753 2.147 0.0836705 0.622597 0.778057 255 0 0 255
-0.141491 0.07746 2.145 0.124626 0.643579 0.755166 255 0 0 255
-0.135552 0.077427 2.144 0.0478532 0.685965 0.726059 255 0 0 255
-0.129618 0.077393 2.143 -0.0599336 0.678963 0.731722 255 0 0 255
-0.123863 0.077468 2.145 -0.096086 0.638349 0.763727 255 0 0 255
-0.118041 0.077506 2.146 -0.0685965 0.579514 0.81207 255 0 0 255
-0.112161 0.077508 2.146 0.120516 0.555626 0.822652 255 0 0 255
-0.106132 0.077402 2.143 0.120334 0.555923 0.822478 255 0 0 255
-0.100212 0.077368 2.142 -0.138216 0.548385 0.824725 255 0 0 255
-0.094386 0.077406 2.143 -0.248626 0.467949 0.848062 255 0 0 255
-0.088677 0.077552 2.147 -0.278488 0.392218 0.876704 255 0 0 255
-0.082831 0.07759 2.148 -0.0775355 0.351548 0.932954 255 0 0 255
-0.076978 0.077627 2.149 -0.0936958 0.281291 0.955037 255 0 0 255
-0.071054 0.077592 2.148 -0.117504 0.143817 0.982603 255 0 0 255
-0.065226 0.077666 2.15 -0.149533 0.0567841 0.987125 255 0 0 255
-0.059387 0.077739 2.152 -0.0576396 0.00638497 0.998317 255 0 0 255
-0.053437 0.077668 2.15 0.0880125 0.0171732 0.995971 255 0 0 255
-0.04752 0.077633 2.149 0.148973 -0.0482977 0.987661 255 0 0 255
-0.041589 0.077562 2.147 -0.00637958 -0.124426 0.992208 255 0 0 255
-0.035735 0.077635 2.149 -0.17323 -0.0657598 0.982684 255 0 0 255
-0.029842 0.077635 2.149 -0.259851 0.0879244 0.961638 255 0 0 255
-0.023971 0.077708 2.151 -0.174675 0.294183 0.939651 255 0 0 255
-0.018081 0.077745 2.152 -0.30849 0.237159 0.921189 255 0 0 255
-0.012208 0.077925 2.157 -0.503482 0.417581 0.756395 255 0 0 255
-0.006308 0.078106 2.162 -0.598855 0.54014 0.591288 255 0 0 255
-0.00038 0.078359 2.169 -0.537189 0.479589 0.693846 255 0 0 255
0.005576 0.078468 2.172 -0.425716 0.460973 0.778633 255 0 0 255
0.011553 0.078612 2.176 -0.364602 0.359929 0.858788 255 0 0 255
0.017528 0.078648 2.177 -0.465511 0.236921 0.852741 255 0 0 255
0.023552 0.078828 2.182 -0.581105 0.0940721 0.808374 255 0 0 255
0.029576 0.078936 2.185 -0.566897 0.0138896 0.823672 255 0 0 255
0.035633 0.07908 2.189 -0.469463 0.0120134 0.88287 255 0 0 255
0.041673 0.079151 2.191 -0.249291 0.0128934 0.968343 255 0 0 255
0.047702 0.079187 2.192 -0.0528579 -0.029095 0.998178 255 0 0 255
0.053713 0.079186 2.192 0.0276685 -0.070922 0.997098 255 0 0 255
0.059723 0.079185 2.192 -0.182896 0.0564864 0.981508 255 0 0 255
0.065792 0.079256 2.194 -0.611903 0.0669082 0.788098 255 0 0 255
0.126441 0.079563 2.203 0.802588 -0.0826662 0.590779 255 0 0 255
0.132115 0.079344 2.197 0.813414 -0.101752 0.572717 255 0 0 255
0.137694 0.079088 2.19 0.72209 -0.156904 0.673771 255 0 0 255
0.143299 0.078869 2.184 0.645266 -0.317031 0.695071 255 0 0 255
0.149007 0.078722 2.18 0.656466 -0.26877 0.704851 255 0 0 255
0.154621 0.078538 2.175 0.819341 -0.166478 0.548603 255 0 0 255
0.159691 0.078102 2.163 0.895795 0.063753 0.439871 255 0 0 255
0.164312 0.077485 2.146 0.971189 -0.13718 0.194868 255 0 0 255
0.167411 0.076219 2.111 0.995719 0.065576 0.0651375 255 0 0 255
-0.128034 -0.177177 2.37465 0.0340958 0.267523 -0.962948 255 255 0 255
-0.073504 -0.167447 2.38541 0.0748773 -0.065909 -0.995012 255 255 0 255
-0.053839 -0.164719 2.38583 -0.114725 -0.584116 -0.803521 255 255 0 255
-0.035045 -0.162216 2.38577 0.193809 -0.732568 -0.65252 255 255 0 255
-0.012946 -0.158726 2.38811 0.331787 0.943352 -0.00226107 255 255 0 255
-0.010054 -0.160805 2.37718 -0.546186 -0.835292 -0.0629869 255 255 0 255
-0.012155 -0.164346 2.36273 -0.848516 -0.445304 -0.285875 255 255 0 255
-0.005098 -0.165209 2.35471 -0.335337 0.0349695 -0.941449 255 255 0 255
0.003614 -0.165581 2.34789 -0.494905 0.269478 -0.826106 255 255 0 255
0.023101 -0.162765 2.3488 -0.412052 0.473259 -0.778614 255 255 0 255
0.026806 -0.16459 2.3385 -0.643551 0.738001 -0.202971 255 255 0 255
0.021404 -0.169118 2.32164 0.757137 -0.599177 -0.260251 255 255 0 255
-0.249829 -0.224987 2.31712 -0.754412 0.558693 -0.344566 0 255 0 255
-0.248037 -0.219183 2.34055 0.131227 -0.97644 -0.171304 0 255 0 255
-0.20073 -0.22955 2.33228 0.0385767 -0.774836 -0.630985 0 255 0 255
-0.201074 -0.226181 2.34496 -0.175276 -0.779706 -0.601112 0 255 0 255
-0.182842 -0.229376 2.34484 0.131748 -0.805561 -0.57768 0 255 0 255
-0.167119 -0.23166 2.34653 0.245887 -0.913599 -0.323846 0 255 0 255
-0.161529 -0.230361 2.35522 0.618581 -0.749493 -0.235837 0 255 0 255
-0.153394 -0.229949 2.36221 0.54434 0.182668 -0.818735 0 255 0 255
-0.14864 -0.228347 2.3715 0.751336 0.174578 -0.636409 0 255 0 255
-0.14558 -0.226152 2.38194 0.809033 0.122624 -0.574829 0 255 0 255
-0.044533 -0.251307 2.3527 0.923063 0.0933689 -0.373146 0 255 0 255
-0.043948 -0.248174 2.36508 0.699386 0.359521 -0.617741 0 255 0 255
-0.038255 -0.2468 2.37412 0.851768 -0.0448036 -0.522 0 255 0 255
-0.031704 -0.245716 2.38262 0.778091 0.0414926 -0.62678 0 255 0 255
-0.018318 -0.246962 2.38674 0.888839 -0.00534798 -0.458187 0 255 0 255
-0.015167 -0.244699 2.39749 -0.250525 -0.88287 -0.397213 0 255 0 255
-0.353492 0.074115 2.225 -0.0228308 -0.186147 0.982257 255 0 0 255
-0.347429 0.07412 2.225 -0.0299644 -0.362348 0.931561 255 0 0 255
-0.341364 0.074126 2.225 -0.0640943 -0.272618 0.959985 255 0 0 255
-0.335449 0.074164 2.226 -0.161655 -0.113151 0.980339 255 0 0 255
-0.329676 0.074236 2.228 -0.2547 -0.0837885 0.963383 255 0 0 255
-0.32389 0.074307 2.23 -0.220349 -0.0469093 0.974293 255 0 0 255
-0.281415 0.074374 2.231 0.802464 -0.4202 0.423655 255 0 0 255
-0.273842 0.073978 2.219 0.63027 -0.0433954 0.775162 255 0 0 255
-0.267056 0.073782 2.213 0.671118 0.0866681 0.736267 255 0 0 255
-0.260421 0.07362 2.208 0.685942 0.0972616 0.721127 255 0 0 255
-0.253351 0.073324 2.199 0.763225 0.0382975 0.644996 255 0 0 255
-0.24633 0.073028 2.19 0.695998 0.0152439 0.717882 255 0 0 255
-0.239685 0.072832 2.184 0.655746 0.116032 0.746012 255 0 0 255
-0.233073 0.072636 2.178 0.579473 0.0878284 0.810245 255 0 0 255
-0.226806 0.072539 2.175 0.526858 0.11192 0.842552 255 0 0 255
-0.220554 0.072443 2.172 0.461555 0.0650812 0.884721 255 0 0 255
-0.214317 0.072347 2.169 0.423019 0.076109 0.902919 255 0 0 255
-0.208 0.072217 2.165 0.39395 0.141608 0.908158 255 0 0 255
-0.201798 0.07212 2.162 0.245216 0.266964 0.931987 255 0 0 255
-0.195792 0.07209 2.161 0.235463 0.18531 0.954053 255 0 0 255
-0.189791 0.07206 2.16 0.374651 0.176021 0.910304 255 0 0 255
-0.183625 0.071963 2.157 0.393391 0.189379 0.899655 255 0 0 255
-0.177639 0.071932 2.156 0.194767 0.383149 0.902919 255 0 0 255
-0.171657 0.071902 2.155 0.177649 0.49071 0.853021 255 0 0 255
-0.165681 0.071872 2.154 0.195921 0.53865 0.819433 255 0 0 255
-0.159635 0.071808 2.152 0.167282 0.591384 0.788849 255 0 0 255
-0.153599 0.071744 2.15 0.099092 0.553762 0.826758 255 0 0 255
-0.14778 0.071779 2.151 0.0586513 0.542442 0.838044 255 0 0 255
-0.141823 0.071749 2.15 0.136768 0.484662 0.863943 255 0 0 255
-0.135934 0.071751 2.15 0.0700796 0.503423 0.861193 255 0 0 255
-0.129984 0.07172 2.149 -0.0246108 0.445242 0.895072 255 0 0 255
-0.124096 0.071722 2.149 -0.0837511 0.307646 0.947808 255 0 0 255
-0.118208 0.071724 2.149 0.0605791 0.254186 0.965256 255 0 0 255
-0.112267 0.071693 2.148 0.203437 0.157004 0.966418 255 0 0 255
-0.106332 0.071661 2.147 0.0793448 0.315918 0.945463 255 0 0 255
-0.100448 0.071663 2.147 -0.0263042 0.31886 0.947437 255 0 0 255
-0.094564 0.071665 2.147 -0.179519 0.391962 0.902296 255 0 0 255
-0.088761 0.071733 2.149 -0.259843 0.372866 0.89076 255 0 0 255
-0.082909 0.071768 2.15 -0.199025 0.286413 0.937207 255 0 0 255
-0.077016 0.071769 2.15 -0.00920697 0.409423 0.912298 255 0 0 255
-0.071089 0.071737 2.149 0.0595295 0.291597 0.954687 255 0 0 255
-0.065227 0.071772 2.15 -0.144801 0.107037 0.983654 255 0 0 255
-0.05936 0.071806 2.151 0.00092695 0.0462076 0.998932 255 0 0 255
-0.053488 0.071841 2.152 0.170454 -0.000439967 0.985366 255 0 0 255
-0.047543 0.071775 2.15 0.0631449 0.0879274 0.994124 255 0 0 255
-0.041628 0.071742 2.149 -0.183482 0.105371 0.977359 255 0 0 255
-0.035769 0.07181 2.151 -0.240279 0.423494 0.873453 255 0 0 255
-0.029898 0.071877 2.153 -0.378076 0.425848 0.822017 255 0 0 255
-0.024016 0.071944 2.155 -0.302695 0.544211 0.782439 255 0 0 255
-0.018115 0.071978 2.156 -0.355552 0.608881 0.709117 255 0 0 255
-0.012237 0.072179 2.162 -0.597254 0.463171 0.654798 255 0 0 255
-0.006328 0.072412 2.169 -0.571438 0.32717 0.752608 255 0 0 255
-0.000381 0.072579 2.174 -0.374215 0.0986923 0.922075 255 0 0 255
0.005583 0.072613 2.175 -0.331251 0.164084 0.929166 255 0 0 255
0.011553 0.072646 2.176 -0.324467 0.086516 0.941932 255 0 0 255
0.017529 0.072679 2.177 -0.37171 0.0520105 0.926891 255 0 0 255
0.023531 0.072779 2.18 -0.47439 -0.0683607 0.877657 255 0 0 255
0.029563 0.072912 2.184 -0.505417 -0.0662137 0.860331 255 0 0 255
0.035617 0.073045 2.188 -0.486137 -0.060859 0.871761 255 0 0 255
0.041674 0.073144 2.191 -0.246011 -0.0715126 0.966625 255 0 0 255
0.04766 0.07311 2.19 0.0101737 -0.0849121 0.996337 255 0 0 255
0.053665 0.073109 2.19 -0.0003249 -0.0851271 0.99637 255 0 0 255
0.059669 0.073108 2.19 -0.25844 0.037133 0.965313 255 0 0 255
0.065853 0.073308 2.196 -0.600893 0.204276 0.772787 255 0 0 255
0.126558 0.073591 2.205 0.94972 -0.0278203 0.311862 255 0 0 255
0.132058 0.073289 2.196 0.814192 -0.0604129 0.577443 255 0 0 255
0.137507 0.072986 2.187 0.839063 0.0012928 0.544033 255 0 0 255
0.142973 0.072717 2.179 0.702033 0.0374322 0.71116 255 0 0 255
0.148736 0.072614 2.176 0.606564 -0.0270666 0.794574 255 0 0 255
0.15434 0.072445 2.171 0.79796 -0.00656311 0.602674 255 0 0 255
0.159694 0.072175 2.163 0.883655 0.195787 0.42523 255 0 0 255
0.164238 0.071572 2.145 0.961668 0.153925 0.226939 255 0 0 255
-0.11477 -0.187981 2.37175 -0.0623825 0.0809554 -0.994764 255 255 0 255
-0.079161 -0.180599 2.38286 0.0722807 -0.0954399 -0.992808 255 255 0 255
-0.012323 -0.166958 2.40275 0.492236 -0.606054 -0.624821 255 255 0 255
0.005574 -0.164625 2.40226 0.133584 -0.694314 -0.707166 255 255 0 255
0.007615 -0.166942 2.39079 0.540606 0.827562 -0.151282 255 255 0 255
-0.00282 -0.172952 2.37055 0.823142 0.567196 -0.026942 255 255 0 255
-0.002421 -0.175772 2.35785 0.868593 -0.304525 -0.390909 255 255 0 255
0.005457 -0.176374 2.35044 0.162217 -0.986329 -0.0290069 255 255 0 255
5.7e-05 -0.180928 2.33359 -0.503835 0.761289 -0.408154 255 255 0 255
0.000475 -0.183757 2.32084 0.696626 -0.695671 -0.175368 255 255 0 255
-0.248277 -0.239937 2.30489 0.681639 0.430959 -0.591305 0 255 0 255
-0.251149 -0.235654 2.31932 0.695499 0.382124 -0.608492 0 255 0 255
-0.233021 -0.238964 2.31889 -0.337872 0.169025 -0.925891 0 255 0 255
-0.267018 -0.223476 2.35516 0.160388 -0.664766 -0.729631 0 255 0 255
-0.245516 -0.227991 2.3524 0.0229772 -0.59647 -0.802306 0 255 0 255
-0.234936 -0.228558 2.35736 -0.11678 -0.682888 -0.721129 0 255 0 255
-0.217595 -0.231527 2.3577 -0.0758447 -0.493417 -0.86648 0 255 0 255
-0.193475 -0.236884 2.35348 0.140027 -0.744303 -0.652997 0 255 0 255
-0.175234 -0.240112 2.35343 -0.00640636 -0.735793 -0.677176 0 255 0 255
-0.160348 -0.242122 2.35577 0.416995 -0.440023 -0.795295 0 255 0 255
-0.153906 -0.241126 2.36391 0.403094 0.248203 -0.880858 0 255 0 255
-0.142375 -0.241918 2.36865 0.441951 0.413141 -0.796237 0 255 0 255
-0.037704 -0.261991 2.36244 0.865478 0.0488018 -0.498565 0 255 0 255
-0.027153 -0.258952 2.38114 0.803001 0.0770731 -0.590973 0 255 0 255
-0.02598 -0.252671 2.40591 -0.120402 -0.912738 -0.390401 0 255 0 255
-0.00489 -0.256573 2.40519 -0.0521026 -0.973612 -0.222181 0 255 0 255
0.008277 -0.254375 2.42244 0.0569679 -0.816205 -0.574947 0 255 0 255
-0.357459 0.067626 2.212 -0.569483 0.4609 0.680633 255 0 0 255
-0.353021 0.067936 2.222 -0.496487 -0.108007 0.861298 255 0 0 255
-0.347278 0.068002 2.224 -0.0308566 -0.00141086 0.999523 255 0 0 255
-0.341216 0.068007 2.224 -0.0622762 -0.0882021 0.994154 255 0 0 255
-0.335304 0.068042 2.225 -0.176387 -0.194688 0.964875 255 0 0 255
-0.329681 0.068139 2.228 -0.327173 -0.143123 0.934063 255 0 0 255
-0.323605 0.068143 2.228 -0.300774 -0.12393 0.945609 255 0 0 255
-0.280663 0.068082 2.225 0.849908 -0.106733 0.516009 255 0 0 255
-0.273722 0.067872 2.218 0.576038 -0.0988804 0.81142 255 0 0 255
-0.267061 0.067723 2.213 0.659928 0.0034544 0.751321 255 0 0 255
-0.260071 0.067482 2.205 0.733712 -0.0858623 0.674014 255 0 0 255
-0.253125 0.067241 2.197 0.752059 -0.0332992 0.658254 255 0 0 255
-0.246333 0.06703 2.19 0.67626 0.00147055 0.736661 255 0 0 255
-0.240018 0.066942 2.187 0.604714 0.00831877 0.796399 255 0 0 255
-0.233398 0.066762 2.181 0.615921 -0.0138187 0.787687 255 0 0 255
-0.227018 0.066643 2.177 0.542402 0.0105298 0.840053 255 0 0 255
-0.220456 0.066463 2.171 0.478078 0.0552058 0.876581 255 0 0 255
-0.214321 0.066405 2.169 0.399685 0.0305008 0.916145 255 0 0 255
-0.208196 0.066347 2.167 0.333705 0.0751211 0.93968 255 0 0 255
-0.202268 0.06635 2.167 0.282874 0.170676 0.943849 255 0 0 255
-0.196158 0.066292 2.165 0.314885 0.14366 0.938195 255 0 0 255
-0.190058 0.066234 2.163 0.35242 0.13949 0.925388 255 0 0 255
-0.183883 0.066145 2.16 0.258796 0.136099 0.956296 255 0 0 255
-0.177889 0.066117 2.159 0.0736816 0.27761 0.957864 255 0 0 255
-0.171899 0.066089 2.158 0.114486 0.267821 0.956643 255 0 0 255
-0.165991 0.066091 2.158 0.170332 0.298336 0.939139 255 0 0 255
-0.159934 0.066033 2.156 0.217124 0.380676 0.898856 255 0 0 255
-0.153959 0.066005 2.155 0.163792 0.390475 0.905926 255 0 0 255
-0.14792 0.065946 2.153 0.195936 0.337724 0.920626 255 0 0 255
-0.141957 0.065917 2.152 0.191984 0.259202 0.94655 255 0 0 255
-0.135936 0.065858 2.15 0.162587 0.271043 0.948737 255 0 0 255
-0.129986 0.06583 2.149 0.122638 0.19585 0.972935 255 0 0 255
-0.124098 0.065832 2.149 0.0900688 0.0244304 0.995636 255 0 0 255
-0.11821 0.065834 2.149 0.0993279 -0.000420191 0.995055 255 0 0 255
-0.112269 0.065805 2.148 0.132985 -0.0282411 0.990716 255 0 0 255
-0.106334 0.065776 2.147 -0.00321543 -0.000358079 0.999995 255 0 0 255
-0.10045 0.065778 2.147 -0.0852249 0.0709539 0.993832 255 0 0 255
-0.094609 0.06581 2.148 -0.186825 0.113278 0.97584 255 0 0 255
-0.088845 0.065903 2.151 -0.284328 0.045112 0.957665 255 0 0 255
-0.083026 0.065966 2.153 -0.139634 0.0900398 0.986101 255 0 0 255
-0.077196 0.066028 2.155 0.0335415 0.0922499 0.995171 255 0 0 255
-0.071189 0.065938 2.152 0.129192 0.0351751 0.990996 255 0 0 255
-0.065289 0.065939 2.152 -0.0281639 0.0137312 0.999509 255 0 0 255
-0.059361 0.065909 2.151 -0.0282852 0.00299966 0.999595 255 0 0 255
-0.053439 0.065879 2.15 -0.0286973 0.0653296 0.997451 255 0 0 255
-0.047521 0.06585 2.149 -0.0601393 0.259676 0.963821 255 0 0 255
-0.041648 0.065881 2.15 -0.226292 0.469327 0.853536 255 0 0 255
-0.035819 0.066004 2.154 -0.342674 0.443121 0.828383 255 0 0 255
-0.029954 0.066097 2.157 -0.40614 0.444227 0.798569 255 0 0 255
-0.024095 0.06625 2.162 -0.350717 0.468378 0.810938 255 0 0 255
-0.018174 0.066281 2.163 -0.409639 0.42915 0.805001 255 0 0 255
-0.012265 0.066404 2.167 -0.437702 0.149334 0.886632 255 0 0 255
-0.006331 0.066496 2.17 -0.541035 0.014275 0.840879 255 0 0 255
-0.000381 0.066557 2.172 -0.344568 -0.125288 0.930363 255 0 0 255
0.005581 0.066619 2.174 -0.332464 -0.0180497 0.942943 255 0 0 255
0.011559 0.06671 2.177 -0.347636 0.00615035 0.937609 255 0 0 255
0.017545 0.066772 2.179 -0.299528 0.0534493 0.952589 255 0 0 255
0.023542 0.066832 2.181 -0.371543 -0.0628756 0.926284 255 0 0 255
0.02955 0.066893 2.183 -0.465818 -0.137165 0.874185 255 0 0 255
0.035601 0.067015 2.187 -0.477653 -0.169574 0.862028 255 0 0 255
0.041656 0.067107 2.19 -0.252627 -0.217118 0.942889 255 0 0 255
0.047682 0.067137 2.191 -0.111071 -0.0308301 0.993334 255 0 0 255
0.05369 0.067136 2.191 -0.165717 0.183776 0.968898 255 0 0 255
0.059697 0.067135 2.191 -0.425197 0.204602 0.881672 255 0 0 255
0.065974 0.06741 2.2 -0.805247 0.329237 0.493134 255 0 0 255
0.117403 0.065803 2.148 -0.0765688 0.996741 0.0253973 255 0 0 255
0.125756 0.067119 2.191 0.819683 0.074628 0.567935 255 0 0 255
0.13218 0.067331 2.198 0.819683 0.0746281 0.567935 255 0 0 255
0.137698 0.067084 2.19 0.739606 0.137857 0.65877 255 0 0 255
0.143107 0.066806 2.181 0.679141 0.133436 0.721777 255 0 0 255
0.148807 0.066681 2.177 0.575534 0.153226 0.803295 255 0 0 255
0.154627 0.066617 2.175 0.547907 0.150149 0.822954 255 0 0 255
0.160139 0.066431 2.169 0.7551 0.288684 0.588631 255 0 0 255
0.165006 0.066 2.155 0.940199 0.236819 0.24483 255 0 0 255
-0.16465 -0.205157 2.37932 -0.581615 -0.744311 -0.328216 255 255 0 255
-0.08481 -0.193799 2.38031 0.391529 -0.210576 -0.895747 255 255 0 255
-0.006309 -0.176516 2.40819 0.121897 -0.228391 -0.965908 255 255 0 255
0.010742 -0.174383 2.40711 -0.185817 0.348465 -0.918719 255 255 0 255
0.015279 -0.175959 2.3974 0.947698 -0.317115 -0.0361478 255 255 0 255
-0.001808 -0.183998 2.37252 -0.872818 -0.229852 -0.43053 255 255 0 255
-0.015527 -0.191063 2.34986 -0.844879 0.495762 -0.200996 255 255 0 255
-0.249603 -0.250627 2.3071 0.647353 0.539227 -0.538673 0 255 0 255
-0.229813 -0.254602 2.30546 -0.8182 -0.435627 -0.375204 0 255 0 255
-0.236031 -0.24907 2.32229 -0.846303 -0.383018 -0.370228 0 255 0 255
-0.26244 -0.236219 2.35322 -0.928297 0.0498778 -0.36848 0 255 0 255
-0.261978 -0.233163 2.36518 0.0238165 -0.535328 -0.844308 0 255 0 255
-0.235415 -0.239547 2.35899 -0.116886 -0.591535 -0.797762 0 255 0 255
-0.223982 -0.240432 2.36342 -0.0438085 -0.484412 -0.873742 0 255 0 255
-0.202411 -0.244946 2.36095 0.0120612 -0.507908 -0.861327 0 255 0 255
-0.164243 -0.25209 2.35978 -0.229272 0.0729478 -0.970625 0 255 0 255
-0.145962 -0.255331 2.35991 0.416393 0.269791 -0.868234 0 255 0 255
-0.134428 -0.256142 2.36468 0.443531 0.0713485 -0.893414 0 255 0 255
0.000859 -0.263567 2.42863 0.37241 -0.499832 -0.781972 0 255 0 255
-0.358433 0.061742 2.218 -0.653903 0.462261 0.598936 255 0 0 255
-0.353502 0.061941 2.225 -0.202659 0.451463 0.868971 255 0 0 255
-0.347595 0.061973 2.226 0.141347 0.372383 0.917252 255 0 0 255
-0.34122 0.061922 2.224 0.173338 0.251851 0.952116 255 0 0 255
-0.335007 0.061898 2.223 -0.145349 -0.033198 0.988823 255 0 0 255
-0.329241 0.061958 2.225 -0.268582 -0.113216 0.956581 255 0 0 255
-0.323609 0.062046 2.228 -0.417499 -0.0556782 0.90697 255 0 0 255
-0.279784 0.061795 2.218 0.639617 -0.110396 0.760725 255 0 0 255
-0.273479 0.061743 2.216 0.549664 -0.145809 0.822562 255 0 0 255
-0.267185 0.061691 2.214 0.585686 -0.122905 0.801166 255 0 0 255
-0.260193 0.061471 2.206 0.739159 -0.186087 0.647314 255 0 0 255
-0.253244 0.061252 2.198 0.729599 -0.111848 0.674667 255 0 0 255
-0.246337 0.061032 2.19 0.657272 -0.0605007 0.751221 255 0 0 255
-0.239802 0.060896 2.185 0.61451 -0.0691209 0.785875 255 0 0 255
-0.233294 0.06076 2.18 0.612949 -0.0528178 0.788355 255 0 0 255
-0.226813 0.060624 2.175 0.540397 -0.0396063 0.840478 255 0 0 255
-0.22056 0.060544 2.172 0.474418 -0.0123177 0.880213 255 0 0 255
-0.214324 0.060463 2.169 0.377072 0.00278861 0.92618 255 0 0 255
-0.208199 0.06041 2.167 0.217947 -0.0440693 0.974965 255 0 0 255
-0.202177 0.060385 2.166 0.219146 -0.0712223 0.973089 255 0 0 255
-0.195979 0.060304 2.163 0.317865 -0.0981011 0.943047 255 0 0 255
-0.189885 0.060251 2.161 0.347176 0.0415726 0.936878 255 0 0 255
-0.183801 0.060198 2.159 0.177606 0.0556711 0.982526 255 0 0 255
-0.177974 0.060228 2.16 0.0862348 0.0699939 0.993813 255 0 0 255
-0.171981 0.060203 2.159 0.0889251 0.084485 0.992449 255 0 0 255
-0.166071 0.060205 2.159 0.0748421 0.0846136 0.993599 255 0 0 255
-0.160085 0.06018 2.158 0.137542 0.112193 0.984121 255 0 0 255
-0.154176 0.060182 2.158 0.223022 0.164679 0.960803 255 0 0 255
-0.148128 0.060129 2.156 0.26336 0.162183 0.950967 255 0 0 255
-0.142091 0.060075 2.154 0.195101 0.16711 0.966442 255 0 0 255
-0.136128 0.060049 2.153 0.222955 0.160244 0.961568 255 0 0 255
-0.130169 0.060023 2.152 0.229563 0.0966117 0.968487 255 0 0 255
-0.124158 0.059969 2.15 0.174396 0.0133866 0.984585 255 0 0 255
-0.118212 0.059943 2.149 0.167834 -0.093707 0.981351 255 0 0 255
-0.112219 0.059889 2.147 0.0752608 -0.0865492 0.993401 255 0 0 255
-0.106335 0.05989 2.147 -0.0567907 -0.010963 0.998326 255 0 0 255
-0.100498 0.05992 2.148 -0.134521 0.0851752 0.987243 255 0 0 255
-0.094655 0.059949 2.149 -0.199488 0.0528764 0.978473 255 0 0 255
-0.088806 0.059978 2.15 -0.138658 -0.118211 0.98326 255 0 0 255
-0.082951 0.060007 2.151 -0.17502 -0.166989 0.9703 255 0 0 255
-0.077054 0.060009 2.151 -0.040468 -0.282937 0.958285 255 0 0 255
-0.071124 0.059982 2.15 0.0959079 -0.201716 0.974737 255 0 0 255
-0.065229 0.059983 2.15 0.00103059 0.0138227 0.999904 255 0 0 255
-0.059335 0.059984 2.15 -0.0753496 0.116933 0.990277 255 0 0 255
-0.053464 0.060012 2.151 -0.218215 0.419132 0.881312 255 0 0 255
-0.047633 0.060097 2.154 -0.308706 0.494498 0.81251 255 0 0 255
-0.041765 0.060153 2.156 -0.237804 0.628838 0.740278 255 0 0 255
-0.035886 0.06021 2.158 -0.285224 0.471794 0.834301 255 0 0 255
-0.029982 0.060238 2.159 -0.405851 0.27129 0.872747 255 0 0 255
-0.024106 0.06035 2.163 -0.396894 0.185616 0.8989 255 0 0 255
-0.018183 0.060378 2.164 -0.325063 0.0905295 0.94135 255 0 0 255
